# .PCD v0.7 - Point Cloud Data file format
VERSION 0.7
FIELDS x y z
SIZE 4 4 4
TYPE F F F
COUNT 1 1 1
WIDTH 2902
HEIGHT 1
VIEWPOINT 0 0 0 1 0 0 0
POINTS 2902
DATA ascii
-8.24 19.98 3.42
-7.77 18.84 -1.78
-8.24 19.97 4.2
-7.85 19.03 -1.08
-8.24 19.98 4.99
-7.86 19.05 5.52
-8.33 20.39 0.38
-3.83 9.37 -1.97
-8.31 20.34 1.92
-5.01 12.27 -2.1
-9.54 23.35 3.1
-6.44 15.78 -2.09
-7.83 19.17 -1.81
-8.52 20.85 4.38
-8.17 20.01 -1.13
-8.82 21.59 5.39
-8.67 21.22 -0.4
-7.81 19.13 5.54
-8.26 20.43 0.38
-3.08 7.63 -1.9
-3.79 9.37 -1.97
-8.23 20.35 1.92
-4.96 12.28 -2.1
-9.57 23.68 3.14
-6.39 15.8 -2.09
-8.05 19.9 3.4
-7.73 19.11 -1.8
-7.96 19.69 4.13
-8.09 20.01 -1.13
-9.55 23.62 5.88
-9.34 23.1 6.68
-3.04 7.61 -1.89
-7.4 18.48 1.04
-3.76 9.38 -1.96
-8.66 21.63 2.04
-4.93 12.31 -2.1
-6.33 15.81 -2.09
-9.52 23.79 4.06
-7.89 19.72 -1.86
-8.3 20.73 4.34
-8.09 20.21 -1.14
-11.25 28.1 6.99
-9.27 23.16 6.68
-3.02 7.63 -1.89
-3.72 9.4 -1.97
-4.88 12.32 -2.1
-9.36 23.62 3.12
-6.27 15.82 -2.09
-7.89 19.91 3.39
-7.8 19.68 -1.85
-8 20.19 -1.14
-7.73 19.5 4.84
-44.8 113.1 -2.12
-11.29 28.5 8.21
-3 7.66 -1.9
-7.5 19.13 1.08
-3.69 9.4 -1.96
-8.32 21.21 1.99
-4.84 12.33 -2.1
-5.93 15.11 -1.99
-7.72 19.69 -1.85
-7.93 20.22 -1.14
-8.8 22.43 5.56
-44.41 113.23 -2.12
-7.9 20.35 0.38
-3.01 7.75 -1.92
-3.65 9.41 -1.96
-8.41 21.67 2.03
-4.79 12.34 -2.1
-6.15 15.85 -2.09
-7.59 19.56 -1.84
-7.74 19.96 -1.12
-8.68 22.37 5.54
-5.24 13.5 -0.25
-7.91 20.37 5.86
-7.84 20.42 0.38
-3.62 9.43 -1.96
-8.2 21.34 2
-4.74 12.33 -2.09
-6.1 15.87 -2.09
-6.84 17.81 -1.67
-7.64 19.87 -1.12
-8.58 22.34 5.52
-5.18 13.49 -0.25
-7.86 20.47 5.88
-3.59 9.44 -1.96
-8.15 21.44 2.01
-4.69 12.35 -2.09
-10.05 26.45 3.47
-6.04 15.89 -2.09
-9.77 25.7 4.35
-6.78 17.83 -1.67
-7.45 19.61 4.08
-7.5 19.73 -1.11
-7.72 20.31 5.02
-5.15 13.54 -0.25
-7.8 20.53 5.89
-5.1 13.55 0.25
-5.1 13.55 0.76
-3.56 9.45 -1.96
-8.22 21.84 2.04
-4.65 12.37 -2.09
-5.09 13.54 -1.78
-8.54 22.7 3.84
-5.09 13.53 -1.26
-7.37 19.58 4.07
-5.09 13.53 -0.76
-8.97 23.84 5.88
-5.1 13.55 -0.25
-3.52 9.45 -1.96
-8.14 21.86 2.04
-4.6 12.37 -2.09
-8.47 22.77 3.85
-8.91 23.93 4.96
-9.6 25.81 6.36
-5.04 13.54 -0.25
-8.68 23.34 6.67
-3.48 9.46 -1.96
-8.07 21.9 2.04
-4.55 12.36 -2.09
-6.93 18.81 2.46
-5.86 15.92 -2.08
-7.65 20.77 4.3
-7.36 19.98 -1.12
-9.46 25.69 6.32
-4.99 13.54 -0.25
-3.45 9.48 -1.96
-4.5 12.35 -2.08
-6.86 18.84 2.46
-5.8 15.93 -2.08
-7.23 19.86 -1.85
-9.51 26.11 5.4
-7.25 19.9 -1.11
-3.42 9.49 -1.96
-4.46 12.37 -2.08
-5.74 15.94 -2.08
-7.39 20.52 3.45
-7.27 20.17 -1.88
-7.13 19.79 -1.1
-8.49 23.57 6.71
-6.64 18.62 1.04
-3.38 9.49 -1.96
-4.4 12.34 -2.08
-5.68 15.94 -2.08
-7.32 20.53 3.45
-7.4 20.75 -1.93
-8.56 24.02 4.96
-7.09 19.88 -1.11
-9.28 26.04 6.38
-7.95 22.3 -0.41
-3.35 9.49 -1.96
-6.75 19.15 1.78
-4.37 12.38 -2.08
-6.97 19.77 2.57
-5.63 15.97 -2.08
-6.58 18.67 3.13
-7.46 21.16 -1.96
-8.49 24.06 4.96
-7.41 21.01 -1.17
-7.5 21.26 -0.39
-7.12 20.43 0.38
-3.31 9.51 -1.96
-4.32 12.4 -2.08
-6.91 19.83 2.58
-5.57 15.98 -2.08
-10.68 30.65 5.14
-6.96 19.98 -1.85
-8.87 25.45 5.24
-7.38 21.19 -1.18
-10.61 30.46 7.45
-7.4 21.23 -0.39
-6.92 20.09 1.11
-3.28 9.52 -1.96
-4.29 12.44 -2.08
-6.79 19.69 2.56
-5.51 15.99 -2.08
-8.1 23.5 3.94
-7.18 20.83 -1.93
-9.08 26.35 5.42
-7.35 21.33 -1.18
-7.41 21.49 -0.4
-9.73 28.25 8.01
-6.73 19.74 1.09
-3.25 9.53 -1.96
-6.89 20.22 1.87
-4.23 12.41 -2.08
-6.7 19.67 2.55
-5.46 16.01 -2.08
-8.02 23.54 3.94
-6.44 18.89 -1.75
-7.31 21.45 -1.19
-9.84 28.87 7.04
-10.34 30.33 8.59
-3.21 9.54 -1.96
-6.85 20.31 1.88
-4.19 12.44 -2.08
-10.59 31.43 4.07
-5.4 16.01 -2.07
-7.9 23.45 3.92
-6.41 19.02 -1.76
-7.28 21.61 -1.2
-10.43 30.95 7.54
-3.18 9.54 -1.95
-6.45 19.38 1.79
-4.15 12.45 -2.08
-6.47 19.44 2.52
-5.34 16.03 -2.07
-10.12 30.4 5.07
-6.29 18.9 -1.74
-6.46 19.41 -1.07
-9.95 29.87 7.27
-3.14 9.55 -1.95
-6.35 19.27 1.78
-4.11 12.49 -2.08
-6.38 19.37 2.5
-5.28 16.04 -2.07
-10.03 30.47 5.08
-9.23 28.02 -2.58
-6.2 18.83 -1.04
-9.52 28.9 7.03
-8.52 25.88 7.3
-6.21 19.1 0.35
-6.22 19.13 1.05
-3.11 9.56 -1.95
-6.34 19.48 1.79
-4.05 12.46 -2.08
-6.31 19.39 2.5
-5.22 16.05 -2.07
-9.13 28.05 4.67
-6.49 19.96 -1.84
-7.1 21.84 -1.2
-9.42 28.95 7.03
-6.22 19.12 -0.35
-8.38 25.75 7.26
-6.16 19.15 0.35
-6.14 19.08 1.05
-3.08 9.57 -1.95
-6.28 19.54 1.8
-4.01 12.46 -2.07
-6.51 20.25 2.61
-5.16 16.05 -2.07
-9.04 28.1 4.67
-6.17 19.18 -1.76
-7.08 22.01 4.49
-6.14 19.1 -1.05
-10.01 31.12 7.55
-6.17 19.2 -0.35
-6.45 20.31 1.12
-3.04 9.58 -1.95
-3.96 12.46 -2.07
-7.49 23.6 3.04
-5.1 16.06 -2.07
-9.88 31.11 5.17
-6.1 19.19 -1.76
-7 22.03 4.49
-7.3 22.97 5.57
-6.88 21.67 6.09
-6.45 20.54 1.13
-3.01 9.58 -1.95
-3.91 12.47 -2.07
-6.35 20.22 2.6
-5.05 16.08 -2.07
-14.48 46.13 7.66
-6.15 19.59 -1.8
-7.12 22.69 4.62
-6.82 21.74 6.11
-6.39 20.6 1.13
-2.97 9.58 -1.95
-7.14 23.05 2.11
-3.87 12.48 -2.07
-7.21 23.27 2.99
-4.99 16.1 -2.07
-7.8 25.15 4.17
-5.92 19.11 -1.75
-7.09 22.89 6.42
-2.94 9.6 -1.95
-7.07 23.08 2.11
-3.82 12.46 -2.06
-7.02 22.93 2.94
-4.94 16.12 -2.07
-5.73 18.72 3.1
-5.88 19.2 -1.76
-7.02 22.92 4.66
-5.97 19.51 -1.07
-6.69 21.84 6.12
-6.98 23.08 0.42
-6.95 22.99 1.26
-2.91 9.61 -1.95
-5.91 19.54 1.79
-3.77 12.46 -2.06
-6.25 20.66 2.65
-4.87 16.12 -2.07
-5.67 18.76 3.1
-5.93 19.62 -1.79
-6.94 22.95 4.66
-5.84 19.32 -1.06
-7.25 23.97 5.78
-6.56 21.69 6.07
-6.9 23.09 0.42
-6.89 23.08 1.26
-2.87 9.61 -1.95
-7.16 23.97 2.19
-3.72 12.47 -2.06
-4.81 16.12 -2.07
-6.88 23.04 3.81
-5.98 20.02 -1.83
-9.31 31.18 6.32
-5.67 19 -1.04
-6.51 21.8 5.25
-7.77 26.03 7.28
-6.85 23.23 1.27
-2.83 9.62 -1.95
-5.73 19.45 1.77
-3.68 12.48 -2.06
-9.14 31.01 3.97
-4.75 16.13 -2.06
-6.93 23.52 3.88
-5.66 19.2 -1.75
-6.8 23.08 4.68
-5.72 19.42 -1.06
-6.43 21.83 5.25
-6.93 23.82 1.3
-2.8 9.64 -1.95
-5.64 19.37 1.76
-3.64 12.49 -2.06
-6.72 23.09 2.95
-4.7 16.15 -2.06
-6.86 23.59 3.89
-5.58 19.17 -1.75
-6.35 21.82 4.42
-5.69 19.55 -1.07
-9.22 31.69 7.62
-7.59 26.09 7.28
-6.84 23.84 0.43
-6.85 23.86 1.3
-2.77 9.64 -1.95
-6.65 23.15 2.11
-3.59 12.5 -2.06
-6.64 23.12 2.95
-4.64 16.17 -2.07
-6.28 21.86 3.6
-5.51 19.21 -1.75
-6.26 21.82 4.41
-5.54 19.31 -1.05
-6.64 23.11 5.55
-8.41 29.27 8.16
-6.67 23.54 1.28
-2.73 9.64 -1.95
-3.54 12.5 -2.06
-6.17 21.78 2.78
-4.58 16.17 -2.06
-6.18 21.8 3.59
-5.45 19.23 -1.75
-5.49 19.35 -1.05
-8.6 30.34 7.28
-8.25 29.09 8.1
-5.49 19.65 1.07
-2.7 9.65 -1.95
-6.46 23.12 2.1
-3.5 12.51 -2.06
-6.08 21.75 2.77
-4.53 16.2 -2.07
-6.09 21.79 3.58
-5.32 19.04 -1.73
-5.46 19.54 -1.06
-6.48 23.19 5.56
-6.61 23.64 -0.43
-7.08 25.33 7.05
-6.35 23 0.42
-5.45 19.74 1.07
-2.66 9.65 -1.95
-5.74 20.81 1.89
-3.45 12.52 -2.06
-4.47 16.21 -2.06
-6.51 23.6 3.88
-5.22 18.92 -1.72
-6.5 23.57 4.75
-6.59 23.87 -1.3
-6.19 22.44 5.38
-5.87 21.29 -0.39
-7 25.38 7.05
-6.27 23.03 0.42
-6.28 23.08 1.25
-2.63 9.66 -1.95
-5.91 21.71 1.97
-3.41 12.52 -2.05
-7.77 28.57 3.64
-4.41 16.22 -2.06
-6.03 22.16 3.64
-5.13 18.87 -1.71
-6.52 23.97 -1.3
-10.95 40.23 9.63
-7.46 27.43 -0.5
-6.92 25.43 7.06
-6.17 22.98 0.42
-5.31 19.79 1.07
-2.6 9.67 -1.95
-5.5 20.48 1.85
-3.36 12.51 -2.05
-10.4 38.74 4.93
-4.35 16.22 -2.06
-5.94 22.12 3.63
-5.07 18.9 -1.71
-8 29.8 6
-7.21 26.86 -1.46
-6.02 22.42 5.36
-7.44 27.71 -0.5
-6.92 25.78 7.15
-5.67 21.38 0.39
-5.22 19.7 1.07
-2.56 9.67 -1.94
-5.42 20.45 1.85
-3.32 12.52 -2.05
-5.34 20.16 2.56
-4.3 16.23 -2.06
-6.3 23.79 3.9
-5 18.89 -1.71
-5.48 20.7 4.16
-5.23 19.73 -1.07
-8.55 32.25 7.7
-6.12 23.1 -0.42
-7.02 26.49 7.34
-5.6 21.42 0.39
-6.2 23.73 1.29
-2.53 9.68 -1.95
-5.97 22.86 2.07
-3.27 12.51 -2.05
-7.66 29.33 3.72
-4.24 16.24 -2.06
-6.25 23.92 3.92
-4.95 18.95 -1.71
-6.17 23.62 4.75
-5.14 19.65 -1.06
-5.41 20.72 4.94
-5.56 21.29 -0.38
-5.4 20.67 5.73
-5.91 22.95 0.41
-7.34 28.54 1.54
-2.49 9.68 -1.94
-5.92 22.99 2.08
-3.22 12.53 -2.05
-6.51 25.31 3.21
-4.18 16.25 -2.06
-5.19 20.18 3.3
-5.35 20.79 4.17
-5.02 19.5 -1.06
-5.34 20.75 4.95
-5.48 21.31 -0.38
-7.96 30.93 8.56
-5.93 23.37 0.42
-5.27 20.78 1.12
-2.46 9.68 -1.94
-5.15 20.3 1.83
-3.18 12.53 -2.05
-6.43 25.34 3.21
-4.12 16.26 -2.06
-5.29 20.87 3.41
-4.73 18.64 -1.68
-5.37 21.17 -1.14
-6.93 27.34 6.51
-6.69 26.4 -0.48
-4.95 19.81 0.36
-5.18 20.74 1.12
-2.42 9.69 -1.94
-5.21 20.86 1.88
-3.13 12.53 -2.04
-5.23 20.91 2.65
-4.06 16.26 -2.06
-4.84 19.37 -1.75
-5.14 20.57 4.12
-4.82 19.27 -1.04
-6.85 27.4 6.52
-5.19 20.77 -0.37
-6.14 24.56 6.78
-6.35 25.8 0.46
-2.39 9.7 -1.94
-5.14 20.89 1.88
-3.08 12.53 -2.04
-4.96 20.13 2.55
-4 16.24 -2.05
-5.51 22.37 3.65
-4.74 19.24 -1.73
-9.87 40.09 8.02
-4.75 19.31 -1.04
-5.12 20.78 -0.37
-6.51 26.46 7.3
-6.22 25.67 0.46
-5.65 23.28 1.26
-2.35 9.7 -1.94
-4.85 20 1.8
-3.04 12.54 -2.04
-7.2 29.69 3.75
-3.94 16.25 -2.05
-4.93 20.33 3.31
-4.71 19.41 -1.75
-7.73 31.88 6.38
-4.84 19.97 -1.08
-6.17 25.45 6.04
-5.69 23.48 -0.42
-6.41 26.43 7.29
-4.88 20.46 0.37
-6.53 27.35 1.47
-2.32 9.71 -1.94
-4.89 20.49 1.84
-2.99 12.54 -2.04
-4.88 20.45 2.58
-3.89 16.29 -2.06
-7.52 31.51 5.13
-4.75 19.91 -1.79
-6.06 25.38 -1.37
-5.63 23.59 -0.42
-6.31 26.41 7.27
-6.13 26.05 0.47
-6.48 27.53 1.48
-2.28 9.71 -1.94
-4.82 20.5 1.84
-2.95 12.55 -2.04
-4.84 20.59 2.6
-3.83 16.3 -2.06
-7.47 31.75 5.17
-4.65 19.76 -1.78
-7.21 30.63 6.12
-5.67 24.09 -1.3
-6.02 25.61 6.07
-5.56 23.63 -0.42
-6.05 26.14 0.47
-6.82 29.46 1.58
-2.25 9.72 -1.94
-7.24 31.28 2.81
-2.9 12.54 -2.04
-4.7 20.3 2.56
-3.77 16.3 -2.05
-7.36 31.77 5.16
-4.55 19.63 -1.76
-7.09 30.6 6.11
-5.54 23.93 -1.29
-5.93 25.61 6.07
-5.48 23.66 -0.42
-7.28 31.44 8.65
-5.97 26.2 0.47
-6.71 29.46 1.58
-2.22 9.73 -1.94
-4.71 20.7 1.86
-2.86 12.54 -2.04
-5.35 23.51 2.96
-3.72 16.32 -2.06
-7.66 33.63 5.46
-4.5 19.76 -1.77
-7.49 32.9 6.56
-5.49 24.1 -1.3
-6.26 27.49 6.51
-6.12 26.89 -0.48
-5.88 25.84 7.1
-5.86 26.16 1.41
-2.18 9.73 -1.94
-9.86 43.99 3.94
-2.81 12.55 -2.04
-5.28 23.57 2.97
-3.66 16.31 -2.05
-6.88 30.72 4.99
-4.44 19.82 -1.78
-4.67 20.82 -1.12
-8.96 39.99 9.46
-5.36 23.91 -0.43
-5.77 25.77 7.08
-6.46 29.31 0.52
-1.75 7.93 -1.88
-6.93 31.42 1.69
-2.14 9.72 -1.94
-5.82 26.4 2.37
-2.77 12.55 -2.04
-6.48 29.42 3.7
-3.6 16.32 -2.05
-5.57 25.29 4.1
-4.52 20.53 -1.84
-5.62 25.5 5.08
-4.61 20.91 -1.12
-7 31.76 7.51
-5.28 23.97 -0.43
-5.3 24.47 0.44
-1.72 7.92 -1.87
-6.8 31.36 1.68
-2.11 9.73 -1.94
-2.72 12.54 -2.03
-7.22 33.31 4.18
-3.54 16.34 -2.05
-7.23 33.37 5.41
-4.28 19.76 -1.77
-4.53 20.9 -1.12
-5.82 26.85 -0.48
-6.62 30.52 8.37
-7 32.85 0.59
-1.69 7.92 -1.87
-4.34 20.34 1.09
-2.07 9.73 -1.93
-6.81 31.96 2.86
-2.68 12.55 -2.03
-3.48 16.35 -2.05
-6.75 31.69 5.13
-4.25 19.94 -1.78
-5.44 25.51 5.07
-5.42 25.42 -1.36
-6.24 29.28 -0.52
-6.67 31.3 8.58
-4.29 20.46 0.36
-1.66 7.92 -1.87
-4.28 20.43 1.09
-2.04 9.74 -1.93
-5.57 26.58 2.38
-2.63 12.56 -2.03
-6.84 32.66 4.1
-3.43 16.37 -2.05
-5.32 25.41 4.11
-4.21 20.12 -1.8
-5.67 27.06 5.37
-6.09 29.08 -1.56
-8.57 40.93 9.65
-5.49 26.21 -0.47
-6.46 31.34 0.56
-1.63 7.92 -1.87
-2.01 9.74 -1.93
-6.86 33.31 2.98
-2.59 12.57 -2.03
-5.21 25.31 3.17
-3.37 16.36 -2.05
-6.84 33.2 5.37
-4.75 23.05 -2.06
-8.4 40.75 8.09
-4.21 20.43 -1.09
-8.31 40.34 9.51
-5 24.28 -0.43
-6.41 31.11 8.51
-6.33 31.3 0.56
-1.6 7.93 -1.87
-8.48 41.93 2.24
-1.97 9.74 -1.93
-8.12 40.13 3.58
-2.55 12.58 -2.03
-6.24 30.85 3.86
-3.31 16.37 -2.05
-5.94 29.36 4.74
-4.66 23.05 -2.06
-4.7 23.21 -1.24
-8.36 41.31 9.73
-4.93 24.37 -0.43
-4.1 20.61 0.37
-1.58 7.94 -1.87
-4.13 20.76 1.11
-1.94 9.74 -1.93
-4.3 21.63 1.93
-2.5 12.59 -2.03
-6.13 30.85 3.86
-3.26 16.38 -2.05
-5.09 25.6 4.13
-4.65 23.41 -2.09
-4.07 20.47 -1.09
-4.23 21.27 -0.38
-4.96 24.95 6.82
-4.02 20.59 0.37
-1.55 7.93 -1.87
-4.08 20.91 1.12
-1.9 9.75 -1.93
-4.47 22.91 2.04
-2.45 12.57 -2.03
-3.2 16.42 -2.05
-5.72 29.31 4.73
-4.62 23.66 -2.11
-7.59 38.91 7.71
-4.02 20.61 -1.1
-8.71 44.62 10.5
-4.63 23.73 -0.42
-4.92 25.23 6.89
-3.98 20.82 0.37
-1.52 7.93 -1.86
-4 20.89 1.11
-1.87 9.75 -1.93
-4.17 21.79 1.94
-2.41 12.59 -2.03
-4.23 22.13 2.77
-3.12 16.33 -2.04
-4.22 22.06 -1.97
-4.58 23.94 -1.28
-4.83 25.24 5.93
-5.41 28.28 -0.5
-3.91 20.83 0.37
-1.49 7.93 -1.86
-3.93 20.95 1.12
-1.83 9.75 -1.93
-4.28 22.83 2.03
-2.36 12.59 -2.03
-3.79 20.22 2.53
-3.07 16.36 -2.04
-8.66 46.13 7.43
-3.76 20.01 -1.78
-4.72 25.16 4.98
-3.88 20.7 -1.1
-4.8 25.59 6.01
-4.07 21.69 -0.39
-4.7 25.52 0.45
-1.46 7.94 -1.86
-3.86 20.95 1.12
-1.8 9.74 -1.93
-4.65 25.23 2.24
-2.32 12.6 -2.03
-4.64 25.2 3.15
-3.02 16.38 -2.05
-4.64 25.17 4.05
-3.67 19.92 -1.77
-3.81 20.66 4.08
-3.82 20.72 -1.1
-4.75 25.76 6.05
-4 21.72 -0.39
-6.15 33.38 9.09
-4.61 25.49 0.45
-1.44 7.95 -1.86
-3.79 20.98 1.12
-1.76 9.74 -1.92
-4.56 25.22 2.24
-2.27 12.59 -2.03
-4.6 25.48 3.18
-2.97 16.45 -2.05
-4.57 25.28 4.07
-3.98 22.03 -1.96
-3.72 20.62 4.07
-3.75 20.75 -1.11
-4.65 25.73 6.04
-4.59 25.41 -0.45
-4.66 25.79 7.02
-4.48 25.31 0.45
-1.41 7.95 -1.86
-3.72 21.02 1.12
-1.73 9.75 -1.92
-4.52 25.53 2.27
-2.23 12.6 -2.03
-3.81 21.52 2.68
-2.92 16.47 -2.05
-4.52 25.54 4.11
-3.59 20.28 -1.8
-4.53 25.59 5.05
-4.47 25.25 -1.34
-4.06 22.95 5.38
-4.49 25.35 -0.45
-3.49 20.15 0.36
-1.38 7.94 -1.86
-3.65 21.06 1.12
-1.69 9.76 -1.92
-3.66 21.11 1.87
-2.18 12.59 -2.02
-3.71 21.42 2.67
-2.86 16.47 -2.05
-4.75 27.36 4.4
-3.58 20.61 -1.83
-6.24 35.95 7.09
-3.62 20.89 -1.11
-3.99 23.01 5.39
-4.38 25.26 -0.45
-3.64 20.98 5.7
-3.4 20 0.35
-1.35 7.94 -1.86
-3.68 21.69 1.15
-1.66 9.76 -1.92
-3.54 20.84 1.85
-2.14 12.61 -2.03
-2.79 16.4 -2.04
-3.38 19.9 3.2
-4 23.54 -2.09
-4.04 23.78 4.69
-3.56 20.94 -1.11
-3.6 21.2 4.97
-4.14 24.38 -0.43
-4.9 28.84 7.84
-3.33 20.05 0.35
-1.32 7.95 -1.86
-3.52 21.17 1.12
-1.62 9.76 -1.92
-3.64 21.88 1.94
-2.1 12.61 -2.02
-2.74 16.47 -2.05
-3.28 19.75 3.17
-3.44 20.7 -1.84
-3.47 20.86 4.11
-3.48 20.94 -1.11
-4.47 26.9 -0.48
-5.62 33.81 9.18
-3.83 23.55 0.42
-1.29 7.96 -1.86
-3.33 20.47 1.09
-1.58 9.75 -1.92
-2.05 12.61 -2.02
-3.45 21.24 2.64
-2.68 16.5 -2.05
-6.4 39.36 6.32
-3.36 20.7 -1.83
-3.4 20.95 4.13
-3.42 21.02 -1.12
-3.71 22.8 5.33
-3.6 22.14 -0.39
-3.4 20.93 5.68
-3.71 23.37 0.41
-1.26 7.96 -1.86
-3.28 20.66 1.1
-1.55 9.76 -1.92
-3.24 20.4 1.81
-2 12.6 -2.02
-3.37 21.21 2.64
-2.61 16.42 -2.04
-3.74 23.52 3.77
-3.27 20.59 -1.82
-3.5 22.04 4.34
-3.29 20.73 -1.1
-3.56 22.44 5.24
-3.23 20.32 -0.36
-3.32 20.91 5.67
-3.79 24.37 0.43
-1.24 7.96 -1.86
-3.22 20.7 1.1
-1.52 9.77 -1.92
-3.17 20.43 1.81
-1.96 12.59 -2.02
-3.31 21.31 2.65
-2.55 16.43 -2.04
-3.25 20.92 3.35
-3.07 19.77 -1.75
-3.79 24.38 4.8
-3.27 21.04 -1.12
-3.47 22.35 5.22
-3.15 20.27 -0.36
-3.25 20.91 5.67
-3.23 21.31 0.38
-1.21 7.96 -1.86
-3.24 21.37 1.13
-1.48 9.78 -1.92
-3.08 20.29 1.8
-1.91 12.6 -2.02
-5.5 36.25 4.5
-2.49 16.43 -2.04
-5.89 38.82 6.22
-3.2 21.08 -1.86
-5.87 38.72 7.61
-3.2 21.11 -1.12
-3.47 22.88 5.34
-3.08 20.32 -0.36
-3.14 21.18 0.37
-1.18 7.97 -1.86
-3.14 21.16 1.12
-1.45 9.76 -1.92
-2.98 20.13 1.78
-1.87 12.6 -2.02
-3.11 21.01 2.61
-2.44 16.45 -2.04
-2.95 19.88 3.18
-5.73 38.65 7.6
-3.12 21.03 -1.11
-3.4 22.92 5.35
-3.03 20.47 -0.36
-4.27 28.81 7.8
-3.04 21.02 0.37
-1.15 7.98 -1.86
-3.07 21.26 1.13
-1.41 9.77 -1.92
-5.24 36.23 3.2
-1.82 12.61 -2.02
-3.33 23.02 2.86
-2.38 16.47 -2.04
-2.81 19.42 3.11
-3.05 21.1 -1.87
-5.35 37 7.27
-3.03 20.99 -1.11
-4.33 29.93 6.98
-3.11 21.54 -0.38
-4.21 29.14 7.89
-3.02 21.43 0.38
-1.13 7.98 -1.86
-3.02 21.39 1.13
-1.38 9.77 -1.92
-5.11 36.25 3.2
-1.78 12.6 -2.02
-2.99 21.17 2.63
-2.33 16.5 -2.05
-2.9 20.59 3.29
-3.04 21.52 -1.9
-3.22 22.85 4.49
-2.92 20.68 -1.09
-3.3 23.39 5.45
-3.05 21.63 -0.38
-3.04 21.54 5.83
-2.86 20.78 0.37
-1.1 7.97 -1.86
-3.01 21.87 1.16
-1.34 9.77 -1.92
-2.94 21.37 1.89
-1.73 12.6 -2.01
-2.89 21.03 2.61
-2.27 16.54 -2.05
-2.84 20.65 3.3
-2.79 20.28 -1.79
-3.28 23.88 4.69
-2.81 20.45 -1.08
-4.04 29.41 6.85
-2.94 21.39 -0.38
-3.2 23.25 6.29
-2.91 21.71 0.38
-1.07 7.98 -1.86
-2.85 21.3 1.13
-1.31 9.78 -1.92
-2.7 20.18 1.78
-1.69 12.6 -2.01
-2.82 21.04 2.61
-2.23 16.61 -2.06
-5.56 41.52 6.64
-2.73 20.39 -1.8
-5.61 41.89 8.22
-2.77 20.69 -1.09
-3.96 29.54 6.88
-2.72 20.3 -0.36
-3.17 23.69 6.4
-2.84 21.82 0.38
-1.04 7.98 -1.86
-2.71 20.76 1.1
-1.27 9.76 -1.91
-2.63 20.15 1.78
-1.64 12.6 -2.01
-3.57 27.4 3.39
-2.16 16.57 -2.05
-2.73 20.98 -1.85
-2.68 20.58 4.03
-2.75 21.12 -1.12
-3.05 23.4 5.45
-2.65 20.31 -0.36
-3.09 23.69 6.4
-4.67 36.74 0.65
-1.02 7.98 -1.86
-2.64 20.78 1.1
-1.24 9.76 -1.91
-2.72 21.37 1.88
-1.6 12.6 -2.01
-3.05 24 2.97
-2.11 16.62 -2.06
-2.94 23.08 3.69
-2.6 20.42 -1.8
-2.61 20.55 4.03
-2.7 21.26 -1.12
-3.51 27.57 -0.49
-2.95 23.22 6.27
-4.32 34.98 0.62
-0.99 7.99 -1.86
-2.57 20.8 1.1
-1.21 9.77 -1.91
-2.5 20.19 1.78
-1.56 12.59 -2.01
-2.59 20.99 2.6
-2.06 16.68 -2.06
-2.54 20.52 3.28
-2.57 20.76 -1.83
-2.9 23.44 4.59
-2.57 20.81 -1.1
-3.7 29.93 6.96
-2.52 20.43 -0.36
-3 24.29 6.56
-3.52 29.36 0.52
-0.96 7.97 -1.85
-2.48 20.73 1.09
-1.17 9.77 -1.91
-2.64 22.03 1.94
-1.51 12.59 -2.01
-2.75 22.98 2.84
-1.99 16.64 -2.06
-2.52 21.08 3.36
-2.48 20.67 -1.82
-2.81 23.48 4.6
-2.48 20.75 -1.09
-3.34 27.85 6.47
-2.45 20.47 -0.36
-3.4 29.24 0.51
-0.93 7.98 -1.85
-2.48 21.32 1.13
-1.14 9.77 -1.91
-4.1 35.29 3.11
-1.46 12.6 -2.01
-2.43 20.9 2.58
-1.93 16.66 -2.06
-3.45 29.74 4.74
-2.4 20.68 -1.82
-3.1 26.66 -1.41
-3.15 27.12 6.3
-2.42 20.86 -0.37
-2.78 23.93 6.45
-3.29 29.16 0.51
-0.9 7.98 -1.85
-2.4 21.24 1.12
-1.1 9.76 -1.91
-3.17 28.05 2.47
-1.42 12.6 -2.01
-2.33 20.65 2.55
-1.88 16.65 -2.06
-2.65 23.51 3.75
-2.72 24.09 -2.12
-2.36 20.95 4.1
-2.84 25.13 -1.33
-2.74 24.28 5.64
-2.34 20.77 -0.36
-2.8 24.84 6.7
-3.12 28.6 0.5
-0.87 7.99 -1.85
-3.12 28.55 1.51
-1.07 9.77 -1.91
-2.52 23.04 2.03
-1.38 12.6 -2.01
-2.24 20.5 2.53
-1.81 16.59 -2.05
-2.28 20.91 3.33
-2.24 20.51 -1.8
-3.03 27.71 5.42
-3.25 29.7 -1.57
-2.92 26.71 6.2
-2.27 20.76 -0.36
-3.13 29.56 0.52
-0.85 7.99 -1.85
-2.45 23.07 1.22
-1.04 9.77 -1.91
-2.94 27.71 2.44
-1.33 12.59 -2.01
-2.49 23.47 2.9
-1.76 16.63 -2.05
-3.13 29.58 4.71
-2.18 20.6 -1.81
-3.12 29.48 5.76
-2.09 19.69 -1.04
-2.77 26.13 6.07
-3.03 28.64 -0.5
-2.98 29.13 0.51
-0.82 7.97 -1.85
-2.36 23.07 1.22
-1 9.78 -1.91
-1.29 12.58 -2
-2.4 23.48 2.9
-1.7 16.65 -2.06
-3.03 29.59 4.71
-2.13 20.78 -1.83
-2.78 27.18 5.31
-2.64 25.75 -1.36
-3.02 29.47 6.84
-3.06 29.86 -0.52
-2.74 26.81 7.22
-2.73 27.6 0.48
-0.79 7.98 -1.85
-2.74 27.79 1.46
-0.97 9.78 -1.91
-2.31 23.43 2.06
-1.24 12.59 -2
-2.05 20.72 2.56
-1.64 16.56 -2.04
-2.71 27.42 4.36
-2.04 20.67 -1.82
-2.7 27.3 5.33
-2.75 27.81 -1.46
-2.6 26.32 6.11
-2.75 27.82 -0.49
-2.9 29.41 7.92
-2.19 23 0.4
-0.76 7.98 -1.85
-2.22 23.37 1.23
-0.93 9.77 -1.91
-2.22 23.34 2.05
-1.2 12.59 -2
-1.97 20.71 2.55
-1.58 16.6 -2.05
-2.61 27.4 4.36
-1.97 20.72 -1.82
-3.57 37.54 7.33
-2.2 23.15 -1.22
-2.51 26.34 6.11
-2.18 22.91 -0.4
-2.27 23.89 6.43
-2.12 23.05 0.4
-0.73 7.98 -1.85
-2.15 23.34 1.23
-0.9 9.77 -1.91
-2.15 23.39 2.06
-1.16 12.59 -2
-2.16 23.46 2.89
-1.53 16.65 -2.05
-1.9 20.67 3.29
-2.13 23.11 -2.03
-2.17 23.55 4.6
-2.12 23.07 -1.21
-2.18 23.64 5.48
-2.12 23.05 -0.4
-2.15 23.37 6.29
-2.04 23.1 0.4
-0.71 7.98 -1.85
-2.07 23.41 1.23
-0.86 9.78 -1.91
-2.07 23.39 2.05
-1.11 12.58 -2
-2.07 23.42 2.89
-1.48 16.7 -2.06
-2.08 23.56 3.75
-1.85 20.91 -1.84
-2.08 23.53 4.59
-2.03 22.96 -1.21
-2.09 23.61 5.47
-2.05 23.14 -0.41
-2.07 23.38 6.29
-1.97 23.22 0.41
-0.68 7.97 -1.85
-2 23.57 1.24
-0.83 9.78 -1.91
-2 23.53 2.07
-1.07 12.58 -2
-1.99 23.44 2.89
-1.42 16.72 -2.06
-2 23.56 3.74
-1.75 20.63 -1.81
-2.01 23.64 4.61
-1.94 22.86 -1.2
-2.01 23.67 5.48
-2.23 26.27 -0.46
-2.31 27.27 7.33
-2.12 26.04 0.46
-0.65 7.97 -1.85
-2.37 29.1 1.53
-0.8 9.78 -1.91
-1.91 23.41 2.06
-1.02 12.58 -2
-1.36 16.73 -2.06
-1.92 23.64 3.76
-1.86 22.82 -2
-3.05 37.5 -1.97
-2.16 26.49 6.13
-2.14 26.26 -0.46
-2.03 26.03 0.46
-0.62 7.97 -1.85
-2.27 29.16 1.53
-0.76 9.77 -1.9
-2.31 29.63 2.6
-0.98 12.58 -2
-1.31 16.75 -2.06
-2.17 27.78 4.41
-1.77 22.68 -1.99
-2.46 31.5 -1.66
-3.27 41.88 9.7
-2.45 31.41 -0.55
-2.42 32.4 0.57
-0.6 7.98 -1.85
-2.15 28.8 1.51
-0.73 9.76 -1.9
-3.56 47.77 4.19
-0.94 12.57 -2
-1.25 16.79 -2.07
-1.7 22.74 -1.99
-1.83 24.5 -1.29
-2.04 27.4 -0.48
-1.74 23.39 6.28
-2.01 28.31 0.5
-0.57 7.98 -1.85
-0.69 9.77 -1.9
-0.89 12.56 -1.99
-1.19 16.81 -2.07
-3.39 47.76 7.58
-1.62 22.83 -2
-1.92 27.09 -1.42
-3.31 46.7 10.81
-1.79 25.21 -0.44
-1.94 28.76 0.5
-0.54 7.97 -1.84
-2 29.64 1.56
-0.66 9.75 -1.9
-0.85 12.55 -1.99
-1.55 22.93 2.82
-1.13 16.75 -2.06
-1.6 23.72 -2.08
-1.81 26.84 -1.41
-2.87 42.44 9.82
-2.13 31.6 -0.55
-2.77 40.98 11.01
-0.43 6.75 -1.81
-1.84 28.82 0.5
-0.51 7.97 -1.84
-1.88 29.55 1.55
-0.62 9.76 -1.9
-2.42 38 3.33
-0.8 12.56 -1.99
-1.45 22.67 2.79
-1.07 16.7 -2.06
-1.42 22.32 -1.96
-2.42 37.95 7.39
-1.54 24.12 -1.27
-2.41 37.71 8.72
-1.69 26.52 -0.46
-0.41 6.72 -1.8
-1.38 22.79 0.4
-0.48 7.97 -1.84
-1.78 29.53 1.55
-0.59 9.75 -1.9
-0.76 12.56 -1.99
-2.29 37.87 4.66
-1.01 16.76 -2.06
-2.29 37.9 6.01
-1.44 23.89 -2.09
-1.57 25.98 -1.36
-2.24 37.1 8.58
-1.97 32.71 -0.57
-2.27 37.65 10.11
-0.38 6.69 -1.8
-2.01 35.26 0.62
-0.45 7.97 -1.84
-1.65 28.96 1.52
-0.55 9.74 -1.9
-1.27 22.32 1.96
-0.72 12.56 -1.99
-1.28 22.42 2.76
-0.96 16.83 -2.07
-2.38 41.79 6.63
-1.28 22.39 -1.96
-2.37 41.69 8.12
-1.41 24.71 -1.3
-1.93 33.91 9.1
-0.36 6.69 -1.79
-1.22 22.79 0.4
-0.43 7.98 -1.84
-1.26 23.59 1.24
-0.52 9.74 -1.9
-1.21 22.63 1.98
-0.67 12.54 -1.99
-1.17 21.76 2.68
-0.9 16.84 -2.07
-1.19 22.31 -1.95
-1.34 24.95 -1.31
-1.26 23.48 -0.41
-2.23 41.59 11.16
-0.33 6.7 -1.8
-1.11 22.2 0.39
-0.4 7.95 -1.84
-1.17 23.48 1.23
-0.49 9.74 -1.9
-2.09 41.9 3.67
-0.62 12.54 -1.99
-2.03 40.76 5.01
-0.84 16.85 -2.07
-1.88 37.81 6
-1.18 23.69 -2.08
-1.18 23.78 -1.25
-1.89 37.97 8.78
-1.32 26.58 -0.46
-0.31 6.7 -1.8
-1.02 22.09 0.39
-0.37 7.96 -1.84
-1 21.62 1.13
-0.45 9.74 -1.9
-2.39 51.6 4.52
-0.58 12.54 -1.99
-1.11 23.92 2.94
-0.79 16.96 -2.08
-1.89 40.7 6.45
-1.09 23.6 -2.07
-1.27 27.41 -1.44
-2.01 43.27 10
-1.43 30.78 -0.54
-0.29 6.69 -1.79
-0.34 7.96 -1.84
-0.93 21.67 1.14
-0.42 9.72 -1.89
-1.01 23.59 2.07
-0.54 12.54 -1.99
-1.03 23.95 2.94
-0.73 16.99 -2.09
-1 23.37 3.71
-1.06 24.65 -2.16
-1.62 37.75 7.34
-1.37 31.78 -1.67
-1.63 37.93 8.76
-0.95 22.01 -0.38
-1.46 34.04 9.13
-0.26 6.68 -1.79
-0.87 22.08 0.39
-0.32 7.97 -1.84
-0.85 21.61 1.13
-0.38 9.73 -1.89
-1.11 27.97 2.45
-0.5 12.54 -1.99
-1.37 34.61 4.25
-0.67 16.96 -2.08
-0.91 23.03 3.65
-0.92 23.24 -2.03
-1.11 27.99 -1.47
-0.94 23.75 -0.41
-0.24 6.68 -1.79
-0.84 23.39 0.41
-0.29 7.96 -1.84
-0.78 21.76 1.14
-0.35 9.73 -1.89
-1.27 35.42 3.1
-0.45 12.52 -1.98
-0.81 22.58 2.77
-0.61 16.97 -2.09
-0.83 23.05 3.65
-0.78 21.61 -1.89
-1.33 36.91 7.18
-1.01 28.03 -1.47
-1.23 34.09 7.88
-1.01 28.08 -0.49
-1.49 41.35 11.09
-0.22 6.69 -1.79
-0.91 28.06 0.49
-0.26 7.94 -1.84
-0.72 22.04 1.16
-0.32 9.72 -1.89
-0.91 28.01 2.45
-0.41 12.52 -1.98
-0.74 22.62 2.78
-0.55 17.01 -2.09
-1.15 35.42 5.61
-0.71 21.95 -1.92
-0.91 28.04 -1.47
-0.78 23.91 -0.42
-1.02 31.47 8.44
-0.19 6.69 -1.79
-0.63 21.91 0.38
-0.23 7.95 -1.84
-0.82 28.17 1.48
-0.28 9.72 -1.89
-0.81 28 2.45
-0.36 12.51 -1.98
-0.8 27.72 3.41
-0.49 17 -2.09
-0.8 27.6 4.37
-0.64 22.17 -1.94
-0.8 27.62 5.37
-0.74 25.56 -1.34
-0.99 34.18 9.16
-0.17 6.68 -1.79
-0.91 35.66 0.62
-0.2 7.95 -1.84
-0.91 35.66 1.87
-0.25 9.71 -1.89
-0.57 22.19 1.94
-0.32 12.52 -1.98
-0.71 27.77 3.41
-0.44 17.06 -2.1
-0.6 23.5 3.72
-0.56 21.7 -1.9
-0.7 27.5 5.35
-0.64 24.84 -1.3
-0.7 27.49 6.35
-0.59 23.1 -0.4
-0.88 34.42 9.23
-0.15 6.67 -1.79
-0.51 23.34 0.41
-0.17 7.96 -1.84
-0.54 24.81 1.3
-0.21 9.71 -1.89
-0.48 22.15 1.94
-0.27 12.51 -1.98
-0.5 23.09 2.84
-0.37 17.09 -2.1
-0.47 21.63 -1.89
-0.58 26.57 -1.39
-0.6 27.52 6.35
-0.5 23.14 -0.4
-0.6 27.4 7.34
-0.12 6.66 -1.79
-0.43 23.48 0.41
-0.15 7.95 -1.84
-0.54 29.18 1.53
-0.18 9.71 -1.89
-0.82 44.37 3.88
-0.23 12.48 -1.98
-0.43 23.27 2.86
-0.32 17.16 -2.11
-0.63 34.33 5.44
-0.42 23.02 -2.01
-0.63 34.27 6.66
-0.41 22.02 -1.15
-0.57 30.97 7.15
-0.43 23.21 -0.41
-0.1 6.68 -1.79
-0.52 34.43 0.6
-0.12 7.94 -1.83
-0.37 24.89 1.3
-0.15 9.71 -1.89
-0.52 34.5 3.02
-0.19 12.48 -1.98
-0.44 29.13 3.58
-0.26 17.13 -2.1
-0.44 29.09 4.61
-0.33 22.17 -1.94
-0.41 27.11 -1.42
-0.55 36.73 8.48
-0.33 21.86 -0.38
-0.08 6.68 -1.79
-0.27 23.08 0.4
-0.09 7.94 -1.83
-0.29 24.82 1.3
-0.11 9.7 -1.89
-0.43 37.12 3.25
-0.14 12.47 -1.98
-0.27 23.36 2.87
-0.2 17.13 -2.1
-0.27 23.67 3.75
-0.27 22.86 -2
-0.43 36.99 7.19
-0.26 22.6 -1.18
-0.36 30.84 7.12
-0.25 21.9 -0.38
-0.36 31.28 8.38
-0.05 6.67 -1.79
-0.19 23.04 0.4
-0.07 7.93 -1.83
-0.19 22.88 1.2
-0.08 9.69 -1.88
-0.24 29.13 2.55
-0.1 12.48 -1.98
-0.19 23.62 2.9
-0.14 17.13 -2.1
-0.19 23.71 3.76
-0.19 22.92 -2.01
-0.31 37.35 7.26
-0.19 22.56 -1.18
-0.3 35.99 8.31
-0.17 21.29 -0.37
-0.03 6.66 -1.79
-0.11 21.91 0.38
-0.04 7.94 -1.83
-0.1 21.56 1.13
-0.05 9.68 -1.88
-0.14 29.25 2.56
-0.06 12.47 -1.98
-0.08 17.09 -2.1
-0.17 35.59 5.64
-0.11 23.08 -2.02
-0.11 22.56 -1.18
-0.15 31.35 7.24
-0.11 22 -0.38
-0.15 30.88 8.27
-0.01 6.67 -1.79
-0.02 21.94 0.38
-0.01 7.93 -1.83
-0.02 23.02 1.21
-0.01 9.69 -1.88
-0.02 22.15 1.94
-0.01 12.46 -1.97
-0.04 34.54 4.24
-0.02 17.09 -2.1
-0.04 35.16 5.57
-0.02 21.7 -1.9
-0.02 22.93 -1.2
-0.02 22.01 -0.38
0.02 6.67 -1.79
0.05 21.92 0.38
0.02 7.92 -1.83
0.05 21.59 1.13
0.02 9.69 -1.88
0.05 22.18 1.94
0.03 12.44 -1.97
0.06 23.62 2.9
0.04 17.08 -2.1
0.08 34.65 5.49
0.05 21.98 -1.92
0.07 30.57 5.94
0.06 22.91 -1.2
0.05 22.03 -0.38
0.04 6.68 -1.79
0.13 21.7 0.38
0.05 7.91 -1.83
0.13 21.63 1.13
0.06 9.68 -1.88
0.13 22.07 1.93
0.07 12.45 -1.97
0.21 35.43 4.35
0.1 17.15 -2.11
0.21 35.25 5.58
0.13 22.04 -1.93
0.2 34.45 6.7
0.14 22.96 -1.2
0.22 36.24 8.37
0.13 21.33 -0.37
0.06 6.67 -1.79
0.38 39.79 0.69
0.07 7.91 -1.83
0.21 21.76 1.14
0.09 9.67 -1.88
0.22 22.95 2.01
0.12 12.45 -1.97
0.3 32.02 3.93
0.16 17.17 -2.11
0.3 32.02 5.07
0.21 22.41 -1.96
0.29 30.25 5.88
0.22 23.05 -1.21
0.3 31.43 7.26
0.21 21.82 -0.38
0.29 31.26 8.38
0.09 6.67 -1.79
0.29 22.64 0.4
0.1 7.91 -1.83
0.3 22.91 1.2
0.12 9.67 -1.88
0.28 22 1.92
0.16 12.44 -1.97
0.27 21.16 2.6
0.22 17.2 -2.11
0.41 32.04 5.08
0.31 24.36 -2.13
0.41 31.72 6.17
0.3 23.08 -1.21
0.45 34.67 8.01
0.3 23.15 -0.4
0.4 31.03 8.32
0.11 6.65 -1.78
0.37 22.58 0.39
0.13 7.91 -1.83
0.38 23.18 1.22
0.16 9.67 -1.88
0.37 22.84 2
0.2 12.43 -1.97
0.39 23.51 2.89
0.28 17.24 -2.12
0.75 45.44 7.2
0.35 21.47 -1.88
0.65 39.84 7.75
0.38 23.04 -1.21
0.35 21.24 -0.37
0.54 32.81 8.79
0.13 6.65 -1.78
0.45 22.67 0.4
0.16 7.89 -1.82
0.45 22.67 1.19
0.19 9.67 -1.88
0.45 22.87 2
0.24 12.42 -1.97
0.44 22.52 2.77
0.34 17.31 -2.13
0.62 31.29 4.96
0.43 21.71 -1.9
0.61 31.08 6.04
0.45 22.97 -1.2
0.42 21.26 -0.37
0.61 30.73 8.24
0.15 6.66 -1.78
0.55 23.88 0.42
0.18 7.89 -1.82
0.55 23.62 1.24
0.22 9.65 -1.88
0.54 23.13 2.02
0.29 12.42 -1.97
0.57 24.59 3.02
0.4 17.33 -2.13
0.73 31.35 4.97
0.51 22 -1.92
0.72 31.05 6.04
0.53 22.83 -1.2
0.72 31.06 7.17
0.52 22.59 -0.39
0.67 28.99 7.77
0.18 6.65 -1.78
0.63 23.64 0.41
0.21 7.89 -1.82
0.63 23.63 1.24
0.26 9.64 -1.88
0.63 23.53 2.06
0.33 12.41 -1.97
0.64 23.86 2.93
0.46 17.29 -2.12
0.78 29.17 4.62
0.59 21.94 -1.92
0.78 29.13 5.66
0.61 22.8 -1.2
0.78 29.17 6.74
0.6 22.63 -0.4
0.67 25.04 6.71
0.2 6.64 -1.78
0.72 23.69 0.41
0.24 7.89 -1.82
0.29 9.65 -1.88
0.66 21.97 1.92
0.37 12.4 -1.97
0.72 23.89 2.93
0.52 17.29 -2.12
1.16 38.34 6.08
0.67 22.25 -1.95
0.69 22.68 -1.19
0.65 21.47 -0.37
0.7 23.21 6.22
0.22 6.64 -1.78
1 29.54 0.52
0.27 7.89 -1.82
0.99 29.51 1.55
0.32 9.64 -1.87
0.74 22.1 1.93
0.42 12.38 -1.96
0.74 21.93 2.69
0.58 17.32 -2.13
0.99 29.26 4.64
0.76 22.63 -1.98
1.06 31.4 6.11
0.77 22.75 -1.19
1.05 31.17 7.2
0.77 22.76 -0.4
0.89 26.35 7.06
0.25 6.64 -1.78
1.1 29.59 0.52
0.29 7.87 -1.82
0.79 21.14 1.11
0.36 9.64 -1.87
0.83 22.42 1.96
0.46 12.38 -1.96
0.82 21.94 2.7
0.64 17.34 -2.13
0.88 23.77 3.77
0.82 22.14 -1.94
1.16 31.26 6.08
0.85 22.72 -1.19
0.85 22.85 -0.4
1.15 31.02 8.32
0.27 6.64 -1.78
0.91 22.48 0.39
0.32 7.87 -1.82
0.92 22.63 1.19
0.39 9.63 -1.87
1.21 29.69 2.6
0.5 12.37 -1.96
0.89 21.9 2.69
0.7 17.32 -2.13
0.94 23.02 3.65
0.9 22.01 -1.93
0.84 20.65 4.02
0.93 22.93 -1.2
0.96 23.59 -0.41
0.91 22.31 5.98
0.29 6.64 -1.78
0.99 22.44 0.39
0.35 7.87 -1.82
1 22.55 1.18
0.42 9.62 -1.87
1.18 26.69 2.34
0.55 12.36 -1.96
0.97 21.87 2.69
0.76 17.25 -2.12
1.02 23.01 3.65
0.97 21.99 -1.93
0.93 20.94 4.07
1.02 23.19 -1.22
1 22.73 5.25
1.03 23.37 -0.41
1.04 23.51 6.31
0.31 6.63 -1.78
1.27 26.75 0.47
0.37 7.87 -1.82
1.28 26.9 1.41
0.46 9.62 -1.87
1.27 26.66 2.33
0.59 12.35 -1.96
1.25 26.4 3.24
0.82 17.29 -2.13
1.26 26.47 4.2
1.07 22.44 -1.97
1.07 22.45 4.37
1.09 23.05 -1.21
1.26 26.5 6.13
1.1 23.24 -0.41
1.38 28.95 7.77
0.34 6.62 -1.78
1.36 26.67 0.47
0.4 7.86 -1.82
1.36 26.69 1.4
0.49 9.62 -1.87
1.38 27.08 2.37
0.63 12.33 -1.96
1.34 26.23 3.22
0.88 17.3 -2.13
1.35 26.46 4.2
1.13 22.17 -1.94
1.16 22.83 4.44
1.18 23.11 -1.21
1.18 23.05 5.33
1.19 23.37 -0.41
0.36 6.62 -1.78
2.96 54.51 0.95
0.43 7.86 -1.82
1.21 22.34 1.17
0.52 9.62 -1.87
1.17 21.59 1.89
0.67 12.32 -1.95
1.42 26.14 3.21
0.94 17.31 -2.13
1.44 26.52 4.21
1.2 22.17 -1.94
1.27 23.33 -1.22
1.62 29.79 6.89
1.26 23.14 -0.4
0.38 6.62 -1.78
2.14 37.07 0.65
0.45 7.86 -1.82
1.29 22.27 1.17
0.56 9.6 -1.87
1.25 21.56 1.89
0.71 12.32 -1.95
1.51 26.02 3.2
1 17.31 -2.13
1.24 21.51 3.41
1.28 22.17 -1.94
1.21 20.85 4.06
1.34 23.23 -1.22
1.3 22.48 5.2
1.34 23.12 -0.4
1.51 26.11 7.01
0.41 6.6 -1.77
0.48 7.85 -1.82
1.43 23.24 1.22
0.59 9.59 -1.87
1.31 21.29 1.87
0.76 12.3 -1.95
1.62 26.32 3.24
1.06 17.17 -2.11
1.37 22.33 3.54
1.37 22.32 -1.96
1.5 24.41 -1.28
1.38 22.45 5.19
1.42 23.09 -0.4
1.56 25.38 6.81
0.43 6.59 -1.77
2.52 38.73 0.68
0.51 7.86 -1.82
1.51 23.22 1.22
0.62 9.58 -1.87
1.53 23.55 2.06
0.8 12.29 -1.95
1.42 21.81 2.68
1.12 17.29 -2.13
1.76 27.03 4.29
1.45 22.34 -1.96
1.35 20.79 4.05
1.59 24.43 -1.28
1.4 21.56 4.99
1.5 23.09 -0.4
1.91 29.35 7.88
0.45 6.59 -1.77
2.64 38.64 0.68
0.54 7.85 -1.82
2.09 30.52 1.6
0.65 9.58 -1.87
1.47 21.5 1.89
0.84 12.26 -1.95
1.84 26.91 3.31
1.18 17.31 -2.13
1.85 27.05 4.29
1.52 22.28 -1.95
1.84 26.99 5.26
1.81 26.51 -1.39
1.48 21.6 5
1.57 23.02 -0.4
1.73 25.24 6.78
0.47 6.59 -1.77
2.37 33.05 0.58
0.56 7.84 -1.81
2.08 28.99 1.52
0.69 9.58 -1.87
1.91 26.55 2.33
0.88 12.25 -1.94
1.53 21.27 2.62
1.24 17.28 -2.13
3 41.73 6.63
1.6 22.27 -1.95
2.32 32.23 6.28
2.29 31.81 7.36
1.9 26.44 -0.46
0.5 6.59 -1.77
2.5 33.03 0.58
0.59 7.83 -1.81
2.49 32.92 1.73
0.72 9.57 -1.87
1.66 21.96 1.93
0.93 12.25 -1.95
2.48 32.82 4.04
1.31 17.3 -2.13
2.47 32.74 5.2
1.67 22.14 -1.94
2.04 27.04 5.27
1.87 24.8 -1.3
1.72 22.71 5.26
2 26.47 -0.46
2.37 31.41 8.44
0.52 6.58 -1.77
2.67 33.76 0.59
0.62 7.83 -1.81
1.78 22.51 1.18
0.76 9.56 -1.86
1.73 21.94 1.93
0.97 12.24 -1.94
2.27 28.67 3.53
1.37 17.28 -2.13
2.59 32.81 5.21
1.75 22.19 -1.95
2.6 32.92 6.42
1.97 24.97 -1.31
2.61 33.07 7.66
1.81 22.94 -0.4
1.73 21.82 5.87
0.54 6.57 -1.77
0.65 7.83 -1.81
1.86 22.5 1.18
0.79 9.56 -1.86
1.82 22.03 1.93
1.01 12.22 -1.94
1.43 17.27 -2.13
2.17 26.34 4.19
1.83 22.17 -1.95
2.72 32.89 6.41
2.28 27.6 -1.45
2.03 24.54 5.68
2.02 24.41 6.56
0.57 6.57 -1.77
0.67 7.82 -1.81
1.94 22.51 1.18
0.82 9.55 -1.86
4 46.48 4.08
1.05 12.21 -1.94
1.76 20.39 2.51
1.49 17.31 -2.13
1.92 22.32 3.55
1.92 22.35 -1.96
2.17 25.26 -1.33
1.88 21.84 5.06
2.64 30.66 -0.54
2.3 26.67 7.17
0.59 6.57 -1.77
0.7 7.81 -1.81
2.02 22.5 1.18
0.86 9.55 -1.86
1.09 12.2 -1.94
1.83 20.39 2.51
1.55 17.24 -2.13
2.27 25.37 4.04
2.02 22.5 -1.98
2.29 25.53 -1.34
1.96 21.82 5.06
2.2 24.57 6.61
0.61 6.57 -1.77
0.73 7.81 -1.81
2.1 22.59 1.19
0.89 9.54 -1.86
1.14 12.2 -1.94
1.62 17.43 -2.15
2.36 25.35 4.03
2.13 22.91 -2.01
3.83 41.18 8.04
2.36 25.34 -1.33
2.31 24.85 5.76
2.59 27.8 -0.49
2.14 23 6.19
0.63 6.56 -1.77
3.54 36.61 0.64
0.75 7.8 -1.81
2.19 22.67 1.19
0.92 9.53 -1.86
3.97 41.11 3.61
1.18 12.19 -1.94
1.68 17.4 -2.15
4.54 46.94 7.47
2.16 22.34 -1.96
2.41 24.9 4.86
2.43 25.12 -1.32
2.04 21.06 4.89
1.9 19.61 5.28
0.66 6.55 -1.76
2.97 29.61 0.52
0.78 7.8 -1.81
2.23 22.23 1.17
0.95 9.53 -1.86
4.11 41.03 3.61
1.22 12.18 -1.94
3.61 36.04 4.45
1.75 17.44 -2.15
4.12 41.1 6.54
2.24 22.4 -1.97
4.08 40.78 -2.15
1.99 19.85 4.61
1.97 19.7 5.3
0.68 6.54 -1.76
3.46 33.4 0.59
0.81 7.8 -1.81
2.3 22.19 1.17
0.99 9.52 -1.86
3.78 36.45 3.21
1.26 12.16 -1.94
1.8 17.4 -2.15
2.12 20.44 3.26
2.32 22.38 -1.97
2.6 25.08 -1.32
2.18 21.01 4.88
4.24 40.91 -0.72
3.46 33.42 9
0.7 6.54 -1.76
4.38 40.87 0.72
0.83 7.78 -1.81
1.02 9.52 -1.86
2.48 23.11 2.03
1.3 12.15 -1.94
1.87 17.43 -2.15
2.18 20.33 3.24
2.41 22.44 -1.97
2.13 19.84 4.61
2.4 22.41 6.04
0.72 6.54 -1.76
0.86 7.77 -1.81
4.5 40.65 2.14
1.05 9.51 -1.86
2.54 22.91 2.02
1.34 12.14 -1.93
2.89 26.08 3.22
1.93 17.42 -2.15
2.4 21.65 3.45
2.48 22.41 -1.97
3.89 35.16 8.17
2.24 20.21 5.45
0.75 6.54 -1.76
3.33 29.13 0.51
0.89 7.77 -1.81
1.08 9.49 -1.86
2.63 23.04 2.03
1.39 12.12 -1.93
2.98 26.08 3.22
2 17.49 -2.16
2.33 20.39 3.25
2.56 22.36 -1.97
2.98 26.09 5.1
3.15 27.55 -1.45
2.41 21.08 4.9
3.31 28.98 -0.51
2.88 25.17 6.79
0.77 6.53 -1.76
3.43 29.12 0.51
0.92 7.77 -1.81
3.45 29.28 1.54
1.12 9.49 -1.86
1.43 12.12 -1.93
2.58 21.94 2.71
2.06 17.46 -2.16
4.34 36.81 5.87
2.63 22.31 -1.97
4.7 39.91 7.81
3.51 29.82 -1.57
2.48 21.08 4.9
3.92 33.24 -0.58
2.37 20.08 5.42
0.79 6.53 -1.76
0.94 7.76 -1.81
3.36 27.65 1.46
1.15 9.49 -1.86
2.79 23.02 2.03
1.47 12.1 -1.93
2.12 17.47 -2.16
2.5 20.61 3.29
2.71 22.31 -1.97
4.27 35.22 6.9
2.55 21.02 4.89
2.36 19.41 5.24
0.82 6.53 -1.76
4.11 32.91 0.58
0.97 7.74 -1.8
3.51 28.08 1.48
1.18 9.48 -1.86
2.9 23.18 2.04
1.51 12.08 -1.93
4.51 36.07 4.46
2.19 17.51 -2.17
2.59 20.75 3.31
2.79 22.33 -1.97
3.06 24.5 -1.29
2.98 23.9 5.56
4.05 32.42 -0.57
2.43 19.45 5.25
0.84 6.52 -1.76
3.14 24.45 0.43
0.99 7.73 -1.8
3.15 24.52 1.3
1.22 9.47 -1.86
3.16 24.57 2.17
1.55 12.07 -1.93
2.83 22 2.72
2.25 17.52 -2.17
2.66 20.74 3.31
2.87 22.34 -1.97
4.73 36.8 7.21
3.14 24.44 -1.29
3.14 24.46 -0.43
4.47 34.8 9.4
0.86 6.52 -1.76
3.22 24.38 0.43
1.02 7.74 -1.8
3.23 24.44 1.29
1.25 9.46 -1.85
3.04 23.04 2.03
1.59 12.06 -1.93
3.23 24.51 3.04
2.31 17.48 -2.16
3.23 24.48 3.91
2.95 22.33 -1.97
3.2 24.22 -1.28
3.42 25.91 6.03
3.17 24.03 -0.42
2.62 19.83 5.36
0.88 6.5 -1.76
3.24 23.93 0.42
1.05 7.73 -1.8
3.32 24.46 1.29
1.28 9.44 -1.85
3.11 22.92 2.02
1.63 12.05 -1.93
2.93 21.64 2.68
2.38 17.52 -2.17
3.32 24.46 3.91
3.03 22.33 -1.97
3.31 24.43 4.79
3.26 24.07 -1.27
3.24 23.86 5.56
3.25 23.98 -0.42
2.68 19.74 5.34
0.9 6.49 -1.76
3.32 23.9 0.42
1.07 7.72 -1.8
3.32 23.87 1.26
1.31 9.44 -1.85
3.2 23.05 2.04
1.67 12.02 -1.92
3.2 23.04 2.86
2.43 17.47 -2.17
3.41 24.56 3.93
3.1 22.33 -1.97
3.19 22.95 4.5
3.34 24.05 -1.27
2.78 19.99 4.66
3.4 24.47 -0.43
3.39 24.41 6.6
0.92 6.49 -1.76
4.46 31.29 0.55
1.1 7.7 -1.8
3.39 23.8 1.26
1.35 9.44 -1.85
3.14 22.05 1.95
1.71 12.01 -1.92
4.4 30.87 3.83
2.24 15.7 -1.95
3.53 24.78 3.96
3.18 22.34 -1.97
4.37 30.68 6.02
3.45 24.19 -1.28
2.83 19.87 4.63
3.42 24.02 -0.42
3.48 24.43 6.61
0.95 6.49 -1.76
4.55 31.17 0.55
1.12 7.7 -1.8
4.54 31.15 1.65
1.38 9.43 -1.85
3.23 22.11 1.95
1.75 12.01 -1.92
3.27 22.43 2.78
2.52 17.29 -2.14
3.61 24.78 3.97
3.26 22.35 -1.98
4.47 30.64 6.02
3.52 24.15 -1.28
2.95 20.2 4.71
4.57 31.29 -0.55
2.9 19.89 5.39
0.97 6.49 -1.76
3.57 23.87 0.42
1.15 7.7 -1.8
4.65 31.1 1.65
1.41 9.4 -1.85
3.46 23.15 2.05
1.79 12 -1.92
3.48 23.32 2.89
2.34 15.69 -1.95
3.83 25.64 4.11
3.34 22.36 -1.98
3.47 23.2 4.56
3.61 24.16 -1.28
3.65 24.39 5.69
3.58 23.98 -0.42
3.01 20.16 5.46
0.99 6.46 -1.75
3.63 23.68 0.42
1.18 7.69 -1.8
3.6 23.47 1.24
1.44 9.4 -1.85
3.44 22.45 1.99
1.84 11.98 -1.92
3.49 22.75 2.83
2.4 15.66 -1.95
3.54 23.08 3.7
3.42 22.31 -1.97
5.03 32.84 6.46
3.71 24.24 -1.29
3.73 24.35 5.69
3.69 24.1 -0.43
3.01 19.66 5.33
1.01 6.47 -1.76
4.88 31.14 0.55
1.2 7.68 -1.79
1.47 9.4 -1.85
3.6 22.94 2.03
1.87 11.95 -1.92
3.58 22.85 2.84
2.45 15.64 -1.94
3.63 23.18 3.72
3.5 22.31 -1.98
3.88 24.76 4.87
4.37 27.89 -1.48
3.49 22.25 5.2
3.08 19.64 5.33
1.04 6.47 -1.76
3.85 24 0.42
1.23 7.66 -1.79
6.46 40.27 2.14
1.51 9.4 -1.85
5.25 32.76 2.9
1.92 11.94 -1.92
3.63 22.62 2.81
2.52 15.73 -1.96
3.41 21.26 3.41
3.58 22.31 -1.98
3.97 24.75 4.87
4.43 27.6 -1.47
3.48 21.72 5.08
3.97 24.75 6.72
1.06 6.47 -1.76
3.94 24.02 0.42
1.25 7.65 -1.79
4.53 27.64 1.47
1.54 9.38 -1.85
5.11 31.16 2.76
1.96 11.93 -1.91
3.47 21.14 2.63
2.57 15.71 -1.95
3.78 23.04 3.7
3.66 22.3 -1.98
3.82 23.32 4.59
4.74 28.9 -1.53
3.56 21.74 5.09
3.2 19.54 5.31
1.08 6.46 -1.76
4.02 24.02 0.43
1.28 7.64 -1.79
6.76 40.34 2.14
1.57 9.37 -1.85
4.71 28.09 2.49
2 11.93 -1.92
3.54 21.13 2.63
2.63 15.68 -1.95
3.9 23.28 3.74
3.74 22.31 -1.98
4.94 29.49 -1.57
3.64 21.71 5.08
5.06 30.22 -0.53
4.07 24.27 6.59
1.1 6.45 -1.75
5.18 30.3 0.54
1.31 7.64 -1.79
4.04 23.58 1.25
1.6 9.35 -1.84
4.8 28.05 2.49
2.04 11.9 -1.91
3.8 22.22 2.77
2.68 15.68 -1.95
4.01 23.45 3.77
3.81 22.26 -1.98
3.99 23.33 4.6
3.71 21.71 5.08
5.35 31.28 -0.55
4.12 24.06 6.54
1.13 6.44 -1.75
1.33 7.64 -1.79
4.19 23.98 1.28
1.63 9.34 -1.84
7.02 40.2 3.57
2.08 11.88 -1.91
3.91 22.38 2.79
2.74 15.67 -1.95
5.71 32.67 5.25
3.89 22.27 -1.98
4.03 23.07 4.55
5.21 29.8 -1.59
3.98 22.77 5.34
4.25 24.3 6.61
1.15 6.44 -1.75
1.36 7.61 -1.79
4.21 23.62 1.26
1.67 9.34 -1.84
5 28.04 2.49
2.12 11.87 -1.91
5.82 32.66 4.07
2.79 15.65 -1.95
4.23 23.7 3.81
3.97 22.24 -1.98
4.39 24.65 4.87
5.36 30.08 -1.6
4.07 22.84 5.36
5.56 31.18 -0.55
4.29 24.08 6.55
1.17 6.43 -1.75
5.11 28.14 0.5
1.38 7.6 -1.78
4.34 23.92 1.27
1.69 9.33 -1.84
4.21 23.21 2.06
2.15 11.86 -1.91
4.01 22.11 2.76
2.84 15.64 -1.95
4.28 23.6 3.8
4.03 22.22 -1.98
4.1 22.6 4.46
5.47 30.11 -1.6
4.49 24.74 5.8
5.91 32.54 -0.58
4.37 24.08 6.56
1.19 6.43 -1.75
5.21 28.12 0.5
1.41 7.6 -1.78
4.41 23.83 1.27
1.72 9.3 -1.84
4.29 23.16 2.06
2.19 11.85 -1.91
4.16 22.46 2.81
2.9 15.65 -1.95
4.91 26.5 4.27
4.11 22.2 -1.97
3.77 20.36 4.02
4.69 25.33 -1.35
4.22 22.77 5.35
3.92 21.17 5.77
1.21 6.4 -1.75
1.44 7.6 -1.78
1.76 9.29 -1.84
4.38 23.18 2.06
2.24 11.84 -1.91
4.24 22.46 2.81
2.96 15.67 -1.96
6.18 32.69 5.27
4.19 22.17 -1.97
4.29 22.73 4.5
5.55 29.4 -1.57
4.27 22.58 5.3
5.55 29.35 -0.52
3.97 21.02 5.73
1.23 6.4 -1.75
5.41 28.11 0.5
1.46 7.58 -1.78
1.79 9.29 -1.84
5.41 28.1 2.5
2.28 11.82 -1.91
5.61 29.11 3.64
3.02 15.71 -1.96
4.27 22.17 -1.98
4.38 22.72 4.5
5.39 27.99 -1.49
4.68 24.31 5.72
6.18 32.09 -0.57
4.19 21.76 5.94
1.25 6.39 -1.75
5.5 28.04 0.5
1.48 7.57 -1.78
1.82 9.28 -1.84
5.51 28.12 2.51
2.31 11.81 -1.91
4.43 22.59 2.83
3.08 15.73 -1.97
9.02 46.02 7.43
4.34 22.15 -1.97
4.43 22.61 4.48
5.48 27.96 -1.49
7.83 39.93 9.39
5.45 27.8 -0.49
4.2 21.41 5.85
1.28 6.39 -1.75
6.27 31.4 0.56
1.51 7.56 -1.78
5.35 26.78 1.43
1.85 9.26 -1.84
4.83 24.19 2.16
2.35 11.8 -1.91
4.65 23.29 2.92
3.14 15.75 -1.97
4.29 21.49 3.47
4.42 22.16 -1.98
4 20.03 3.97
6.72 33.65 -1.8
4.42 22.15 5.22
5.59 28.02 -0.5
4.45 22.28 6.09
1.3 6.39 -1.75
6.82 33.53 0.6
1.54 7.55 -1.78
7.45 36.64 1.96
1.88 9.24 -1.83
4.81 23.66 2.11
2.4 11.79 -1.91
4.65 22.86 2.86
3.21 15.78 -1.98
4.36 21.44 3.47
4.5 22.13 -1.98
5.91 29.05 -1.55
5.68 27.92 -0.5
4.54 22.32 6.1
1.32 6.36 -1.74
5.8 28.03 0.5
1.56 7.55 -1.78
9.03 43.62 2.33
1.91 9.23 -1.83
4.89 23.62 2.11
2.44 11.77 -1.9
4.73 22.82 2.86
3.27 15.81 -1.98
4.31 20.8 3.36
4.58 22.12 -1.98
4.14 20 3.97
6 28.96 -1.55
6.62 31.99 7.54
5.78 27.91 -0.5
4.3 20.78 5.69
1.34 6.36 -1.74
5.79 27.49 0.49
1.59 7.54 -1.78
6.1 28.95 1.55
1.94 9.23 -1.83
7.76 36.84 3.29
2.48 11.75 -1.9
4.92 23.36 2.93
3.34 15.85 -1.99
4.39 20.84 3.37
4.66 22.11 -1.98
6.97 33.08 6.57
5.83 27.65 -1.48
5.12 24.3 5.73
5.88 27.91 -0.5
5.19 24.63 6.74
1.36 6.36 -1.74
5.88 27.43 0.49
1.61 7.52 -1.77
5.93 27.67 1.48
1.98 9.21 -1.83
5.06 23.58 2.11
2.52 11.74 -1.9
6.17 28.78 3.61
3.4 15.88 -1.99
6.15 28.67 4.64
4.74 22.11 -1.98
4.31 20.11 4
5.86 27.34 -1.47
4.81 22.42 5.29
4.75 22.15 6.07
1.39 6.36 -1.74
5.99 27.51 0.49
1.64 7.51 -1.77
6.05 27.76 1.49
2.01 9.21 -1.83
5.14 23.62 2.11
2.55 11.73 -1.9
6.26 28.72 3.61
3.46 15.9 -2
6.24 28.63 4.64
4.82 22.11 -1.98
6.08 27.9 -1.5
4.82 22.13 5.23
6.25 28.67 -0.51
4.88 22.39 6.14
1.41 6.35 -1.74
6.42 29 0.52
1.66 7.51 -1.78
2.04 9.19 -1.83
5.22 23.55 2.11
2.59 11.71 -1.9
6.36 28.7 3.61
3.53 15.93 -2
4.41 19.92 3.23
4.9 22.12 -1.98
6.33 28.58 5.69
6.18 27.9 -1.5
6.29 28.38 6.71
6.31 28.51 -0.51
5.16 23.3 6.39
1.43 6.33 -1.74
1.69 7.5 -1.78
6.29 27.91 1.5
2.07 9.17 -1.83
6.12 27.15 2.43
2.63 11.69 -1.9
6.37 28.25 3.56
3.6 15.96 -2.01
8.28 36.72 5.96
4.98 22.09 -1.98
6.47 28.7 5.72
6.25 27.72 -1.49
6.41 28.46 6.73
6.4 28.4 7.8
1.45 6.32 -1.74
6 26.18 0.47
1.72 7.49 -1.77
6 26.2 1.41
2.1 9.17 -1.83
6.28 27.42 2.46
2.67 11.67 -1.9
6.62 28.9 3.64
3.66 15.99 -2.01
9.07 39.59 6.43
5.06 22.08 -1.98
6.56 28.66 5.71
5.99 26.15 -1.41
4.95 21.62 5.12
6 26.19 -0.47
6.51 28.42 7.81
1.47 6.32 -1.74
6.09 26.19 0.47
1.74 7.48 -1.77
6.11 26.26 1.41
2.13 9.16 -1.83
6.38 27.43 2.46
2.71 11.65 -1.89
8.34 35.85 4.52
3.73 16.03 -2.02
5.05 21.72 3.53
5.14 22.1 -1.98
4.74 20.4 4.07
6.07 26.1 -1.4
5.03 21.62 5.12
6.09 26.21 -0.47
4.94 21.26 5.85
1.49 6.31 -1.74
6.25 26.46 0.47
1.76 7.46 -1.77
6.27 26.56 1.43
2.16 9.15 -1.83
7.15 30.28 2.72
2.75 11.63 -1.89
6.64 28.12 3.55
3.79 16.05 -2.02
5.02 21.27 3.46
5.21 22.08 -1.98
5.51 23.34 4.66
5.77 24.43 5.8
6.25 26.48 -0.47
5.58 23.63 6.51
1.51 6.31 -1.74
6.41 26.68 0.48
1.79 7.46 -1.77
6.43 26.78 1.44
2.19 9.12 -1.82
7.16 29.82 2.68
2.79 11.62 -1.89
9.23 38.43 4.85
3.86 16.08 -2.03
5.16 21.48 3.5
4.99 20.76 -1.87
7.69 32.04 6.41
5.83 24.3 5.77
6.41 26.69 -0.48
5.65 23.53 6.48
1.53 6.29 -1.74
6.56 26.89 0.48
1.82 7.45 -1.77
6.58 26.99 1.46
2.22 9.11 -1.82
6.88 28.21 2.54
2.83 11.6 -1.89
3.93 16.13 -2.04
5.25 21.54 3.51
5.03 20.64 -1.86
5.35 21.97 4.39
5.04 20.68 -1.12
6.93 28.44 6.76
6.56 26.91 -0.48
5.19 21.28 5.87
1.55 6.28 -1.73
6.71 27.15 0.49
1.84 7.44 -1.77
2.25 9.1 -1.82
6.98 28.23 2.54
2.86 11.57 -1.89
9.64 38.98 4.93
4 16.16 -2.04
5.29 21.4 3.49
5.09 20.58 -1.85
5.43 21.98 4.4
5.09 20.59 -1.11
6.07 24.53 5.83
6.71 27.13 -0.49
5.95 24.06 6.64
1.58 6.28 -1.73
6.87 27.37 0.49
1.86 7.42 -1.77
6.89 27.46 1.48
2.28 9.09 -1.82
7.09 28.23 2.55
2.9 11.56 -1.89
5.81 23.15 2.93
4.06 16.18 -2.05
5.34 21.26 3.47
5.15 20.51 -1.85
5.5 21.91 4.39
5.15 20.5 -1.11
6.86 27.34 -0.49
5.12 20.41 5.64
1.6 6.27 -1.73
7.03 27.61 0.5
1.89 7.42 -1.77
7.04 27.63 1.49
2.31 9.08 -1.82
7.17 28.14 2.54
2.94 11.54 -1.89
5.89 23.14 2.93
4.12 16.19 -2.05
5.4 21.21 3.47
5.21 20.46 -1.85
5.29 20.79 4.17
5.21 20.46 -1.11
7.02 27.56 -0.5
5.25 20.61 5.7
1.62 6.27 -1.73
7.2 27.85 0.5
1.91 7.4 -1.76
7.2 27.86 1.51
2.34 9.05 -1.82
8.62 33.36 3.01
2.98 11.52 -1.89
9.39 36.32 4.61
4.19 16.21 -2.06
5.44 21.04 3.44
5.3 20.52 -1.85
5.92 22.9 4.6
5.3 20.51 -1.11
7.44 28.8 6.87
7.18 27.77 -0.5
6.27 24.27 6.72
1.64 6.24 -1.73
7.3 27.86 0.5
1.94 7.4 -1.77
7.32 27.91 1.51
2.37 9.04 -1.82
9.89 37.71 3.41
3.02 11.51 -1.89
6.91 26.36 3.35
4.24 16.18 -2.05
5.47 20.86 3.42
5.4 20.58 -1.86
5.4 20.6 -1.12
7.54 28.75 6.86
8.71 33.23 -0.6
7.26 27.69 7.67
1.66 6.25 -1.73
8.82 33.15 0.6
1.96 7.39 -1.77
2.4 9.03 -1.82
7.33 27.58 2.5
3.05 11.48 -1.88
6.99 26.31 3.34
4.29 16.13 -2.05
7.25 27.27 4.47
5.49 20.66 -1.87
5.87 22.08 4.44
5.49 20.65 -1.12
5.88 22.1 5.28
8.82 33.16 -0.6
6.19 23.28 6.45
1.68 6.24 -1.73
8.92 33.1 0.6
1.99 7.37 -1.76
2.43 9.02 -1.82
7.43 27.55 2.5
3.09 11.46 -1.88
7.08 26.25 3.34
4.34 16.09 -2.05
8.63 32.01 5.25
5.59 20.73 -1.88
7.52 27.91 5.62
5.59 20.72 -1.12
7.47 27.69 6.62
8.93 33.11 -0.6
1.7 6.23 -1.73
9.03 33.04 0.6
2.01 7.36 -1.76
2.46 9 -1.81
8.63 31.59 2.86
3.13 11.45 -1.88
7.15 26.16 3.33
4.38 16.01 -2.04
7.49 27.41 4.5
5.68 20.79 -1.89
5.86 21.42 4.32
5.67 20.75 -1.13
6.13 22.41 5.36
9.04 33.05 -0.6
6.47 23.67 6.58
1.73 6.23 -1.73
9.14 32.98 0.6
2.04 7.35 -1.76
8.55 30.84 1.68
2.49 8.98 -1.81
7.73 27.88 2.53
3.17 11.44 -1.88
4.4 15.88 -2.02
7.72 27.85 4.58
5.98 21.57 -1.96
5.92 21.34 4.31
9.14 32.97 -1.79
6.15 22.17 5.31
9.14 32.96 -0.6
5.74 20.71 5.76
1.74 6.21 -1.73
9.24 32.9 0.6
2.06 7.34 -1.76
8.71 31 1.69
2.52 8.96 -1.81
7.81 27.81 2.53
3.21 11.42 -1.88
4.45 15.83 -2.02
7.82 27.85 4.58
6.09 21.67 -1.97
9.23 32.85 -1.79
6.15 21.89 5.25
9.24 32.89 -0.6
5.75 20.46 5.69
1.77 6.2 -1.73
9.35 32.86 0.6
2.09 7.32 -1.76
8.74 30.7 1.67
2.55 8.95 -1.81
3.24 11.4 -1.88
4.48 15.73 -2.01
7.74 27.2 4.48
6.17 21.66 -1.97
6.72 23.61 4.77
9.36 32.87 -1.79
6.05 21.25 5.1
9.35 32.86 -0.6
5.93 20.82 5.8
1.79 6.2 -1.73
9.46 32.8 0.6
2.11 7.3 -1.76
2.58 8.94 -1.81
8.16 28.28 2.58
3.28 11.37 -1.88
7.83 27.15 3.47
4.53 15.7 -2.01
6.68 23.15 3.82
6.22 21.57 -1.96
8.29 28.74 5.82
9.46 32.79 -1.79
6.11 21.19 5.09
9.46 32.81 -0.6
5.91 20.48 5.71
1.81 6.19 -1.73
9.56 32.74 0.6
2.13 7.29 -1.75
2.6 8.92 -1.81
8.17 27.99 2.55
3.32 11.36 -1.87
6.6 22.61 2.89
4.58 15.67 -2
7.38 25.28 4.17
6.25 21.4 -1.95
8.38 28.7 5.81
9.56 32.74 -1.79
6.18 21.15 5.09
9.57 32.76 -0.6
6.54 22.4 6.25
1.83 6.18 -1.73
9.67 32.68 0.59
2.16 7.29 -1.76
8.75 29.57 1.62
2.63 8.89 -1.8
8.29 28.04 2.56
3.35 11.34 -1.87
4.63 15.64 -2
7.63 25.78 4.26
6.39 21.59 -1.97
9.67 32.67 -1.79
6.78 22.92 5.52
9.67 32.68 -0.59
6.13 20.73 5.79
1.85 6.17 -1.72
9.78 32.62 0.59
2.18 7.28 -1.75
8.81 29.38 1.61
2.66 8.88 -1.8
8.42 28.08 2.56
3.39 11.31 -1.87
8.72 29.09 3.73
4.68 15.61 -2
7.55 25.18 4.16
6.53 21.78 -1.99
9.78 32.61 -1.78
6.39 21.3 5.13
9.78 32.62 -0.59
6.19 20.66 5.78
1.87 6.16 -1.72
9.88 32.56 0.59
2.21 7.26 -1.75
8.92 29.37 1.61
2.69 8.87 -1.8
3.43 11.28 -1.87
8.26 27.21 3.49
4.74 15.6 -2
8.08 26.62 4.41
6.63 21.84 -2
8.51 28.02 5.69
9.89 32.57 -1.78
6.53 21.51 5.19
9.88 32.56 -0.59
6.76 22.26 6.23
1.89 6.16 -1.73
9.99 32.5 0.59
2.23 7.24 -1.75
8.73 28.38 1.56
2.72 8.85 -1.8
9.11 29.64 2.71
3.46 11.27 -1.87
8.36 27.19 3.49
4.79 15.59 -2
7.88 25.63 4.25
6.7 21.8 -2
8.87 28.85 5.87
9.99 32.51 -1.78
9.99 32.51 -0.59
6.87 22.33 6.26
1.91 6.15 -1.73
10.1 32.44 0.59
2.25 7.22 -1.75
10.11 32.49 1.78
2.75 8.84 -1.8
3.5 11.24 -1.87
9.43 30.3 3.9
4.85 15.58 -2
8.44 27.12 4.5
6.79 21.81 -2
7.52 24.17 4.92
10.08 32.38 -1.78
6.62 21.28 5.15
10.09 32.41 -0.59
6.89 22.14 6.21
1.93 6.14 -1.73
10.19 32.35 0.59
2.27 7.22 -1.75
8.99 28.54 1.57
2.78 8.82 -1.8
3.54 11.23 -1.87
8.97 28.49 3.67
4.9 15.55 -2
8.57 27.2 4.52
6.88 21.86 -2.01
7.66 24.34 4.96
10.2 32.38 -1.78
6.7 21.27 5.15
10.19 32.34 -0.59
6.92 21.96 6.17
1.95 6.12 -1.72
2.3 7.21 -1.75
9.08 28.47 1.57
2.81 8.8 -1.8
3.57 11.21 -1.86
7.05 22.13 2.85
4.94 15.51 -2
8.74 27.42 4.56
7 21.97 -2.02
7.66 24.02 4.9
6.77 21.23 5.15
7.08 22.22 6.25
1.97 6.12 -1.72
2.32 7.2 -1.75
9.21 28.53 1.57
2.84 8.79 -1.8
9.02 27.97 2.57
3.6 11.17 -1.86
9.28 28.76 3.71
4.99 15.46 -1.99
8.84 27.39 4.56
7.11 22.02 -2.02
7.78 24.11 4.92
7.07 21.91 6.17
1.99 6.1 -1.72
2.34 7.18 -1.74
9.58 29.36 1.62
2.87 8.78 -1.79
9.08 27.81 2.56
3.64 11.16 -1.86
9.25 28.34 3.66
5.03 15.42 -1.99
8.93 27.34 4.56
7.2 22.06 -2.03
7.98 24.46 5
2.02 6.1 -1.72
2.37 7.16 -1.74
9.66 29.23 1.61
2.9 8.77 -1.79
9.19 27.82 2.56
3.68 11.14 -1.86
7.25 21.95 2.84
5.08 15.38 -1.99
9.02 27.31 4.56
7.3 22.09 -2.04
7.93 23.99 4.91
8.91 26.97 6.56
7.63 23.09 6.51
2.03 6.09 -1.72
2.39 7.15 -1.74
9.7 29.02 1.6
2.92 8.74 -1.79
3.72 11.12 -1.86
9.48 28.35 3.67
5.12 15.32 -1.98
9.11 27.27 4.55
7.36 22.02 -2.03
7.39 22.12 4.53
7.18 21.47 5.23
9.64 28.83 8.15
2.05 6.07 -1.72
2.42 7.15 -1.74
9.86 29.15 1.61
2.95 8.73 -1.79
3.75 11.1 -1.86
7.66 22.66 2.94
5.17 15.3 -1.98
8.99 26.6 4.45
7.47 22.09 -2.04
7.48 22.11 4.54
7.79 23.03 5.61
8.64 25.56 7.23
2.08 6.07 -1.72
2.44 7.15 -1.74
2.98 8.72 -1.79
9.49 27.75 2.57
3.79 11.08 -1.85
7.66 22.41 2.91
5.22 15.28 -1.98
9.33 27.29 4.57
7.59 22.19 -2.05
9.38 27.43 5.63
7.89 23.06 5.63
9.71 28.39 8.04
2.1 6.06 -1.72
2.46 7.11 -1.74
3.01 8.71 -1.79
7.43 21.47 1.99
3.82 11.05 -1.85
7.72 22.32 2.9
5.27 15.22 -1.98
9.43 27.25 4.57
7.68 22.21 -2.06
9.5 27.48 5.65
7.97 23.03 5.63
9.52 27.51 7.8
2.12 6.05 -1.72
2.48 7.11 -1.74
10.14 29 1.61
3.04 8.69 -1.79
9.59 27.43 2.54
3.86 11.03 -1.85
7.68 21.98 2.86
5.31 15.18 -1.97
9.53 27.27 4.58
7.79 22.29 -2.07
10.24 29.3 6.03
8.91 25.47 7.23
2.14 6.05 -1.72
2.51 7.1 -1.74
3.06 8.67 -1.79
3.89 11.02 -1.85
7.66 21.68 2.82
5.35 15.16 -1.97
9.59 27.14 4.56
7.87 22.26 -2.07
8.25 23.34 4.81
8.15 23.07 5.65
2.15 6.03 -1.72
2.53 7.09 -1.74
3.09 8.65 -1.79
3.93 10.99 -1.85
7.73 21.66 2.82
5.4 15.12 -1.97
9.3 26.04 4.38
7.96 22.28 -2.07
8.27 23.16 4.78
16.58 46.43 -2.58
9.26 25.94 6.36
2.18 6.02 -1.72
2.55 7.06 -1.73
3.12 8.64 -1.79
9.78 27.05 2.52
3.96 10.97 -1.85
9.42 26.06 3.4
5.46 15.1 -1.97
9.85 27.25 4.59
8.04 22.24 -2.07
8.53 23.59 4.88
16.62 46 -2.56
9.35 25.87 6.35
2.2 6.02 -1.72
2.57 7.05 -1.73
3.15 8.62 -1.78
10.03 27.46 2.56
3.99 10.94 -1.84
