# .PCD v0.7 - Point Cloud Data file format
VERSION 0.7
FIELDS x y z
SIZE 4 4 4
TYPE F F F
COUNT 1 1 1
WIDTH 2755
HEIGHT 1
VIEWPOINT 0 0 0 1 0 0 0
POINTS 2755
DATA ascii
3.13 -5.43 -1.68
3.62 -6.28 -1.67
4.25 -7.36 -1.65
5.17 -8.95 -1.64
6.58 -11.4 -1.62
8.82 -15.28 -1.54
3.11 -5.44 -1.68
3.6 -6.28 -1.67
4.22 -7.38 -1.65
5.14 -8.97 -1.64
6.54 -11.42 -1.62
8.77 -15.31 -1.54
3.1 -5.46 -1.68
3.58 -6.3 -1.67
4.2 -7.4 -1.65
5.11 -9 -1.64
6.5 -11.45 -1.62
8.71 -15.33 -1.54
3.08 -5.46 -1.68
3.56 -6.31 -1.67
4.17 -7.4 -1.65
5.08 -9.02 -1.64
6.46 -11.46 -1.62
8.66 -15.37 -1.54
13.33 -23.66 -1.42
3.05 -5.46 -1.68
3.54 -6.33 -1.67
4.15 -7.42 -1.65
5.05 -9.04 -1.64
6.42 -11.49 -1.62
8.59 -15.38 -1.54
3.04 -5.48 -1.68
3.52 -6.34 -1.67
4.12 -7.44 -1.65
5.01 -9.04 -1.64
6.39 -11.53 -1.62
8.54 -15.41 -1.54
3.02 -5.49 -1.68
3.48 -6.34 -1.67
4.1 -7.46 -1.65
4.98 -9.06 -1.64
6.35 -11.55 -1.62
8.46 -15.4 -1.54
3 -5.51 -1.68
3.47 -6.36 -1.67
4.07 -7.47 -1.65
4.95 -9.09 -1.64
6.3 -11.56 -1.62
8.41 -15.44 -1.54
2.98 -5.52 -1.68
3.44 -6.37 -1.67
4.04 -7.48 -1.65
4.92 -9.1 -1.64
6.26 -11.59 -1.62
8.36 -15.46 -1.54
2.96 -5.52 -1.68
3.42 -6.38 -1.67
4.02 -7.5 -1.65
4.89 -9.12 -1.64
6.23 -11.62 -1.62
8.31 -15.51 -1.54
2.94 -5.53 -1.68
3.4 -6.4 -1.67
4 -7.52 -1.65
4.85 -9.12 -1.64
6.18 -11.63 -1.62
8.24 -15.51 -1.54
2.92 -5.54 -1.68
3.37 -6.4 -1.67
3.97 -7.54 -1.66
4.82 -9.14 -1.64
6.15 -11.67 -1.62
8.22 -15.59 -1.54
12.17 -23.1 -1.37
2.9 -5.56 -1.68
3.35 -6.41 -1.67
3.95 -7.55 -1.66
4.79 -9.17 -1.64
6.1 -11.68 -1.62
8.16 -15.61 -1.54
12.16 -23.26 -1.38
2.88 -5.57 -1.68
3.33 -6.42 -1.67
3.91 -7.55 -1.65
4.76 -9.19 -1.64
6.07 -11.71 -1.62
8.1 -15.64 -1.54
12.15 -23.46 -1.38
2.86 -5.57 -1.68
3.31 -6.44 -1.67
3.89 -7.57 -1.66
4.73 -9.2 -1.64
6.03 -11.74 -1.62
8.04 -15.65 -1.54
12.19 -23.73 -1.4
2.84 -5.58 -1.68
3.29 -6.45 -1.67
3.87 -7.6 -1.66
4.69 -9.21 -1.64
5.99 -11.75 -1.62
7.99 -15.68 -1.54
12.16 -23.88 -1.4
2.82 -5.59 -1.68
3.25 -6.44 -1.67
3.84 -7.61 -1.66
4.66 -9.23 -1.64
5.95 -11.78 -1.62
7.94 -15.72 -1.54
12.11 -23.99 -1.41
2.81 -5.61 -1.68
3.23 -6.46 -1.67
3.82 -7.62 -1.66
4.63 -9.24 -1.64
5.9 -11.78 -1.62
7.89 -15.75 -1.54
12.05 -24.05 -1.41
2.79 -5.62 -1.68
3.22 -6.48 -1.67
3.79 -7.62 -1.65
4.6 -9.27 -1.64
5.87 -11.82 -1.62
7.84 -15.79 -1.54
12.18 -24.53 -1.44
2.76 -5.62 -1.68
3.2 -6.5 -1.67
3.76 -7.65 -1.66
4.57 -9.28 -1.64
5.83 -11.84 -1.62
7.79 -15.82 -1.54
12.12 -24.63 -1.44
2.75 -5.63 -1.68
3.17 -6.5 -1.67
3.74 -7.67 -1.66
4.53 -9.29 -1.64
5.79 -11.87 -1.62
7.74 -15.88 -1.55
12.02 -24.63 -1.44
10.42 -21.36 -0.41
2.73 -5.64 -1.68
3.14 -6.51 -1.67
3.71 -7.67 -1.66
4.5 -9.3 -1.64
5.75 -11.89 -1.62
7.71 -15.95 -1.55
11.95 -24.73 -1.44
2.71 -5.65 -1.68
3.12 -6.51 -1.67
3.69 -7.7 -1.66
4.46 -9.32 -1.64
5.7 -11.9 -1.62
7.66 -16 -1.55
10.26 -21.42 -1.24
2.69 -5.66 -1.68
3.11 -6.54 -1.67
3.65 -7.7 -1.66
4.43 -9.34 -1.64
5.67 -11.93 -1.62
7.63 -16.06 -1.56
11.89 -25.05 -1.45
2.67 -5.67 -1.68
3.08 -6.55 -1.67
3.63 -7.72 -1.66
4.4 -9.35 -1.64
5.63 -11.96 -1.62
7.57 -16.09 -1.56
11.79 -25.06 -1.45
2.65 -5.68 -1.68
3.06 -6.56 -1.67
3.61 -7.73 -1.66
4.37 -9.36 -1.64
5.59 -11.98 -1.62
7.54 -16.17 -1.56
11.71 -25.1 -1.45
2.63 -5.69 -1.68
3.03 -6.56 -1.67
3.58 -7.76 -1.66
4.33 -9.38 -1.64
5.54 -11.99 -1.62
7.51 -16.25 -1.57
11.61 -25.13 -1.45
2.61 -5.7 -1.68
3.01 -6.57 -1.67
3.56 -7.77 -1.66
4.3 -9.4 -1.64
5.5 -12.01 -1.62
7.47 -16.31 -1.57
11.55 -25.24 -1.45
2.59 -5.71 -1.68
2.99 -6.59 -1.67
3.53 -7.77 -1.66
4.27 -9.41 -1.64
5.46 -12.04 -1.62
7.42 -16.36 -1.57
11.65 -25.67 -1.48
2.57 -5.71 -1.68
2.97 -6.61 -1.67
3.5 -7.8 -1.66
4.24 -9.42 -1.64
5.42 -12.06 -1.62
7.37 -16.4 -1.57
11.6 -25.81 -1.48
2.55 -5.72 -1.68
2.94 -6.61 -1.67
3.48 -7.81 -1.66
4.19 -9.42 -1.63
5.38 -12.08 -1.62
7.33 -16.47 -1.58
11.52 -25.86 -1.48
2.53 -5.74 -1.68
2.92 -6.62 -1.67
3.45 -7.82 -1.66
4.17 -9.44 -1.63
5.34 -12.1 -1.62
7.28 -16.51 -1.58
11.75 -26.62 -1.52
2.51 -5.75 -1.68
2.9 -6.63 -1.67
3.42 -7.83 -1.66
4.14 -9.46 -1.64
5.3 -12.12 -1.62
7.25 -16.59 -1.58
11.77 -26.93 -1.54
2.49 -5.76 -1.68
2.87 -6.64 -1.67
3.39 -7.83 -1.66
4.1 -9.48 -1.64
5.25 -12.13 -1.62
7.2 -16.63 -1.59
11.73 -27.1 -1.55
2.47 -5.76 -1.68
2.85 -6.66 -1.67
3.36 -7.84 -1.66
4.07 -9.49 -1.64
5.21 -12.14 -1.62
7.15 -16.68 -1.59
11.98 -27.95 -1.59
5.66 -13.21 3.85
2.45 -5.77 -1.68
2.83 -6.67 -1.67
3.33 -7.85 -1.66
4.03 -9.5 -1.63
5.17 -12.17 -1.62
7.1 -16.73 -1.59
11.89 -28.01 -1.59
5.62 -13.23 3.85
2.43 -5.78 -1.68
2.8 -6.66 -1.67
3.31 -7.87 -1.66
4 -9.51 -1.63
5.12 -12.19 -1.62
7.06 -16.79 -1.59
11.57 -27.52 -1.56
5.58 -13.27 3.86
2.41 -5.79 -1.68
2.78 -6.68 -1.67
3.28 -7.88 -1.66
3.97 -9.52 -1.63
5.07 -12.18 -1.62
7.02 -16.85 -1.6
12 -28.82 -1.64
5.55 -13.34 3.87
2.4 -5.81 -1.68
2.76 -6.69 -1.67
3.25 -7.89 -1.66
5.67 -13.74 1.3
3.93 -9.54 -1.63
5.03 -12.2 -1.62
6.98 -16.92 -1.6
12.06 -29.23 -1.66
2.37 -5.8 -1.68
2.74 -6.71 -1.67
3.22 -7.9 -1.66
3.9 -9.56 -1.64
4.99 -12.22 -1.62
6.92 -16.94 -1.6
12.08 -29.58 -1.67
2.35 -5.81 -1.68
2.72 -6.72 -1.67
3.2 -7.92 -1.66
5.63 -13.93 1.31
3.86 -9.56 -1.63
4.94 -12.21 -1.62
6.87 -17 -1.6
12.02 -29.73 -1.68
5.58 -13.81 3.44
2.33 -5.82 -1.68
2.69 -6.72 -1.67
3.18 -7.94 -1.66
5.55 -13.88 1.31
3.83 -9.57 -1.63
4.89 -12.22 -1.62
6.82 -17.05 -1.61
12.06 -30.13 -1.7
5.49 -13.72 3.41
2.31 -5.83 -1.68
2.67 -6.73 -1.67
3.15 -7.95 -1.66
5.54 -14 1.32
3.8 -9.59 -1.63
4.85 -12.23 -1.62
6.77 -17.1 -1.61
12.09 -30.51 -1.72
5.44 -13.72 3.41
2.29 -5.84 -1.68
2.64 -6.75 -1.67
3.12 -7.95 -1.66
3.77 -9.61 -1.63
5.47 -13.96 1.84
4.81 -12.28 -1.62
5.46 -13.92 2.37
6.73 -17.17 -1.61
5.46 -13.92 2.91
12.04 -30.72 -1.73
5.4 -13.77 3.42
2.26 -5.83 -1.68
5.43 -13.99 0.26
2.62 -6.76 -1.67
5.43 -13.99 0.79
3.09 -7.96 -1.66
5.42 -13.96 1.31
3.74 -9.63 -1.64
5.41 -13.94 1.84
4.79 -12.34 -1.63
5.4 -13.92 2.36
5.44 -14.01 -1.31
5.39 -13.89 2.9
5.43 -14 -0.79
5.43 -13.99 -0.26
2.24 -5.84 -1.68
5.37 -13.97 0.26
2.6 -6.77 -1.67
5.37 -13.98 0.78
3.06 -7.97 -1.66
5.36 -13.95 1.31
3.7 -9.63 -1.63
5.35 -13.94 1.83
4.76 -12.39 -1.63
5.38 -14 -1.31
5.34 -13.9 2.89
5.37 -13.99 -0.79
5.37 -13.99 -0.26
2.23 -5.86 -1.68
5.32 -14 0.26
2.57 -6.77 -1.67
5.32 -13.99 0.78
3.04 -7.99 -1.66
5.32 -14 1.31
3.67 -9.65 -1.64
5.31 -13.96 1.83
4.72 -12.42 -1.63
5.33 -14.03 -1.31
5.32 -13.99 -0.78
5.32 -14.01 -0.26
2.21 -5.87 -1.68
15.1 -40.14 0.75
2.55 -6.78 -1.67
15.09 -40.11 2.25
3.01 -8 -1.66
5.26 -13.99 1.31
3.64 -9.67 -1.64
5.29 -14.06 1.84
4.67 -12.41 -1.63
5.3 -14.08 -1.32
5.28 -14.04 -0.79
5.29 -14.05 -0.26
2.19 -5.88 -1.68
2.53 -6.79 -1.67
2.98 -8.01 -1.66
5.17 -13.89 1.3
3.6 -9.69 -1.64
5.25 -14.12 1.85
4.63 -12.44 -1.63
5.3 -14.23 -0.8
2.17 -5.88 -1.68
2.51 -6.81 -1.67
2.95 -8.02 -1.66
5.11 -13.88 1.29
3.57 -9.7 -1.64
4.57 -12.41 -1.62
5.2 -14.13 2.38
6.44 -17.5 -1.63
5.2 -14.13 2.93
12.08 -32.81 -1.83
2.15 -5.89 -1.68
2.48 -6.81 -1.67
2.93 -8.03 -1.66
5.07 -13.93 1.3
3.53 -9.7 -1.64
4.52 -12.42 -1.62
5.18 -14.23 2.4
6.4 -17.57 -1.64
5.17 -14.19 2.94
12.05 -33.08 -1.85
2.13 -5.9 -1.68
14.5 -40.22 0.75
2.46 -6.81 -1.67
14.49 -40.21 2.24
2.9 -8.05 -1.66
5.04 -13.98 1.3
3.5 -9.72 -1.64
14.47 -40.16 5.24
4.47 -12.4 -1.62
5.16 -14.31 2.41
6.33 -17.57 -1.63
5.14 -14.26 2.95
11.95 -33.15 -1.85
2.11 -5.91 -1.68
14.34 -40.23 0.75
2.43 -6.82 -1.67
14.33 -40.21 2.24
2.87 -8.05 -1.66
3.47 -9.74 -1.64
14.32 -40.17 5.24
4.43 -12.44 -1.62
5.12 -14.37 2.42
6.33 -17.75 -1.65
11.98 -33.62 -1.87
5.4 -15.15 4.31
2.09 -5.92 -1.68
14.19 -40.24 0.74
2.41 -6.83 -1.67
14.18 -40.21 2.23
2.84 -8.07 -1.66
3.44 -9.76 -1.64
14.17 -40.18 5.23
4.39 -12.45 -1.62
6.27 -17.78 -1.65
11.9 -33.75 -1.88
5.32 -15.08 4.28
2.06 -5.91 -1.68
14.03 -40.25 0.74
2.39 -6.85 -1.67
14.02 -40.22 2.23
2.81 -8.07 -1.66
3.41 -9.77 -1.64
6.57 -18.86 2.45
4.35 -12.47 -1.62
5.01 -14.38 2.41
6.19 -17.77 -1.65
11.84 -33.96 -1.89
2.04 -5.93 -1.68
13.88 -40.26 0.74
2.37 -6.86 -1.68
13.87 -40.24 2.23
2.79 -8.09 -1.66
13.86 -40.2 3.72
3.37 -9.77 -1.64
13.86 -40.21 5.22
4.31 -12.51 -1.62
4.98 -14.43 2.42
6.1 -17.71 -1.64
11.71 -33.97 -1.88
2.02 -5.94 -1.68
13.72 -40.27 0.74
2.34 -6.86 -1.67
13.72 -40.25 2.23
2.76 -8.11 -1.66
13.71 -40.21 3.72
3.34 -9.79 -1.64
6.39 -18.74 2.43
4.28 -12.55 -1.63
4.93 -14.46 2.42
6.07 -17.82 -1.65
11.73 -34.42 -1.91
2.01 -5.95 -1.68
13.57 -40.27 0.74
2.31 -6.87 -1.67
13.56 -40.25 2.23
2.73 -8.11 -1.66
13.56 -40.23 3.71
3.3 -9.81 -1.64
6.17 -18.31 2.37
4.23 -12.55 -1.63
6.01 -17.84 -1.65
11.66 -34.6 -1.91
1.99 -5.98 -1.69
13.41 -40.28 0.74
2.29 -6.89 -1.68
13.41 -40.26 2.22
2.7 -8.12 -1.66
13.4 -40.25 3.71
3.27 -9.81 -1.64
6.08 -18.27 2.36
4.19 -12.58 -1.63
5.92 -17.77 -1.64
11.58 -34.76 -1.92
5.17 -15.54 3.78
1.96 -5.96 -1.68
13.26 -40.29 0.74
2.27 -6.9 -1.68
13.25 -40.26 2.22
2.68 -8.13 -1.66
13.24 -40.24 3.71
3.24 -9.83 -1.64
5.99 -18.2 2.35
4.15 -12.6 -1.63
6.34 -19.25 3.21
5.82 -17.69 -1.63
11.67 -35.46 -1.96
1.94 -5.97 -1.68
13.11 -40.3 0.74
2.24 -6.9 -1.68
13.1 -40.28 2.22
2.65 -8.14 -1.66
13.09 -40.25 3.7
3.2 -9.84 -1.64
5.91 -18.16 2.34
4.11 -12.63 -1.63
6.29 -19.33 3.22
5.77 -17.74 -1.63
4.97 -15.27 3.71
1.92 -5.98 -1.68
12.96 -40.3 0.74
2.22 -6.9 -1.67
12.95 -40.3 2.22
2.62 -8.16 -1.67
12.94 -40.25 3.7
3.17 -9.86 -1.64
4.57 -14.2 1.83
4.07 -12.65 -1.63
6.22 -19.36 3.22
5.62 -17.48 -1.61
4.91 -15.27 3.7
1.9 -5.99 -1.68
12.8 -40.32 0.74
2.2 -6.91 -1.67
12.8 -40.29 2.22
2.59 -8.16 -1.66
12.79 -40.28 3.7
3.13 -9.87 -1.64
5.82 -18.33 2.36
4.04 -12.71 -1.64
6.08 -19.16 3.18
5.6 -17.64 -1.62
10.64 -33.49 -1.84
4.86 -15.31 3.71
1.88 -6 -1.68
12.66 -40.31 0.74
2.18 -6.92 -1.68
12.66 -40.28 2.21
2.56 -8.15 -1.66
12.65 -40.27 3.69
3.1 -9.88 -1.64
5.24 -16.68 2.15
4.02 -12.81 -1.65
5.65 -17.98 -1.65
5.92 -18.84 3.84
10.57 -33.66 -1.85
1.86 -5.99 -1.68
12.52 -40.33 0.74
2.15 -6.93 -1.68
12.51 -40.3 2.21
2.54 -8.17 -1.66
12.51 -40.3 3.69
3.07 -9.89 -1.64
5.75 -18.52 2.38
3.99 -12.86 -1.65
5.02 -16.17 2.68
5.28 -17.01 -1.56
4.9 -15.78 3.21
4.76 -15.33 3.71
1.84 -6 -1.68
12.36 -40.33 0.74
2.13 -6.94 -1.68
12.36 -40.34 2.21
2.51 -8.19 -1.67
12.35 -40.3 3.69
3.03 -9.9 -1.64
5.72 -18.67 2.4
4 -13.04 -1.67
4.12 -13.44 2.23
5.5 -17.96 -1.64
4.83 -15.76 3.2
10.66 -34.78 -1.91
4.69 -15.29 3.69
1.82 -6.01 -1.68
12.2 -40.34 0.74
2.1 -6.95 -1.68
12.2 -40.32 2.21
2.48 -8.2 -1.67
12.19 -40.31 3.68
3 -9.92 -1.64
5.6 -18.53 2.38
4.01 -13.25 -1.7
4.08 -13.47 2.23
4.78 -15.79 3.21
10.58 -34.97 -1.91
4.64 -15.32 3.7
1.8 -6.02 -1.68
12.05 -40.38 0.74
2.07 -6.95 -1.67
12.05 -40.35 2.21
2.45 -8.22 -1.67
2.97 -9.94 -1.64
5.55 -18.6 2.38
3.99 -13.36 -1.71
4.82 -16.15 2.67
5.37 -18.01 -1.64
4.7 -15.76 3.2
10.59 -35.49 -1.94
4.58 -15.33 3.69
1.77 -6.02 -1.68
2.05 -6.96 -1.68
2.42 -8.21 -1.66
2.93 -9.96 -1.64
4.11 -13.94 1.78
3.97 -13.46 -1.72
5.47 -18.59 3.07
5.31 -18.02 -1.64
4.63 -15.71 3.18
10.55 -35.81 -1.96
4.51 -15.33 3.69
5.58 -18.95 -0.34
5.65 -19.19 5.36
1.75 -6.02 -1.68
2.03 -6.98 -1.68
4.81 -16.53 0.9
2.39 -8.22 -1.66
5.47 -18.78 1.71
2.9 -9.96 -1.64
4.04 -13.89 1.78
3.93 -13.5 -1.73
5.39 -18.51 3.05
5.23 -17.98 -1.64
4.55 -15.64 3.17
5.38 -18.48 -1.01
4.49 -15.43 3.71
5.51 -18.92 -0.34
4.6 -15.81 4.41
1.73 -6.04 -1.68
4.89 -17.02 0.31
2 -6.98 -1.68
4.76 -16.56 0.9
2.36 -8.23 -1.67
4.25 -14.8 1.35
2.86 -9.96 -1.64
3.99 -13.89 1.77
3.88 -13.52 -1.73
5.33 -18.56 3.06
5.16 -17.97 -1.64
4.5 -15.67 3.17
5.25 -18.28 -1
4.43 -15.43 3.71
5.73 -19.97 -0.36
4.57 -15.93 4.44
1.72 -6.06 -1.69
4.81 -16.97 0.31
1.98 -6.98 -1.68
4.69 -16.52 0.9
2.34 -8.25 -1.67
4.2 -14.79 1.35
2.83 -9.98 -1.64
3.96 -13.95 1.78
3.84 -13.54 -1.73
5.28 -18.6 3.06
5.17 -18.22 -1.66
4.43 -15.62 3.16
5.35 -18.86 -1.03
4.39 -15.48 3.71
5.61 -19.78 -0.36
4.43 -15.63 4.35
1.7 -6.06 -1.69
4.78 -17.08 0.31
1.96 -7 -1.68
4.85 -17.35 0.94
2.31 -8.26 -1.67
4.1 -14.66 1.33
2.8 -9.99 -1.64
3.96 -14.16 1.8
3.78 -13.52 -1.72
5.21 -18.61 3.06
5.11 -18.25 -1.66
4.28 -15.3 3.09
5.44 -19.45 -1.06
4.35 -15.54 3.73
5.58 -19.93 -0.36
4.35 -15.55 4.33
1.68 -6.07 -1.69
4.7 -17.04 0.31
1.93 -7.01 -1.68
4.8 -17.38 0.94
2.28 -8.26 -1.67
4.08 -14.78 1.34
2.76 -10 -1.64
3.85 -13.96 1.78
3.71 -13.43 -1.71
5.17 -18.72 3.08
5.04 -18.25 -1.66
4.24 -15.34 3.09
5.02 -18.19 -0.99
4.27 -15.47 3.71
5.18 -18.75 -0.34
4.31 -15.62 4.34
1.65 -6.07 -1.69
4.65 -17.08 0.31
1.91 -7.02 -1.68
4.71 -17.32 0.94
2.25 -8.27 -1.67
4.03 -14.82 1.34
2.72 -10.01 -1.64
3.8 -13.98 1.78
3.65 -13.42 -1.71
5.09 -18.73 3.07
5 -18.37 -1.67
4.19 -15.39 3.1
5.11 -18.8 -1.02
4.22 -15.5 3.71
5.43 -19.96 -0.36
4.22 -15.51 4.31
1.63 -6.08 -1.69
4.62 -17.22 0.31
1.89 -7.02 -1.68
4.64 -17.27 0.94
2.23 -8.29 -1.67
3.86 -14.36 1.3
2.69 -10.01 -1.64
3.8 -14.16 1.8
3.61 -13.46 -1.71
5.04 -18.77 3.08
4.13 -15.38 3.1
5.04 -18.76 -1.02
4.18 -15.55 3.72
5.25 -19.55 -0.35
3.93 -14.65 4.06
1.61 -6.09 -1.69
4.54 -17.14 0.31
1.86 -7.03 -1.68
4.58 -17.29 0.94
2.2 -8.3 -1.67
3.81 -14.4 1.3
2.65 -10.03 -1.64
3.76 -14.23 1.81
3.6 -13.61 -1.73
4.69 -17.72 2.9
4.65 -17.56 -1.59
4.07 -15.37 3.09
4.94 -18.65 -1.01
4.1 -15.51 3.7
4.88 -18.45 -0.33
3.87 -14.63 4.06
1.59 -6.11 -1.69
4.52 -17.32 0.31
1.84 -7.04 -1.68
4.56 -17.46 0.95
2.17 -8.31 -1.67
3.75 -14.37 1.3
2.62 -10.04 -1.64
3.77 -14.46 1.83
3.59 -13.74 -1.74
4.63 -17.73 2.9
4.61 -17.67 -1.6
4.01 -15.38 3.09
4.82 -18.47 -1
4.07 -15.58 3.72
5.12 -19.6 -0.35
3.82 -14.62 4.05
1.57 -6.11 -1.69
4.48 -17.41 0.31
1.81 -7.05 -1.68
4.52 -17.58 0.95
2.13 -8.29 -1.66
3.71 -14.43 1.3
2.58 -10.05 -1.64
3.77 -14.67 1.86
3.52 -13.71 -1.74
4.56 -17.73 2.9
4.42 -17.2 -1.55
5.12 -19.91 4
4.02 -15.62 3.72
4.69 -18.25 -0.33
3.78 -14.69 4.07
1.55 -6.11 -1.69
4.43 -17.46 0.31
1.79 -7.06 -1.68
4.49 -17.69 0.96
2.11 -8.31 -1.67
3.68 -14.5 1.31
2.55 -10.06 -1.64
3.71 -14.62 1.85
3.44 -13.56 -1.72
4.51 -17.77 2.9
4.36 -17.16 -1.55
5.09 -20.07 4.03
4.79 -18.88 -1.02
3.96 -15.61 3.72
4.63 -18.26 -0.33
3.77 -14.84 4.1
1.53 -6.11 -1.69
4.39 -17.58 0.32
1.77 -7.07 -1.68
4.43 -17.71 0.96
2.08 -8.34 -1.67
3.63 -14.52 1.31
2.52 -10.07 -1.64
3.71 -14.86 1.88
3.42 -13.68 -1.73
4.44 -17.76 2.9
4.26 -17.05 -1.54
4.42 -17.68 3.54
4.79 -19.17 -1.04
3.91 -15.63 3.72
4.81 -19.24 -0.35
3.76 -15.06 4.16
1.51 -6.12 -1.69
4.31 -17.52 0.31
1.74 -7.07 -1.68
4.37 -17.74 0.96
2.06 -8.35 -1.67
3.59 -14.58 1.31
2.48 -10.07 -1.64
3.65 -14.82 1.87
3.38 -13.73 -1.74
4.37 -17.77 2.9
4.11 -16.71 -1.51
4.37 -17.75 3.55
4.71 -19.14 -1.03
3.86 -15.68 3.73
4.8 -19.51 -0.35
3.78 -15.37 4.24
1.49 -6.13 -1.69
6.28 -25.91 0.47
1.71 -7.08 -1.68
4.34 -17.91 0.97
2.03 -8.36 -1.67
3.76 -15.51 1.4
2.45 -10.1 -1.65
3.58 -14.77 1.87
3.34 -13.79 -1.74
4.31 -17.77 2.9
4.07 -16.78 -1.51
3.86 -15.92 3.18
4.81 -19.84 -1.07
3.8 -15.69 3.73
4.71 -19.43 -0.35
3.71 -15.32 4.22
1.47 -6.13 -1.69
6.2 -25.92 0.47
1.69 -7.08 -1.68
4.3 -17.96 0.97
2 -8.36 -1.67
2.42 -10.11 -1.65
3.97 -16.61 2.1
3.31 -13.85 -1.75
4.27 -17.85 2.91
4.17 -17.46 -1.57
3.74 -15.66 3.13
4.57 -19.1 -1.03
3.76 -15.71 3.73
4.64 -19.4 -0.35
3.63 -15.19 4.18
1.44 -6.12 -1.69
1.67 -7.09 -1.68
4.33 -18.4 0.99
1.97 -8.37 -1.67
3.72 -15.83 1.42
2.38 -10.12 -1.65
3.89 -16.54 2.09
3.26 -13.86 -1.75
4.2 -17.85 2.9
4.05 -17.23 -1.55
3.67 -15.61 3.12
4.69 -19.94 -1.07
3.69 -15.7 3.72
4.52 -19.23 -0.34
3.59 -15.26 4.2
1.42 -6.14 -1.69
6.01 -25.94 0.46
1.65 -7.1 -1.68
4.15 -17.9 0.96
1.94 -8.38 -1.67
3.55 -15.32 1.38
2.35 -10.12 -1.65
3.83 -16.53 2.08
3.22 -13.89 -1.75
4.14 -17.85 2.9
3.88 -16.72 -1.5
3.63 -15.67 3.13
4.56 -19.67 -1.06
3.63 -15.68 3.72
4.4 -19 -0.34
3.69 -15.91 4.38
1.4 -6.16 -1.69
5.91 -25.93 0.46
1.62 -7.1 -1.68
3.56 -15.62 0.84
1.91 -8.39 -1.67
3.56 -15.6 1.4
2.31 -10.14 -1.65
3.76 -16.49 2.08
3.17 -13.9 -1.75
3.56 -15.64 2.54
3.82 -16.77 -1.5
3.67 -16.1 3.21
4.49 -19.68 -1.06
3.6 -15.78 3.74
4.33 -18.99 -0.34
3.35 -14.68 4.03
1.38 -6.17 -1.69
1.59 -7.11 -1.68
3.52 -15.69 0.84
1.88 -8.4 -1.67
3.34 -14.92 1.34
2.28 -10.16 -1.65
3.66 -16.33 2.05
3.12 -13.91 -1.75
4.04 -18.01 2.92
3.76 -16.8 -1.51
3.62 -16.14 3.22
3.91 -17.46 -0.94
3.63 -16.21 3.84
4.23 -18.88 -0.34
3.28 -14.62 4.01
1.36 -6.17 -1.69
5.71 -25.95 0.46
1.57 -7.13 -1.68
3.73 -16.94 0.91
1.85 -8.4 -1.67
3.29 -14.96 1.34
2.24 -10.18 -1.65
3.59 -16.29 2.05
3.07 -13.94 -1.75
3.94 -17.88 2.9
3.79 -17.22 -1.54
3.56 -16.16 3.22
4.39 -19.96 -1.07
4.15 -18.85 -0.34
3.23 -14.66 4.02
1.34 -6.17 -1.69
1.55 -7.13 -1.69
4 -18.42 0.99
1.82 -8.4 -1.67
3.26 -14.99 1.34
2.21 -10.19 -1.65
3.57 -16.42 2.06
3.03 -13.96 -1.75
3.88 -17.86 2.89
3.72 -17.15 -1.54
3.49 -16.07 3.2
3.8 -17.52 -0.94
3.33 -15.32 3.62
4.09 -18.82 -0.34
3.19 -14.67 4.02
1.32 -6.18 -1.69
1.52 -7.14 -1.69
3.56 -16.69 0.89
1.79 -8.42 -1.67
3.2 -14.99 1.34
2.17 -10.19 -1.65
3.48 -16.33 2.05
2.98 -13.98 -1.76
3.54 -16.58 2.69
3.62 -16.97 -1.52
3.74 -17.54 3.49
3.86 -18.09 -0.97
3.27 -15.32 3.62
4.12 -19.33 -0.34
3.13 -14.69 4.03
1.3 -6.19 -1.69
1.5 -7.14 -1.68
3.37 -16.11 0.86
1.76 -8.43 -1.67
3.14 -14.97 1.34
2.14 -10.2 -1.65
3.15 -15.03 1.89
2.93 -13.99 -1.76
3.76 -17.98 2.91
3.56 -17 -1.52
3.84 -18.34 -0.98
3.21 -15.34 3.62
3.57 -17.03 -0.3
3.08 -14.7 4.02
1.27 -6.2 -1.7
3.45 -16.8 0.3
1.47 -7.15 -1.69
3.93 -19.09 1.02
1.73 -8.43 -1.67
3.08 -15 1.34
2.1 -10.21 -1.65
3.09 -15.03 1.88
2.88 -14 -1.75
3.49 -16.95 2.74
3.55 -17.25 -1.54
3.41 -16.6 3.29
3.66 -17.79 -0.95
3.51 -17.08 -0.3
3.03 -14.73 4.03
1.26 -6.2 -1.7
3.42 -16.87 0.3
1.45 -7.16 -1.69
3.85 -18.99 1.02
1.71 -8.43 -1.67
3.23 -15.95 1.42
2.07 -10.22 -1.65
3.03 -14.95 1.87
2.84 -14.01 -1.76
3.43 -16.95 2.74
3.54 -17.46 -1.56
3.19 -15.75 3.12
3.59 -17.73 -0.95
3.42 -16.89 3.98
3.51 -17.35 -0.31
3 -14.83 4.05
1.23 -6.19 -1.69
3.39 -17.05 0.3
1.43 -7.17 -1.69
3.03 -15.25 0.82
1.68 -8.44 -1.67
3.2 -16.1 1.44
2.03 -10.23 -1.65
2.98 -15.02 1.88
2.79 -14.05 -1.76
3.37 -16.95 2.74
3.45 -17.36 -1.55
3.14 -15.79 3.13
3.52 -17.73 -0.95
3.04 -15.31 3.6
3.38 -17.02 -0.3
2.92 -14.7 4.02
1.21 -6.2 -1.69
3.33 -17.05 0.3
1.4 -7.18 -1.69
3.19 -16.36 0.87
1.65 -8.45 -1.67
3.1 -15.87 1.42
2 -10.24 -1.65
2.93 -15 1.88
2.75 -14.06 -1.76
3.33 -17.03 2.75
3.37 -17.24 -1.54
2.9 -14.85 2.94
3.45 -17.64 -0.94
3.02 -15.46 3.64
3.34 -17.13 -0.3
2.83 -14.51 3.96
1.19 -6.21 -1.7
3.26 -17.02 0.3
1.37 -7.17 -1.69
3.13 -16.36 0.87
1.62 -8.46 -1.67
3.04 -15.87 1.41
1.96 -10.24 -1.65
3.13 -16.32 2.04
2.7 -14.07 -1.76
3.32 -17.32 2.79
3.28 -17.11 -1.52
2.82 -14.71 2.91
3.38 -17.66 -0.94
2.94 -15.36 3.61
3.28 -17.12 -0.3
2.5 -13.05 3.56
1.17 -6.22 -1.7
3.2 -17.01 0.3
1.35 -7.18 -1.69
3.69 -19.65 1.05
1.59 -8.46 -1.67
2.94 -15.63 1.39
1.93 -10.26 -1.65
3.07 -16.32 2.04
2.65 -14.08 -1.76
3.25 -17.29 2.79
3.16 -16.84 -1.5
3.21 -17.09 3.38
3.3 -17.55 -0.94
3.68 -19.6 4.61
3.36 -17.9 -0.32
2.44 -13.01 3.55
1.15 -6.22 -1.7
3.12 -16.97 0.3
1.32 -7.19 -1.69
3.77 -20.48 1.09
1.56 -8.46 -1.67
2.87 -15.57 1.39
1.89 -10.27 -1.65
3.03 -16.45 2.05
2.6 -14.1 -1.76
3.18 -17.3 2.79
3.08 -16.71 -1.49
2.76 -14.99 2.96
3.33 -18.11 -0.97
3 -16.3 3.83
3.27 -17.75 -0.31
2.44 -13.24 3.61
1.12 -6.21 -1.69
3.56 -19.69 0.35
1.3 -7.2 -1.69
2.93 -16.24 0.86
1.53 -8.48 -1.67
2.83 -15.68 1.39
1.86 -10.27 -1.65
3.7 -20.47 2.55
2.55 -14.14 -1.76
2.96 -16.39 2.64
3.01 -16.66 -1.48
2.7 -14.92 2.95
3.23 -17.9 -0.95
2.41 -13.32 3.12
3.22 -17.84 -0.32
2.39 -13.21 3.6
1.1 -6.22 -1.69
3.49 -19.74 0.35
1.27 -7.21 -1.69
2.88 -16.29 0.87
1.5 -8.49 -1.67
3.52 -19.88 1.77
1.82 -10.27 -1.65
2.9 -16.41 2.05
2.51 -14.17 -1.77
2.35 -13.3 2.14
2.92 -16.48 -1.46
2.59 -14.62 2.89
3.1 -17.53 -0.93
2.82 -15.94 3.74
3.2 -18.07 -0.32
2.32 -13.14 3.58
1.08 -6.23 -1.69
3.24 -18.7 0.33
1.25 -7.2 -1.69
2.83 -16.32 0.87
1.47 -8.49 -1.67
2.49 -14.38 1.28
1.78 -10.28 -1.65
2.84 -16.4 2.04
2.46 -14.16 -1.77
2.3 -13.27 2.13
2.82 -16.26 -1.44
2.48 -14.32 2.82
3.76 -21.69 -1.15
2.37 -13.68 3.2
3.14 -18.11 -0.32
2.27 -13.08 3.56
1.06 -6.24 -1.7
3.17 -18.67 0.33
1.22 -7.21 -1.69
3.03 -17.88 0.95
1.44 -8.5 -1.67
2.44 -14.35 1.27
1.75 -10.29 -1.65
2.76 -16.26 2.02
2.4 -14.17 -1.76
2.25 -13.29 2.13
2.82 -16.6 -1.47
2.43 -14.29 2.82
2.93 -17.24 -0.92
2.32 -13.68 3.2
3.07 -18.07 -0.32
2.22 -13.1 3.56
1.04 -6.24 -1.7
3.16 -19 0.34
1.2 -7.22 -1.69
2.98 -17.9 0.95
1.41 -8.5 -1.67
2.39 -14.35 1.27
1.72 -10.31 -1.66
2.7 -16.23 2.02
2.36 -14.19 -1.77
2.21 -13.29 2.13
2.72 -16.32 -1.45
2.38 -14.28 2.81
2.81 -16.87 -0.9
2.27 -13.65 3.19
3.79 -22.75 -0.4
2.2 -13.21 3.59
1.01 -6.24 -1.69
3.07 -18.87 0.33
1.18 -7.24 -1.69
3.25 -20 1.06
1.38 -8.51 -1.68
2.34 -14.39 1.28
1.68 -10.3 -1.65
2.66 -16.33 2.03
2.31 -14.21 -1.77
2.43 -14.95 2.4
2.64 -16.25 -1.44
2.33 -14.31 2.82
2.78 -17.07 -0.91
2.23 -13.69 3.2
2.15 -13.21 3.59
0.99 -6.24 -1.69
2.99 -18.79 0.33
1.15 -7.25 -1.7
3.19 -20.08 1.07
1.35 -8.52 -1.68
2.3 -14.43 1.28
1.65 -10.35 -1.66
2.64 -16.61 2.06
2.26 -14.22 -1.77
2.13 -13.37 2.14
2.64 -16.58 -1.47
2.25 -14.13 2.78
2.71 -17 -0.9
2.21 -13.88 3.25
3.72 -23.38 -0.41
2.39 -15.05 4.08
0.97 -6.26 -1.7
2.96 -19.04 0.34
1.12 -7.23 -1.69
2.77 -17.82 0.95
1.33 -8.53 -1.68
2.25 -14.45 1.28
1.61 -10.39 -1.67
2.45 -15.77 1.96
2.21 -14.24 -1.77
2.08 -13.36 2.14
2.52 -16.25 -1.44
2.18 -14.05 2.76
2.53 -16.29 -0.86
2.14 -13.77 3.22
3.45 -22.2 -0.39
2.36 -15.21 4.12
0.95 -6.26 -1.7
2.82 -18.53 0.33
1.1 -7.25 -1.69
2.71 -17.8 0.94
1.3 -8.54 -1.68
2.69 -17.66 1.56
1.6 -10.49 -1.68
2.19 -14.41 1.79
2.17 -14.25 -1.77
2.04 -13.41 2.15
2.47 -16.25 -1.44
2.14 -14.08 2.77
2.62 -17.2 -0.91
2.09 -13.72 3.2
3.34 -21.92 -0.39
2.31 -15.16 4.11
0.93 -6.27 -1.7
3 -20.21 0.36
1.08 -7.25 -1.69
2.66 -17.91 0.95
1.27 -8.54 -1.68
2.04 -13.78 1.22
1.57 -10.56 -1.69
2.14 -14.44 1.79
2.12 -14.26 -1.77
2 -13.46 2.15
2.42 -16.3 -1.44
2.3 -15.53 3.05
2.54 -17.13 -0.91
2.04 -13.72 3.2
3.22 -21.71 -0.38
2.24 -15.09 4.09
0.91 -6.26 -1.7
3.71 -25.53 0.45
1.05 -7.25 -1.69
2.98 -20.5 1.09
1.24 -8.54 -1.68
2 -13.74 1.22
1.54 -10.59 -1.7
2.1 -14.48 1.8
2.07 -14.25 -1.77
1.98 -13.61 2.18
2.38 -16.37 -1.45
2.51 -17.26 -0.91
2 -13.75 3.21
3.26 -22.46 -0.4
2.2 -15.17 4.11
0.89 -6.27 -1.7
4.24 -29.99 0.53
1.03 -7.25 -1.69
2.91 -20.55 1.09
1.21 -8.55 -1.68
1.94 -13.74 1.21
1.5 -10.6 -1.7
2.91 -20.59 2.55
2.02 -14.26 -1.77
1.93 -13.62 2.18
2.32 -16.42 -1.45
2.2 -15.53 3.05
2.44 -17.27 -0.91
1.98 -13.98 3.26
2.28 -16.14 4.37
0.87 -6.28 -1.7
3.22 -23.35 0.41
1 -7.25 -1.69
2.85 -20.65 1.09
1.18 -8.57 -1.68
1.89 -13.73 1.21
1.46 -10.62 -1.7
2 -14.5 1.8
1.97 -14.27 -1.77
1.89 -13.7 2.19
2.17 -15.76 -1.39
2.16 -15.66 3.07
2.37 -17.22 -0.91
1.96 -14.19 3.31
3.27 -23.7 -0.42
2.07 -15.01 4.06
0.84 -6.28 -1.7
2.79 -20.8 0.37
0.97 -7.26 -1.69
2.41 -17.93 0.95
1.15 -8.57 -1.68
1.84 -13.75 1.21
1.43 -10.64 -1.7
1.95 -14.53 1.8
1.91 -14.27 -1.77
1.84 -13.74 2.2
2.13 -15.84 -1.4
2.62 -19.55 3.83
2.2 -16.39 -0.87
1.91 -14.24 3.32
3.08 -22.95 -0.4
2.07 -15.42 4.17
0.82 -6.29 -1.7
2.72 -20.75 0.37
0.95 -7.27 -1.69
2.71 -20.69 1.09
1.12 -8.57 -1.68
1.79 -13.68 1.21
1.4 -10.66 -1.7
1.89 -14.45 1.79
1.87 -14.28 -1.77
2.2 -16.78 2.68
2.08 -15.91 -1.4
2.28 -17.43 3.42
2.13 -16.23 -0.86
1.85 -14.15 3.29
2.73 -20.87 -0.37
2 -15.29 4.13
0.8 -6.27 -1.69
2.64 -20.75 0.37
0.93 -7.28 -1.69
2.28 -17.89 0.95
1.09 -8.58 -1.68
1.82 -14.3 1.26
1.36 -10.66 -1.7
1.77 -13.91 1.72
1.82 -14.29 -1.77
1.78 -13.99 2.23
2.01 -15.81 -1.39
2.22 -17.43 3.42
2.2 -17.25 -0.91
1.81 -14.17 3.3
2.65 -20.81 -0.37
1.97 -15.49 4.18
0.78 -6.28 -1.7
2.58 -20.81 0.37
0.9 -7.28 -1.69
1.79 -14.46 0.76
1.06 -8.59 -1.68
1.76 -14.19 1.25
1.32 -10.66 -1.7
1.74 -14.02 1.74
1.77 -14.33 -1.77
1.72 -13.92 2.22
2.16 -17.41 3.41
2.59 -20.92 -1.1
1.83 -14.81 3.45
2.58 -20.82 -0.37
1.91 -15.43 4.16
0.76 -6.29 -1.7
0.88 -7.28 -1.69
1.73 -14.41 0.76
1.03 -8.6 -1.68
1.69 -14.01 1.23
1.28 -10.65 -1.7
1.67 -13.87 1.72
1.72 -14.33 -1.77
1.68 -13.94 2.22
1.98 -16.42 -1.45
2.09 -17.38 3.4
2.51 -20.87 -1.1
1.8 -14.95 3.48
2.51 -20.85 -0.37
2.16 -17.95 4.84
0.74 -6.3 -1.7
4.37 -37.39 0.66
0.85 -7.29 -1.69
1.67 -14.32 0.76
1 -8.6 -1.68
1.61 -13.8 1.22
1.25 -10.67 -1.7
1.62 -13.91 1.72
1.67 -14.31 -1.77
1.63 -13.96 2.23
1.9 -16.24 -1.43
2.03 -17.41 3.41
2.44 -20.88 -1.1
1.76 -15.03 3.49
2.43 -20.82 -0.37
1.84 -15.78 4.26
0.71 -6.3 -1.7
3.15 -27.82 0.49
0.83 -7.29 -1.69
1.63 -14.4 0.76
0.97 -8.6 -1.68
1.57 -13.84 1.22
1.21 -10.68 -1.7
1.62 -14.33 1.77
1.62 -14.31 -1.77
1.6 -14.13 2.25
1.78 -15.69 -1.38
1.97 -17.43 3.41
2.36 -20.88 -1.1
1.7 -14.98 3.48
2.35 -20.72 -0.36
2.01 -17.78 4.79
0.69 -6.3 -1.7
2.34 -21.33 0.37
0.8 -7.3 -1.7
1.95 -17.78 0.94
0.94 -8.61 -1.68
1.17 -10.7 -1.71
1.51 -13.78 1.7
1.57 -14.33 -1.77
1.55 -14.1 2.25
1.77 -16.14 -1.42
1.62 -14.74 2.88
2.47 -22.56 -1.19
1.65 -15.03 3.49
2.29 -20.83 -0.37
1.8 -16.37 4.41
0.67 -6.31 -1.7
3.6 -33.92 0.6
0.78 -7.31 -1.7
1.89 -17.77 0.94
0.92 -8.63 -1.69
1.53 -14.45 1.27
1.14 -10.7 -1.7
1.78 -16.81 2.08
1.52 -14.34 -1.77
1.49 -14.07 2.24
1.65 -15.59 -1.37
1.6 -15.08 2.95
1.89 -17.79 -0.94
1.61 -15.14 3.52
2.23 -21.02 -0.37
1.71 -16.15 4.35
0.65 -6.31 -1.7
3.48 -33.95 0.6
0.75 -7.3 -1.69
1.81 -17.65 0.93
0.89 -8.65 -1.69
2.11 -20.56 1.81
1.1 -10.71 -1.7
1.47 -14.3 1.76
1.47 -14.35 -1.77
1.44 -14.08 2.24
1.68 -16.35 -1.44
1.52 -14.82 2.9
1.82 -17.74 -0.93
1.53 -14.93 3.46
2.16 -21.03 -0.37
2.1 -20.42 5.5
0.63 -6.31 -1.7
3.68 -37.15 0.65
0.72 -7.31 -1.7
1.75 -17.64 0.93
0.86 -8.65 -1.69
1.54 -15.5 1.36
1.06 -10.72 -1.71
1.39 -13.99 1.73
1.42 -14.35 -1.77
1.39 -14.04 2.23
1.56 -15.78 -1.39
1.47 -14.87 2.9
1.76 -17.77 -0.94
1.53 -15.44 3.58
2.09 -21.07 -0.37
1.67 -16.87 4.54
0.6 -6.32 -1.7
2.52 -26.33 0.46
0.7 -7.32 -1.7
1.68 -17.63 0.93
0.83 -8.67 -1.69
1.48 -15.49 1.36
1.03 -10.73 -1.71
1.34 -13.97 1.72
1.37 -14.36 -1.77
1.34 -13.98 2.22
1.62 -16.98 -1.49
2.02 -21.11 4.12
1.7 -17.8 -0.94
1.34 -14.07 3.26
2.52 -26.39 -0.46
1.98 -20.73 5.58
0.58 -6.32 -1.7
2.42 -26.33 0.46
0.68 -7.34 -1.7
1.59 -17.31 0.91
0.8 -8.68 -1.69
1.55 -16.87 1.48
0.99 -10.74 -1.71
1.36 -14.73 1.82
1.32 -14.37 -1.77
1.29 -13.97 2.22
1.59 -17.27 -1.52
1.95 -21.13 4.12
2.04 -22.13 -1.16
1.3 -14.17 3.28
2.43 -26.37 -0.46
1.88 -20.41 5.49
0.56 -6.32 -1.7
1.67 -18.79 0.33
0.65 -7.35 -1.7
1.54 -17.33 0.91
0.77 -8.7 -1.7
1.88 -21.16 1.86
0.95 -10.74 -1.71
1.37 -15.39 1.9
1.27 -14.37 -1.77
1.38 -15.57 2.48
1.54 -17.32 -1.52
1.38 -15.52 3.03
2.05 -23.12 -1.22
1.26 -14.19 3.29
2.35 -26.47 -0.46
1.5 -16.88 4.54
0.54 -6.33 -1.7
1.6 -18.79 0.33
0.63 -7.34 -1.7
1.72 -20.19 1.06
1.45 -17 1.49
0.92 -10.77 -1.71
1.26 -14.77 1.82
1.22 -14.37 -1.77
1.32 -15.54 2.47
1.5 -17.58 -1.54
1.4 -16.39 3.2
1.53 -17.93 -0.94
1.21 -14.2 3.29
2.25 -26.38 -0.46
1.46 -17.13 4.61
0.52 -6.34 -1.71
1.42 -17.43 0.31
1.42 -17.36 0.91
1.4 -17.15 1.51
0.88 -10.78 -1.71
1.24 -15.2 1.87
1.17 -14.37 -1.77
1.27 -15.58 2.48
1.41 -17.3 -1.52
1.33 -16.31 3.18
1.42 -17.46 -0.92
1.16 -14.28 3.31
1.42 -17.46 -0.31
1.39 -17.11 4.6
0.49 -6.34 -1.71
1.35 -17.34 0.3
1.35 -17.3 0.91
1.34 -17.18 1.51
0.84 -10.8 -1.72
1.18 -15.17 1.87
1.12 -14.37 -1.77
1.21 -15.47 2.46
1.35 -17.26 -1.51
1.28 -16.41 3.2
1.35 -17.37 -0.91
1.12 -14.32 3.32
1.35 -17.35 -0.3
1.27 -16.28 4.37
0.47 -6.33 -1.7
1.29 -17.31 0.3
1.29 -17.23 0.91
1.26 -16.84 1.48
0.81 -10.81 -1.72
1.14 -15.21 1.87
1.07 -14.37 -1.77
1.16 -15.51 2.46
1.29 -17.24 -1.51
1.17 -15.68 3.06
1.28 -17.15 3.97
1.29 -17.34 -0.3
1.21 -16.15 4.34
0.45 -6.34 -1.7
1.23 -17.3 0.3
1.23 -17.23 0.91
1.08 -15.21 1.33
0.77 -10.81 -1.72
1.07 -15.09 1.86
1.02 -14.37 -1.77
1.08 -15.2 2.41
1.22 -17.21 -1.51
1.22 -17.16 3.34
1.14 -16 -0.84
1.04 -14.6 3.38
1.23 -17.34 -0.3
1.11 -15.56 4.18
0.43 -6.34 -1.7
1.17 -17.3 0.3
1.16 -17.2 0.9
1.03 -15.25 1.34
0.73 -10.81 -1.72
1.17 -17.25 2.12
0.97 -14.37 -1.77
1.03 -15.16 2.41
1.15 -17.02 -1.49
0.99 -14.69 2.86
1.17 -17.3 -0.91
1.17 -17.34 -0.3
1.05 -15.57 4.18
0.41 -6.34 -1.7
1.11 -17.34 0.3
1.07 -16.61 0.87
0.98 -15.31 1.34
0.69 -10.82 -1.72
1.11 -17.36 2.14
0.92 -14.36 -1.77
0.97 -15.11 2.4
1.04 -16.21 -1.42
0.94 -14.69 2.86
1 -15.67 3.62
1.11 -17.34 -0.3
1 -15.57 4.18
0.39 -6.37 -1.71
1.06 -17.47 0.31
0.87 -14.41 0.76
0.91 -14.97 1.31
0.66 -10.86 -1.72
1.15 -18.97 2.33
0.87 -14.35 -1.76
0.9 -14.9 2.36
0.95 -15.64 -1.37
0.89 -14.7 2.86
1.05 -17.35 -0.91
0.95 -15.61 3.61
1.05 -17.38 -0.3
0.94 -15.57 4.18
1.06 -18.61 0.33
0.82 -14.38 0.75
0.85 -14.91 1.31
0.62 -10.87 -1.72
0.88 -15.33 1.89
0.82 -14.35 -1.77
0.85 -14.79 2.35
0.84 -14.76 2.87
0.95 -16.63 -0.87
0.89 -15.61 3.61
1 -17.42 -0.3
0.82 -14.32 3.84
1 -18.58 0.32
0.87 -16.09 0.84
0.8 -14.87 1.3
0.59 -10.87 -1.72
1.24 -22.9 2.82
0.77 -14.35 -1.76
0.8 -14.86 2.36
0.88 -16.22 -1.42
0.78 -14.4 2.8
0.93 -17.23 -0.9
0.86 -15.93 3.68
0.77 -14.34 3.85
0.94 -18.62 0.33
0.8 -15.85 0.83
0.75 -14.77 1.29
0.55 -10.88 -1.72
1.16 -22.89 2.81
0.72 -14.34 -1.76
0.75 -14.8 2.35
0.78 -15.5 -1.36
0.74 -14.62 2.85
0.88 -17.39 -0.91
0.81 -15.98 3.7
1.35 -26.79 -0.47
0.73 -14.37 3.85
0.91 -19.36 0.34
0.74 -15.83 0.83
0.69 -14.82 1.3
0.51 -10.88 -1.73
0.87 -18.66 2.29
0.67 -14.34 -1.76
0.68 -14.48 2.3
0.72 -15.36 -1.35
0.68 -14.44 2.81
0.8 -17.14 -0.9
0.73 -15.63 3.61
0.67 -14.38 3.86
0.84 -19.34 0.34
0.74 -17.01 0.89
0.64 -14.86 1.3
0.47 -10.88 -1.72
0.81 -18.71 2.3
0.62 -14.34 -1.76
0.87 -20.16 3.2
0.68 -15.71 -1.38
0.63 -14.42 2.81
0.78 -17.93 -0.94
1.01 -23.27 5.38
0.86 -19.77 -0.35
0.62 -14.39 3.86
0.74 -18.42 0.32
0.59 -14.75 0.77
0.59 -14.75 1.29
0.44 -10.89 -1.73
0.86 -21.57 2.65
0.57 -14.33 -1.76
0.9 -22.57 3.58
0.63 -15.63 -1.37
0.57 -14.29 2.78
0.67 -16.83 -0.88
0.57 -14.36 3.32
0.79 -19.75 -0.35
0.61 -15.25 4.09
0.66 -18.07 0.32
0.54 -14.81 0.78
0.54 -14.7 1.29
0.4 -10.88 -1.72
0.64 -17.38 2.14
0.52 -14.33 -1.76
0.62 -17.01 2.7
0.58 -15.78 -1.38
0.52 -14.19 2.76
0.63 -17.18 -0.9
0.53 -14.45 3.34
0.69 -18.94 -0.33
0.65 -17.72 4.75
0.47 -14.18 0.25
0.47 -14.42 0.76
0.49 -14.86 1.3
0.36 -10.89 -1.73
0.63 -19.29 2.37
0.47 -14.32 -1.76
0.56 -17.03 2.7
0.52 -15.8 -1.38
0.47 -14.17 2.76
0.57 -17.46 -0.92
0.47 -14.44 3.34
0.58 -17.67 -0.31
0.49 -14.98 4.02
0.42 -14.23 0.25
0.22 -7.4 -1.71
0.42 -14.35 0.75
0.44 -14.82 1.3
0.32 -10.91 -1.73
0.66 -22.5 2.76
0.42 -14.31 -1.76
0.47 -16.09 2.55
0.46 -15.53 -1.36
0.42 -14.18 2.76
0.51 -17.29 -0.91
0.42 -14.4 3.33
0.56 -19.02 -0.33
0.44 -14.92 4
0.37 -14.25 0.25
0.37 -14.37 0.75
0.38 -14.8 1.3
0.28 -10.85 -1.72
0.51 -19.58 2.4
0.37 -14.3 -1.76
0.42 -16.28 2.58
0.4 -15.32 -1.34
0.36 -14.07 2.74
0.45 -17.41 -0.91
0.37 -14.46 3.34
0.51 -19.72 -0.34
0.38 -14.85 3.98
0.32 -14.33 0.75
0.2 -8.8 -1.71
0.33 -14.76 1.29
0.24 -10.74 -1.7
0.44 -19.6 2.41
0.32 -14.29 -1.76
0.52 -22.97 3.64
0.39 -17.26 -1.51
0.31 -13.99 2.72
0.39 -17.46 -0.92
0.32 -14.37 3.32
0.4 -17.88 -0.31
0.33 -14.71 3.94
0.37 -19.64 0.34
0.27 -14.37 0.75
0.17 -8.8 -1.71
0.28 -14.84 1.3
0.2 -10.7 -1.69
0.3 -16.04 1.97
0.27 -14.29 -1.76
0.43 -22.97 3.64
0.3 -15.87 -1.39
0.26 -13.97 2.72
0.33 -17.35 -0.91
0.27 -14.29 3.3
0.38 -20.31 -0.35
0.33 -17.76 4.76
0.31 -20.38 0.36
0.22 -14.42 0.76
0.14 -8.8 -1.71
0.17 -10.79 -1.71
0.38 -24.36 2.99
0.22 -14.28 -1.75
0.35 -22.84 3.62
0.24 -15.71 -1.37
0.21 -13.92 2.71
0.27 -17.48 -0.92
0.22 -14.23 3.29
0.25 -16.31 -0.28
0.23 -14.63 3.92
0.17 -14.23 0.25
0.17 -14.34 0.75
0.1 -8.81 -1.71
0.17 -14.6 1.28
0.13 -10.82 -1.71
0.19 -15.81 1.94
0.17 -14.26 -1.75
0.21 -17.68 2.8
0.19 -15.62 -1.37
0.16 -13.88 2.7
0.2 -16.49 -0.86
0.17 -14.12 3.26
0.18 -15.03 -0.26
0.17 -14.63 3.92
0.12 -14.2 0.25
0.12 -14.32 0.75
0.07 -8.8 -1.71
0.13 -15.26 1.34
0.09 -10.82 -1.71
0.15 -17.91 2.2
0.12 -14.26 -1.75
0.15 -17.61 2.79
0.13 -15.11 -1.32
0.12 -13.84 2.69
0.16 -18.8 -0.99
0.12 -14.11 3.26
0.13 -15.02 -0.26
0.12 -14.58 3.91
0.11 -21.62 0.38
0.1 -19.67 1.03
0.05 -8.81 -1.71
0.08 -15.24 1.33
0.06 -10.86 -1.72
0.08 -15.67 1.92
0.07 -14.25 -1.75
0.09 -17.6 2.79
0.08 -15.15 -1.33
0.07 -13.87 2.7
0.08 -15.26 -0.8
0.07 -13.87 3.2
0.09 -16.4 -0.29
0.08 -14.53 3.89
0.03 -14.23 0.25
0.04 -19.79 1.04
0.02 -8.81 -1.71
0.03 -15.23 1.33
0.02 -10.84 -1.72
0.03 -15.69 1.93
0.03 -14.25 -1.75
0.05 -27.23 4.31
0.03 -15.2 -1.33
0.03 -17.8 3.46
0.04 -20.38 -1.07
0.03 -14.03 3.24
0.03 -16.4 -0.29
0.03 -14.44 3.87
-0.03 -14.09 0.25
-0.02 -7.4 -1.71
-0.03 -14.52 0.76
-0.02 -8.81 -1.71
-0.03 -15.22 1.33
-0.02 -10.86 -1.72
-0.04 -17.97 2.21
-0.03 -14.24 -1.75
-0.06 -27.58 4.37
-0.03 -15.38 -1.35
-0.03 -15.19 2.95
-0.05 -22.79 -1.19
-0.03 -13.92 3.21
-0.03 -15.05 -0.26
-0.03 -15.89 4.26
-0.08 -14.06 0.25
-0.04 -7.39 -1.71
-0.1 -18.02 0.94
-0.05 -8.81 -1.71
-0.08 -14.5 1.27
-0.06 -10.87 -1.72
-0.09 -15.64 1.92
-0.08 -14.23 -1.75
-0.09 -15.93 2.52
-0.08 -15.32 -1.34
-0.1 -17.73 3.45
-0.08 -15.17 -0.8
-0.08 -13.89 3.21
-0.08 -15.09 -0.26
-0.09 -16.08 4.31
-0.13 -14.07 0.25
-0.07 -7.41 -1.71
-0.13 -14.57 0.76
-0.08 -8.79 -1.71
-0.13 -14.51 1.27
-0.1 -10.87 -1.72
-0.14 -15.77 1.94
-0.13 -14.24 -1.75
-0.15 -16 2.53
-0.14 -15.44 -1.35
-0.16 -17.76 3.45
-0.14 -15.27 -0.8
-0.13 -14.17 3.27
-0.14 -15.09 -0.26
-0.15 -16.26 4.36
-0.18 -14.14 0.25
-0.09 -7.41 -1.71
-0.28 -22.78 1.19
-0.11 -8.8 -1.71
-0.18 -14.55 1.27
-0.14 -10.87 -1.72
-0.2 -15.89 1.95
-0.18 -14.22 -1.75
-0.2 -16.07 2.55
-0.19 -15.45 -1.35
-0.21 -16.51 3.21
-0.19 -15.42 -0.81
-0.18 -14.56 3.36
-0.19 -15.15 -0.26
-0.2 -15.83 4.24
-0.23 -14.17 0.25
-0.12 -7.41 -1.71
-0.24 -15.07 0.79
-0.14 -8.81 -1.71
-0.24 -15.09 1.32
-0.17 -10.85 -1.72
-0.23 -14.21 -1.74
-0.25 -16.04 2.54
-0.25 -15.48 -1.35
-0.25 -16.04 3.12
-0.24 -15.31 -0.8
-0.23 -14.52 3.35
-0.24 -15.17 -0.26
-0.25 -15.85 4.25
-0.14 -7.39 -1.71
-0.44 -22.79 1.19
-0.17 -8.82 -1.71
-0.29 -15.04 1.32
-0.21 -10.86 -1.72
-0.3 -15.62 1.92
-0.27 -14.19 -1.74
-0.3 -15.6 2.47
-0.29 -15.19 -1.33
-0.3 -15.51 3.02
-0.36 -18.72 4.32
-0.32 -16.41 -0.29
-0.31 -15.87 4.25
-0.4 -17.64 0.31
-0.17 -7.39 -1.71
-0.46 -20.1 1.05
-0.2 -8.81 -1.71
-0.4 -17.51 1.53
-0.25 -10.87 -1.72
-0.36 -15.58 1.91
-0.32 -14.18 -1.74
-0.36 -15.53 2.46
-0.34 -15.06 -1.32
-0.38 -16.81 -0.88
-0.34 -14.71 3.4
-0.42 -18.24 -0.32
-0.5 -19.18 0.33
-0.19 -7.4 -1.71
-0.45 -16.94 0.89
-0.23 -8.81 -1.71
-0.46 -17.54 1.54
-0.29 -10.86 -1.72
-0.41 -15.49 1.9
-0.37 -14.17 -1.74
-0.41 -15.55 2.46
-0.4 -15.05 -1.32
-0.41 -15.44 3
-0.44 -16.89 -0.89
-0.39 -14.74 3.41
-0.45 -17.14 -0.3
-0.61 -23.12 6.2
-0.57 -19.18 0.33
-0.22 -7.41 -1.71
-0.61 -20.59 1.08
-0.26 -8.82 -1.71
-0.45 -14.92 1.31
-0.32 -10.88 -1.72
-0.47 -15.58 1.91
-0.42 -14.16 -1.74
-0.47 -15.63 2.48
-0.48 -15.99 -1.4
-0.49 -16.32 3.17
-0.5 -16.89 -0.89
-0.44 -14.78 3.41
-0.48 -15.98 -0.28
-0.57 -17.06 0.3
-0.25 -7.41 -1.71
-0.57 -17.02 0.89
-0.29 -8.81 -1.71
-0.5 -14.96 1.31
-0.36 -10.88 -1.72
-0.51 -15.19 1.87
-0.47 -14.17 -1.74
-0.52 -15.59 2.47
-0.6 -17.89 -1.57
-0.54 -16.27 3.16
-0.51 -15.36 -0.81
-0.5 -14.94 3.45
-0.57 -17.04 -0.3
-0.53 -15.83 4.24
-0.63 -17.05 0.3
-0.27 -7.4 -1.71
-0.76 -20.76 1.09
-0.32 -8.82 -1.72
-0.55 -15.02 1.31
-0.4 -10.88 -1.72
-0.57 -15.39 1.89
-0.52 -14.15 -1.74
-0.57 -15.59 2.47
-0.58 -15.83 -1.39
-0.57 -15.47 3.01
-0.57 -15.35 -0.81
-0.67 -18.13 -0.32
-0.58 -15.77 4.23
-0.69 -17.03 0.3
-0.3 -7.41 -1.71
-0.73 -18.06 0.95
-0.36 -8.82 -1.72
-0.6 -14.86 1.3
-0.44 -10.92 -1.73
-0.62 -15.34 1.89
-0.57 -14.13 -1.74
-0.63 -15.54 2.46
-0.64 -15.86 -1.39
-0.65 -16.16 3.14
-0.68 -16.92 -0.89
-0.59 -14.51 3.35
-0.68 -16.74 -0.29
-0.64 -15.84 4.25
-0.74 -16.88 0.29
-0.32 -7.41 -1.71
-0.78 -17.91 0.94
-0.39 -8.81 -1.71
-0.66 -15.12 1.32
-0.48 -10.92 -1.73
-0.75 -17.12 2.1
-0.62 -14.12 -1.74
-0.68 -15.62 2.48
-0.69 -15.79 -1.38
-0.67 -15.29 2.97
-0.81 -18.47 -0.97
-0.64 -14.55 3.36
-0.72 -16.5 -0.29
-0.7 -15.96 4.28
-0.8 -16.89 0.3
-0.35 -7.41 -1.71
-0.7 -14.76 0.77
-0.42 -8.81 -1.72
-0.71 -15 1.31
-0.52 -10.9 -1.73
-0.81 -17.18 2.11
-0.67 -14.12 -1.74
-0.73 -15.49 2.46
-0.71 -15.11 -1.32
-0.76 -16.15 3.14
-0.84 -17.68 -0.93
-0.69 -14.56 3.37
-0.8 -16.97 -0.3
-0.75 -15.93 4.27
-0.83 -16.52 0.29
-0.37 -7.42 -1.71
-0.88 -17.45 0.92
-0.45 -8.82 -1.72
-0.78 -15.49 1.36
-0.55 -10.89 -1.73
-0.76 -15.07 1.85
-0.71 -14.11 -1.74
-0.91 -18.11 2.87
-0.8 -15.82 -1.39
-0.78 -15.35 2.99
-0.88 -17.37 -0.91
-0.79 -15.68 3.63
-0.85 -16.83 -0.29
-0.88 -17.49 4.69
-0.9 -16.76 0.29
-0.4 -7.4 -1.71
-0.94 -17.49 0.92
-0.48 -8.83 -1.72
-0.85 -15.73 1.38
-0.59 -10.9 -1.73
-0.81 -15.04 1.85
-0.76 -14.11 -1.73
-0.82 -15.14 2.4
-0.85 -15.82 -1.39
-0.83 -15.34 2.99
-0.93 -17.14 -0.9
-0.78 -14.47 3.35
-0.91 -16.87 -0.29
-0.76 -14.13 3.79
-0.97 -16.83 0.29
-0.43 -7.4 -1.71
-1 -17.39 0.91
-0.51 -8.82 -1.72
-0.87 -15.1 1.32
-0.63 -10.9 -1.73
-0.88 -15.29 1.88
-0.81 -14.09 -1.73
-0.87 -15.12 2.4
-0.91 -15.81 -1.39
-0.89 -15.37 2.99
-0.98 -17.06 -0.9
-0.84 -14.49 3.35
-1.02 -17.73 -0.31
-0.82 -14.2 3.81
-1.03 -16.8 0.29
-0.45 -7.41 -1.71
-1.06 -17.26 0.91
-0.54 -8.82 -1.72
-0.92 -14.97 1.31
-0.67 -10.92 -1.73
-0.93 -15.13 1.86
-0.86 -14.09 -1.73
-0.96 -15.62 2.48
-1.05 -17.09 -1.5
-0.98 -16.01 3.12
-1.04 -16.98 -0.89
-0.89 -14.52 3.36
-0.95 -15.61 -0.27
-0.87 -14.19 3.81
-1.06 -16.45 0.29
-0.48 -7.41 -1.71
-1.4 -21.66 1.14
-0.57 -8.82 -1.72
-1 -15.46 1.36
-0.71 -10.93 -1.73
-0.98 -15.12 1.86
-0.91 -14.08 -1.73
-1.15 -17.74 2.82
-1.17 -18.16 -1.59
-1.04 -16.09 3.13
-1.1 -16.94 -0.89
-0.93 -14.4 3.33
-1.22 -18.79 -0.33
-1.03 -15.86 4.26
-1.12 -16.41 0.29
-0.51 -7.41 -1.72
-1.5 -22.01 1.16
-0.6 -8.83 -1.72
-0.74 -10.91 -1.73
-1.1 -16.13 1.99
-0.96 -14.09 -1.73
-1.25 -18.38 -1.61
-1.16 -16.95 -0.89
-1.08 -15.89 -0.28
-1.08 -15.79 4.24
-1.14 -15.87 0.28
-0.53 -7.4 -1.71
-1.54 -21.46 1.13
-0.63 -8.82 -1.72
-0.78 -10.93 -1.73
-1.15 -16.02 1.97
-1.01 -14.07 -1.73
-1.12 -15.67 2.49
-1.31 -18.33 -1.61
-1.14 -15.97 3.11
-1.49 -20.75 -1.09
-1.09 -15.19 3.52
-1.14 -15.9 -0.28
-1.13 -15.8 4.25
-1.22 -16.24 0.28
-0.56 -7.4 -1.71
-1.68 -22.36 1.17
-0.66 -8.82 -1.72
-0.82 -10.93 -1.74
-1.19 -15.85 1.95
-1.06 -14.05 -1.73
-1.17 -15.61 2.48
-1.39 -18.45 -1.62
-1.19 -15.85 3.09
-1.28 -17.01 -0.89
-1.17 -15.56 3.6
-1.64 -21.86 -0.38
-1.18 -15.73 4.23
-1.28 -16.29 0.29
-0.58 -7.42 -1.72
-0.69 -8.82 -1.72
-0.86 -10.92 -1.73
-1.25 -15.91 1.96
-1.11 -14.05 -1.73
-1.25 -15.84 2.52
-1.45 -18.36 -1.61
-1.25 -15.91 3.1
-1.34 -16.97 -0.89
-1.22 -15.55 3.6
-1.38 -17.52 -0.31
-1.25 -15.82 4.25
-1.28 -15.53 0.27
-0.61 -7.42 -1.72
-4.72 -57.43 3.02
-0.72 -8.81 -1.72
-0.9 -10.93 -1.74
-1.15 -14.03 -1.73
-1.3 -15.75 2.5
-1.51 -18.35 -1.61
-1.3 -15.79 3.08
-1.4 -17 -0.89
-1.28 -15.54 3.6
-1.29 -15.74 4.23
-1.33 -15.5 0.27
-0.64 -7.42 -1.72
-0.76 -8.81 -1.72
-0.94 -10.94 -1.74
-1.55 -18.07 2.23
-1.2 -14.03 -1.73
-1.35 -15.71 2.5
-1.57 -18.33 -1.61
-1.36 -15.88 3.1
-1.45 -16.94 -0.89
-1.33 -15.47 3.59
-1.52 -17.72 -0.31
-1.34 -15.6 4.19
-1.4 -15.7 0.28
-0.66 -7.41 -1.72
-1.86 -20.83 1.1
-0.79 -8.82 -1.72
-0.98 -10.95 -1.74
-1.61 -18.03 2.22
-1.25 -14.01 -1.73
-1.39 -15.61 2.48
-1.77 -19.85 -1.74
-1.41 -15.85 3.09
-1.51 -16.94 -0.89
-1.38 -15.42 3.57
-1.4 -15.63 4.21
-1.43 -15.45 0.27
-0.69 -7.42 -1.72
-0.82 -8.82 -1.72
-1.01 -10.95 -1.74
-1.67 -18.05 2.23
-1.3 -13.99 -1.73
-1.44 -15.55 2.47
-1.75 -18.95 -1.67
-1.47 -15.86 3.1
-1.75 -18.9 -0.99
-1.42 -15.38 3.57
-1.74 -18.8 -0.33
-1.44 -15.55 4.18
-1.49 -15.51 0.27
-0.71 -7.41 -1.72
-5.62 -58.47 3.08
-0.85 -8.81 -1.72
-1.05 -10.95 -1.74
-1.73 -18 2.22
-1.34 -13.99 -1.73
-1.49 -15.53 2.47
-1.81 -18.85 -1.66
-1.51 -15.73 3.07
-1.56 -16.28 -0.86
-1.47 -15.24 3.54
-1.49 -15.55 4.19
-0.74 -7.43 -1.72
-2.06 -20.7 1.09
-0.88 -8.81 -1.72
-1.09 -10.96 -1.74
-1.81 -18.21 2.25
-1.39 -13.99 -1.73
-1.55 -15.53 2.47
-1.88 -18.86 -1.66
-1.57 -15.77 3.08
-1.6 -16.1 -0.85
-1.52 -15.28 3.54
-1.66 -16.69 -0.29
-1.55 -15.51 4.18
-0.76 -7.41 -1.72
-0.91 -8.81 -1.72
-1.13 -10.95 -1.74
-1.84 -17.85 2.2
-1.44 -13.99 -1.73
-1.6 -15.51 2.47
-1.72 -16.68 -1.47
-1.62 -15.74 3.08
-1.93 -18.71 -0.99
-1.57 -15.19 3.53
-1.6 -15.54 4.19
-0.79 -7.4 -1.72
-0.94 -8.81 -1.72
-1.17 -10.94 -1.74
-1.9 -17.83 2.2
-1.49 -13.98 -1.73
-1.78 -16.7 -1.47
-1.68 -15.72 3.07
-2.27 -21.32 -1.12
-1.63 -15.25 3.54
-1.63 -15.32 4.13
-2.27 -20.55 0.36
-0.82 -7.41 -1.72
-0.97 -8.81 -1.72
-1.21 -10.97 -1.75
-1.96 -17.8 2.2
-1.54 -13.96 -1.72
-2.23 -20.21 -1.78
-1.74 -15.76 3.08
-2.36 -21.41 -1.13
-1.67 -15.12 3.51
-1.7 -15.42 4.16
-2.32 -20.41 0.36
-1 -8.79 -1.72
-1.25 -10.97 -1.75
-2.03 -17.82 2.2
-1.59 -13.95 -1.72
-1.9 -16.69 -1.47
-1.78 -15.66 3.06
-4.9 -43.04 -2.27
-1.71 -15.04 3.49
-1.76 -15.51 4.18
-2.43 -20.73 1.09
-1.03 -8.79 -1.72
-1.29 -10.96 -1.75
-1.64 -13.95 -1.73
-1.89 -16.11 2.57
-2.38 -20.27 -1.79
-1.84 -15.67 3.07
-2.19 -18.68 -0.99
-1.77 -15.11 3.51
-1.79 -15.25 4.11
-1.06 -8.79 -1.72
-1.32 -10.94 -1.75
-1.69 -13.95 -1.73
-1.87 -15.47 -1.36
-2.23 -18.48 -0.98
-1.82 -15.07 3.51
-1.84 -15.26 4.12
-2.58 -20.75 1.1
-1.09 -8.8 -1.72
-1.36 -10.96 -1.75
-1.73 -13.95 -1.73
-2.06 -16.55 -1.46
-1.88 -15.1 2.96
-1.86 -14.97 3.48
-1.12 -8.79 -1.72
-1.4 -10.96 -1.75
-1.78 -13.94 -1.73
-2.68 -20.95 -1.85
-1.92 -15.02 2.94
-2.09 -16.39 -0.87
-1.91 -14.94 3.48
-1.15 -8.78 -1.72
-1.44 -10.95 -1.75
-1.83 -13.94 -1.73
-2.03 -15.51 -1.37
-1.97 -15.05 2.95
-5.56 -42.36 -2.24
-1.99 -15.19 4.1
-2.79 -20.66 1.09
-1.18 -8.78 -1.72
-1.48 -10.96 -1.75
-1.88 -13.92 -1.73
-2.06 -15.3 -1.35
-2.1 -15.6 -0.82
-2.02 -14.95 3.48
-1.21 -8.78 -1.72
-1.52 -10.96 -1.75
-1.93 -13.94 -1.73
-2.13 -15.39 -1.36
-2.07 -14.93 2.93
-2.1 -15.22 -0.81
-1.25 -8.78 -1.72
-1.56 -10.96 -1.75
-1.98 -13.93 -1.73
-2.18 -15.37 -1.36
-2.12 -14.91 2.93
-2.16 -15.24 -0.81
-1.28 -8.77 -1.72
-1.59 -10.92 -1.75
-2.02 -13.91 -1.73
-2.24 -15.42 -1.36
-2.18 -15.02 2.95
-2.95 -20.25 -1.07
-1.31 -8.77 -1.72
-1.63 -10.94 -1.75
-2.08 -13.92 -1.73
-2.3 -15.42 -1.36
-2.28 -15.32 -0.81
-1.34 -8.76 -1.72
-1.67 -10.95 -1.75
-2.12 -13.92 -1.73
-2.89 -18.96 -1.68
-2.85 -18.66 -0.99
-1.37 -8.77 -1.72
-1.72 -10.99 -1.76
-2.17 -13.92 -1.73
-2.97 -19.02 -1.68
-3.21 -20.54 -1.09
-1.4 -8.76 -1.72
-1.75 -10.96 -1.76
-2.22 -13.92 -1.73
-3.06 -19.17 -1.7
-3.36 -21.06 -1.12
-1.43 -8.76 -1.73
-5.25 -32.12 2.85
-1.79 -10.96 -1.76
-2.27 -13.9 -1.73
-3.13 -19.14 -1.7
-3.08 -18.84 -1
-1.46 -8.75 -1.72
-5.29 -31.71 2.81
-1.83 -10.96 -1.76
-5.28 -31.66 3.94
-2.32 -13.89 -1.73
-4.59 -27.48 -2.44
-3.49 -20.91 -1.11
-5.56 -33.32 7.8
-1.49 -8.74 -1.72
-1.86 -10.96 -1.76
-5.35 -31.45 3.92
-2.36 -13.88 -1.73
-5.43 -31.9 5.13
-4.67 -27.44 -2.44
-3.21 -18.88 -1
-5.64 -33.11 7.75
-5.66 -33.26 9.04
-1.52 -8.75 -1.73
-5.43 -31.28 2.78
-1.9 -10.94 -1.76
-2.41 -13.88 -1.73
-5.48 -31.55 5.07
-4.76 -27.43 -2.44
-5.74 -33.02 6.51
-3.68 -21.16 -1.13
-5.77 -33.21 7.78
-5.77 -33.24 9.04
-5.53 -31.13 0.55
-5.53 -31.11 1.66
-1.55 -8.74 -1.72
-1.94 -10.93 -1.76
-5.51 -31.02 3.87
-2.46 -13.87 -1.73
-5.58 -31.4 5.05
-4.86 -27.39 -2.43
-5.83 -32.81 6.48
-5.92 -33.32 7.81
-5.92 -33.33 9.07
-5.6 -30.91 0.55
-1.58 -8.74 -1.73
-5.59 -30.85 2.74
-1.98 -10.91 -1.76
-5.58 -30.81 3.84
-2.51 -13.84 -1.73
-4.96 -27.38 -2.43
-5.92 -32.69 6.46
-6.05 -33.38 7.83
-6.05 -33.38 9.09
-5.67 -30.7 0.54
-1.61 -8.73 -1.73
-5.66 -30.63 2.73
-2.01 -10.91 -1.76
-5.65 -30.59 3.82
-2.55 -13.84 -1.73
-5.7 -30.85 4.97
-5.05 -27.35 -2.43
-3 -16.24 -0.87
-6.17 -33.42 7.85
-6.17 -33.41 9.1
-5.73 -30.48 0.54
-1.64 -8.73 -1.73
-5.74 -30.49 2.71
-2.05 -10.89 -1.76
-5.72 -30.38 3.8
-2.6 -13.83 -1.73
-5.14 -27.32 -2.43
-6.09 -32.36 6.4
-6.35 -33.73 7.92
-3.37 -17.9 -0.32
-5.81 -30.27 0.54
-1.67 -8.73 -1.73
-5.81 -30.27 2.7
-2.08 -10.87 -1.75
-5.79 -30.16 3.77
-2.65 -13.83 -1.73
-5.25 -27.34 -2.44
-6.17 -32.14 6.36
-3.13 -16.29 -0.87
-6.43 -33.53 7.88
-3.57 -18.29 0.33
-1.71 -8.73 -1.73
-5.88 -30.08 2.68
-2.11 -10.82 -1.75
-5.87 -30.04 3.76
-2.7 -13.81 -1.73
-3.16 -16.17 -1.44
-3.21 -16.45 -0.88
-6.52 -33.35 7.85
-5.98 -30.03 0.53
-5.98 -30.01 1.6
-1.74 -8.72 -1.73
-5.97 -29.96 2.67
-2.14 -10.77 -1.74
-5.96 -29.93 3.75
-2.75 -13.8 -1.73
-3.24 -16.25 -1.45
-3.64 -18.27 -0.98
-6.61 -33.19 7.81
-6.31 -31.67 8.65
-6.04 -29.82 0.53
-6.04 -29.8 1.59
-1.76 -8.7 -1.73
-6.03 -29.75 2.66
-2.18 -10.77 -1.74
-6.02 -29.71 3.72
-2.8 -13.8 -1.73
-4.1 -20.23 -1.81
-3.35 -16.52 -0.88
-6.69 -33.01 7.78
-3.68 -18.18 -0.32
-6.38 -31.48 8.61
-6.12 -29.67 0.53
-6.12 -29.68 1.59
-1.8 -8.7 -1.73
-6.11 -29.63 2.65
-2.22 -10.74 -1.74
-6.1 -29.55 3.7
-2.84 -13.79 -1.73
-6.13 -29.69 4.8
-3.31 -16.06 -1.43
-6.77 -32.82 6.51
-3.74 -18.11 -0.97
-6.78 -32.88 7.75
-3.73 -18.08 -0.32
-6.47 -31.34 8.57
-6.21 -29.58 0.53
-6.21 -29.56 1.58
-1.83 -8.7 -1.73
-6.2 -29.51 2.64
-2.25 -10.72 -1.74
-6.19 -29.48 3.7
-2.89 -13.78 -1.73
-6.23 -29.68 4.8
-4.63 -22.08 -1.97
-6.86 -32.68 6.49
-3.79 -18.05 -0.97
-6.87 -32.74 7.72
-6.53 -31.13 8.52
-6.27 -29.36 0.52
-1.86 -8.7 -1.73
-6.27 -29.39 2.63
-2.28 -10.67 -1.73
-6.25 -29.3 3.68
-2.94 -13.77 -1.73
-6.29 -29.46 4.77
-3.19 -14.95 -1.34
-6.96 -32.58 6.48
-3.5 -16.4 -0.88
-6.64 -31.13 7.35
-6.6 -30.92 8.47
-6.35 -29.27 0.52
-1.89 -8.7 -1.73
-6.35 -29.28 2.62
-2.31 -10.65 -1.73
-6.33 -29.14 3.66
-2.99 -13.76 -1.73
-3.21 -14.78 -1.32
-7.02 -32.37 6.44
-3.17 -14.61 -0.78
-6.72 -30.98 7.32
-6.69 -30.85 8.46
-6.44 -29.12 0.52
-1.92 -8.68 -1.73
-6.44 -29.11 2.61
-2.35 -10.64 -1.73
-6.42 -29.02 3.65
-3.04 -13.75 -1.73
-6.46 -29.23 4.74
-6 -27.13 -2.43
-6.89 -31.16 6.2
-3.23 -14.6 -0.78
-6.82 -30.85 7.29
-3.82 -17.27 -0.31
-6.78 -30.68 8.42
-6.49 -28.9 0.52
-6.53 -29.08 1.56
-1.95 -8.68 -1.73
-6.51 -28.96 2.6
-2.39 -10.63 -1.73
-6.47 -28.81 3.63
-3.09 -13.75 -1.73
-6.53 -29.07 4.72
-3.32 -14.79 -1.33
-7.01 -31.21 6.22
-4.07 -18.12 -0.97
-6.9 -30.69 7.26
-6.86 -30.54 8.39
-6.59 -28.88 0.52
-6.59 -28.86 1.55
-1.98 -8.67 -1.73
-6.59 -28.86 2.59
-2.43 -10.64 -1.73
-6.57 -28.78 3.63
-3.14 -13.74 -1.73
-3.36 -14.71 -1.32
-7.14 -31.28 6.24
-3.36 -14.71 -0.79
-6.97 -30.54 7.23
-7.14 -31.29 8.6
-6.66 -28.73 0.51
-6.66 -28.74 1.55
-2.01 -8.67 -1.73
-6.68 -28.8 2.59
-2.46 -10.61 -1.73
-6.64 -28.64 3.61
-3.18 -13.73 -1.73
-3.43 -14.78 -1.33
-7.27 -31.35 6.26
-3.41 -14.71 -0.79
-7.05 -30.39 7.2
-3.4 -14.68 -0.26
-7.25 -31.29 8.61
-6.75 -28.64 0.51
-6.74 -28.62 1.54
-2.04 -8.66 -1.73
-6.73 -28.58 2.57
-2.5 -10.62 -1.73
-6.73 -28.54 3.6
-3.23 -13.71 -1.73
-4.01 -17.02 -1.53
-7.44 -31.55 6.3
-4.92 -20.87 -1.12
-7.13 -30.24 7.17
-3.52 -14.94 -0.27
-7.42 -31.49 8.67
-6.82 -28.52 0.51
-6.84 -28.6 1.54
-2.07 -8.65 -1.73
-6.82 -28.49 2.56
-2.54 -10.61 -1.73
-6.79 -28.4 3.59
-3.28 -13.7 -1.73
-4.06 -16.96 -1.53
-7.52 -31.43 6.28
-4.02 -16.81 -0.91
-7.19 -30.07 7.14
-4.35 -18.2 -0.33
-7.5 -31.34 8.63
-6.9 -28.4 0.51
-6.89 -28.38 1.53
-2.1 -8.64 -1.73
-6.88 -28.34 2.55
-2.57 -10.6 -1.73
-6.87 -28.3 3.58
-3.33 -13.7 -1.73
-4.11 -16.93 -1.52
-7.6 -31.28 6.26
-3.54 -14.58 -0.79
-7.27 -29.95 7.11
-7.57 -31.18 8.6
-6.98 -28.3 0.51
-6.99 -28.36 1.53
-2.13 -8.64 -1.73
-6.97 -28.26 2.55
-2.61 -10.58 -1.73
-6.95 -28.22 3.57
-3.38 -13.69 -1.73
-4.14 -16.81 -1.51
-7.67 -31.13 6.23
-4.12 -16.72 -0.9
-7.35 -29.81 7.09
-4.52 -18.35 -0.33
-7.65 -31.02 8.56
-7.05 -28.15 0.51
-7.06 -28.21 1.52
-2.16 -8.63 -1.73
-7.05 -28.14 2.54
-2.65 -10.57 -1.73
-7.03 -28.06 3.55
-3.43 -13.69 -1.73
-4.23 -16.89 -1.52
-7.75 -30.96 6.2
-4.23 -16.91 -0.91
-7.43 -29.66 7.06
-7.74 -30.89 8.53
-7.13 -28.08 0.51
-2.19 -8.63 -1.73
-7.13 -28.07 2.53
-2.68 -10.56 -1.73
-7.12 -28.04 3.55
-3.47 -13.67 -1.73
-6.8 -26.75 -2.41
-7.82 -30.78 6.17
-4.24 -16.69 -0.9
-7.5 -29.52 7.03
-7.81 -30.75 8.5
-7.2 -27.96 0.5
-7.21 -27.96 1.51
-2.22 -8.61 -1.73
-7.2 -27.93 2.52
-2.72 -10.56 -1.73
-7.19 -27.9 3.54
-3.52 -13.65 -1.73
-6.9 -26.79 -2.42
-7.91 -30.71 6.16
-4.12 -16 -0.87
-7.57 -29.37 7
-7.68 -29.82 8.25
-7.29 -27.89 0.5
-7.28 -27.87 1.51
-2.25 -8.6 -1.73
-7.27 -27.83 2.52
-2.76 -10.54 -1.73
-7.26 -27.8 3.53
-3.57 -13.65 -1.73
-5.21 -19.93 -1.8
-7.68 -29.39 5.9
-4.68 -17.92 -0.97
-7.65 -29.27 6.98
-7.75 -29.65 8.21
-7.37 -27.79 0.5
-7.39 -27.84 1.51
-2.28 -8.59 -1.73
-7.37 -27.76 2.51
-2.79 -10.52 -1.72
-7.35 -27.71 3.52
-3.62 -13.64 -1.73
-7.08 -26.7 -2.42
-7.74 -29.17 5.87
-4.22 -15.92 -0.86
-8.07 -30.41 7.26
-7.88 -29.69 8.23
-7.44 -27.68 0.5
-7.43 -27.62 1.5
-2.31 -8.59 -1.73
-7.43 -27.63 2.5
-2.83 -10.51 -1.72
-7.42 -27.58 3.51
-3.66 -13.62 -1.73
-4.82 -17.92 -1.62
-7.81 -29.03 5.84
-4.77 -17.75 -0.96
-8.14 -30.26 7.23
-7.52 -27.62 0.5
-7.52 -27.6 1.5
-2.34 -8.58 -1.73
-7.51 -27.56 2.5
-2.86 -10.51 -1.72
-7.49 -27.49 3.5
-3.71 -13.6 -1.73
-4.85 -17.79 -1.61
-7.88 -28.93 5.83
-4.81 -17.66 -0.96
-7.93 -29.1 6.96
-4.31 -15.81 -0.29
-7.86 -28.84 8.01
-7.6 -27.52 0.5
-2 -7.24 -1.73
-7.59 -27.51 1.5
-2.36 -8.56 -1.73
-7.59 -27.49 2.5
-2.9 -10.5 -1.72
-7.57 -27.41 3.49
-3.75 -13.59 -1.73
-4.95 -17.92 -1.63
-7.94 -28.77 5.8
-4.97 -17.99 -0.98
-8 -28.98 6.94
-7.91 -28.63 7.96
-7.68 -27.43 0.5
-7.66 -27.36 1.49
-2.4 -8.56 -1.73
-7.66 -27.35 2.48
-2.93 -10.47 -1.72
-7.65 -27.32 3.48
-3.8 -13.59 -1.73
-4.99 -17.81 -1.62
-8.02 -28.66 5.78
-4.4 -15.7 -0.85
-8.15 -29.11 6.98
-7.97 -28.46 7.92
-7.74 -27.3 0.5
-7.75 -27.33 1.49
-2.43 -8.56 -1.73
-7.75 -27.31 2.48
