# .PCD v0.7 - Point Cloud Data file format
VERSION 0.7
FIELDS x y z
SIZE 4 4 4
TYPE F F F
COUNT 1 1 1
WIDTH 2575
HEIGHT 1
VIEWPOINT 0 0 0 1 0 0 0
POINTS 2575
DATA ascii
-9.85 -24.09 -1.36
-11.19 -27.35 -0.52
-5.28 -12.77 0.24
-4.37 -10.56 0.6
-3.14 -7.6 -1.6
-11.24 -27.19 2.57
-3.84 -9.28 -1.59
-11.22 -27.15 3.61
-4.77 -11.54 -1.53
-10.86 -26.28 4.5
-6.53 -15.8 -1.5
-5.3 -12.83 -0.73
-11.21 -27.12 -0.51
-5.41 -12.97 0.25
-4.41 -10.56 0.6
-3.17 -7.61 -1.6
-11.25 -26.95 2.55
-3.87 -9.28 -1.59
-11.23 -26.92 3.58
-4.82 -11.55 -1.54
-10.88 -26.06 4.47
-7.34 -17.58 -1.67
-5.48 -13.14 -0.75
-11.23 -26.91 -0.51
-11.34 -26.89 0.51
-4.46 -10.57 0.6
-3.21 -7.6 -1.6
-11.27 -26.73 2.54
-3.95 -9.36 -1.61
-11.31 -26.82 3.57
-4.87 -11.55 -1.54
-10.93 -25.92 4.45
-6.74 -15.99 -1.52
-7.62 -18.06 -1.03
-5.36 -12.71 -0.24
-4.5 -10.57 0.6
-3.24 -7.61 -1.61
-11.29 -26.53 2.52
-3.91 -9.18 -1.58
-5.41 -12.72 1.7
-4.92 -11.55 -1.54
-11 -25.85 4.45
-5.62 -13.21 -1.26
-7 -16.46 -0.94
-11.26 -26.46 -0.5
-5.51 -12.83 0.24
-4.54 -10.58 0.6
-3.26 -7.6 -1.61
-5.53 -12.88 1.23
-3.91 -9.1 -1.57
-11.32 -26.35 3.52
-4.96 -11.54 -1.54
-11.11 -25.86 4.46
-5.65 -13.14 -1.25
-5.66 -13.18 -0.75
-5.55 -12.92 -0.25
-5.59 -12.9 0.25
-3.3 -7.6 -1.61
-11.3 -26.07 2.49
-3.93 -9.07 -1.57
-5.56 -12.83 1.72
-5.01 -11.56 -1.55
-11.22 -25.88 4.47
-5.65 -13.04 -1.24
-5.65 -13.03 -0.74
-5.62 -12.97 -0.25
-5.68 -12.97 0.25
-5.61 -12.82 0.73
-3.32 -7.58 -1.61
-5.67 -12.94 1.24
-3.97 -9.06 -1.57
-5.63 -12.86 1.72
-5.07 -11.58 -1.55
-5.63 -12.86 2.22
-6.58 -15.03 -1.44
-5.63 -12.85 2.73
-5.69 -12.99 -0.74
-5.7 -13.01 -0.25
-5.68 -12.85 0.25
-5.61 -12.71 0.73
-3.35 -7.57 -1.61
-5.7 -12.89 1.23
-4.18 -9.47 -1.64
-5.72 -12.94 1.74
-5.12 -11.58 -1.56
-11.34 -25.66 4.44
-6.64 -15.03 -1.44
-5.72 -12.95 -0.74
-11.31 -25.61 -0.49
-11.36 -25.45 0.49
-11.36 -25.46 1.46
-3.38 -7.57 -1.61
-11.36 -25.45 2.44
-4.23 -9.48 -1.64
-5.74 -12.87 1.73
-5.17 -11.59 -1.56
-11.36 -25.45 4.41
-6.72 -15.05 -1.44
-5.81 -13.02 -0.25
-11.37 -25.24 1.45
-3.41 -7.57 -1.61
-11.37 -25.24 2.42
-4.27 -9.47 -1.65
-5.81 -12.89 1.74
-5.2 -11.56 -1.56
-11.38 -25.26 4.39
-6.85 -15.22 -1.46
-10.37 -23.02 -1.32
-5.87 -13.04 -0.25
-5.95 -13.09 0.25
-11.38 -25.05 1.44
-3.43 -7.56 -1.61
-11.38 -25.05 2.41
-4.31 -9.48 -1.65
-13.86 -30.49 4.11
-5.25 -11.56 -1.56
-11.37 -25.02 4.35
-6.89 -15.17 -1.46
-7.48 -16.45 -0.95
-5.83 -12.82 -0.25
-11.36 -24.77 0.48
-11.39 -24.84 1.43
-3.47 -7.56 -1.62
-11.39 -24.83 2.39
-4.35 -9.48 -1.65
-11.38 -24.82 3.35
-5.31 -11.58 -1.56
-11.39 -24.84 4.33
-6.95 -15.16 -1.46
-5.88 -12.81 -0.74
-5.93 -12.93 -0.25
-11.41 -24.62 0.47
-11.42 -24.64 1.42
-3.51 -7.58 -1.62
-11.41 -24.63 2.37
-4.39 -9.48 -1.66
-11.38 -24.57 3.32
-5.36 -11.56 -1.56
-11.42 -24.65 4.3
-7 -15.11 -1.46
-7.58 -16.37 -0.95
-5.92 -12.78 -0.25
-11.35 -24.29 0.47
-11.43 -24.44 1.41
-11.42 -24.43 2.36
-4.43 -9.48 -1.66
-11.4 -24.38 3.31
-5.41 -11.57 -1.57
-11.43 -24.46 4.28
-7.08 -15.14 -1.46
-8.75 -18.72 -1.08
-11.41 -24.4 -0.47
-6.15 -13.16 3.89
-11.42 -24.23 0.47
-11.43 -24.25 1.41
-11.44 -24.26 2.35
-4.49 -9.52 -1.67
-11.41 -24.21 3.29
-5.46 -11.58 -1.57
-11.44 -24.26 4.25
-7.19 -15.25 -1.47
-8.85 -18.78 -1.09
-11.42 -24.22 -0.47
-11.44 -24.05 0.46
-11.45 -24.08 1.4
-11.45 -24.07 2.33
-4.54 -9.54 -1.67
-11.44 -24.05 3.27
-5.51 -11.6 -1.58
-11.45 -24.07 4.22
-7.04 -14.8 -1.43
-9.98 -20.99 -1.22
-11.42 -24.02 -0.46
-11.47 -23.89 0.46
-11.47 -23.9 1.39
-3.63 -7.56 -1.63
-11.46 -23.88 2.32
-4.57 -9.51 -1.67
-11.46 -23.87 3.25
-11.47 -23.9 4.2
-7.29 -15.2 -1.47
-9.42 -19.64 -1.14
-11.44 -23.83 -0.46
-6.27 -13.06 3.88
-11.48 -23.7 1.38
-3.65 -7.54 -1.63
-6.14 -12.68 1.23
-4.61 -9.51 -1.67
-11.53 -23.81 3.25
-5.19 -10.73 -1.46
-11.48 -23.71 4.17
-7.7 -15.91 -1.55
-6.12 -12.64 2.73
-8.62 -17.8 -1.04
-11.45 -23.66 -0.46
-11.49 -23.52 1.37
-3.67 -7.52 -1.63
-6.21 -12.72 1.24
-4.64 -9.5 -1.67
-6.3 -12.89 1.76
-5.66 -11.59 -1.58
-11.5 -23.54 4.15
-6.32 -12.93 -1.26
-9.84 -20.14 -1.17
-11.47 -23.48 -0.46
-11.53 -23.4 0.46
-11.5 -23.33 1.36
-3.72 -7.55 -1.64
-11.51 -23.35 2.28
-4.66 -9.46 -1.67
-11.52 -23.38 3.2
-5.72 -11.6 -1.59
-6.23 -12.64 2.23
-6.35 -12.89 -1.26
-6.35 -12.89 -0.75
-6.38 -12.95 3.33
-6.36 -12.91 -0.25
-6.39 -12.97 3.87
-6.39 -12.85 0.25
-11.51 -23.16 1.36
-11.51 -23.16 2.26
-4.54 -9.13 -1.61
-11.58 -23.3 3.19
-5.77 -11.6 -1.59
-11.5 -23.14 4.09
-6.41 -12.9 -1.26
-6.4 -12.87 -0.75
-6.47 -13.02 3.36
-6.38 -12.84 -0.25
-6.5 -13.07 3.91
-6.43 -12.83 0.25
-6.42 -12.81 0.75
-11.52 -22.99 2.25
-4.58 -9.13 -1.62
-6.37 -12.7 1.74
-5.82 -11.6 -1.59
-11.52 -22.98 4.07
-9.11 -18.17 -1.78
-6.37 -12.7 2.76
-11.15 -22.24 -1.3
-6.49 -12.95 3.34
-6.45 -12.87 -0.25
-6.48 -12.81 0.75
-6.31 -12.47 1.22
-4.63 -9.16 -1.63
-6.38 -12.61 1.73
-5.87 -11.6 -1.6
-6.4 -12.64 2.24
-7.33 -14.49 -1.42
-6.39 -12.62 2.75
-9.89 -19.56 -1.15
-6.5 -12.86 3.33
-11.52 -22.77 -0.45
-6.41 -12.58 0.25
-6.43 -12.6 0.74
-6.42 -12.59 1.24
-4.84 -9.49 -1.69
-5.92 -11.6 -1.6
-11.56 -22.66 4.03
-6.41 -12.57 -1.23
-6.41 -12.56 -0.74
-6.41 -12.57 -0.25
-11.56 -22.47 1.32
-11.57 -22.48 2.21
-4.85 -9.43 -1.68
-6.47 -12.57 1.74
-5.96 -11.59 -1.6
-11.58 -22.51 4.01
-6.46 -12.56 -1.24
-6.39 -12.41 2.71
-6.46 -12.55 -0.74
-6.47 -12.57 -0.25
-11.57 -22.29 1.32
-3.88 -7.47 -1.64
-6.63 -12.78 1.26
-4.91 -9.46 -1.69
-11.6 -22.36 3.09
-6.02 -11.61 -1.61
-11.54 -22.24 3.97
-9.25 -17.83 -1.76
-11.5 -22.16 -1.31
-11.55 -22.25 -0.44
-11.58 -22.13 1.31
-3.9 -7.44 -1.63
-11.58 -22.13 2.18
-4.95 -9.46 -1.69
-6.7 -12.8 1.77
-6.08 -11.61 -1.61
-11.47 -21.91 3.92
-8.86 -16.92 -1.67
-6.62 -12.64 2.77
-11.56 -22.09 -1.31
-11.56 -22.08 -0.43
-11.58 -21.93 0.43
-11.59 -21.96 1.3
-3.92 -7.43 -1.63
-11.59 -21.97 2.17
-4.79 -9.08 -1.63
-6.52 -12.35 1.72
-6.13 -11.61 -1.61
-11.48 -21.76 3.9
-8.87 -16.8 -1.66
-6.65 -12.6 2.77
-9.98 -18.91 -1.12
-11.57 -21.92 -0.43
-11.57 -21.74 0.43
-11.61 -21.82 1.3
-3.95 -7.43 -1.64
-6.67 -12.54 1.24
-5.01 -9.42 -1.69
-11.59 -21.79 3.03
-6.14 -11.55 -1.61
-11.48 -21.59 3.87
-9.37 -17.61 -1.75
-10.27 -19.31 -1.15
-11.58 -21.77 -0.43
-11.59 -21.61 0.43
-11.61 -21.64 1.29
-3.99 -7.44 -1.64
-11.62 -21.66 2.15
-5.06 -9.43 -1.7
-11.57 -21.57 3.01
-6.22 -11.59 -1.62
-11.54 -21.52 3.87
-7.95 -14.83 -1.47
-11.6 -21.62 -1.29
-11.58 -21.59 -0.43
-11.6 -21.45 0.43
-11.59 -21.43 1.28
-11.56 -21.38 2.13
-4.95 -9.15 -1.65
-11.6 -21.44 2.99
-6.28 -11.6 -1.62
-11.62 -21.49 3.87
-9.44 -17.45 -1.74
-11.17 -20.64 4.56
-11.65 -21.53 -1.28
-11.6 -21.45 -0.43
-11.61 -21.29 0.42
-11.62 -21.32 1.27
-11.63 -21.32 2.12
-5.14 -9.42 -1.7
-11.59 -21.25 2.97
-6.34 -11.63 -1.63
-11.52 -21.12 3.81
-8.58 -15.73 -1.57
-11.18 -20.51 4.54
-10.16 -18.63 -1.11
-11.61 -21.29 -0.42
-11.63 -21.15 0.42
-6.94 -12.62 0.75
-11.65 -21.18 2.11
-5.19 -9.44 -1.71
-11.64 -21.16 2.97
-6.39 -11.62 -1.63
-11.53 -20.96 3.79
-8.7 -15.81 -1.58
-11.19 -20.35 4.51
-11.68 -21.24 -1.27
-11.62 -21.14 -0.42
-11.65 -21 0.42
-11.66 -21.01 1.26
-11.66 -21.02 2.1
-5.21 -9.4 -1.7
-11.64 -20.99 2.95
-6.43 -11.6 -1.63
-11.55 -20.82 3.77
-8.69 -15.67 -1.57
-11.22 -20.22 4.49
-11.69 -21.08 -1.26
-11.64 -20.99 -0.42
-11.68 -20.89 0.42
-11.67 -20.86 1.25
-11.68 -20.88 2.09
-5.25 -9.39 -1.7
-11.67 -20.86 2.94
-6.47 -11.57 -1.63
-11.56 -20.66 3.75
-8.75 -15.64 -1.57
-11.24 -20.09 4.47
-11.65 -20.82 -1.25
-11.66 -20.85 -0.42
-11.76 -20.85 0.42
-11.68 -20.71 1.25
-11.69 -20.72 2.08
-5.29 -9.38 -1.7
-11.74 -20.81 2.93
-6.54 -11.59 -1.63
-11.56 -20.5 3.73
-9.58 -16.99 -1.71
-11.26 -19.97 4.46
-11.65 -20.65 -1.24
-7.07 -12.53 -0.25
-11.69 -20.57 1.24
-11.68 -20.56 2.07
-5.32 -9.37 -1.71
-6.6 -11.61 -1.64
-11.57 -20.37 3.71
-9.58 -16.86 -1.7
-11.33 -19.95 4.46
-11.66 -20.53 -1.24
-11.67 -20.54 -0.41
-7.33 -12.8 0.26
-11.71 -20.43 1.23
-11.7 -20.42 2.06
-5.37 -9.38 -1.71
-11.71 -20.44 2.89
-6.65 -11.61 -1.64
-11.63 -20.31 3.71
-7.27 -12.69 -1.28
-11.42 -19.94 4.47
-11.67 -20.38 -1.23
-11.68 -20.4 -0.41
-11.75 -20.36 0.41
-11.71 -20.28 1.23
-11.72 -20.29 2.05
-5.43 -9.4 -1.72
-11.74 -20.34 2.88
-6.69 -11.58 -1.64
-11.71 -20.28 3.71
-7.32 -12.68 -1.28
-11.52 -19.95 4.48
-7.3 -12.65 -0.77
-7.27 -12.6 -0.25
-7.33 -12.58 0.25
-11.72 -20.14 1.22
-11.73 -20.15 2.04
-5.47 -9.39 -1.72
-6.76 -11.61 -1.65
-11.72 -20.14 3.69
-7.28 -12.51 -1.27
-7.29 -12.52 -0.76
-11.71 -20.11 -0.41
-7.35 -12.53 0.25
-7.34 -12.52 0.76
-11.72 -19.98 2.03
-5.5 -9.38 -1.72
-7.56 -12.88 1.83
-6.83 -11.63 -1.66
-11.75 -20.03 3.68
-7.33 -12.5 -1.27
-7.34 -12.52 -0.76
-7.36 -12.54 -0.25
-3.29 -5.56 -1.73
-7.45 -12.59 0.77
-7.43 -12.56 1.28
-5.54 -9.37 -1.72
-7.36 -12.44 1.78
-6.89 -11.64 -1.66
-11.77 -19.89 3.66
-8.52 -14.4 -1.46
-11.11 -18.78 -1.14
-11.72 -19.81 -0.4
-3.3 -5.54 -1.73
-7.41 -12.43 0.25
-11.75 -19.72 1.2
-7.44 -12.49 1.27
-5.57 -9.35 -1.72
-7.45 -12.51 1.79
-6.94 -11.65 -1.66
-11.78 -19.77 3.65
-8.65 -14.51 -1.48
-7.71 -12.93 -0.79
-11.73 -19.68 -0.4
-3.33 -5.54 -1.73
-13.37 -22.26 0.45
-7.53 -12.53 0.77
-4.37 -7.28 -1.65
-11.76 -19.58 2
-5.61 -9.34 -1.73
-7.47 -12.44 1.78
-6.98 -11.62 -1.66
-11.79 -19.62 3.63
-8.68 -14.45 -1.47
-9.47 -15.77 -0.96
-7.51 -12.5 -0.25
-3.34 -5.52 -1.73
-7.53 -12.44 0.25
-11.77 -19.44 1.19
-4.4 -7.26 -1.65
-11.76 -19.43 1.99
-5.66 -9.34 -1.73
-11.79 -19.47 2.79
-7.01 -11.58 -1.66
-11.8 -19.5 3.61
-8.81 -14.56 -1.49
-7.76 -12.82 -0.79
-11.75 -19.41 -0.4
-3.36 -5.51 -1.73
-11.83 -19.38 0.4
-11.78 -19.31 1.19
-4.42 -7.24 -1.65
-11.77 -19.29 1.98
-5.69 -9.32 -1.73
-11.82 -19.37 2.79
-7.07 -11.58 -1.67
-11.81 -19.35 3.59
-8.89 -14.56 -1.49
-7.82 -12.81 -0.79
-11.76 -19.27 -0.39
-3.38 -5.5 -1.73
-11.78 -19.16 1.18
-4.45 -7.23 -1.65
-11.78 -19.16 1.97
-5.73 -9.32 -1.73
-7.16 -11.65 -1.68
-11.83 -19.23 3.58
-8.84 -14.37 -1.48
-11.74 -19.09 -1.17
-11.76 -19.13 -0.39
-3.4 -5.49 -1.73
-7.42 -11.97 0.25
-11.8 -19.03 1.17
-4.47 -7.22 -1.65
-11.79 -19.02 1.96
-5.76 -9.29 -1.73
-7.6 -12.26 1.77
-7.22 -11.64 -1.68
-11.9 -19.2 3.58
-9.2 -14.84 -1.53
-7.78 -12.55 -0.77
-11.78 -19.01 -0.39
-3.42 -5.48 -1.73
-7.73 -12.39 0.25
-11.8 -18.9 1.17
-4.51 -7.22 -1.65
-11.8 -18.9 1.95
-5.8 -9.29 -1.73
-11.78 -18.87 2.73
-7.27 -11.64 -1.68
-11.81 -18.92 3.53
-9.29 -14.88 -1.54
-11.77 -18.85 -1.16
-11.78 -18.87 -0.39
-3.45 -5.48 -1.73
-11.79 -18.73 0.39
-11.81 -18.76 1.16
-4.54 -7.21 -1.66
-11.81 -18.77 1.94
-5.85 -9.29 -1.74
-11.8 -18.76 2.72
-7.33 -11.64 -1.69
-11.82 -18.79 3.52
-9.92 -15.77 -1.63
-11.79 -18.73 -1.16
-11.8 -18.74 -0.39
-3.46 -5.46 -1.73
-11.79 -18.6 0.38
-11.82 -18.63 1.16
-11.82 -18.63 1.93
-5.87 -9.26 -1.74
-11.77 -18.56 2.7
-7.4 -11.67 -1.7
-11.8 -18.61 3.49
-9.93 -15.66 -1.62
-11.82 -18.64 4.29
-11.79 -18.59 -1.15
-11.79 -18.6 -0.38
-3.48 -5.44 -1.73
-11.82 -18.49 0.38
-11.83 -18.51 1.15
-11.82 -18.49 1.92
-5.91 -9.25 -1.74
-11.82 -18.49 2.69
-7.41 -11.59 -1.69
-11.83 -18.51 3.48
-10 -15.64 -1.62
-11.83 -18.51 4.27
-11.82 -18.49 -1.15
-11.8 -18.47 -0.38
-3.5 -5.43 -1.73
-11.8 -18.32 0.38
-11.85 -18.4 1.15
-11.83 -18.37 1.91
-5.95 -9.24 -1.74
-11.81 -18.34 2.68
-7.46 -11.59 -1.69
-11.85 -18.4 3.47
-10.04 -15.59 -1.62
-11.84 -18.39 4.25
-11.81 -18.33 -1.14
-11.82 -18.35 -0.38
-3.53 -5.44 -1.74
-11.83 -18.23 0.38
-11.85 -18.25 1.14
-11.84 -18.24 1.9
-5.98 -9.21 -1.74
-11.82 -18.22 2.67
-7.54 -11.61 -1.7
-11.82 -18.22 3.44
-10.01 -15.43 -1.61
-11.86 -18.27 4.23
-11.82 -18.22 -1.14
-11.83 -18.23 -0.38
-3.55 -5.43 -1.74
-11.84 -18.12 0.38
-11.84 -18.12 1.13
-11.85 -18.13 1.89
-6.02 -9.21 -1.74
-11.83 -18.11 2.66
-7.59 -11.61 -1.7
-11.86 -18.16 3.43
-11.85 -18.14 4.21
-11.82 -18.09 -1.13
-11.84 -18.12 -0.38
-3.57 -5.42 -1.74
-11.86 -18 0.38
-11.86 -18.01 1.13
-11.86 -18.01 1.89
-6.07 -9.21 -1.75
-11.85 -18 2.65
-7.66 -11.64 -1.71
-11.86 -18.01 3.42
-9.04 -13.73 -1.44
-11.86 -18.02 4.19
-11.84 -17.98 -1.13
-11.84 -17.98 -0.38
-3.58 -5.4 -1.74
-11.88 -17.89 0.37
-11.86 -17.88 1.12
-11.87 -17.88 1.88
-6.1 -9.2 -1.75
-11.86 -17.88 2.63
-7.69 -11.59 -1.71
-11.88 -17.9 3.4
-9.15 -13.79 -1.45
-11.88 -17.9 4.17
-11.85 -17.86 -1.12
-11.85 -17.86 -0.37
-3.6 -5.39 -1.74
-11.89 -17.79 0.37
-11.88 -17.77 1.12
-11.87 -17.76 1.87
-6.13 -9.17 -1.75
-11.91 -17.82 2.63
-7.72 -11.55 -1.71
-11.92 -17.83 3.4
-9.23 -13.81 -1.45
-11.87 -17.76 4.15
-11.86 -17.74 -1.12
-11.86 -17.74 -0.37
-3.62 -5.38 -1.74
-11.9 -17.67 0.37
-11.88 -17.64 1.11
-11.88 -17.64 1.86
-6.18 -9.17 -1.75
-7.77 -11.54 -1.71
-10.07 -14.96 -1.58
-11.89 -17.65 4.14
-11.86 -17.6 -1.11
-11.87 -17.63 -0.37
-3.65 -5.38 -1.74
-11.91 -17.55 0.37
-11.89 -17.53 1.11
-11.89 -17.53 1.85
-6.21 -9.16 -1.75
-19.64 -28.95 4.29
-7.8 -11.5 -1.71
-11.89 -17.53 4.12
-11.87 -17.5 -1.11
-11.88 -17.51 -0.37
-3.67 -5.36 -1.74
-11.92 -17.44 0.37
-11.9 -17.4 1.1
-11.9 -17.41 1.85
-6.24 -9.13 -1.75
-11.92 -17.43 2.59
-7.85 -11.48 -1.71
-14.69 -21.49 4.12
-10.03 -14.67 -1.55
-11.91 -17.41 4.1
-11.88 -17.37 -1.1
-11.53 -16.87 4.72
-11.88 -17.37 -0.37
-3.68 -5.35 -1.74
-11.93 -17.32 0.37
-11.91 -17.29 1.1
-11.9 -17.29 1.84
-6.31 -9.16 -1.76
-11.94 -17.34 2.59
-7.89 -11.46 -1.71
-11.95 -17.36 3.34
-10.04 -14.58 -1.55
-11.91 -17.29 4.08
-11.89 -17.26 -1.1
-11.53 -16.74 4.69
-11.89 -17.26 -0.37
-3.71 -5.34 -1.74
-11.93 -17.2 0.37
-11.92 -17.18 1.1
-11.91 -17.17 1.83
-6.32 -9.12 -1.76
-12 -17.3 2.58
-7.89 -11.37 -1.7
-12.01 -17.31 3.34
-10.06 -14.51 -1.54
-11.7 -16.86 3.99
-11.89 -17.14 -1.09
-11.52 -16.6 4.67
-11.9 -17.16 -0.36
-3.74 -5.35 -1.75
-11.94 -17.09 0.36
-11.93 -17.07 1.09
-11.92 -17.06 1.82
-6.35 -9.09 -1.76
-11.96 -17.12 2.56
-7.93 -11.34 -1.7
-10.09 -14.45 -1.54
-11.76 -16.83 3.99
-11.89 -17.01 -1.09
-11.52 -16.48 4.64
-11.91 -17.05 -0.36
-3.76 -5.34 -1.75
-11.95 -16.98 0.36
-11.93 -16.94 1.09
-11.94 -16.96 1.81
-6.38 -9.06 -1.76
-11.98 -17.01 2.55
-7.94 -11.28 -1.69
-15.13 -21.49 4.16
-10.13 -14.39 -1.54
-11.85 -16.83 4
-11.91 -16.92 -1.08
-11.52 -16.37 4.62
-11.92 -16.93 -0.36
-3.78 -5.32 -1.75
-11.96 -16.86 0.36
-11.93 -16.83 1.08
-11.94 -16.84 1.81
-6.45 -9.1 -1.77
-11.99 -16.91 2.55
-7.92 -11.17 -1.68
-15.24 -21.49 4.17
-10.15 -14.31 -1.53
-11.93 -16.82 4.01
-11.91 -16.8 -1.08
-11.53 -16.25 4.6
-11.93 -16.82 -0.36
-3.8 -5.32 -1.75
-11.97 -16.76 0.36
-11.95 -16.73 1.08
-11.95 -16.72 1.8
-6.49 -9.08 -1.77
-12 -16.79 2.53
-7.96 -11.15 -1.68
-15.37 -21.51 4.19
-10.16 -14.22 -1.53
-11.85 -16.58 3.96
-11.94 -16.7 -1.08
-11.58 -16.21 4.6
-11.94 -16.71 -0.36
-3.82 -5.3 -1.75
-11.97 -16.63 0.36
-11.95 -16.61 1.07
-11.95 -16.6 1.79
-6.53 -9.07 -1.77
-12 -16.67 2.52
-8.01 -11.13 -1.68
-10.19 -14.15 -1.53
-11.82 -16.43 3.93
-11.93 -16.58 -1.07
-11.67 -16.21 4.61
-11.96 -16.61 -0.36
-11.99 -16.52 0.36
-11.97 -16.51 1.07
-11.97 -16.5 1.78
-6.56 -9.05 -1.77
-11.98 -16.52 2.51
-8.04 -11.08 -1.68
-10.24 -14.12 -1.53
-11.83 -16.3 3.92
-11.95 -16.47 -1.07
-11.76 -16.21 4.62
-11.98 -16.51 -0.36
-11.99 -16.42 0.35
-11.97 -16.39 1.06
-11.98 -16.39 1.78
-6.61 -9.04 -1.77
-11.98 -16.4 2.49
-8.08 -11.06 -1.68
-12.03 -16.47 3.23
-10.27 -14.06 -1.52
-11.93 -16.33 3.93
-11.96 -16.36 -1.06
-11.97 -16.38 -0.35
-12.01 -16.31 0.35
-11.98 -16.28 1.06
-11.98 -16.27 1.77
-6.66 -9.04 -1.78
-11.99 -16.29 2.48
-8.11 -11.01 -1.68
-12.03 -16.34 3.21
-10.29 -13.97 -1.52
-12 -16.3 3.93
-11.96 -16.25 -1.06
-11.98 -16.28 -0.35
-12.01 -16.2 0.35
-12 -16.18 1.06
-11.99 -16.17 1.76
-12.01 -16.2 2.48
-8.16 -11 -1.68
-12.1 -16.32 3.22
-10.32 -13.91 -1.52
-12 -16.19 3.92
-11.97 -16.14 -1.05
-11.99 -16.17 -0.35
-12.01 -16.08 0.35
-12 -16.07 1.05
-12 -16.06 1.75
-6.15 -8.24 -1.63
-12 -16.08 2.46
-8.2 -10.98 -1.68
-15.45 -20.69 4.09
-10.35 -13.86 -1.51
-12 -16.08 3.9
-11.97 -16.03 -1.05
-12 -16.08 -0.35
-12.01 -15.97 0.35
-12.01 -15.97 1.05
-12.01 -15.97 1.75
-6.1 -8.11 -1.61
-12.01 -15.97 2.45
-8.25 -10.98 -1.69
-15.5 -20.61 4.08
-10.26 -13.64 -1.49
-12.01 -15.97 3.88
-11.98 -15.93 -1.04
-12 -15.95 -0.35
-4.01 -5.29 -1.78
-12 -15.84 0.35
-12.01 -15.85 1.04
-12.02 -15.87 1.74
-6.09 -8.04 -1.6
-12 -15.84 2.44
-8.3 -10.96 -1.69
-12.03 -15.88 3.15
-10.31 -13.6 -1.49
-12.02 -15.87 3.87
-11.98 -15.81 -1.04
-12 -15.84 -0.35
-4.03 -5.28 -1.78
-12.01 -15.74 0.35
-12.02 -15.75 1.04
-12.02 -15.75 1.73
-6.16 -8.07 -1.61
-12.01 -15.74 2.43
-8.37 -10.97 -1.69
-12.03 -15.77 3.14
-12.03 -15.77 3.85
-12 -15.73 -1.04
-11.97 -15.69 -0.34
-4.04 -5.26 -1.78
-11.98 -15.59 0.34
-12.03 -15.66 1.03
-12.02 -15.65 1.73
-6.19 -8.06 -1.61
-11.97 -15.58 2.41
-8.43 -10.97 -1.7
-12.02 -15.65 3.13
-10.4 -13.54 -1.49
-12.04 -15.67 3.84
-12.01 -15.63 -1.03
-11.6 -15.1 4.4
-11.99 -15.61 -0.34
-4.04 -5.23 -1.77
-12.01 -15.53 0.34
-12.03 -15.54 1.03
-12.02 -15.54 1.72
-6.2 -8.01 -1.61
-12.02 -15.54 2.41
-8.53 -11.02 -1.71
-12.04 -15.55 3.11
-10.48 -13.54 -1.5
-12.04 -15.56 3.82
-12 -15.51 -1.03
-11.59 -14.98 4.37
-12.02 -15.53 -0.34
-4.05 -5.2 -1.77
-12.03 -15.43 0.34
-12.04 -15.44 1.03
-12 -15.4 1.71
-6.19 -7.94 -1.6
-12 -15.4 2.4
-8.61 -11.05 -1.72
-12.02 -15.43 3.1
-10.51 -13.49 -1.5
-12.04 -15.45 3.81
-12.02 -15.42 -1.02
-11.6 -14.88 4.36
-12.03 -15.43 -0.34
-4.07 -5.18 -1.76
-12 -15.28 0.34
-11.99 -15.27 1.02
-6.23 -7.93 -1.6
-12.02 -15.32 2.39
-8.66 -11.03 -1.72
-12.05 -15.35 3.09
-10.6 -13.5 -1.5
-12.04 -15.34 3.79
-12.02 -15.32 -1.02
-11.59 -14.77 4.33
-12.01 -15.3 -0.34
-4.08 -5.16 -1.76
-12.05 -15.24 0.34
-12.01 -15.18 1.01
-6.44 -8.14 -1.64
-12.04 -15.23 2.38
-8.73 -11.04 -1.73
-12.03 -15.22 3.07
-10.63 -13.44 -1.5
-11.94 -15.11 3.74
-12.03 -15.22 -1.02
-11.6 -14.67 4.32
-12.04 -15.23 -0.34
-4.1 -5.14 -1.76
-12.06 -15.14 0.34
-12.04 -15.12 1.01
-6.48 -8.13 -1.65
-12.06 -15.15 2.38
-8.82 -11.07 -1.74
-12.07 -15.16 3.07
-10.52 -13.21 -1.48
-11.94 -14.99 3.73
-12.05 -15.13 -1.01
-11.62 -14.6 4.31
-12.05 -15.13 -0.34
-4.11 -5.13 -1.76
-12.05 -15.03 0.34
-12.07 -15.05 1.01
-12.08 -15.06 1.69
-6.45 -8.04 -1.63
-12.06 -15.04 2.37
-8.91 -11.11 -1.75
-12.08 -15.06 3.06
-10.76 -13.41 -1.5
-11.95 -14.89 3.71
-12.06 -15.04 -1.01
-11.63 -14.5 4.29
-12.06 -15.03 -0.34
-4.14 -5.13 -1.77
-12.07 -14.94 0.34
-12.07 -14.95 1.01
-12.08 -14.95 1.68
-6.41 -7.94 -1.62
-12.07 -14.94 2.36
-8.95 -11.08 -1.75
-12.09 -14.97 3.05
-10.86 -13.45 -1.51
-11.96 -14.8 3.7
-12.05 -14.92 -1.01
-11.64 -14.41 4.28
-12.08 -14.95 -0.34
-4.18 -5.14 -1.77
-12.1 -14.87 0.33
-12.08 -14.84 1
-12.09 -14.86 1.68
-6.43 -7.9 -1.61
-12.08 -14.84 2.35
-9.03 -11.1 -1.76
-12.09 -14.87 3.04
-10.92 -13.43 -1.51
-11.96 -14.7 3.68
-12.07 -14.84 -1
-11.68 -14.36 4.27
-12.09 -14.87 -0.33
-4.19 -5.11 -1.77
-12.12 -14.79 0.33
-12.08 -14.74 1
-12.1 -14.77 1.67
-6.52 -7.96 -1.63
-12.08 -14.75 2.34
-9.03 -11.02 -1.75
-12.12 -14.79 3.03
-10.6 -12.94 -1.46
-11.97 -14.61 3.67
-12.08 -14.74 -1
-11.75 -14.34 4.28
-12.1 -14.77 -0.33
-4.19 -5.08 -1.76
-12.12 -14.69 0.33
-12.01 -14.56 0.99
-12.09 -14.66 1.66
-6.59 -7.98 -1.64
-12.09 -14.66 2.33
-9.13 -11.06 -1.76
-12.13 -14.7 3.02
-11.02 -13.36 -1.51
-11.98 -14.52 3.66
-12.08 -14.65 -1
-11.78 -14.29 4.28
-12.11 -14.68 -0.33
-4.21 -5.07 -1.76
-12.12 -14.59 0.33
-11.98 -14.43 0.98
-12.11 -14.57 1.66
-6.68 -8.04 -1.66
-12.1 -14.57 2.33
-9.14 -11 -1.76
-12.14 -14.61 3.01
-11.98 -14.42 3.64
-12.1 -14.56 -0.99
-11.76 -14.16 4.25
-12.12 -14.59 -0.33
-4.24 -5.07 -1.77
-12.13 -14.5 0.33
-12 -14.34 0.98
-12.12 -14.48 1.65
-6.65 -7.95 -1.64
-12.1 -14.46 2.31
-9.23 -11.03 -1.77
-12.16 -14.53 3
-11.12 -13.3 -1.52
-11.99 -14.33 3.63
-12.09 -14.44 -0.99
-11.72 -14.01 4.22
-12.14 -14.51 -0.33
-4.27 -5.07 -1.77
-12.14 -14.41 0.33
-12.02 -14.26 0.98
-12.12 -14.38 1.65
-6.64 -7.89 -1.63
-12.12 -14.38 2.31
-9.27 -11 -1.77
-12.16 -14.43 2.99
-11.19 -13.27 -1.52
-12 -14.24 3.62
-12.1 -14.36 -0.98
-11.72 -13.91 4.2
-12.14 -14.41 -0.33
-4.3 -5.06 -1.78
-12.16 -14.32 0.33
-12.06 -14.22 0.98
-12.13 -14.3 1.64
-6.64 -7.82 -1.63
-12.12 -14.29 2.3
-9.31 -10.97 -1.77
-12.16 -14.33 2.98
-12.01 -14.15 3.61
-12.11 -14.27 -0.98
-11.73 -13.82 4.18
-12.14 -14.31 -0.33
-4.32 -5.05 -1.78
-12.16 -14.23 0.33
-12.11 -14.17 0.98
-12.13 -14.19 1.63
-6.61 -7.74 -1.61
-12.12 -14.18 2.29
-9.35 -10.94 -1.77
-12.17 -14.24 2.97
-11.2 -13.11 -1.51
-12.01 -14.06 3.59
-12.12 -14.18 -0.98
-11.73 -13.73 4.17
-12.15 -14.21 -0.33
-4.35 -5.06 -1.79
-12.16 -14.13 0.33
-12.14 -14.1 0.98
-12.13 -14.1 1.63
-6.66 -7.74 -1.62
-12.14 -14.1 2.28
-9.39 -10.91 -1.77
-12.18 -14.16 2.96
-11.24 -13.06 -1.51
-12.01 -13.96 3.58
-12.12 -14.08 -0.97
-11.74 -13.64 4.15
-12.16 -14.13 -0.33
-4.39 -5.06 -1.79
-12.17 -14.04 0.32
-12.14 -14.01 0.97
-12.16 -14.02 1.62
-6.66 -7.69 -1.61
-12.14 -14 2.28
-9.43 -10.88 -1.77
-12.19 -14.06 2.95
-11.28 -13.01 -1.51
-12.03 -13.88 3.57
-12.13 -14 -0.97
-11.75 -13.56 4.14
-12.17 -14.04 -0.32
-4.42 -5.07 -1.8
-12.18 -13.95 0.32
-12.14 -13.91 0.97
-12.16 -13.93 1.62
-6.77 -7.75 -1.63
-12.14 -13.91 2.27
-9.48 -10.86 -1.77
-12.2 -13.97 2.94
-11.31 -12.95 -1.5
-12.03 -13.79 3.56
-12.13 -13.9 -0.97
-11.74 -13.45 4.12
-12.17 -13.94 -0.32
-4.45 -5.07 -1.81
-12.19 -13.86 0.32
-12.15 -13.82 0.96
-12.16 -13.83 1.61
-6.71 -7.63 -1.61
-12.16 -13.83 2.26
-9.52 -10.83 -1.77
-12.2 -13.88 2.93
-11.36 -12.93 -1.51
-12.04 -13.7 3.55
-12.14 -13.81 -0.96
-11.76 -13.38 4.11
-12.17 -13.84 -0.32
-4.47 -5.05 -1.81
-12.2 -13.78 0.32
-12.16 -13.74 0.96
-12.17 -13.75 1.61
-6.79 -7.68 -1.62
-12.17 -13.75 2.25
-9.57 -10.81 -1.77
-12.2 -13.79 2.92
-11.32 -12.79 -1.49
-12.05 -13.62 3.53
-12.16 -13.73 -0.96
-11.85 -13.39 4.13
-12.18 -13.76 -0.32
-4.48 -5.03 -1.8
-12.19 -13.68 0.32
-12.17 -13.65 0.96
-12.17 -13.66 1.6
-6.65 -7.46 -1.58
-12.17 -13.65 2.25
-9.61 -10.79 -1.77
-12.21 -13.7 2.91
-11.34 -12.72 -1.49
-12.08 -13.56 3.53
-12.16 -13.64 -0.96
-11.9 -13.35 4.13
-12.19 -13.68 -0.32
-4.5 -5.01 -1.8
-12.2 -13.59 0.32
-5.07 -5.66 -1.75
-12.17 -13.57 0.96
-12.17 -13.56 1.59
-6.82 -7.6 -1.62
-12.17 -13.56 2.24
-9.65 -10.75 -1.77
-12.22 -13.62 2.9
-11.46 -12.77 -1.5
-12.16 -13.55 3.54
-12.15 -13.54 -0.95
-12.06 -13.44 4.17
-12.19 -13.59 -0.32
-4.5 -4.98 -1.8
-12.21 -13.51 0.32
-5.1 -5.64 -1.76
-12.17 -13.47 0.95
-12.19 -13.49 1.59
-6.84 -7.57 -1.62
-12.18 -13.48 2.23
-9.67 -10.71 -1.77
-12.23 -13.53 2.89
-11.53 -12.76 -1.5
-12.19 -13.49 3.53
-12.17 -13.47 -0.95
-12.2 -13.5 -0.32
-4.52 -4.97 -1.8
-12.21 -13.42 0.32
-5.12 -5.63 -1.76
-12.18 -13.38 0.95
-12.2 -13.4 1.59
-6.83 -7.51 -1.61
-12.19 -13.4 2.22
-9.71 -10.67 -1.77
-12.23 -13.44 2.88
-11.57 -12.71 -1.5
-12.2 -13.41 3.52
-12.18 -13.39 -0.95
-12.2 -13.41 4.18
-12.2 -13.41 -0.32
-4.54 -4.95 -1.8
-12.22 -13.33 0.32
-5.15 -5.62 -1.76
-12.18 -13.3 0.95
-12.19 -13.3 1.58
-6.81 -7.43 -1.6
-12.19 -13.3 2.22
-9.74 -10.63 -1.77
-12.23 -13.35 2.87
-11.58 -12.64 -1.5
-12.23 -13.34 3.52
-12.17 -13.28 -0.94
-12.16 -13.27 4.16
-12.2 -13.32 -0.32
-4.54 -4.92 -1.79
-12.22 -13.24 0.31
-5.17 -5.6 -1.76
-12.2 -13.22 0.94
-12.2 -13.22 1.57
-6.83 -7.4 -1.59
-12.2 -13.23 2.21
-8.07 -8.74 -1.46
-12.24 -13.27 2.86
-11.63 -12.6 -1.5
-12.24 -13.26 3.51
-12.18 -13.2 -0.94
-12.22 -13.24 4.16
-12.22 -13.24 -0.31
-4.56 -4.91 -1.79
-12.22 -13.15 0.31
-5.19 -5.59 -1.76
-12.2 -13.13 0.94
-12.22 -13.15 1.57
-6.85 -7.37 -1.59
-12.2 -13.13 2.2
-9.81 -10.56 -1.77
-12.25 -13.18 2.85
-11.67 -12.56 -1.5
-12.25 -13.18 3.5
-12.18 -13.11 -0.94
-12.23 -13.16 4.15
-12.22 -13.15 -0.31
-4.59 -4.91 -1.8
-12.22 -13.07 0.31
-5.21 -5.57 -1.76
-12.2 -13.04 0.94
-12.22 -13.06 1.57
-6.91 -7.39 -1.6
-12.2 -13.05 2.19
-9.83 -10.51 -1.77
-12.26 -13.1 2.84
-11.75 -12.56 -1.51
-12.25 -13.09 3.49
-12.19 -13.03 -0.93
-12.23 -13.08 4.13
-12.22 -13.06 -0.31
-4.62 -4.9 -1.8
-12.23 -12.98 0.31
-5.24 -5.56 -1.76
-12.21 -12.96 0.93
-12.22 -12.97 1.56
-6.91 -7.33 -1.6
-12.22 -12.97 2.19
-9.85 -10.45 -1.76
-12.26 -13.01 2.83
-11.79 -12.52 -1.5
-12.25 -13.01 3.47
-12.19 -12.94 -0.93
-12.25 -13 4.12
-12.22 -12.97 -0.31
-4.61 -4.86 -1.8
-12.22 -12.88 0.31
-5.27 -5.55 -1.77
-12.22 -12.88 0.93
-12.22 -12.88 1.55
-12.23 -12.89 2.18
-9.88 -10.42 -1.76
-12.25 -12.91 2.82
-11.79 -12.43 -1.5
-12.26 -12.92 3.46
-12.21 -12.87 -0.93
-12.24 -12.9 4.1
-12.2 -12.86 -0.31
-4.61 -4.83 -1.79
-12.21 -12.78 0.31
-5.29 -5.54 -1.77
-12.22 -12.8 0.93
-12.23 -12.8 1.55
-6.91 -7.23 -1.58
-12.22 -12.79 2.17
-8.24 -8.62 -1.46
-12.25 -12.82 2.81
-11.87 -12.43 -1.5
-12.24 -12.81 3.44
-12.21 -12.78 -0.93
-12.25 -12.82 4.09
-12.22 -12.79 -0.31
-4.63 -4.81 -1.79
-12.22 -12.7 0.31
-5.3 -5.51 -1.77
-12.23 -12.71 0.92
-12.24 -12.72 1.54
-7.45 -7.75 -1.7
-12.22 -12.7 2.16
-8.34 -8.67 -1.48
-12.25 -12.74 2.8
-11.97 -12.44 -1.51
-12.24 -12.72 3.43
-12.21 -12.69 -0.92
-12.25 -12.73 4.08
-12.21 -12.69 -0.31
-4.65 -4.8 -1.79
-12.17 -12.57 0.31
-5.34 -5.51 -1.77
-12.23 -12.63 0.92
-12.25 -12.64 1.54
-7.42 -7.65 -1.69
-12.23 -12.63 2.16
-10 -10.33 -1.77
-12.25 -12.65 2.79
-12.03 -12.41 -1.51
-12.25 -12.64 3.42
-12.21 -12.61 -0.92
-12.25 -12.64 4.06
-12.22 -12.62 -0.31
-4.68 -4.8 -1.8
-12.23 -12.54 0.31
-5.36 -5.5 -1.77
-12.24 -12.55 0.92
-12.25 -12.56 1.54
-7.97 -8.17 -1.81
-12.23 -12.55 2.15
-10.03 -10.28 -1.76
-12.22 -12.53 2.77
-12.08 -12.39 -1.51
-12.2 -12.51 3.4
-12.22 -12.53 -0.92
-12.26 -12.57 4.05
-12.22 -12.53 -0.31
-4.71 -4.79 -1.8
-12.23 -12.46 0.3
-5.38 -5.48 -1.77
-12.24 -12.46 0.92
-12.24 -12.47 1.53
-7.72 -7.86 -1.74
-12.24 -12.47 2.15
-10.08 -10.27 -1.77
-12.26 -12.49 2.77
-12.17 -12.39 -1.52
-12.26 -12.49 3.4
-12.25 -12.47 -0.92
-12.27 -12.49 4.04
-12.23 -12.46 -0.3
-4.72 -4.78 -1.8
-12.27 -12.41 0.3
-5.4 -5.46 -1.77
-12.26 -12.4 0.91
-12.26 -12.39 1.52
-7.39 -7.47 -1.66
-12.26 -12.39 2.14
-10.12 -10.24 -1.77
-12.27 -12.41 2.76
-12.27 -12.41 -1.53
-12.26 -12.39 3.39
-12.33 -12.47 -0.92
-12.27 -12.41 4.03
-12.31 -12.45 -0.31
-4.75 -4.77 -1.8
-12.37 -12.42 0.31
-5.42 -5.44 -1.77
-12.35 -12.4 0.92
-12.36 -12.42 1.53
-7.38 -7.41 -1.66
-12.33 -12.38 2.15
-10.19 -10.24 -1.77
-12.33 -12.38 2.77
-12.34 -12.39 -1.53
-12.29 -12.34 3.39
-12.41 -12.46 -0.92
-12.3 -12.35 4.02
-12.41 -12.46 -0.31
-4.75 -4.74 -1.8
-12.43 -12.4 0.31
-5.44 -5.42 -1.77
-12.43 -12.4 0.92
-12.44 -12.41 1.54
-7.36 -7.35 -1.65
-12.42 -12.39 2.15
-10.25 -10.23 -1.78
-12.42 -12.39 2.78
-12.39 -12.36 -1.53
-12.38 -12.36 3.4
-12.43 -12.41 -0.92
-12.39 -12.36 4.04
-12.43 -12.41 -0.31
-4.76 -4.72 -1.8
-12.47 -12.36 0.31
-5.47 -5.42 -1.78
-12.44 -12.33 0.92
-12.46 -12.35 1.53
-0.71 -0.7 -0.16
-12.45 -12.33 2.15
-10.29 -10.2 -1.78
-12.5 -12.39 2.79
-12.44 -12.33 -1.53
-12.49 -12.37 3.42
-12.52 -12.4 -0.92
-12.48 -12.36 4.06
-12.5 -12.39 -0.31
-4.77 -4.7 -1.79
-12.57 -12.36 0.31
-5.5 -5.41 -1.78
-12.54 -12.33 0.92
-12.54 -12.33 1.54
-12.53 -12.33 2.16
-10.35 -10.18 -1.78
-12.6 -12.39 2.8
-12.5 -12.3 -1.53
-12.58 -12.38 3.43
-12.7 -12.49 -0.93
-12.58 -12.37 4.07
-12.65 -12.44 -0.31
-4.78 -4.67 -1.79
-12.74 -12.45 0.31
-5.52 -5.39 -1.78
-12.72 -12.42 0.93
-12.72 -12.42 1.56
-12.69 -12.4 2.18
-10.42 -10.18 -1.79
-12.7 -12.41 2.81
-12.56 -12.27 -1.54
-12.66 -12.37 3.44
-12.81 -12.51 -0.94
-12.67 -12.38 4.09
-12.78 -12.48 -0.31
-4.81 -4.66 -1.79
-12.83 -12.45 0.31
-5.52 -5.36 -1.78
-12.82 -12.44 0.94
-12.83 -12.45 1.56
-12.8 -12.42 2.19
-10.51 -10.2 -1.8
-12.79 -12.41 2.82
-12.62 -12.24 -1.54
-12.76 -12.38 3.46
-12.89 -12.51 -0.94
-12.76 -12.39 4.11
-12.88 -12.5 -0.31
-4.82 -4.65 -1.79
-12.93 -12.46 0.31
-5.55 -5.35 -1.78
-12.91 -12.44 0.94
-12.93 -12.46 1.57
-12.9 -12.43 2.2
-10.57 -10.19 -1.8
-12.89 -12.42 2.83
-12.67 -12.21 -1.54
-12.86 -12.39 3.47
-12.98 -12.51 -0.94
-12.86 -12.39 4.12
-12.98 -12.51 -0.31
-4.84 -4.63 -1.8
-13.04 -12.47 0.31
-5.58 -5.34 -1.78
-13.01 -12.44 0.94
-13.03 -12.46 1.58
-0.72 -0.69 -0.16
-13 -12.44 2.21
-10.65 -10.19 -1.81
-12.98 -12.42 2.85
-12.73 -12.17 -1.54
-12.95 -12.39 3.48
-13.09 -12.52 -0.95
-12.95 -12.39 4.14
-13.07 -12.5 -0.32
-4.85 -4.6 -1.79
-13.14 -12.48 0.32
-5.61 -5.33 -1.79
-13.11 -12.45 0.95
-13.11 -12.46 1.58
-13.1 -12.45 2.22
-10.74 -10.2 -1.82
-13.08 -12.43 2.86
-12.77 -12.13 -1.54
-13.06 -12.4 3.5
-13.19 -12.53 -0.95
-13.16 -12.51 -0.32
-4.87 -4.6 -1.79
-13.22 -12.48 0.32
-5.64 -5.32 -1.79
-13.21 -12.47 0.95
-13.21 -12.47 1.59
-13.19 -12.45 2.23
-10.79 -10.19 -1.82
-13.18 -12.44 2.87
-12.82 -12.1 -1.54
-13.14 -12.41 3.51
-13.29 -12.54 -0.96
-13.27 -12.52 -0.32
-4.89 -4.58 -1.79
-13.32 -12.48 0.32
-5.66 -5.31 -1.79
-13.31 -12.47 0.96
-0.72 -0.67 -0.19
-13.32 -12.49 1.6
-0.73 -0.68 -0.16
-13.29 -12.45 2.24
-10.86 -10.18 -1.83
-13.28 -12.45 2.88
-12.87 -12.07 -1.54
-13.24 -12.41 3.53
-13.38 -12.54 -0.96
-13.37 -12.54 -0.32
-4.91 -4.57 -1.8
-13.43 -12.49 0.32
-5.66 -5.27 -1.79
-13.4 -12.47 0.96
-0.73 -0.68 -0.19
-13.42 -12.49 1.6
-0.75 -0.7 -0.16
-13.39 -12.46 2.25
-10.94 -10.18 -1.83
-13.38 -12.45 2.89
-12.92 -12.02 -1.54
-13.35 -12.42 3.54
-13.48 -12.54 -0.96
-13.48 -12.54 -0.32
-4.92 -4.55 -1.8
-13.53 -12.5 0.32
-5.69 -5.26 -1.79
-13.51 -12.48 0.96
-0.73 -0.67 -0.19
-13.53 -12.5 1.61
-0.76 -0.7 -0.16
-13.5 -12.47 2.26
-11.02 -10.18 -1.84
-13.47 -12.45 2.9
-12.97 -11.98 -1.54
-13.44 -12.42 3.56
-13.59 -12.56 -0.97
-13.56 -12.53 -0.32
-4.94 -4.53 -1.8
-13.63 -12.51 0.32
-5.71 -5.24 -1.79
-13.6 -12.48 0.97
-0.73 -0.67 -0.19
-13.61 -12.49 1.62
-0.77 -0.71 -0.17
-13.6 -12.48 2.27
-11.13 -10.21 -1.85
-13.57 -12.45 2.92
-13 -11.93 -1.54
-13.54 -12.43 3.57
-13.69 -12.56 -0.97
-13.67 -12.54 -0.32
-4.96 -4.52 -1.8
-13.73 -12.51 0.32
-5.73 -5.23 -1.79
-13.71 -12.49 0.97
-0.74 -0.68 -0.2
-13.72 -12.5 1.62
-0.76 -0.69 -0.16
-13.7 -12.48 2.28
-11.22 -10.23 -1.86
-13.68 -12.47 2.93
-13.05 -11.89 -1.54
-13.65 -12.44 3.59
-13.77 -12.55 -0.98
-13.77 -12.55 -0.33
-4.97 -4.5 -1.8
-13.82 -12.51 0.33
-5.75 -5.21 -1.79
-13.8 -12.49 0.98
-0.75 -0.68 -0.2
-13.82 -12.51 1.63
-0.76 -0.69 -0.16
-13.79 -12.48 2.28
-11.3 -10.23 -1.87
-13.78 -12.48 2.94
-13.09 -11.85 -1.54
-13.74 -12.44 3.6
-13.88 -12.57 -0.98
-13.81 -12.5 -0.33
-4.99 -4.49 -1.8
-13.93 -12.52 0.33
-5.78 -5.19 -1.79
-13.9 -12.5 0.98
-0.76 -0.68 -0.2
-13.92 -12.52 1.64
-0.76 -0.68 -0.16
-13.89 -12.49 2.29
-11.37 -10.22 -1.88
-13.87 -12.47 2.95
-13.13 -11.8 -1.54
-13.84 -12.44 3.62
-13.99 -12.58 -0.99
-13.96 -12.55 -0.33
-5.02 -4.48 -1.8
-14.05 -12.54 0.33
-5.8 -5.18 -1.8
-14.02 -12.51 0.98
-0.75 -0.67 -0.2
-14.03 -12.53 1.65
-0.77 -0.69 -0.16
-14.02 -12.51 2.31
-11.47 -10.24 -1.89
-13.98 -12.48 2.97
-13.18 -11.77 -1.55
-13.95 -12.45 3.63
-14.12 -12.6 -0.99
-14.06 -12.55 -0.33
-5.02 -4.45 -1.8
-14.16 -12.55 0.33
-5.84 -5.17 -1.8
-14.13 -12.52 0.99
-0.76 -0.67 -0.2
-14.13 -12.53 1.65
-0.78 -0.69 -0.16
-14.12 -12.51 2.32
-11.55 -10.23 -1.89
-14.1 -12.49 2.98
-13.23 -11.73 -1.55
-14.07 -12.47 3.66
-14.21 -12.6 -1
-14.17 -12.56 -0.33
-5.04 -4.43 -1.8
-14.26 -12.55 0.33
-5.88 -5.17 -1.81
-14.24 -12.53 0.99
-0.77 -0.68 -0.2
-14.24 -12.53 1.66
-0.77 -0.68 -0.16
-14.23 -12.53 2.33
-11.62 -10.23 -1.9
-14.21 -12.5 3
-13.28 -11.68 -1.55
-14.16 -12.46 3.67
-14.3 -12.58 -0.33
-5.06 -4.42 -1.8
-14.36 -12.55 0.33
-5.91 -5.17 -1.81
-14.34 -12.53 1
-0.78 -0.68 -0.2
-14.35 -12.54 1.67
-0.78 -0.68 -0.16
-14.33 -12.52 2.34
-11.69 -10.22 -1.91
-14.31 -12.5 3.01
-13.32 -11.64 -1.55
-14.28 -12.48 3.69
-14.27 -12.47 -0.99
-14.4 -12.58 -0.33
-5.08 -4.41 -1.8
-14.48 -12.57 0.33
-5.95 -5.17 -1.82
-14.44 -12.54 1
-6.86 -5.96 -1.77
-14.47 -12.56 1.68
-0.79 -0.68 -0.17
-14.44 -12.53 2.35
-11.74 -10.19 -1.91
-14.43 -12.52 3.03
-13.38 -11.62 -1.55
-14.38 -12.49 3.7
-14.29 -12.41 -0.99
-14.38 -12.49 -0.33
-5.09 -4.39 -1.8
-14.58 -12.57 0.34
-5.99 -5.17 -1.83
-14.55 -12.55 1.01
-6.89 -5.94 -1.77
-14.57 -12.56 1.68
-0.8 -0.69 -0.17
-14.55 -12.55 2.36
-11.77 -10.15 -1.91
-14.52 -12.51 3.04
-13.43 -11.58 -1.55
-14.5 -12.5 3.72
-14.39 -12.4 -1
-14.62 -12.6 -0.34
-5.1 -4.37 -1.8
-14.69 -12.58 0.34
-6.02 -5.15 -1.83
-14.66 -12.55 1.01
-0.76 -0.65 -0.2
-14.67 -12.56 1.69
-0.8 -0.69 -0.17
-14.66 -12.55 2.37
-11.86 -10.15 -1.92
-14.63 -12.53 3.05
-13.47 -11.53 -1.55
-14.6 -12.5 3.74
-14.51 -12.42 -1
-14.69 -12.57 -0.34
-5.12 -4.35 -1.8
-6.02 -5.12 -1.82
-14.78 -12.57 1.02
-0.8 -0.68 -0.2
-14.79 -12.57 1.7
-0.79 -0.68 -0.17
-14.78 -12.56 2.38
-11.95 -10.16 -1.93
-14.75 -12.54 3.07
-13.52 -11.5 -1.55
-14.71 -12.51 3.75
-14.56 -12.38 -1
-14.83 -12.6 -0.34
-5.14 -4.34 -1.8
-14.89 -12.57 0.34
-6.03 -5.09 -1.82
-14.89 -12.57 1.02
-6.98 -5.89 -1.78
-14.9 -12.58 1.71
-0.8 -0.68 -0.17
-14.88 -12.56 2.39
-12 -10.13 -1.93
-14.86 -12.54 3.08
-13.59 -11.47 -1.56
-14.82 -12.51 3.77
-14.56 -12.29 -1
-14.97 -12.64 -0.34
-5.15 -4.32 -1.8
-15 -12.58 0.34
-6.05 -5.07 -1.82
-15.01 -12.58 1.03
-6.99 -5.86 -1.77
-15.02 -12.59 1.71
-0.82 -0.69 -0.17
-15 -12.57 2.4
-12.06 -10.11 -1.93
-14.98 -12.55 3.1
-13.65 -11.44 -1.56
-14.94 -12.52 3.79
-14.58 -12.22 -1
-15.08 -12.64 -0.34
-5.17 -4.3 -1.8
-15.14 -12.61 0.34
-6.07 -5.05 -1.82
-15.11 -12.59 1.03
-7.02 -5.85 -1.78
-15.13 -12.6 1.72
-0.82 -0.69 -0.17
-15.1 -12.58 2.41
-12.1 -10.08 -1.93
-15.08 -12.56 3.11
-13.7 -11.41 -1.56
-15.05 -12.54 3.81
-14.6 -12.16 -1
-15.18 -12.64 -0.34
-5.18 -4.28 -1.8
-15.24 -12.6 0.35
-6.08 -5.03 -1.82
-15.24 -12.6 1.04
-7.05 -5.83 -1.78
-15.24 -12.6 1.73
-0.83 -0.68 -0.17
-15.23 -12.59 2.43
-12.21 -10.1 -1.95
-15.2 -12.57 3.12
-13.75 -11.37 -1.56
-15.17 -12.54 3.83
-14.61 -12.08 -0.99
-15.3 -12.65 -0.35
-5.19 -4.26 -1.8
-15.35 -12.6 0.35
-6.11 -5.01 -1.82
-15.35 -12.6 1.04
-7.08 -5.81 -1.78
-15.36 -12.61 1.74
-0.83 -0.68 -0.17
-15.34 -12.59 2.44
-12.29 -10.09 -1.95
-15.31 -12.57 3.14
-13.88 -11.39 -1.57
-15.28 -12.54 3.84
-14.6 -11.99 -0.99
-5.21 -4.25 -1.8
-15.47 -12.61 0.35
-6.13 -5 -1.83
-15.46 -12.61 1.05
-7.15 -5.83 -1.79
-15.48 -12.62 1.75
-0.84 -0.68 -0.17
-15.44 -12.59 2.45
-12.32 -10.04 -1.95
-15.43 -12.58 3.15
-14.72 -12 -1.66
-15.39 -12.55 3.86
-14.61 -11.91 -0.99
-15.4 -12.56 -0.35
-5.23 -4.23 -1.8
-15.61 -12.63 0.35
-6.13 -4.97 -1.82
-15.58 -12.61 1.05
-7.18 -5.81 -1.79
-15.6 -12.63 1.76
-0.84 -0.68 -0.17
-15.57 -12.6 2.46
-10.99 -8.9 -1.74
-15.54 -12.58 3.17
-13.8 -11.17 -1.55
-15.51 -12.55 3.88
-14.64 -11.85 -0.99
-15.43 -12.49 -0.35
-5.25 -4.22 -1.8
-15.73 -12.64 0.35
-6.15 -4.95 -1.82
-15.72 -12.63 1.06
-7.15 -5.75 -1.78
-15.73 -12.64 1.77
-0.86 -0.69 -0.17
-15.7 -12.62 2.47
-12.43 -9.99 -1.96
-15.67 -12.59 3.18
-13.8 -11.09 -1.55
-15.64 -12.57 3.9
-14.62 -11.75 -0.98
-15.47 -12.43 -0.35
-5.26 -4.2 -1.8
-15.85 -12.65 0.35
-6.17 -4.93 -1.82
-15.83 -12.63 1.06
-7.18 -5.73 -1.79
-15.84 -12.64 1.77
-0.86 -0.68 -0.17
-15.83 -12.63 2.49
-12.48 -9.96 -1.96
-15.78 -12.59 3.2
-13.9 -11.09 -1.56
-15.76 -12.58 3.92
-13.82 -11.03 -0.93
-13.84 -11.04 -0.31
-5.27 -4.18 -1.8
-15.97 -12.65 0.36
-6.19 -4.9 -1.82
-15.96 -12.65 1.07
-7.21 -5.71 -1.79
-15.97 -12.65 1.78
-0.86 -0.68 -0.17
-15.94 -12.63 2.5
-10.75 -8.51 -1.68
-15.92 -12.61 3.22
-13.8 -10.94 -1.54
-15.87 -12.57 3.94
-13.96 -11.06 -0.93
-13.9 -11.01 -0.31
-5.29 -4.16 -1.8
-16.08 -12.66 0.36
-6.18 -4.87 -1.82
-7.24 -5.69 -1.79
-16.09 -12.66 1.79
-0.86 -0.68 -0.17
-16.06 -12.64 2.51
-10.76 -8.46 -1.68
-16.04 -12.62 3.23
-15.05 -11.85 -1.68
-15.98 -12.58 3.95
-14.04 -11.05 -0.94
-15.48 -12.18 -0.34
-5.31 -4.15 -1.81
-16.22 -12.67 0.36
-6.2 -4.85 -1.82
-16.17 -12.63 1.08
-7.26 -5.67 -1.79
-16.22 -12.67 1.8
-0.88 -0.69 -0.18
-16.18 -12.64 2.52
-11.1 -8.67 -1.73
-16.17 -12.63 3.25
-15.12 -11.82 -1.68
-16.11 -12.59 3.97
-14.15 -11.06 -0.94
-15.48 -12.1 -0.34
-5.32 -4.13 -1.81
-16.33 -12.67 0.36
-6.23 -4.83 -1.82
-16.28 -12.63 1.08
-7.28 -5.64 -1.79
-16.35 -12.68 1.81
-0.89 -0.69 -0.18
-16.32 -12.66 2.54
-10.97 -8.51 -1.7
-16.28 -12.63 3.26
-15.19 -11.79 -1.68
-16.24 -12.59 3.99
-14.27 -11.07 -0.95
-14.29 -11.09 -0.32
-5.33 -4.11 -1.8
-16.48 -12.69 0.36
-6.25 -4.81 -1.82
-16.34 -12.59 1.08
-7.3 -5.62 -1.79
-16.46 -12.68 1.82
-0.9 -0.69 -0.18
-16.44 -12.66 2.55
-12.73 -9.8 -1.97
-16.42 -12.64 3.28
-14.12 -10.88 -1.56
-16.37 -12.6 4.02
-14.41 -11.1 -0.95
-14.4 -11.09 -0.32
-5.35 -4.09 -1.8
-16.51 -12.62 0.36
-6.26 -4.79 -1.82
-16.57 -12.67 1.09
-7.33 -5.61 -1.79
-16.59 -12.69 1.83
-0.9 -0.69 -0.18
-16.57 -12.67 2.56
-16.54 -12.65 3.3
-15.3 -11.7 -1.68
-16.49 -12.61 4.03
-14.48 -11.07 -0.96
-14.5 -11.08 -0.32
-5.37 -4.07 -1.81
-16.69 -12.67 0.37
-6.28 -4.76 -1.82
-16.72 -12.69 1.1
-0.96 -0.73 -0.24
-16.73 -12.7 1.84
-0.91 -0.69 -0.18
-16.69 -12.67 2.57
-11.33 -8.6 -1.75
-16.67 -12.66 3.32
-15.38 -11.68 -1.69
-16.62 -12.62 4.06
-14.62 -11.1 -0.96
-14.6 -11.08 -0.32
-5.39 -4.06 -1.81
-16.58 -12.5 0.36
-6.29 -4.74 -1.82
-16.82 -12.68 1.1
-0.97 -0.73 -0.24
-16.86 -12.71 1.85
-0.91 -0.69 -0.18
-16.83 -12.69 2.59
-10.96 -8.27 -1.69
-16.8 -12.67 3.33
-15.39 -11.6 -1.69
-16.76 -12.63 4.08
-14.72 -11.1 -0.97
-14.68 -11.06 -0.32
-5.4 -4.04 -1.81
-16.61 -12.43 0.36
-6.31 -4.72 -1.82
-0.97 -0.72 -0.23
-16.99 -12.72 1.86
-0.93 -0.7 -0.18
-16.95 -12.69 2.6
-10.99 -8.22 -1.69
-16.93 -12.68 3.35
-15.53 -11.63 -1.7
-16.89 -12.64 4.1
-17.09 -12.79 -1.12
-14.81 -11.09 -0.32
-5.41 -4.02 -1.81
-14.87 -11.04 0.32
-6.33 -4.7 -1.82
-17.09 -12.7 1.12
-0.97 -0.72 -0.23
-17.11 -12.71 1.86
-0.94 -0.7 -0.19
-17.09 -12.7 2.61
-10.93 -8.12 -1.67
-17.06 -12.68 3.37
-15.63 -11.61 -1.7
-17.25 -12.81 -1.13
-14.92 -11.09 -0.32
-5.42 -4 -1.81
-14.99 -11.06 0.33
-6.35 -4.68 -1.82
-17.19 -12.68 1.12
-0.97 -0.72 -0.24
-17.25 -12.72 1.88
-0.95 -0.7 -0.19
-17.24 -12.72 2.63
-10.98 -8.1 -1.67
-17.2 -12.69 3.39
-15.68 -11.57 -1.7
-17.37 -12.81 -1.13
-15.07 -11.12 -0.33
-5.44 -3.99 -1.81
-15.12 -11.07 0.33
-6.35 -4.65 -1.82
-17.36 -12.71 1.13
-0.98 -0.72 -0.24
-17.33 -12.69 1.88
-0.95 -0.7 -0.19
-17.38 -12.72 2.64
-10.98 -8.04 -1.67
-17.35 -12.7 3.41
-15.77 -11.55 -1.71
-17.5 -12.81 -1.14
-15.7 -11.49 -0.34
-5.46 -3.97 -1.81
-15.22 -11.06 0.33
-6.37 -4.63 -1.82
-17.49 -12.71 1.13
-0.99 -0.72 -0.24
-17.48 -12.71 1.89
-0.96 -0.7 -0.19
-17.5 -12.73 2.66
-12.96 -9.42 -1.97
-17.48 -12.71 3.42
-15.83 -11.51 -1.71
-17.63 -12.82 -1.14
-15.34 -11.15 -0.33
-5.47 -3.95 -1.81
-16.69 -12.05 0.36
-6.39 -4.61 -1.82
-17.64 -12.73 1.14
-0.99 -0.72 -0.24
-17.65 -12.74 1.9
-0.97 -0.7 -0.19
-17.65 -12.74 2.67
-11.02 -7.95 -1.67
-17.62 -12.71 3.44
-15.85 -11.44 -1.71
-17.79 -12.84 -1.15
-15.45 -11.15 -0.33
-5.48 -3.92 -1.81
-15.52 -11.12 0.33
-6.41 -4.59 -1.82
-17.77 -12.74 1.15
-0.99 -0.71 -0.24
-17.79 -12.75 1.91
-0.97 -0.7 -0.19
-17.79 -12.75 2.69
-12.1 -8.67 -1.83
-17.76 -12.73 3.46
-15.89 -11.39 -1.71
-17.92 -12.84 -1.16
-15.53 -11.13 -0.33
-5.49 -3.91 -1.81
-15.61 -11.1 0.33
-6.42 -4.57 -1.82
-17.79 -12.66 1.14
-1.01 -0.72 -0.24
-17.93 -12.75 1.93
-0.97 -0.69 -0.19
-17.94 -12.76 2.7
-13.07 -9.3 -1.97
-17.91 -12.73 3.48
-16.01 -11.39 -1.72
-18.07 -12.85 -1.16
-15.8 -11.23 -0.34
-5.51 -3.89 -1.81
-15.75 -11.12 0.34
-6.43 -4.54 -1.82
-17.99 -12.7 1.15
-1.02 -0.72 -0.24
-18.05 -12.75 1.93
-0.98 -0.69 -0.19
-18.08 -12.77 2.72
-13.11 -9.26 -1.97
-18.05 -12.75 3.5
-16.06 -11.34 -1.72
-18.2 -12.85 -1.17
-15.91 -11.23 -0.34
-5.53 -3.88 -1.81
-15.86 -11.11 0.34
-6.45 -4.52 -1.82
-17.94 -12.57 1.15
-1.02 -0.71 -0.24
-18.22 -12.76 1.95
-0.99 -0.69 -0.19
-18.21 -12.76 2.73
-1.05 -0.74 -0.16
-18.19 -12.75 3.52
-16.06 -11.25 -1.72
-18.37 -12.87 -1.18
-18.34 -12.85 -0.39
-5.55 -3.86 -1.81
-16.02 -11.14 0.34
-6.47 -4.5 -1.82
-18.05 -12.56 1.15
-1.02 -0.71 -0.24
-18.23 -12.68 1.94
-1 -0.7 -0.19
-18.37 -12.78 2.75
-1.06 -0.74 -0.16
-18.33 -12.75 3.54
-16.1 -11.2 -1.72
-18.49 -12.86 -1.18
-18.47 -12.85 -0.39
-5.55 -3.83 -1.81
-16.73 -11.55 0.35
-6.49 -4.48 -1.82
-16.06 -11.09 1.02
-1.03 -0.71 -0.24
-18.47 -12.75 1.96
-1.01 -0.7 -0.19
-18.52 -12.78 2.76
-1.05 -0.73 -0.16
-18.48 -12.76 3.56
-15.98 -11.03 -1.7
-18.65 -12.88 -1.19
-18.64 -12.87 -0.4
-5.56 -3.81 -1.81
-16.71 -11.45 0.35
-6.51 -4.46 -1.82
-18.09 -12.4 1.15
-1.03 -0.71 -0.24
-18.69 -12.81 1.98
-1.02 -0.7 -0.19
-18.68 -12.8 2.78
-1.07 -0.73 -0.16
-18.65 -12.78 3.58
-15.91 -10.9 -1.69
-18.83 -12.9 -1.2
-18.79 -12.88 -0.4
-5.58 -3.79 -1.81
-16.37 -11.14 0.35
-6.51 -4.43 -1.82
-16.37 -11.13 1.04
-1.04 -0.71 -0.24
-18.86 -12.82 2
-1.02 -0.69 -0.2
-18.82 -12.8 2.79
-1.06 -0.72 -0.16
-18.8 -12.79 3.6
-15.92 -10.83 -1.68
-18.97 -12.9 -1.2
-18.95 -12.89 -0.4
-5.6 -3.78 -1.81
-16.76 -11.31 0.35
-6.54 -4.41 -1.82
-16.52 -11.15 1.04
-1.04 -0.71 -0.24
-19.02 -12.84 2.01
-1.03 -0.7 -0.2
-18.99 -12.82 2.81
-1.06 -0.72 -0.16
-18.96 -12.8 3.62
-15.97 -10.78 -1.69
-19.09 -12.89 -1.21
-19.08 -12.88 -0.4
-5.61 -3.76 -1.81
-16.65 -11.16 0.35
-6.56 -4.4 -1.82
-16.61 -11.13 1.05
-1.03 -0.69 -0.24
-19.13 -12.82 2.01
-1.05 -0.71 -0.2
-19.1 -12.8 2.82
-1.09 -0.73 -0.16
-19.1 -12.8 3.64
-16.01 -10.73 -1.69
-19.25 -12.9 -1.21
-5.62 -3.74 -1.81
-16.9 -11.24 0.35
-6.57 -4.37 -1.82
-16.83 -11.19 1.06
-1.02 -0.68 -0.24
-19.28 -12.83 2.03
-1.06 -0.71 -0.2
-19.27 -12.82 2.84
-1.13 -0.75 -0.17
-19.27 -12.82 3.67
-16.05 -10.68 -1.69
-19.41 -12.91 -1.22
-19.38 -12.9 -0.41
-5.64 -3.72 -1.81
-17.05 -11.25 0.36
-6.59 -4.35 -1.82
-16.93 -11.18 1.06
-1.05 -0.69 -0.24
-19.45 -12.84 2.04
-1.06 -0.7 -0.2
-19.42 -12.82 2.86
-1.14 -0.75 -0.17
-19.43 -12.83 3.69
-16.08 -10.62 -1.69
-19.57 -12.92 -1.23
-19.56 -12.91 -0.41
-5.66 -3.71 -1.81
-19.65 -12.88 0.41
-6.6 -4.32 -1.82
-17.03 -11.16 1.07
-1.07 -0.7 -0.25
-19.62 -12.86 2.05
-1.06 -0.69 -0.2
-19.58 -12.83 2.87
-1.14 -0.75 -0.17
-19.58 -12.83 3.71
-16.13 -10.57 -1.69
-19.73 -12.93 -1.24
-19.72 -12.92 -0.41
-5.67 -3.69 -1.81
-19.8 -12.87 0.41
-6.62 -4.3 -1.82
-17.21 -11.19 1.08
-1.07 -0.7 -0.25
-19.79 -12.86 2.06
-1.07 -0.7 -0.2
-19.76 -12.84 2.89
-1.14 -0.74 -0.17
-19.76 -12.85 3.73
-16.2 -10.53 -1.69
-19.91 -12.94 -1.24
-19.88 -12.93 -0.41
-5.68 -3.67 -1.81
-19.98 -12.89 0.42
-6.63 -4.28 -1.82
-17.35 -11.2 1.08
-1.07 -0.69 -0.25
-1.08 -0.69 -0.2
-19.93 -12.86 2.91
-1.14 -0.74 -0.17
-19.92 -12.85 3.75
-16.24 -10.48 -1.69
-20.12 -12.98 -1.26
-20.06 -12.95 -0.42
-5.69 -3.64 -1.81
-20.19 -12.93 0.42
-6.66 -4.26 -1.82
-17.47 -11.19 1.09
-1.08 -0.69 -0.25
-20.17 -12.92 2.1
-1.09 -0.7 -0.2
-20.13 -12.89 2.93
-1.16 -0.74 -0.17
-20.09 -12.86 3.78
-16.29 -10.43 -1.69
-20.3 -12.99 -1.26
-20.26 -12.97 -0.42
-5.76 -3.66 -1.83
-20.35 -12.93 0.42
-6.67 -4.24 -1.82
-17.68 -11.23 1.1
-1.07 -0.68 -0.25
-20.33 -12.92 2.11
-1.09 -0.69 -0.2
-20.3 -12.9 2.95
-1.15 -0.73 -0.17
-20.26 -12.88 3.8
-16.33 -10.38 -1.69
-20.46 -13 -1.27
-20.44 -12.98 -0.42
-1.04 -0.66 -0.33
-20.52 -12.94 0.42
-6.68 -4.21 -1.82
-17.87 -11.27 1.11
-1.08 -0.68 -0.25
-20.51 -12.93 2.12
-1.08 -0.68 -0.2
-20.47 -12.91 2.97
-1.16 -0.73 -0.17
-20.44 -12.89 3.83
-16.37 -10.32 -1.69
-20.62 -13 -1.28
-20.6 -12.99 -0.43
-0.96 -0.6 -0.3
-20.71 -12.95 0.43
-6.7 -4.19 -1.82
-17.91 -11.21 1.11
-8 -5 -1.83
-20.67 -12.93 2.13
-1.12 -0.7 -0.21
-20.64 -12.91 2.99
-1.14 -0.71 -0.17
-20.61 -12.9 3.85
-16.42 -10.27 -1.69
-20.81 -13.02 -1.29
-20.79 -13.01 -0.43
-0.97 -0.6 -0.3
-20.88 -12.97 0.43
-6.72 -4.17 -1.83
-18.06 -11.21 1.11
-8.01 -4.97 -1.83
-18.09 -11.23 1.86
-1.14 -0.71 -0.21
-20.82 -12.93 3.01
-1.16 -0.72 -0.17
-20.78 -12.9 3.87
-16.46 -10.22 -1.7
-21.01 -13.05 -1.3
-20.96 -13.02 -0.43
-0.97 -0.6 -0.3
-21.08 -12.99 0.43
-6.77 -4.17 -1.84
-18.34 -11.3 1.13
-8.03 -4.95 -1.83
-21.04 -12.97 2.16
-1.12 -0.69 -0.21
-21.02 -12.95 3.03
-1.16 -0.72 -0.17
-20.95 -12.91 3.9
-16.51 -10.18 -1.7
-21.2 -13.06 -1.3
-21.15 -13.03 -0.43
-0.96 -0.59 -0.3
-21.24 -12.98 0.43
-21.06 -12.88 1.29
-8.05 -4.92 -1.83
-18.4 -11.25 1.89
-1.13 -0.69 -0.21
-21.19 -12.96 3.05
-1.18 -0.72 -0.17
-21.14 -12.93 3.92
-16.56 -10.12 -1.7
-18.63 -11.39 -1.14
-18.63 -11.39 -0.38
-0.96 -0.58 -0.3
-18.63 -11.3 0.38
-18.64 -11.31 1.14
-8.07 -4.89 -1.83
-21.45 -13.01 2.19
-9.44 -5.73 -1.75
-21.38 -12.97 3.07
-1.18 -0.72 -0.17
-21.32 -12.93 3.95
-16.6 -10.07 -1.7
-21.57 -13.08 -1.32
-21.57 -13.09 -0.44
-0.97 -0.59 -0.3
-21.63 -13.02 0.44
-1.03 -0.62 -0.28
-20.76 -12.5 1.27
-8.08 -4.87 -1.83
-20.9 -12.58 2.13
-1.14 -0.69 -0.21
-21.56 -12.98 3.09
-1.18 -0.71 -0.17
-21.51 -12.95 3.98
-16.62 -10.01 -1.7
-21.75 -13.1 -1.33
-21.72 -13.08 -0.44
-0.98 -0.59 -0.31
-21.83 -13.04 0.44
-1.03 -0.61 -0.28
-20.76 -12.4 1.27
-8.1 -4.84 -1.83
-18.91 -11.29 1.93
-1.13 -0.68 -0.21
-21.76 -13 3.11
-1.18 -0.71 -0.17
-21.7 -12.96 4
-16.67 -9.96 -1.7
-21.93 -13.1 -1.34
-21.9 -13.08 -0.45
-0.97 -0.58 -0.3
-22.01 -13.05 0.45
-1.01 -0.6 -0.27
-20.77 -12.31 1.27
-8.12 -4.81 -1.83
-19.06 -11.3 1.94
-1.14 -0.68 -0.21
-21.94 -13.01 3.13
-1.19 -0.7 -0.17
-21.89 -12.98 4.03
-16.7 -9.9 -1.7
-22.14 -13.12 -1.35
-22.1 -13.1 -0.45
-0.98 -0.58 -0.3
-22.21 -13.06 0.45
-1.03 -0.61 -0.28
-20.79 -12.23 1.26
-8.18 -4.81 -1.84
-22.16 -13.03 2.25
-9.66 -5.68 -1.78
-22.14 -13.02 3.15
-1.21 -0.71 -0.17
-22.08 -12.99 4.06
-22.32 -13.12 -1.36
-22.31 -13.12 -0.45
-0.99 -0.58 -0.31
-22.35 -13.04 0.45
-1.01 -0.59 -0.27
-20.79 -12.13 1.26
-22.38 -13.06 2.27
-9.72 -5.67 -1.78
-22.34 -13.03 3.18
-1.23 -0.72 -0.17
-16.78 -9.79 -1.7
-22.48 -13.12 -1.36
-22.46 -13.1 -0.45
-1 -0.58 -0.31
-22.56 -13.06 0.46
-1.02 -0.59 -0.27
-20.8 -12.04 1.26
-22.6 -13.08 2.28
-9.78 -5.66 -1.79
-22.55 -13.05 3.2
-1.24 -0.71 -0.18
-15.74 -9.11 -1.59
-22.7 -13.13 -1.37
-22.67 -13.12 -0.46
-1.01 -0.58 -0.31
-22.77 -13.07 0.46
-1.03 -0.59 -0.27
-20.83 -11.96 1.26
-1.06 -0.61 -0.24
-22.79 -13.09 2.3
-9.85 -5.65 -1.8
-22.75 -13.06 3.22
-1.25 -0.72 -0.18
-16.91 -9.71 -1.71
-22.9 -13.15 -1.38
-22.86 -13.13 -0.46
-1 -0.57 -0.31
-22.98 -13.08 0.46
-1.02 -0.58 -0.27
-20.81 -11.85 1.26
-1.04 -0.59 -0.23
-23 -13.1 2.32
-9.92 -5.65 -1.81
-22.96 -13.08 3.24
-1.26 -0.72 -0.18
-14.47 -8.24 -1.46
-23.14 -13.18 -1.4
-23.08 -13.14 -0.46
-1.01 -0.57 -0.31
-23.17 -13.1 0.46
-1.02 -0.58 -0.27
-20.81 -11.76 1.25
-1.05 -0.59 -0.23
-20.07 -11.34 2.02
-9.96 -5.63 -1.81
-23.16 -13.09 3.27
-1.26 -0.71 -0.18
-12.57 -7.1 -1.26
-23.38 -13.21 -1.41
-23.3 -13.17 -0.47
-1.03 -0.58 -0.32
-23.44 -13.14 0.47
-1.03 -0.58 -0.27
-20.84 -11.68 1.25
-1.06 -0.6 -0.24
-23.42 -13.13 2.35
-10.02 -5.62 -1.82
-23.37 -13.1 3.29
-1.29 -0.72 -0.18
-14.83 -8.31 -1.49
-16.31 -9.14 -0.98
-23.54 -13.19 -0.47
-1.04 -0.58 -0.32
-20.62 -11.46 0.41
-1.04 -0.58 -0.27
-20.7 -11.51 1.24
-1.04 -0.58 -0.23
-23.63 -13.14 2.37
-10.08 -5.6 -1.83
-23.58 -13.11 3.31
-1.31 -0.73 -0.18
-15.41 -8.57 -1.54
-16.19 -9 -0.97
-20.63 -11.47 -0.41
-1.05 -0.58 -0.32
-23.91 -13.18 0.48
-1.05 -0.58 -0.28
-20.74 -11.44 1.24
-1.04 -0.57 -0.23
-23.86 -13.15 2.38
-10.11 -5.57 -1.83
-23.81 -13.13 3.34
-1.32 -0.73 -0.19
-16.24 -8.96 -1.62
-23.87 -13.16 -1.43
-23.98 -13.22 -0.48
-1.04 -0.57 -0.32
-24.11 -13.18 0.48
-1.06 -0.58 -0.28
-20.85 -11.4 1.25
-1.04 -0.57 -0.23
-20.86 -11.4 2.08
-10.14 -5.54 -1.83
-24.03 -13.14 3.36
-1.33 -0.73 -0.19
-16.21 -8.86 -1.62
-16.38 -8.96 -0.98
-24.22 -13.24 -0.48
-1.06 -0.57 -0.32
-24.33 -13.19 0.48
-1.07 -0.58 -0.28
-24.29 -13.17 1.45
-1.05 -0.57 -0.23
-24.3 -13.18 2.42
-10.16 -5.51 -1.83
-24.26 -13.16 3.39
-1.36 -0.74 -0.19
-16.34 -8.86 -1.63
-24.09 -13.06 -1.44
-24.44 -13.26 -0.49
-1.07 -0.57 -0.32
-24.55 -13.21 0.49
-1.06 -0.57 -0.28
-24.53 -13.2 1.46
-1.04 -0.56 -0.23
-24.53 -13.2 2.44
-10.17 -5.47 -1.83
-24.48 -13.17 3.41
-1.37 -0.74 -0.19
-16.51 -8.88 -1.64
-15.94 -8.58 -0.95
-24.67 -13.28 -0.49
-1.07 -0.57 -0.33
-24.79 -13.23 0.49
-1.07 -0.57 -0.28
-24.74 -13.21 1.47
-1.05 -0.56 -0.23
-24.76 -13.22 2.46
-10.22 -5.45 -1.83
-24.71 -13.19 3.44
-1.37 -0.73 -0.19
-16.35 -8.73 -1.62
-16.1 -8.59 -0.96
-24.9 -13.29 -0.49
-1.08 -0.57 -0.33
-25.03 -13.24 0.49
-1.09 -0.58 -0.28
-24.98 -13.22 1.48
-1.04 -0.55 -0.23
-25 -13.22 2.47
-10.3 -5.45 -1.85
-24.96 -13.2 3.47
-1.39 -0.73 -0.19
-16.4 -8.68 -1.62
-24.3 -12.85 -1.44
-25.14 -13.3 -0.5
-1.08 -0.57 -0.33
-25.27 -13.26 0.5
-1.1 -0.58 -0.29
-25.22 -13.23 1.49
-1.05 -0.55 -0.23
-25.22 -13.23 2.49
-10.37 -5.44 -1.86
-25.17 -13.21 3.49
-1.4 -0.74 -0.19
-16.55 -8.68 -1.64
-16.5 -8.66 -0.98
-25.4 -13.33 -0.5
-1.07 -0.56 -0.32
-25.51 -13.27 0.5
-1.13 -0.59 -0.29
-25.47 -13.26 1.5
-1.04 -0.54 -0.23
-25.47 -13.26 2.51
-10.43 -5.43 -1.86
-25.45 -13.24 3.52
-1.41 -0.73 -0.19
-16.07 -8.36 -1.58
-16.26 -8.46 -0.96
-25.64 -13.34 -0.5
-1.09 -0.56 -0.33
-25.76 -13.29 0.51
-7.03 -3.63 -1.83
-25.72 -13.27 1.52
-1.04 -0.53 -0.23
-25.72 -13.27 2.53
-10.46 -5.4 -1.86
-25.68 -13.25 3.55
-1.42 -0.73 -0.2
-16.09 -8.3 -1.58
-18 -9.29 -1.06
-25.89 -13.36 -0.51
-1.1 -0.56 -0.33
-26.02 -13.3 0.51
-7.07 -3.61 -1.83
-25.96 -13.27 1.53
-1.05 -0.54 -0.23
-25.98 -13.28 2.55
-10.49 -5.36 -1.87
-25.94 -13.27 3.58
-1.41 -0.72 -0.19
-18.07 -9.24 -1.06
-19.23 -9.83 -0.38
-1.1 -0.56 -0.33
-26.27 -13.32 0.51
-7.09 -3.6 -1.84
-26.21 -13.29 1.54
-1.03 -0.52 -0.23
-26.23 -13.3 2.57
-10.51 -5.33 -1.87
-26.19 -13.28 3.61
-1.41 -0.72 -0.19
-16.39 -8.31 -1.61
-26.42 -13.4 -1.55
-26.39 -13.38 -0.52
-1.09 -0.55 -0.33
-26.49 -13.32 0.52
-7.13 -3.59 -1.84
-26.47 -13.31 1.55
-1.04 -0.52 -0.23
-26.47 -13.31 2.59
-10.53 -5.3 -1.87
-16.03 -8.06 2.2
-1.42 -0.71 -0.19
-16.61 -8.35 -1.63
-16.37 -8.23 -0.96
-26.52 -13.34 -0.52
-1.09 -0.54 -0.33
-26.58 -13.25 0.52
-1.25 -0.62 -0.32
-26.54 -13.24 1.55
-1.03 -0.52 -0.22
-26.71 -13.32 2.61
-10.55 -5.26 -1.87
-26.69 -13.31 3.66
-1.44 -0.72 -0.2
-14.94 -7.45 -1.46
-18.25 -9.1 -0.36
