# .PCD v0.7 - Point Cloud Data file format
VERSION 0.7
FIELDS x y z
SIZE 4 4 4
TYPE F F F
COUNT 1 1 1
WIDTH 2800
HEIGHT 1
VIEWPOINT 0 0 0 1 0 0 0
POINTS 2800
DATA ascii
8.18 0.98 -1.6
9.82 1.17 -1.57
12.35 1.48 -1.53
16.46 1.97 -1.45
19.95 2.39 -1.05
6.07 0.7 -1.64
7 0.81 -1.63
8.18 0.95 -1.6
9.82 1.14 -1.57
12.35 1.43 -1.53
16.46 1.91 -1.45
19.97 2.32 -1.05
6.07 0.68 -1.64
7 0.79 -1.63
8.19 0.92 -1.6
9.82 1.1 -1.56
12.35 1.39 -1.53
16.47 1.85 -1.45
19.97 2.25 -1.05
6.07 0.66 -1.64
6.99 0.76 -1.62
8.19 0.89 -1.6
9.82 1.07 -1.56
12.36 1.35 -1.53
16.48 1.8 -1.45
19.99 2.18 -1.05
6.08 0.64 -1.64
7 0.74 -1.63
8.19 0.86 -1.6
9.82 1.04 -1.56
12.35 1.3 -1.52
16.49 1.74 -1.45
20.02 2.11 -1.05
6.08 0.62 -1.64
7 0.71 -1.62
8.19 0.83 -1.6
9.83 1 -1.57
12.35 1.26 -1.52
16.49 1.68 -1.45
20.05 2.04 -1.06
6.07 0.6 -1.63
7.01 0.69 -1.63
8.19 0.81 -1.6
9.83 0.97 -1.56
12.36 1.22 -1.52
16.49 1.62 -1.45
20.05 1.97 -1.06
6.07 0.58 -1.63
7.01 0.67 -1.63
8.2 0.78 -1.6
9.83 0.93 -1.56
12.37 1.17 -1.53
16.48 1.56 -1.45
20.06 1.9 -1.06
6.09 0.56 -1.64
7 0.64 -1.62
8.21 0.75 -1.6
9.83 0.9 -1.56
12.37 1.13 -1.53
16.49 1.51 -1.45
20.06 1.83 -1.06
6.09 0.53 -1.64
7 0.62 -1.62
8.21 0.72 -1.6
9.83 0.86 -1.56
12.36 1.09 -1.52
16.47 1.45 -1.45
20.07 1.76 -1.06
6.08 0.51 -1.64
7.02 0.59 -1.63
8.2 0.69 -1.6
9.84 0.83 -1.56
12.37 1.04 -1.52
16.48 1.39 -1.45
20.08 1.69 -1.06
6.09 0.49 -1.64
7.02 0.57 -1.63
8.21 0.66 -1.6
9.84 0.8 -1.56
12.38 1 -1.52
16.48 1.33 -1.45
20.1 1.62 -1.06
6.08 0.47 -1.63
7.02 0.54 -1.63
8.21 0.63 -1.6
9.84 0.76 -1.56
12.38 0.96 -1.52
16.49 1.27 -1.45
20.07 1.55 -1.05
6.09 0.45 -1.64
7.01 0.52 -1.62
8.22 0.61 -1.6
9.84 0.73 -1.56
12.38 0.91 -1.52
16.52 1.22 -1.45
20.06 1.48 -1.05
6.1 0.43 -1.64
7.01 0.49 -1.62
8.21 0.58 -1.6
9.84 0.69 -1.56
12.37 0.87 -1.52
16.52 1.16 -1.45
20.08 1.41 -1.05
20.3 1.43 -0.36
6.1 0.41 -1.64
7.03 0.47 -1.63
8.21 0.55 -1.6
9.85 0.66 -1.56
12.38 0.83 -1.52
16.52 1.1 -1.45
20.09 1.34 -1.06
20.39 1.36 -0.36
6.09 0.39 -1.64
7.03 0.45 -1.63
8.21 0.52 -1.6
9.85 0.63 -1.56
12.39 0.79 -1.52
16.51 1.05 -1.45
20.12 1.28 -1.06
6.09 0.37 -1.63
7.03 0.42 -1.63
8.22 0.49 -1.6
9.85 0.59 -1.56
12.39 0.74 -1.52
16.52 0.99 -1.45
20.24 1.22 -1.06
6.1 0.34 -1.64
7.02 0.39 -1.62
8.22 0.46 -1.6
9.86 0.55 -1.56
12.4 0.7 -1.53
16.54 0.93 -1.45
25.1 1.41 -1.32
6.11 0.32 -1.64
7.03 0.37 -1.62
8.22 0.43 -1.6
9.86 0.52 -1.56
12.39 0.65 -1.52
16.54 0.87 -1.45
25.06 1.32 -1.32
6.11 0.3 -1.64
46.88 2.31 0.82
7.03 0.35 -1.63
8.22 0.4 -1.6
9.86 0.49 -1.56
12.39 0.61 -1.52
16.55 0.82 -1.45
25.14 1.24 -1.32
47 2.31 -0.82
6.1 0.28 -1.64
7.04 0.32 -1.63
46.92 2.15 2.46
8.22 0.38 -1.6
9.86 0.45 -1.56
12.41 0.57 -1.52
16.54 0.76 -1.45
6.1 0.26 -1.64
7.03 0.3 -1.62
8.23 0.35 -1.6
9.85 0.42 -1.56
12.41 0.53 -1.52
16.56 0.71 -1.45
25.19 1.07 -1.32
6.11 0.24 -1.64
7.02 0.27 -1.62
8.23 0.32 -1.6
9.86 0.39 -1.56
12.41 0.49 -1.52
16.56 0.65 -1.45
25.25 0.99 -1.32
6.11 0.22 -1.64
7.03 0.25 -1.62
8.23 0.29 -1.6
9.86 0.35 -1.56
12.4 0.44 -1.52
16.56 0.59 -1.45
6.11 0.2 -1.64
7.03 0.23 -1.62
8.23 0.26 -1.6
9.87 0.32 -1.56
12.41 0.4 -1.52
16.57 0.53 -1.45
25.28 0.81 -1.33
6.1 0.17 -1.64
7.04 0.2 -1.63
8.23 0.23 -1.6
9.87 0.28 -1.56
12.42 0.35 -1.53
16.56 0.47 -1.45
24.96 0.71 -1.31
6.1 0.15 -1.64
7.04 0.18 -1.63
8.23 0.2 -1.6
9.86 0.25 -1.56
12.42 0.31 -1.53
16.55 0.41 -1.45
24.8 0.62 -1.3
6.11 0.13 -1.64
31.5 0.68 0.55
7.04 0.15 -1.62
8.24 0.18 -1.6
30.41 0.65 2.66
9.86 0.21 -1.56
12.42 0.27 -1.53
16.56 0.36 -1.45
24.65 0.53 -1.29
31.59 0.68 -0.55
6.12 0.11 -1.64
7.03 0.13 -1.62
8.24 0.15 -1.6
9.87 0.18 -1.56
12.41 0.22 -1.52
16.56 0.3 -1.45
24.51 0.44 -1.28
6.1 0.09 -1.64
7.04 0.1 -1.63
8.23 0.12 -1.6
9.86 0.14 -1.56
31.03 0.45 3.81
12.42 0.18 -1.52
16.56 0.24 -1.45
24.38 0.35 -1.28
6.09 0.07 -1.63
7.05 0.08 -1.63
8.23 0.09 -1.6
9.87 0.11 -1.56
31.11 0.34 3.82
12.42 0.14 -1.53
16.55 0.18 -1.45
24.25 0.26 -1.27
6.1 0.05 -1.64
31.49 0.24 0.55
7.04 0.05 -1.63
31.44 0.24 1.65
8.24 0.06 -1.6
31.45 0.24 2.75
9.86 0.07 -1.56
12.43 0.09 -1.53
31.57 0.24 5
16.55 0.12 -1.45
24.17 0.18 -1.27
31.57 0.24 -0.55
6.1 0.02 -1.64
7.03 0.03 -1.62
31.37 0.12 1.64
8.24 0.03 -1.6
9.87 0.04 -1.56
31.47 0.12 3.86
12.43 0.05 -1.53
16.56 0.07 -1.45
24.08 0.09 -1.26
6.11 0 -1.64
7.04 0 -1.62
8.24 0 -1.6
31.41 0.02 2.75
9.86 0.01 -1.56
31.71 0.02 3.89
12.42 0.01 -1.53
16.56 0.01 -1.45
24.03 0.01 -1.26
31.94 0.02 -0.56
6.1 -0.02 -1.64
31.26 -0.1 0.55
7.04 -0.02 -1.63
31.6 -0.1 1.66
8.23 -0.03 -1.6
9.87 -0.03 -1.56
12.41 -0.04 -1.52
16.55 -0.05 -1.45
23.95 -0.07 -1.26
31.27 -0.1 -0.55
6.1 -0.04 -1.63
7.04 -0.05 -1.63
8.23 -0.05 -1.6
9.88 -0.06 -1.56
31.31 -0.2 3.84
12.42 -0.08 -1.53
16.55 -0.11 -1.45
23.9 -0.15 -1.25
6.1 -0.06 -1.64
7.04 -0.07 -1.63
8.24 -0.08 -1.6
9.87 -0.1 -1.56
12.43 -0.12 -1.53
16.62 -0.17 -1.45
23.84 -0.24 -1.25
6.11 -0.08 -1.64
7.04 -0.09 -1.62
8.24 -0.11 -1.6
9.86 -0.13 -1.56
12.42 -0.16 -1.52
16.63 -0.22 -1.45
23.76 -0.32 -1.25
6.11 -0.1 -1.64
7.04 -0.12 -1.63
68.89 -1.16 3.61
8.24 -0.14 -1.6
9.87 -0.17 -1.56
12.4 -0.21 -1.52
16.67 -0.28 -1.46
23.7 -0.4 -1.24
6.1 -0.12 -1.64
7.04 -0.14 -1.63
68.82 -1.41 3.61
8.23 -0.17 -1.6
9.88 -0.2 -1.56
12.41 -0.25 -1.52
16.65 -0.34 -1.46
23.67 -0.48 -1.24
6.1 -0.15 -1.63
7.04 -0.17 -1.63
8.24 -0.2 -1.6
9.87 -0.24 -1.56
12.42 -0.3 -1.52
16.63 -0.4 -1.46
23.63 -0.57 -1.24
46.44 -1.11 -0.81
6.1 -0.17 -1.63
7.04 -0.19 -1.63
8.24 -0.23 -1.6
9.86 -0.27 -1.56
12.41 -0.34 -1.52
16.62 -0.46 -1.45
23.59 -0.65 -1.24
6.1 -0.19 -1.64
7.04 -0.22 -1.63
8.23 -0.26 -1.6
9.87 -0.31 -1.56
12.41 -0.38 -1.52
16.51 -0.51 -1.45
23.55 -0.73 -1.23
6.1 -0.21 -1.64
7.03 -0.24 -1.63
8.23 -0.28 -1.6
9.87 -0.34 -1.56
12.39 -0.43 -1.52
16.41 -0.56 -1.44
23.52 -0.81 -1.23
6.11 -0.23 -1.64
7.04 -0.27 -1.63
8.23 -0.31 -1.6
9.88 -0.38 -1.57
12.39 -0.47 -1.52
16.37 -0.62 -1.43
23.48 -0.89 -1.23
6.09 -0.25 -1.63
50.36 -2.08 0.88
7.05 -0.29 -1.63
8.23 -0.34 -1.6
50.32 -2.08 4.41
9.87 -0.41 -1.56
12.38 -0.51 -1.52
15.65 -0.65 -1.37
23.46 -0.97 -1.23
6.1 -0.27 -1.64
7.04 -0.32 -1.63
8.23 -0.37 -1.6
50.09 -2.25 4.39
9.86 -0.44 -1.56
12.39 -0.56 -1.52
15.54 -0.7 -1.36
23.44 -1.05 -1.23
6.1 -0.3 -1.64
7.03 -0.34 -1.62
8.23 -0.4 -1.6
9.87 -0.48 -1.56
12.4 -0.6 -1.52
15.5 -0.75 -1.36
23.39 -1.13 -1.23
6.1 -0.32 -1.64
7.03 -0.36 -1.63
49.5 -2.56 2.6
8.23 -0.43 -1.6
9.87 -0.51 -1.56
12.39 -0.64 -1.52
15.46 -0.8 -1.35
23.38 -1.21 -1.23
6.1 -0.34 -1.64
49.85 -2.74 0.87
7.03 -0.39 -1.63
49.49 -2.72 2.6
8.22 -0.45 -1.6
9.87 -0.54 -1.57
12.39 -0.68 -1.52
15.45 -0.85 -1.35
23.35 -1.29 -1.23
44.14 -2.43 -0.77
6.09 -0.36 -1.63
7.04 -0.41 -1.63
49.37 -2.88 2.59
8.22 -0.48 -1.6
9.87 -0.58 -1.57
12.4 -0.72 -1.53
15.42 -0.9 -1.35
23.32 -1.36 -1.22
6.1 -0.38 -1.64
7.03 -0.44 -1.63
8.23 -0.51 -1.6
9.86 -0.62 -1.56
12.4 -0.77 -1.53
15.45 -0.96 -1.35
23.25 -1.45 -1.22
6.1 -0.4 -1.64
7.02 -0.46 -1.62
8.23 -0.54 -1.6
9.85 -0.65 -1.56
12.39 -0.81 -1.52
15.39 -1.01 -1.35
23.14 -1.52 -1.22
6.09 -0.42 -1.64
7.03 -0.49 -1.63
8.23 -0.57 -1.6
9.86 -0.68 -1.56
12.37 -0.85 -1.52
13.44 -0.93 2.13
15.32 -1.06 -1.34
23.05 -1.59 -1.21
6.1 -0.44 -1.64
7.03 -0.51 -1.63
8.21 -0.59 -1.6
9.85 -0.71 -1.56
12.37 -0.9 -1.52
15.22 -1.1 -1.34
23 -1.66 -1.21
6.08 -0.46 -1.63
7.03 -0.53 -1.63
8.22 -0.63 -1.6
9.85 -0.75 -1.56
12.36 -0.94 -1.52
15.19 -1.16 -1.33
22.97 -1.75 -1.21
6.09 -0.48 -1.64
7.03 -0.56 -1.63
8.22 -0.65 -1.6
9.84 -0.78 -1.56
12.35 -0.98 -1.52
15.18 -1.21 -1.33
22.92 -1.82 -1.2
6.09 -0.51 -1.64
7.02 -0.58 -1.63
8.23 -0.68 -1.6
9.84 -0.82 -1.56
12.33 -1.02 -1.52
13.53 -1.12 2.15
15.2 -1.26 -1.33
22.88 -1.9 -1.2
6.1 -0.53 -1.64
91.01 -7.87 1.59
7.02 -0.61 -1.63
8.22 -0.71 -1.6
9.84 -0.85 -1.56
12.32 -1.06 -1.52
13.58 -1.17 2.16
15.41 -1.33 -1.35
22.82 -1.97 -1.2
6.1 -0.55 -1.64
38.91 -3.52 0.68
7.03 -0.64 -1.63
8.21 -0.74 -1.6
9.84 -0.89 -1.57
12.35 -1.12 -1.52
13.6 -1.23 2.16
15.4 -1.39 -1.35
22.77 -2.06 -1.2
38.9 -3.52 -0.68
6.09 -0.57 -1.64
37.01 -3.47 0.65
7.03 -0.66 -1.63
8.21 -0.77 -1.6
9.84 -0.92 -1.57
12.35 -1.16 -1.52
15.38 -1.44 -1.35
22.75 -2.13 -1.2
6.08 -0.59 -1.64
7.02 -0.68 -1.63
8.21 -0.8 -1.6
9.83 -0.96 -1.56
12.35 -1.2 -1.52
15.34 -1.5 -1.35
22.7 -2.21 -1.2
6.09 -0.61 -1.64
38.94 -3.93 0.68
7.02 -0.71 -1.63
39.04 -3.94 2.06
8.21 -0.83 -1.6
9.83 -0.99 -1.56
12.35 -1.25 -1.52
15.32 -1.54 -1.35
22.59 -2.28 -1.19
39.06 -3.94 -0.69
6.08 -0.64 -1.64
7.01 -0.73 -1.63
8.21 -0.86 -1.6
9.83 -1.03 -1.57
12.36 -1.29 -1.53
15.32 -1.6 -1.35
22.52 -2.36 -1.19
6.09 -0.66 -1.64
39.34 -4.25 0.69
7.01 -0.76 -1.63
8.2 -0.89 -1.6
9.83 -1.06 -1.57
12.36 -1.33 -1.53
15.4 -1.66 -1.36
22.47 -2.42 -1.18
35.51 -3.83 -0.62
6.07 -0.68 -1.64
38.58 -4.29 0.68
7.02 -0.78 -1.63
8.2 -0.91 -1.6
9.83 -1.09 -1.57
12.28 -1.37 -1.52
15.36 -1.71 -1.35
22.6 -2.51 -1.19
6.07 -0.7 -1.64
7.02 -0.8 -1.63
8.2 -0.94 -1.6
9.82 -1.13 -1.56
12.2 -1.4 -1.51
15.31 -1.75 -1.35
22.55 -2.59 -1.19
6.08 -0.72 -1.64
7 -0.83 -1.63
8.2 -0.97 -1.61
9.82 -1.17 -1.57
66.03 -7.84 8.16
12.12 -1.44 -1.5
66.63 -7.91 10.63
15.32 -1.82 -1.35
22.5 -2.67 -1.19
6.08 -0.74 -1.64
7 -0.86 -1.63
8.19 -1 -1.6
9.82 -1.2 -1.57
12.09 -1.48 -1.5
66.6 -8.13 10.63
15.35 -1.87 -1.35
22.47 -2.74 -1.19
15.06 -1.84 3.5
6.09 -0.77 -1.64
32.76 -4.12 0.58
7 -0.88 -1.63
8.18 -1.03 -1.6
9.81 -1.23 -1.57
13.93 -1.75 1.72
12.1 -1.52 -1.5
15.29 -1.92 -1.35
22.42 -2.82 -1.18
6.07 -0.78 -1.64
7.01 -0.91 -1.63
8.18 -1.06 -1.6
9.82 -1.27 -1.57
13.96 -1.8 1.73
12.12 -1.57 -1.5
14.91 -1.93 2.38
15.25 -1.97 -1.35
22.37 -2.89 -1.18
32.65 -4.22 -0.57
6.06 -0.81 -1.64
7 -0.93 -1.63
8.18 -1.09 -1.6
9.8 -1.3 -1.57
14.92 -1.98 1.85
12.16 -1.62 -1.51
14.88 -1.98 2.38
14.35 -1.91 -1.27
14.38 -1.91 -0.76
6.07 -0.83 -1.64
14.31 -1.95 0.25
6.99 -0.95 -1.63
8.18 -1.12 -1.6
9.78 -1.34 -1.56
12.04 -1.64 -1.49
14.35 -1.96 -1.27
14.34 -1.96 -0.76
14.32 -1.95 -0.25
6.07 -0.85 -1.64
14.29 -2 0.25
6.99 -0.98 -1.63
8.17 -1.14 -1.6
9.79 -1.37 -1.56
13.57 -1.9 1.68
12.07 -1.69 -1.5
15.21 -2.13 -1.34
15.11 -2.11 3.52
14.35 -2.01 -0.25
6.07 -0.87 -1.64
6.99 -1 -1.63
8.16 -1.17 -1.6
9.78 -1.4 -1.57
14.75 -2.12 1.83
12.06 -1.73 -1.5
15.17 -2.18 -1.34
14.78 -2.12 2.9
22.16 -3.18 -1.17
14.37 -2.06 3.35
31.2 -4.48 -0.55
6.05 -0.89 -1.64
31.01 -4.56 0.55
6.99 -1.03 -1.63
8.16 -1.2 -1.6
31.06 -4.57 2.75
9.78 -1.44 -1.56
14.77 -2.17 1.83
12.01 -1.77 -1.49
15.1 -2.22 -1.34
14.78 -2.18 2.9
22.05 -3.24 -1.17
14.43 -2.12 3.37
6.05 -0.91 -1.64
6.98 -1.05 -1.63
8.17 -1.23 -1.61
9.75 -1.47 -1.56
11.96 -1.8 -1.49
15.14 -2.28 -1.34
22 -3.32 -1.17
6.06 -0.93 -1.64
6.97 -1.08 -1.63
8.16 -1.26 -1.61
14.21 -2.19 1.26
9.77 -1.51 -1.57
13.92 -2.15 1.73
11.96 -1.85 -1.49
14.35 -2.21 2.3
15.12 -2.33 -1.34
14.52 -2.24 2.85
21.94 -3.39 -1.16
31.43 -4.85 -0.56
6.05 -0.96 -1.64
31.34 -4.95 0.55
6.97 -1.1 -1.63
8.15 -1.29 -1.6
14.16 -2.24 1.25
9.8 -1.55 -1.57
13.91 -2.2 1.73
11.97 -1.89 -1.49
14.57 -2.3 2.34
14.4 -2.27 -1.28
14.4 -2.27 2.83
21.89 -3.46 -1.16
14.8 -2.34 4.01
6.05 -0.98 -1.64
28.54 -4.61 0.5
6.97 -1.13 -1.63
8.15 -1.32 -1.6
9.88 -1.6 -1.59
11.95 -1.93 -1.49
14.34 -2.31 2.3
14.41 -2.33 -1.28
14.27 -2.3 2.81
14.42 -2.33 -0.77
14.33 -2.31 3.35
14.46 -2.33 -0.26
14.31 -2.31 3.88
6.04 -1 -1.64
14.37 -2.37 0.25
6.97 -1.15 -1.63
8.15 -1.34 -1.61
14.33 -2.36 1.27
9.89 -1.63 -1.59
14.36 -2.37 1.79
12.02 -1.98 -1.5
14.37 -2.37 -1.27
14.33 -2.36 2.82
14.37 -2.37 -0.76
14.36 -2.37 -0.25
14.3 -2.36 3.88
6.05 -1.02 -1.64
14.32 -2.41 0.25
6.97 -1.17 -1.63
14.32 -2.41 0.76
8.14 -1.37 -1.61
14.3 -2.41 1.27
9.78 -1.65 -1.57
14.3 -2.41 1.78
12.11 -2.04 -1.51
14.22 -2.39 2.28
14.35 -2.41 -1.27
13.38 -2.25 2.64
14.36 -2.42 -0.76
14.59 -2.45 3.42
14.33 -2.41 -0.25
14.07 -2.37 3.82
6.04 -1.04 -1.64
14.31 -2.46 0.25
6.95 -1.19 -1.63
14.34 -2.46 0.76
8.15 -1.4 -1.61
9.78 -1.68 -1.57
12.1 -2.08 -1.51
14.31 -2.46 -1.27
13.37 -2.3 2.64
14.37 -2.47 -0.76
14.37 -2.47 -0.25
14.08 -2.42 3.83
6.04 -1.06 -1.64
14.82 -2.6 0.26
6.95 -1.22 -1.63
8.14 -1.43 -1.61
9.72 -1.7 -1.56
12.07 -2.12 -1.5
14.6 -2.56 2.35
14.33 -2.51 -1.27
14.86 -2.61 -0.26
14.03 -2.46 3.82
6.04 -1.08 -1.64
6.95 -1.24 -1.63
8.13 -1.45 -1.6
30.89 -5.53 2.75
9.71 -1.74 -1.56
12.05 -2.16 -1.5
14.49 -2.59 2.33
14.99 -2.68 -1.33
13.86 -2.48 2.74
21.66 -3.88 -1.15
14.15 -2.53 3.32
14.1 -2.52 3.84
6.03 -1.1 -1.64
31.12 -5.69 0.55
6.95 -1.27 -1.63
8.12 -1.48 -1.6
9.63 -1.76 -1.55
12.03 -2.2 -1.5
14.44 -2.64 2.32
14.23 -2.6 -1.27
21.55 -3.94 -1.15
13.55 -2.48 3.18
31.2 -5.7 -0.55
6.02 -1.12 -1.64
6.94 -1.29 -1.63
8.12 -1.51 -1.61
9.62 -1.79 -1.55
14.24 -2.65 1.78
12.03 -2.24 -1.5
14.15 -2.64 -1.26
21.53 -4.01 -1.15
13.55 -2.53 3.18
26.67 -4.97 -0.47
6.03 -1.15 -1.64
14.11 -2.68 0.25
6.93 -1.32 -1.63
8.11 -1.54 -1.61
9.63 -1.83 -1.55
14.2 -2.7 1.77
12.04 -2.29 -1.5
14.16 -2.69 2.28
14.09 -2.68 -1.25
14.79 -2.81 2.93
14.12 -2.68 -0.75
13.59 -2.58 3.19
14.13 -2.69 -0.25
6.03 -1.17 -1.65
14.07 -2.73 0.25
6.93 -1.34 -1.63
8.11 -1.57 -1.61
9.69 -1.88 -1.56
14.13 -2.74 1.77
12.02 -2.33 -1.5
14.14 -2.74 2.28
14.14 -2.74 -1.26
14.84 -2.87 2.94
14.1 -2.73 -0.75
14.11 -2.73 -0.25
6.03 -1.19 -1.65
6.92 -1.37 -1.63
8.09 -1.6 -1.6
9.68 -1.91 -1.56
14.1 -2.78 1.76
12.01 -2.37 -1.5
14.17 -2.8 -1.26
21.4 -4.22 -1.14
6.01 -1.21 -1.64
6.92 -1.39 -1.63
8.09 -1.62 -1.6
9.66 -1.94 -1.56
12.2 -2.45 -1.53
13.93 -2.8 2.25
14.12 -2.84 -1.26
21.36 -4.29 -1.14
26.74 -5.37 -0.48
6 -1.23 -1.64
6.92 -1.42 -1.63
8.08 -1.65 -1.6
13.24 -2.71 1.18
9.69 -1.98 -1.57
12.08 -2.47 -1.51
13.87 -2.84 2.24
14.95 -3.06 -1.34
13.61 -2.78 2.7
21.33 -4.36 -1.14
15.19 -3.11 3.58
24.24 -4.96 -0.43
6.01 -1.25 -1.64
6.91 -1.44 -1.63
8.07 -1.68 -1.6
9.69 -2.02 -1.57
12.04 -2.51 -1.51
13.82 -2.88 2.24
14.94 -3.11 -1.33
21.26 -4.43 -1.14
24.22 -5.04 -0.43
14.28 -2.97 3.91
6 -1.27 -1.64
6.9 -1.46 -1.63
8.07 -1.71 -1.6
9.68 -2.05 -1.57
12.06 -2.55 -1.51
14.97 -3.17 -1.34
13.74 -2.91 2.73
21.21 -4.49 -1.14
6 -1.29 -1.64
6.9 -1.49 -1.63
8.04 -1.73 -1.6
9.69 -2.09 -1.57
12.1 -2.61 -1.52
14.96 -3.22 -1.34
21.17 -4.56 -1.13
5.99 -1.31 -1.64
6.91 -1.51 -1.63
8.08 -1.77 -1.61
9.69 -2.12 -1.57
12.06 -2.64 -1.52
14.91 -3.27 -1.34
21.12 -4.63 -1.13
5.99 -1.33 -1.64
26.05 -5.8 0.47
6.9 -1.54 -1.63
8.19 -1.82 -1.63
9.66 -2.15 -1.57
12.04 -2.68 -1.52
15.08 -3.36 -1.35
21.08 -4.69 -1.13
5.98 -1.35 -1.64
26.11 -5.91 0.47
6.88 -1.56 -1.63
8.18 -1.85 -1.63
9.67 -2.19 -1.57
11.95 -2.7 -1.5
15.05 -3.41 -1.35
21.02 -4.76 -1.13
26.17 -5.92 -0.47
5.99 -1.38 -1.65
26.31 -6.05 0.47
6.89 -1.58 -1.63
8.18 -1.88 -1.63
9.77 -2.25 -1.59
11.93 -2.74 -1.5
15.02 -3.45 -1.35
21.06 -4.84 -1.13
26.06 -5.99 -0.47
5.98 -1.4 -1.65
26.33 -6.15 0.47
6.88 -1.61 -1.63
8.14 -1.9 -1.63
9.76 -2.28 -1.59
12.01 -2.81 -1.51
14.97 -3.5 -1.34
21.09 -4.93 -1.13
25.98 -6.07 -0.47
5.96 -1.41 -1.64
6.89 -1.63 -1.63
8.07 -1.91 -1.61
9.77 -2.32 -1.59
11.99 -2.84 -1.51
14.86 -3.52 -1.34
21.04 -4.99 -1.13
26.13 -6.2 -0.47
5.96 -1.44 -1.64
6.88 -1.66 -1.63
8.1 -1.95 -1.62
9.81 -2.37 -1.6
11.95 -2.89 -1.51
14.79 -3.57 -1.33
21.01 -5.07 -1.13
25.97 -6.27 -0.47
5.96 -1.46 -1.64
6.86 -1.68 -1.63
8.07 -1.98 -1.62
9.74 -2.39 -1.59
11.9 -2.92 -1.5
14.77 -3.62 -1.33
13.99 -3.43 2.8
21 -5.14 -1.13
5.96 -1.48 -1.65
6.86 -1.7 -1.63
8.06 -2 -1.61
9.72 -2.41 -1.59
11.8 -2.93 -1.49
14.73 -3.66 -1.33
13.96 -3.47 2.8
20.99 -5.21 -1.13
5.95 -1.5 -1.64
6.86 -1.73 -1.63
8.02 -2.02 -1.61
9.7 -2.44 -1.58
11.78 -2.97 -1.49
14.66 -3.69 -1.32
20.98 -5.29 -1.13
5.94 -1.52 -1.64
6.86 -1.76 -1.64
8.01 -2.05 -1.61
9.69 -2.48 -1.58
11.79 -3.02 -1.49
14.54 -3.72 -1.31
20.93 -5.36 -1.13
52.37 -13.41 12.48
5.93 -1.54 -1.64
6.85 -1.78 -1.63
8 -2.08 -1.61
9.68 -2.51 -1.58
11.8 -3.06 -1.5
14.5 -3.76 -1.31
20.94 -5.44 -1.13
52.16 -13.54 12.44
51.9 -13.47 14.37
5.94 -1.56 -1.65
6.83 -1.8 -1.63
7.96 -2.1 -1.6
9.73 -2.56 -1.59
14.67 -3.86 1.86
11.78 -3.1 -1.5
14.46 -3.81 -1.31
20.93 -5.51 -1.13
51.9 -13.67 12.39
5.93 -1.58 -1.65
6.82 -1.82 -1.63
7.95 -2.12 -1.6
9.74 -2.6 -1.6
11.84 -3.16 -1.5
53.25 -14.22 8.73
14.42 -3.85 -1.31
20.9 -5.58 -1.13
51.67 -13.8 12.35
5.93 -1.61 -1.65
6.82 -1.85 -1.63
7.9 -2.14 -1.59
9.68 -2.62 -1.59
11.76 -3.19 -1.5
53 -14.36 8.7
14.4 -3.9 -1.31
20.85 -5.65 -1.13
51.43 -13.94 12.3
5.91 -1.62 -1.64
6.82 -1.87 -1.63
7.87 -2.16 -1.59
9.65 -2.65 -1.59
11.76 -3.23 -1.5
52.75 -14.49 8.66
14.37 -3.95 -1.3
20.87 -5.73 -1.13
51.18 -14.05 12.25
5.9 -1.64 -1.64
6.81 -1.89 -1.63
7.94 -2.21 -1.6
9.69 -2.7 -1.59
11.74 -3.27 -1.5
52.56 -14.62 8.64
14.35 -3.99 -1.3
20.84 -5.8 -1.13
50.92 -14.17 12.2
5.91 -1.67 -1.65
8.06 -2.27 -1.63
9.67 -2.73 -1.59
11.7 -3.3 -1.49
52.33 -14.75 8.61
14.32 -4.04 -1.3
20.82 -5.87 -1.13
50.69 -14.29 12.16
5.91 -1.69 -1.65
6.8 -1.95 -1.63
8.05 -2.3 -1.63
9.65 -2.76 -1.59
11.69 -3.34 -1.49
52.07 -14.89 8.58
14.31 -4.09 -1.3
20.82 -5.95 -1.13
50.45 -14.43 12.11
5.9 -1.71 -1.65
6.83 -1.98 -1.64
8.05 -2.33 -1.63
9.69 -2.81 -1.6
11.57 -3.35 -1.48
14.27 -4.13 -1.3
20.8 -6.03 -1.14
5.89 -1.73 -1.64
7 -2.05 -1.68
8.07 -2.37 -1.64
42.5 -12.48 3.88
9.7 -2.85 -1.6
11.51 -3.38 -1.47
14.23 -4.18 -1.3
20.79 -6.1 -1.14
49.97 -14.67 12.02
49.78 -14.61 13.9
5.89 -1.75 -1.65
7.01 -2.09 -1.69
8.07 -2.4 -1.64
9.72 -2.89 -1.61
11.51 -3.42 -1.47
14.21 -4.22 -1.3
20.81 -6.19 -1.14
49.77 -14.8 11.99
5.89 -1.77 -1.65
7.01 -2.11 -1.69
8.06 -2.42 -1.64
9.68 -2.91 -1.6
11.49 -3.46 -1.47
14.18 -4.27 -1.3
20.8 -6.26 -1.14
49.57 -14.91 11.95
49.31 -14.83 13.8
5.88 -1.79 -1.65
7.02 -2.14 -1.69
8.06 -2.45 -1.64
9.62 -2.93 -1.59
11.47 -3.49 -1.47
14.17 -4.31 -1.3
20.84 -6.35 -1.14
49.36 -15.03 11.91
49.08 -14.94 13.75
5.87 -1.81 -1.65
7.01 -2.16 -1.69
8.05 -2.49 -1.64
41.37 -12.77 3.79
9.61 -2.96 -1.59
41.29 -12.74 5.31
11.45 -3.53 -1.47
14.14 -4.36 -1.29
20.82 -6.42 -1.14
49.13 -15.16 11.87
48.84 -15.07 13.7
5.86 -1.83 -1.64
41.24 -12.88 0.75
7.01 -2.19 -1.7
7.99 -2.5 -1.63
41.14 -12.85 3.77
9.59 -3 -1.59
41.05 -12.83 5.28
11.41 -3.56 -1.47
14.09 -4.4 -1.29
50.46 -15.76 10.28
20.85 -6.52 -1.15
48.91 -15.28 11.83
48.69 -15.21 13.67
5.86 -1.85 -1.65
41.01 -12.97 0.75
6.91 -2.18 -1.67
7.94 -2.51 -1.62
40.9 -12.94 3.75
9.57 -3.03 -1.59
40.82 -12.91 5.26
11.35 -3.59 -1.46
14.07 -4.45 -1.29
20.76 -6.57 -1.14
48.69 -15.4 11.79
48.46 -15.32 13.62
5.86 -1.87 -1.65
40.77 -13.05 0.75
7.01 -2.24 -1.7
7.94 -2.54 -1.62
40.67 -13.02 3.74
9.56 -3.06 -1.59
40.59 -12.99 5.23
11.34 -3.63 -1.46
14.04 -4.49 -1.29
50.04 -16.02 10.21
18.26 -5.85 -1
18.28 -5.85 -0.34
5.86 -1.9 -1.65
40.58 -13.15 0.74
7.01 -2.27 -1.7
7.91 -2.56 -1.62
40.43 -13.11 3.72
9.56 -3.1 -1.59
40.35 -13.08 5.21
11.21 -3.64 -1.45
14.01 -4.54 -1.29
49.8 -16.14 10.18
18.27 -5.92 -1.01
5.84 -1.92 -1.65
40.3 -13.22 0.74
6.99 -2.29 -1.7
40.27 -13.21 2.22
7.92 -2.6 -1.62
40.24 -13.2 3.71
9.55 -3.13 -1.59
40.12 -13.16 5.18
11.16 -3.66 -1.44
13.99 -4.59 -1.29
49.55 -16.25 10.14
20.74 -6.8 -1.14
47.83 -15.69 13.49
5.83 -1.93 -1.64
40.12 -13.31 0.74
7 -2.32 -1.7
40.1 -13.31 2.21
7.92 -2.63 -1.62
39.99 -13.27 3.69
9.49 -3.15 -1.58
39.91 -13.24 5.16
11.11 -3.69 -1.44
13.95 -4.63 -1.29
49.31 -16.36 10.1
18.12 -6.01 -1
47.88 -15.89 11.65
5.82 -1.95 -1.65
39.88 -13.39 0.73
6.94 -2.33 -1.69
39.89 -13.39 2.21
7.92 -2.66 -1.62
39.78 -13.36 3.67
9.54 -3.2 -1.59
39.67 -13.32 5.14
11.09 -3.72 -1.44
13.92 -4.67 -1.28
49.18 -16.51 10.09
18.09 -6.07 -1
47.35 -15.9 13.38
5.82 -1.98 -1.65
39.69 -13.46 0.73
6.85 -2.32 -1.67
39.69 -13.46 2.2
7.91 -2.68 -1.62
39.63 -13.45 3.66
9.5 -3.22 -1.59
39.47 -13.39 5.12
11.09 -3.76 -1.44
48.96 -16.61 8.19
13.9 -4.72 -1.28
49.01 -16.63 10.06
18.07 -6.13 -1
47.44 -16.09 11.56
5.82 -2 -1.65
39.5 -13.55 0.73
6.92 -2.37 -1.69
39.47 -13.54 2.19
7.87 -2.7 -1.62
39.37 -13.51 3.64
9.39 -3.22 -1.57
39.26 -13.47 5.1
11.03 -3.79 -1.43
48.78 -16.74 8.17
13.88 -4.76 -1.28
18.12 -6.22 -1
47.23 -16.21 11.53
39.6 -13.59 -0.73
5.81 -2.02 -1.65
39.31 -13.64 0.73
6.96 -2.42 -1.7
39.25 -13.62 2.18
7.89 -2.74 -1.62
39.18 -13.6 3.63
9.36 -3.25 -1.57
39.07 -13.56 5.08
10.94 -3.8 -1.42
48.55 -16.85 8.14
13.84 -4.8 -1.28
18.16 -6.3 -1.01
39.32 -13.65 -0.73
46.83 -16.25 13.28
5.8 -2.04 -1.65
39.1 -13.72 0.72
6.97 -2.45 -1.71
39.05 -13.7 2.17
7.92 -2.78 -1.63
38.98 -13.68 3.61
9.4 -3.3 -1.58
38.9 -13.65 5.06
10.9 -3.83 -1.42
48.36 -16.97 8.12
13.8 -4.84 -1.28
18.17 -6.38 -1.01
5.78 -2.05 -1.64
38.91 -13.82 0.72
6.95 -2.47 -1.7
38.88 -13.81 2.16
7.95 -2.82 -1.64
38.78 -13.77 3.6
9.31 -3.3 -1.56
38.69 -13.74 5.04
10.85 -3.85 -1.41
48.13 -17.09 8.09
13.77 -4.89 -1.28
18.1 -6.43 -1.01
46.69 -16.58 11.44
46.35 -16.46 13.18
5.8 -2.08 -1.65
38.74 -13.91 0.72
6.94 -2.49 -1.7
38.69 -13.89 2.15
7.96 -2.86 -1.64
38.63 -13.87 3.59
9.28 -3.33 -1.56
38.5 -13.82 5.02
10.82 -3.89 -1.41
47.92 -17.2 8.06
13.73 -4.93 -1.28
18.01 -6.47 -1
46.48 -16.69 11.4
17.59 -6.31 -0.33
5.79 -2.1 -1.65
38.57 -13.99 0.72
6.93 -2.52 -1.7
38.52 -13.98 2.15
7.95 -2.88 -1.64
38.43 -13.94 3.58
9.28 -3.37 -1.56
38.36 -13.92 5.01
10.8 -3.92 -1.41
13.71 -4.98 -1.28
18.03 -6.54 -1.01
5.79 -2.12 -1.65
38.36 -14.07 0.71
6.93 -2.54 -1.7
38.33 -14.06 2.14
7.91 -2.9 -1.64
38.26 -14.03 3.57
9.27 -3.4 -1.56
38.16 -14 4.99
10.75 -3.94 -1.41
13.69 -5.02 -1.28
17.33 -6.35 -0.97
46.1 -16.91 11.34
17.6 -6.45 -0.33
45.81 -16.8 13.08
5.78 -2.14 -1.65
15.98 -5.92 0.3
6.93 -2.57 -1.71
38.15 -14.14 2.13
7.91 -2.93 -1.64
38.08 -14.12 3.55
9.24 -3.43 -1.56
38.01 -14.09 4.98
10.68 -3.96 -1.4
47.32 -17.54 7.99
13.65 -5.06 -1.27
17.34 -6.43 -0.97
45.62 -16.91 13.04
5.87 -2.2 -1.68
38.02 -14.24 0.71
6.92 -2.59 -1.71
37.98 -14.23 2.13
7.87 -2.95 -1.63
37.94 -14.21 3.54
9.23 -3.46 -1.56
37.8 -14.16 4.96
10.66 -3.99 -1.4
47.13 -17.66 7.97
13.62 -5.1 -1.27
18.24 -6.83 -1.02
38.08 -14.27 -0.71
45.51 -17.05 13.02
5.91 -2.24 -1.69
16.29 -6.17 0.3
6.89 -2.61 -1.7
37.82 -14.33 2.12
7.86 -2.98 -1.63
37.78 -14.31 3.53
9.18 -3.48 -1.55
37.66 -14.27 4.95
10.64 -4.03 -1.4
46.93 -17.78 7.95
13.59 -5.15 -1.27
17.25 -6.54 -0.97
37.91 -14.36 -0.71
45.27 -17.15 12.97
5.91 -2.26 -1.7
37.57 -14.38 0.7
6.88 -2.64 -1.7
37.63 -14.41 2.11
7.86 -3.01 -1.64
37.6 -14.4 3.52
9.15 -3.5 -1.55
37.48 -14.35 4.93
10.56 -4.04 -1.39
46.7 -17.88 7.92
13.56 -5.19 -1.27
17.22 -6.59 -0.97
5.94 -2.3 -1.71
6.88 -2.66 -1.7
37.44 -14.48 2.1
7.83 -3.03 -1.63
37.39 -14.46 3.51
9.12 -3.53 -1.55
37.34 -14.45 4.92
10.58 -4.09 -1.39
46.54 -18.01 7.9
13.54 -5.24 -1.27
17.15 -6.63 -0.96
15.41 -5.96 -0.29
5.92 -2.31 -1.7
6.87 -2.68 -1.7
37.32 -14.59 2.1
7.82 -3.06 -1.63
37.24 -14.56 3.5
9.2 -3.6 -1.56
37.16 -14.53 4.9
10.53 -4.11 -1.39
46.35 -18.12 7.88
13.49 -5.27 -1.27
21.23 -8.3 -1.19
44.93 -17.56 11.14
5.9 -2.33 -1.7
6.85 -2.71 -1.7
37.14 -14.67 2.09
7.81 -3.08 -1.63
37.08 -14.64 3.49
9.15 -3.61 -1.56
37 -14.61 4.88
10.51 -4.15 -1.39
13.48 -5.32 -1.27
46.13 -18.22 9.64
21.24 -8.39 -1.2
44.82 -17.7 11.12
15.52 -6.13 -0.29
5.9 -2.36 -1.7
6.82 -2.72 -1.7
36.98 -14.75 2.09
7.82 -3.12 -1.64
36.94 -14.74 3.48
9.1 -3.63 -1.55
36.85 -14.7 4.87
10.47 -4.18 -1.38
13.44 -5.36 -1.27
45.89 -18.31 9.6
17.11 -6.83 -0.97
15.58 -6.21 -0.29
5.9 -2.37 -1.7
6.78 -2.73 -1.69
36.82 -14.83 2.08
7.85 -3.16 -1.64
36.8 -14.82 3.47
9.04 -3.64 -1.54
36.69 -14.78 4.86
10.42 -4.2 -1.38
13.42 -5.41 -1.27
45.7 -18.41 9.58
21.45 -8.64 -1.21
15.3 -6.16 -0.29
5.89 -2.4 -1.7
6.76 -2.75 -1.69
36.7 -14.94 2.08
7.88 -3.21 -1.65
36.65 -14.92 3.46
9.01 -3.67 -1.54
36.53 -14.87 4.84
10.39 -4.23 -1.38
13.39 -5.45 -1.26
45.54 -18.53 9.56
21.46 -8.73 -1.21
44.15 -17.97 11.01
15.34 -6.24 -0.29
5.88 -2.42 -1.7
16.29 -6.7 0.31
6.74 -2.77 -1.68
36.51 -15.01 2.07
7.8 -3.21 -1.64
36.45 -14.99 3.45
9 -3.7 -1.54
36.38 -14.96 4.83
10.35 -4.26 -1.37
13.35 -5.49 -1.26
45.33 -18.64 9.53
21.14 -8.69 -1.2
43.98 -18.08 10.98
5.88 -2.44 -1.71
15.03 -6.24 0.28
6.75 -2.8 -1.69
36.37 -15.11 2.06
7.8 -3.24 -1.64
36.33 -15.09 3.44
8.95 -3.72 -1.54
36.26 -15.06 4.82
10.27 -4.26 -1.37
13.32 -5.53 -1.26
45.2 -18.77 9.51
21.42 -8.9 -1.22
43.82 -18.2 10.96
15.46 -6.42 -0.29
5.88 -2.47 -1.71
15.46 -6.48 0.29
6.74 -2.82 -1.69
36.22 -15.18 2.06
7.82 -3.28 -1.65
36.19 -15.17 3.43
8.9 -3.73 -1.53
36.08 -15.12 4.8
10.13 -4.24 -1.35
13.3 -5.57 -1.26
15.62 -6.55 -0.89
43.67 -18.3 10.93
15.75 -6.6 -0.3
5.87 -2.49 -1.71
14.22 -6.02 0.27
6.73 -2.85 -1.69
36.08 -15.28 2.05
7.79 -3.3 -1.64
36.03 -15.25 3.42
8.84 -3.74 -1.52
35.96 -15.22 4.79
10.09 -4.27 -1.34
13.27 -5.62 -1.26
43.48 -18.41 10.9
15.72 -6.65 -0.3
43.25 -18.31 12.58
5.86 -2.51 -1.71
35.96 -15.37 0.68
6.73 -2.88 -1.69
35.92 -15.35 2.05
7.76 -3.32 -1.64
35.9 -15.34 3.42
8.79 -3.76 -1.51
35.81 -15.3 4.78
10.07 -4.31 -1.35
42.41 -18.13 7.31
13.24 -5.66 -1.26
15.7 -6.71 -0.89
43.23 -18.48 10.85
15.65 -6.69 -0.3
43.09 -18.42 12.56
5.84 -2.52 -1.71
15.68 -6.77 0.3
6.64 -2.87 -1.67
15.76 -6.8 0.9
7.75 -3.35 -1.64
35.74 -15.42 3.41
8.79 -3.79 -1.52
35.67 -15.4 4.77
10.22 -4.41 -1.37
13.2 -5.7 -1.26
15.66 -6.76 -0.89
15.72 -6.78 -0.3
5.83 -2.54 -1.71
15.43 -6.72 0.29
6.6 -2.88 -1.66
35.67 -15.55 2.04
7.81 -3.4 -1.66
35.6 -15.52 3.4
8.79 -3.83 -1.52
35.52 -15.48 4.76
10.35 -4.51 -1.39
13.17 -5.74 -1.26
16.89 -7.36 -0.32
42.72 -18.62 12.49
5.83 -2.57 -1.71
14.71 -6.47 0.28
6.54 -2.88 -1.65
35.54 -15.64 2.03
7.84 -3.45 -1.66
35.47 -15.61 3.39
8.77 -3.86 -1.52
35.36 -15.56 4.74
10.32 -4.54 -1.38
13.14 -5.78 -1.26
15.43 -6.79 -0.88
14.23 -6.26 -0.27
5.82 -2.58 -1.71
14.25 -6.33 0.27
6.53 -2.9 -1.65
35.34 -15.7 2.03
7.81 -3.47 -1.66
35.32 -15.69 3.38
8.75 -3.89 -1.52
35.27 -15.66 4.74
10.29 -4.57 -1.38
13.12 -5.83 -1.26
14.17 -6.29 -0.81
43.81 -19.46 11.07
16.8 -7.46 -0.32
5.81 -2.61 -1.71
14.04 -6.3 0.27
6.59 -2.95 -1.67
15.66 -7.02 0.9
7.71 -3.46 -1.64
35.19 -15.78 3.37
8.7 -3.9 -1.51
35.15 -15.76 4.73
10.27 -4.61 -1.38
13.09 -5.87 -1.25
16.75 -7.51 -0.96
43.64 -19.57 11.04
16.76 -7.52 -0.32
42.23 -18.94 12.4
5.79 -2.62 -1.7
35.15 -15.9 0.67
6.61 -2.99 -1.67
15.59 -7.05 0.9
7.71 -3.49 -1.64
35.08 -15.87 3.37
8.7 -3.93 -1.51
35 -15.83 4.72
10.25 -4.64 -1.38
13.04 -5.9 -1.25
16.71 -7.56 -0.96
43.47 -19.66 11.01
14.52 -6.57 -0.28
42 -19 12.35
5.78 -2.64 -1.7
16.54 -7.55 0.32
6.61 -3.02 -1.68
14.12 -6.45 0.81
7.66 -3.5 -1.64
15.63 -7.14 1.5
8.66 -3.96 -1.51
34.86 -15.92 4.71
10.24 -4.68 -1.38
13.02 -5.95 -1.25
16.57 -7.57 -0.95
43.29 -19.77 10.99
16.62 -7.59 -0.32
41.93 -19.15 12.35
5.78 -2.66 -1.71
14.34 -6.61 0.28
6.59 -3.04 -1.68
34.87 -16.07 2.01
7.64 -3.52 -1.64
34.8 -16.04 3.35
8.62 -3.97 -1.5
34.73 -16 4.7
10.22 -4.71 -1.38
12.99 -5.99 -1.25
16.45 -7.58 -0.95
43.11 -19.86 10.96
14.32 -6.6 -0.28
41.69 -19.21 12.3
5.77 -2.68 -1.71
34.79 -16.18 0.67
6.62 -3.08 -1.68
34.7 -16.14 2.01
7.58 -3.53 -1.62
34.68 -16.13 3.35
8.61 -4 -1.5
34.6 -16.09 4.68
10.19 -4.74 -1.38
12.97 -6.03 -1.25
14.13 -6.57 -0.82
42.91 -19.96 10.93
14.12 -6.57 -0.27
41.55 -19.33 12.28
5.76 -2.7 -1.7
14.3 -6.72 0.28
6.62 -3.11 -1.69
13.52 -6.35 0.78
7.54 -3.54 -1.62
34.56 -16.23 3.34
8.58 -4.03 -1.5
34.48 -16.19 4.68
10.17 -4.77 -1.38
12.94 -6.08 -1.25
14.4 -6.76 -0.83
42.75 -20.07 10.9
13.99 -6.57 -0.27
41.37 -19.42 12.25
5.74 -2.72 -1.7
14.13 -6.69 0.27
6.59 -3.12 -1.68
13.48 -6.39 0.78
7.53 -3.57 -1.62
34.4 -16.3 3.33
8.5 -4.03 -1.49
34.35 -16.28 4.67
10.15 -4.81 -1.38
12.86 -6.09 -1.25
13.8 -6.54 -0.8
42.58 -20.18 10.88
14.21 -6.73 -0.27
41.22 -19.53 12.22
5.73 -2.74 -1.7
13.98 -6.68 0.27
6.58 -3.15 -1.68
34.34 -16.41 1.99
7.52 -3.59 -1.62
34.31 -16.39 3.33
8.47 -4.05 -1.49
34.22 -16.35 4.66
10.13 -4.84 -1.38
12.82 -6.13 -1.24
13.95 -6.66 -0.81
42.38 -20.25 10.84
14.58 -6.97 -0.28
41.07 -19.62 12.2
5.72 -2.76 -1.7
13.98 -6.74 0.27
6.56 -3.16 -1.68
13.65 -6.58 0.79
7.48 -3.61 -1.62
34.17 -16.48 3.32
8.44 -4.07 -1.48
34.11 -16.45 4.65
10.11 -4.87 -1.38
42.32 -20.41 7.44
12.8 -6.17 -1.24
13.6 -6.56 -0.79
42.23 -20.36 10.82
14.19 -6.84 -0.28
40.91 -19.73 12.17
5.72 -2.78 -1.71
14.51 -7.06 0.28
6.53 -3.18 -1.68
34.1 -16.59 1.99
7.49 -3.64 -1.62
34.08 -16.58 3.32
8.41 -4.09 -1.48
33.98 -16.53 4.64
10.07 -4.9 -1.38
12.8 -6.23 -1.25
13.59 -6.61 -0.79
42.06 -20.46 10.8
14.04 -6.83 -0.27
40.75 -19.82 12.14
5.71 -2.8 -1.7
13.94 -6.84 0.27
6.5 -3.19 -1.67
13.62 -6.69 0.8
7.45 -3.66 -1.61
33.93 -16.66 3.31
8.38 -4.11 -1.48
33.88 -16.63 4.63
10.05 -4.94 -1.38
34.08 -16.73 6.01
12.57 -6.17 -1.23
13.76 -6.75 -0.8
14.15 -6.94 -0.28
40.58 -19.92 12.11
5.69 -2.82 -1.7
13.88 -6.87 0.27
6.49 -3.21 -1.67
33.84 -16.75 1.98
7.44 -3.68 -1.61
33.82 -16.74 3.3
8.35 -4.14 -1.48
33.76 -16.72 4.63
10.04 -4.97 -1.38
33.96 -16.81 6
12.46 -6.17 -1.22
13.6 -6.73 -0.8
14.01 -6.93 -0.27
40.44 -20.02 12.09
5.68 -2.84 -1.7
14.2 -7.09 0.28
6.5 -3.25 -1.68
33.74 -16.85 1.98
7.41 -3.7 -1.61
33.69 -16.83 3.3
8.31 -4.15 -1.47
33.62 -16.8 4.61
10.03 -5.01 -1.38
33.9 -16.93 6
12.38 -6.18 -1.21
13.68 -6.83 -0.8
14.11 -7.05 -0.28
5.6 -2.82 -1.68
13.3 -6.7 0.26
6.47 -3.26 -1.67
33.63 -16.94 1.97
7.39 -3.72 -1.61
33.61 -16.92 3.29
8.26 -4.16 -1.46
33.54 -16.89 4.61
10 -5.03 -1.37
33.73 -16.99 5.98
12.37 -6.23 -1.21
13.87 -6.98 -0.81
33.7 -16.97 -0.66
5.56 -2.83 -1.67
14.14 -7.18 0.28
6.46 -3.28 -1.67
33.54 -17.04 1.97
7.38 -3.75 -1.61
33.5 -17.02 3.29
8.26 -4.19 -1.47
33.43 -16.98 4.6
9.96 -5.06 -1.37
33.63 -17.08 5.97
12.43 -6.31 -1.22
14.08 -7.15 -0.83
33.6 -17.07 -0.66
5.54 -2.84 -1.67
14.04 -7.19 0.28
6.47 -3.32 -1.68
33.4 -17.11 1.97
7.38 -3.78 -1.61
33.39 -17.11 3.28
8.25 -4.23 -1.47
33.3 -17.06 4.59
9.94 -5.09 -1.37
33.5 -17.16 5.96
12.53 -6.42 -1.23
13.97 -7.16 -0.82
14.84 -7.6 -0.29
5.55 -2.87 -1.67
13.67 -7.06 0.27
6.48 -3.35 -1.68
33.27 -17.2 1.96
7.34 -3.79 -1.61
33.26 -17.19 3.28
8.22 -4.25 -1.47
33.2 -17.16 4.59
9.92 -5.13 -1.37
33.44 -17.28 5.96
12.13 -6.27 -1.19
13.96 -7.22 -0.82
33.35 -17.24 -0.66
40.78 -21.07 12.3
5.58 -2.91 -1.69
13.76 -7.17 0.27
6.54 -3.41 -1.7
33.19 -17.31 1.96
7.34 -3.83 -1.61
33.15 -17.29 3.27
8.18 -4.27 -1.46
33.09 -17.25 4.58
9.9 -5.16 -1.37
33.31 -17.37 5.95
12.36 -6.45 -1.22
18.31 -9.55 -1.08
18.27 -9.53 -0.36
40.59 -21.16 12.27
5.56 -2.92 -1.68
33.11 -17.41 0.65
6.53 -3.44 -1.7
13.66 -7.19 0.81
7.28 -3.83 -1.6
33.05 -17.38 3.27
8.13 -4.28 -1.46
32.98 -17.34 4.57
9.87 -5.19 -1.37
12.49 -6.57 -1.23
40.57 -21.33 8.91
15.12 -7.95 -0.9
18.17 -9.56 -0.36
40.45 -21.27 12.25
5.51 -2.92 -1.67
32.97 -17.48 0.65
6.47 -3.43 -1.69
13.57 -7.19 0.8
7.34 -3.89 -1.61
32.92 -17.45 3.26
8.12 -4.31 -1.46
32.87 -17.42 4.57
9.83 -5.21 -1.37
12.37 -6.56 -1.22
40.42 -21.43 8.89
15.14 -8.02 -0.9
18.04 -9.56 -0.36
40.3 -21.36 12.22
5.48 -2.93 -1.67
32.87 -17.57 0.65
6.42 -3.43 -1.68
13.96 -7.46 0.83
7.29 -3.9 -1.61
32.83 -17.55 3.26
8.11 -4.34 -1.46
32.77 -17.52 4.56
9.81 -5.24 -1.37
12.23 -6.54 -1.21
40.28 -21.54 8.88
17.93 -9.59 -1.07
17.92 -9.58 -0.35
5.44 -2.93 -1.65
32.75 -17.67 0.65
6.41 -3.46 -1.68
32.74 -17.66 1.95
7.25 -3.91 -1.6
32.72 -17.65 3.25
8.1 -4.37 -1.46
32.66 -17.62 4.56
9.78 -5.27 -1.36
11.81 -6.37 -1.17
40.09 -21.62 8.85
17.82 -9.61 -1.06
17.8 -9.6 -0.35
5.44 -2.96 -1.66
32.66 -17.76 0.65
6.39 -3.48 -1.68
32.63 -17.74 1.95
7.2 -3.92 -1.59
32.64 -17.75 3.25
8.06 -4.38 -1.45
32.55 -17.7 4.55
9.76 -5.31 -1.36
12.22 -6.65 -1.22
39.96 -21.73 8.84
17.69 -9.62 -1.06
17.69 -9.62 -0.35
5.44 -2.98 -1.66
32.55 -17.84 0.65
6.38 -3.5 -1.68
11.22 -6.15 0.67
7.18 -3.93 -1.59
32.51 -17.82 3.24
8.03 -4.4 -1.45
32.44 -17.78 4.54
9.74 -5.34 -1.36
12.24 -6.71 -1.22
39.75 -21.79 8.81
12.65 -6.93 -0.76
17.6 -9.65 -0.35
5.42 -2.99 -1.66
11.59 -6.41 0.23
6.43 -3.55 -1.7
32.43 -17.93 1.94
7.15 -3.95 -1.59
32.41 -17.91 3.24
7.91 -4.37 -1.43
32.33 -17.87 4.54
9.7 -5.36 -1.36
12.25 -6.77 -1.22
39.64 -21.91 8.8
12.98 -7.18 -0.78
17.47 -9.66 -0.35
5.44 -3.03 -1.67
6.38 -3.56 -1.69
32.32 -18.01 1.94
7.12 -3.97 -1.58
32.32 -18.01 3.24
7.88 -4.39 -1.43
32.25 -17.97 4.53
9.68 -5.4 -1.36
12.17 -6.78 -1.22
39.41 -21.96 8.77
11.25 -6.27 -0.67
39.37 -21.94 10.41
12.34 -6.88 -0.25
5.41 -3.04 -1.66
6.36 -3.57 -1.68
10.71 -6.02 0.64
7.12 -4 -1.59
10.62 -5.97 1.07
7.86 -4.42 -1.43
32.15 -18.06 4.53
9.66 -5.43 -1.36
12.04 -6.77 -1.21
39.28 -22.07 8.76
17.28 -9.71 -1.04
39.21 -22.03 10.38
17.27 -9.7 -0.35
5.39 -3.06 -1.66
11.02 -6.24 0.22
6.34 -3.59 -1.68
32.12 -18.2 1.93
7.15 -4.05 -1.6
32.08 -18.18 3.23
7.82 -4.43 -1.42
32.04 -18.15 4.52
9.64 -5.47 -1.36
32.28 -18.29 5.88
12.09 -6.85 -1.22
39.1 -22.16 8.74
11.21 -6.35 -0.68
39.06 -22.14 10.37
17.27 -9.79 -0.35
5.42 -3.1 -1.67
12.16 -6.95 0.24
6.33 -3.62 -1.68
32.02 -18.29 1.93
7.13 -4.07 -1.6
32 -18.28 3.22
7.8 -4.45 -1.42
31.94 -18.25 4.52
9.61 -5.49 -1.36
12.04 -6.88 -1.21
38.93 -22.24 8.71
17.27 -9.87 -1.04
38.89 -22.22 10.34
12.49 -7.13 -0.25
5.43 -3.13 -1.68
6.26 -3.6 -1.67
10.75 -6.19 0.65
7.08 -4.08 -1.59
31.91 -18.37 3.22
7.83 -4.51 -1.43
31.84 -18.33 4.51
9.58 -5.51 -1.36
12.06 -6.94 -1.22
38.77 -22.32 8.7
17.28 -9.95 -1.04
14.95 -8.61 3.98
17.31 -9.97 -0.35
14.91 -8.58 4.61
5.42 -3.15 -1.68
11.57 -6.72 0.23
6.23 -3.61 -1.66
31.82 -18.46 1.93
7.06 -4.1 -1.59
14.97 -8.69 1.51
7.8 -4.52 -1.43
14.91 -8.65 2.12
9.55 -5.55 -1.36
14.91 -8.65 2.73
12.07 -7 -1.22
14.89 -8.64 3.35
11.55 -6.7 -0.7
14.89 -8.64 3.98
14.89 -8.64 4.61
5.42 -3.17 -1.68
14.91 -8.72 0.3
6.23 -3.64 -1.67
14.9 -8.72 0.9
7.02 -4.11 -1.58
14.89 -8.71 1.51
7.78 -4.55 -1.43
14.92 -8.73 2.12
9.53 -5.58 -1.36
14.91 -8.72 2.74
12.01 -7.02 -1.22
11.12 -6.51 -0.68
38.44 -22.49 10.28
14.94 -8.74 -0.3
5.39 -3.18 -1.68
14.89 -8.78 0.3
6.23 -3.68 -1.67
14.91 -8.8 0.91
7 -4.13 -1.58
31.6 -18.64 3.21
7.66 -4.52 -1.41
31.56 -18.61 4.5
9.51 -5.61 -1.36
31.73 -18.71 5.83
12.09 -7.13 -1.23
10.99 -6.48 -0.67
13.72 -8.09 -0.28
5.41 -3.22 -1.69
6.23 -3.7 -1.67
31.53 -18.74 1.92
6.95 -4.13 -1.57
31.51 -18.73 3.21
7.64 -4.54 -1.41
31.45 -18.7 4.49
9.49 -5.64 -1.35
31.65 -18.82 5.83
12.08 -7.18 -1.23
13.61 -8.09 -0.83
10.8 -6.42 -0.22
37.13 -22.07 11.57
5.42 -3.25 -1.69
10.9 -6.53 0.22
6.2 -3.71 -1.67
31.44 -18.84 1.92
6.94 -4.16 -1.57
10.73 -6.43 1.09
7.63 -4.57 -1.41
31.38 -18.8 4.49
9.45 -5.66 -1.35
31.53 -18.89 5.82
12.12 -7.26 -1.24
13.55 -8.12 -0.83
37.83 -22.67 10.18
37 -22.17 11.56
5.43 -3.28 -1.7
10.86 -6.56 0.22
6.18 -3.73 -1.67
31.34 -18.93 1.92
6.92 -4.18 -1.57
31.33 -18.92 3.2
7.65 -4.62 -1.42
31.28 -18.89 4.49
9.43 -5.7 -1.35
31.43 -18.98 5.82
12.17 -7.35 -1.24
37.82 -22.84 8.59
11.36 -6.86 -0.7
37.8 -22.83 10.2
11.59 -7 -0.24
36.87 -22.27 11.54
5.42 -3.3 -1.7
10.85 -6.61 0.22
6.16 -3.75 -1.66
11.62 -7.07 0.71
6.88 -4.19 -1.56
31.23 -19.01 3.2
7.68 -4.67 -1.42
31.18 -18.98 4.48
9.41 -5.73 -1.35
31.35 -19.09 5.81
11.86 -7.22 -1.22
37.7 -22.95 8.58
10.97 -6.68 -0.67
37.65 -22.92 10.18
36.78 -22.39 11.54
5.38 -3.3 -1.69
31.16 -19.12 0.64
6.13 -3.76 -1.66
10.77 -6.61 0.66
6.84 -4.2 -1.56
31.14 -19.11 3.2
7.6 -4.66 -1.41
31.09 -19.07 4.48
9.38 -5.76 -1.35
31.25 -19.17 5.81
11.71 -7.19 -1.2
37.51 -23.01 8.55
10.94 -6.71 -0.67
37.52 -23.02 10.16
10.67 -6.54 -0.22
36.71 -22.52 11.54
5.28 -3.26 -1.66
10.24 -6.33 0.21
6.13 -3.79 -1.66
10.13 -6.27 0.62
6.78 -4.19 -1.55
31.06 -19.21 3.19
7.57 -4.68 -1.41
30.98 -19.15 4.47
9.36 -5.79 -1.35
31.17 -19.27 5.8
11.75 -7.27 -1.21
37.37 -23.11 8.54
10.86 -6.72 -0.67
37.36 -23.1 10.14
31.11 -19.24 -0.64
36.64 -22.66 11.54
5.31 -3.31 -1.68
10.98 -6.84 0.23
6.07 -3.78 -1.65
30.97 -19.3 1.91
6.74 -4.2 -1.54
30.96 -19.29 3.19
7.54 -4.7 -1.41
30.9 -19.25 4.47
9.33 -5.82 -1.35
31.07 -19.36 5.8
11.7 -7.29 -1.21
37.22 -23.2 8.52
11.64 -7.25 -0.72
10.17 -6.34 -0.21
36.62 -22.82 11.56
5.34 -3.36 -1.69
11.14 -7 0.23
6.06 -3.81 -1.65
30.88 -19.39 1.91
6.71 -4.21 -1.54
30.87 -19.39 3.19
7.45 -4.68 -1.39
30.81 -19.35 4.47
9.31 -5.84 -1.35
30.99 -19.46 5.8
11.76 -7.39 -1.21
37.23 -23.38 8.55
11 -6.91 -0.68
10.82 -6.8 -0.22
36.58 -22.97 11.57
5.33 -3.37 -1.69
30.82 -19.5 0.64
6.08 -3.85 -1.66
10.34 -6.54 0.64
6.69 -4.24 -1.54
30.77 -19.47 3.19
7.41 -4.69 -1.39
30.73 -19.45 4.47
9.29 -5.88 -1.35
30.89 -19.55 5.79
11.8 -7.47 -1.22
37.44 -23.69 8.61
10.45 -6.62 -0.65
10 -6.33 -0.21
5.3 -3.38 -1.69
30.71 -19.59 0.64
6.11 -3.89 -1.67
30.71 -19.59 1.91
6.73 -4.29 -1.55
30.69 -19.57 3.18
7.36 -4.69 -1.38
30.64 -19.54 4.46
9.27 -5.91 -1.35
30.81 -19.65 5.79
11.28 -7.19 -1.17
10.45 -6.67 -0.65
10.64 -6.78 -0.22
5.27 -3.38 -1.68
30.62 -19.68 0.64
6.05 -3.89 -1.66
30.62 -19.68 1.91
6.71 -4.31 -1.55
30.61 -19.67 3.18
7.36 -4.73 -1.39
30.55 -19.64 4.46
9.24 -5.94 -1.35
30.7 -19.73 5.78
11.25 -7.23 -1.17
10.62 -6.82 -0.66
10.71 -6.89 -0.22
5.24 -3.39 -1.67
30.53 -19.77 0.63
6.04 -3.91 -1.66
30.52 -19.77 1.91
6.68 -4.33 -1.55
30.52 -19.77 3.18
7.35 -4.76 -1.39
30.46 -19.73 4.46
9.21 -5.96 -1.35
30.63 -19.84 5.78
11.16 -7.23 -1.16
10.6 -6.86 -0.66
37.34 -24.18 10.27
10.68 -6.92 -0.22
5.23 -3.41 -1.67
10.34 -6.75 0.22
6.03 -3.93 -1.66
30.43 -19.86 1.9
6.67 -4.36 -1.55
30.44 -19.87 3.18
7.3 -4.76 -1.38
30.38 -19.83 4.45
9.19 -6 -1.35
30.52 -19.92 5.77
11.2 -7.31 -1.17
10.16 -6.63 -0.64
10.61 -6.92 -0.22
5.18 -3.41 -1.66
30.36 -19.97 0.63
6.02 -3.96 -1.66
30.34 -19.96 1.9
6.59 -4.33 -1.53
30.34 -19.95 3.18
7.26 -4.77 -1.38
30.29 -19.92 4.45
9.16 -6.03 -1.35
30.44 -20.02 5.77
11.14 -7.32 -1.17
11.67 -7.67 -0.73
10.64 -7 -0.22
5.2 -3.45 -1.67
30.28 -20.06 0.63
6 -3.98 -1.66
30.27 -20.06 1.9
6.63 -4.39 -1.55
10.38 -6.88 1.09
7.19 -4.77 -1.37
30.2 -20.01 4.45
9.15 -6.06 -1.35
30.34 -20.11 5.77
11.13 -7.38 -1.17
38.41 -25.45 8.96
11.24 -7.45 -0.71
10.71 -7.09 -0.22
5.21 -3.48 -1.68
30.18 -20.15 0.63
5.96 -3.98 -1.66
30.18 -20.15 1.9
6.62 -4.42 -1.55
30.17 -20.14 3.17
7.13 -4.76 -1.36
30.11 -20.1 4.45
9.12 -6.09 -1.35
30.26 -20.21 5.76
11.12 -7.43 -1.17
38.56 -25.74 9.01
11 -7.35 -0.69
10.93 -7.3 -0.23
5.21 -3.5 -1.68
30.11 -20.26 0.63
5.94 -4 -1.65
30.09 -20.25 1.9
6.59 -4.44 -1.54
30.09 -20.24 3.17
7.09 -4.77 -1.35
30.03 -20.2 4.44
9.09 -6.12 -1.35
30.19 -20.31 5.76
11.15 -7.5 -1.18
38.71 -26.04 9.07
12.33 -8.3 -0.78
10.96 -7.37 -0.23
5.17 -3.5 -1.67
30.02 -20.35 0.63
5.93 -4.02 -1.65
10.47 -7.1 0.66
6.56 -4.45 -1.54
30.01 -20.34 3.17
7.06 -4.79 -1.35
29.96 -20.31 4.44
9.07 -6.15 -1.35
30.09 -20.4 5.76
11.17 -7.57 -1.18
10.72 -7.27 -0.23
5.17 -3.53 -1.68
29.98 -20.47 0.63
5.93 -4.05 -1.66
29.94 -20.45 1.9
6.5 -4.44 -1.53
29.92 -20.43 3.17
7.42 -5.07 -1.42
29.88 -20.4 4.44
9.05 -6.18 -1.35
30.02 -20.5 5.76
11.04 -7.54 -1.17
12.31 -8.4 -0.78
5.2 -3.58 -1.69
9.99 -6.88 0.21
5.92 -4.07 -1.66
29.86 -20.54 1.9
6.47 -4.45 -1.53
29.84 -20.53 3.17
7.41 -5.1 -1.42
29.79 -20.5 4.44
9.02 -6.21 -1.34
29.93 -20.59 5.75
12.1 -8.32 -1.28
10.73 -7.39 -0.68
10.22 -7.03 -0.22
5.19 -3.6 -1.69
10.76 -7.46 0.23
5.91 -4.09 -1.66
29.77 -20.64 1.9
6.46 -4.48 -1.53
29.74 -20.62 3.17
7.39 -5.12 -1.42
29.69 -20.58 4.44
9 -6.24 -1.34
29.85 -20.69 5.75
10.99 -7.62 -1.17
11.09 -7.69 -0.71
10.45 -7.24 -0.22
5.13 -3.59 -1.68
29.69 -20.73 0.63
5.87 -4.1 -1.65
29.66 -20.72 1.9
6.44 -4.5 -1.53
29.68 -20.73 3.17
7.37 -5.15 -1.42
29.63 -20.69 4.44
8.97 -6.26 -1.34
29.77 -20.79 5.75
11 -7.68 -1.17
10.21 -7.13 -0.65
29.73 -20.76 -0.63
5.12 -3.6 -1.68
29.6 -20.83 0.63
5.85 -4.12 -1.65
29.6 -20.82 1.9
6.42 -4.52 -1.53
29.59 -20.82 3.16
7.36 -5.18 -1.42
29.54 -20.78 4.43
8.94 -6.29 -1.34
29.68 -20.88 5.75
10.76 -7.57 -1.15
11.59 -8.16 -0.74
29.64 -20.86 -0.63
5.13 -3.64 -1.69
29.52 -20.93 0.63
5.83 -4.13 -1.65
10.65 -7.55 0.68
6.39 -4.53 -1.52
29.5 -20.91 3.16
7.33 -5.2 -1.42
29.47 -20.89 4.44
8.92 -6.33 -1.34
29.59 -20.97 5.74
10.71 -7.59 -1.15
11.22 -7.95 -0.72
29.55 -20.95 -0.63
5.11 -3.65 -1.68
29.44 -21.03 0.63
5.79 -4.14 -1.64
29.43 -21.02 1.9
6.39 -4.56 -1.53
29.41 -21 3.16
7.3 -5.22 -1.42
29.39 -20.99 4.43
8.89 -6.35 -1.34
29.52 -21.08 5.74
10.67 -7.62 -1.15
9.8 -7 -0.63
29.48 -21.05 -0.63
5.09 -3.66 -1.68
29.35 -21.12 0.63
5.75 -4.14 -1.64
29.35 -21.11 1.89
6.36 -4.57 -1.52
29.36 -21.12 3.16
7.28 -5.24 -1.42
29.3 -21.08 4.43
8.87 -6.38 -1.34
29.44 -21.17 5.74
10.64 -7.65 -1.15
9.92 -7.14 -0.64
39.43 -28.37 11.21
29.41 -21.15 -0.63
5.14 -3.72 -1.7
29.24 -21.19 0.63
5.72 -4.14 -1.63
29.26 -21.2 1.89
6.33 -4.59 -1.52
29.25 -21.19 3.16
7.27 -5.27 -1.42
29.22 -21.18 4.43
8.84 -6.4 -1.34
29.35 -21.27 5.74
14.3 -10.36 -1.54
9.97 -7.23 -0.65
29.32 -21.25 -0.63
5.18 -3.79 -1.72
29.2 -21.32 0.63
5.69 -4.16 -1.63
10.56 -7.71 0.69
6.29 -4.59 -1.51
10.48 -7.65 1.14
7.25 -5.29 -1.42
29.15 -21.28 4.43
8.8 -6.43 -1.34
29.27 -21.37 5.74
14.15 -10.33 -1.53
10.01 -7.31 -0.65
29.23 -21.34 -0.63
5.16 -3.8 -1.72
29.1 -21.4 0.63
5.69 -4.18 -1.63
29.11 -21.4 1.89
6.26 -4.61 -1.51
29.09 -21.39 3.16
7.23 -5.32 -1.42
29.08 -21.39 4.43
8.79 -6.46 -1.34
29.18 -21.46 5.74
10.51 -7.73 -1.14
9.97 -7.33 -0.65
29.16 -21.44 -0.63
5.15 -3.82 -1.72
29.04 -21.51 0.63
5.68 -4.21 -1.63
29.04 -21.51 1.89
6.29 -4.66 -1.52
29.03 -21.5 3.16
7.2 -5.33 -1.42
29 -21.48 4.43
8.76 -6.49 -1.34
29.11 -21.57 5.74
10.02 -7.42 -1.09
10.04 -7.44 -0.65
29.09 -21.55 -0.63
5.15 -3.84 -1.72
28.97 -21.62 0.63
5.66 -4.23 -1.63
28.96 -21.61 1.89
6.27 -4.68 -1.52
28.95 -21.6 3.16
7.18 -5.36 -1.42
28.92 -21.58 4.43
8.74 -6.52 -1.34
29.05 -21.68 5.74
14.17 -10.57 -1.55
9.83 -7.33 -0.64
29.01 -21.65 -0.63
5.14 -3.86 -1.72
9.7 -7.29 0.21
5.64 -4.24 -1.63
28.87 -21.7 1.89
6.21 -4.67 -1.51
28.89 -21.71 3.16
7.16 -5.38 -1.42
8.7 -6.54 -1.34
28.96 -21.77 5.74
14.1 -10.6 -1.54
9.95 -7.48 -0.65
40.54 -30.47 11.71
28.93 -21.75 -0.63
5.12 -3.88 -1.72
9.81 -7.43 0.21
5.66 -4.29 -1.64
28.78 -21.79 1.89
6.19 -4.69 -1.51
28.83 -21.83 3.16
7.15 -5.41 -1.42
8.67 -6.56 -1.34
28.89 -21.88 5.74
9.84 -7.45 -1.08
9.93 -7.52 -0.65
9.77 -7.39 -0.21
5.08 -3.87 -1.71
28.74 -21.91 0.63
5.65 -4.31 -1.64
28.73 -21.91 1.89
6.18 -4.71 -1.51
28.73 -21.91 3.16
7.12 -5.43 -1.42
8.64 -6.59 -1.33
28.81 -21.97 5.74
9.76 -7.44 -1.07
9.77 -7.45 -0.64
10.07 -7.68 -0.22
5.06 -3.88 -1.71
28.65 -22.01 0.63
5.63 -4.32 -1.64
28.66 -22.02 1.89
6.15 -4.73 -1.51
10.34 -7.94 1.14
7.09 -5.45 -1.42
8.62 -6.62 -1.33
28.74 -22.07 5.74
9.82 -7.54 -1.08
9.79 -7.52 -0.65
9.73 -7.47 -0.21
5.05 -3.9 -1.71
28.6 -22.13 0.63
5.61 -4.34 -1.64
28.59 -22.12 1.89
6.14 -4.75 -1.51
28.61 -22.13 3.16
7.07 -5.47 -1.42
8.59 -6.65 -1.33
28.68 -22.19 5.74
9.82 -7.6 -1.09
9.8 -7.58 -0.65
28.64 -22.16 -0.63
5.01 -3.9 -1.7
28.54 -22.23 0.63
5.58 -4.35 -1.63
28.51 -22.21 1.89
6.11 -4.76 -1.51
28.66 -22.33 3.18
7.06 -5.5 -1.42
8.56 -6.67 -1.33
28.6 -22.28 5.74
9.78 -7.62 -1.09
9.64 -7.51 -0.64
4.99 -3.91 -1.7
28.49 -22.35 0.63
5.55 -4.36 -1.63
28.47 -22.34 1.9
6.05 -4.75 -1.49
10.05 -7.89 1.12
7.04 -5.53 -1.42
8.54 -6.7 -1.33
28.52 -22.38 5.74
9.85 -7.73 -1.1
9.86 -7.74 -0.66
9.72 -7.63 -0.22
4.96 -3.92 -1.69
5.52 -4.36 -1.62
9.86 -7.79 0.66
6 -4.74 -1.49
28.46 -22.5 3.17
7.02 -5.54 -1.42
8.52 -6.74 -1.33
28.45 -22.48 5.74
9.82 -7.76 -1.1
9.84 -7.78 -0.66
9.78 -7.73 -0.22
4.94 -3.93 -1.69
28.31 -22.54 0.63
5.5 -4.38 -1.62
28.32 -22.54 1.9
5.98 -4.76 -1.49
6.99 -5.56 -1.41
8.49 -6.76 -1.33
28.38 -22.59 5.75
9.75 -7.76 -1.09
9.74 -7.75 -0.65
9.96 -7.93 -0.22
4.95 -3.97 -1.7
13.76 -11.03 0.31
5.48 -4.4 -1.62
28.31 -22.71 1.9
5.95 -4.78 -1.48
6.97 -5.59 -1.41
8.44 -6.77 -1.33
28.31 -22.7 5.75
9.69 -7.77 -1.09
9.71 -7.79 -0.65
9.71 -7.78 -0.22
4.96 -4.01 -1.71
28.19 -22.77 0.63
5.46 -4.41 -1.62
28.21 -22.79 1.9
5.93 -4.79 -1.48
10.48 -8.47 1.18
6.95 -5.61 -1.41
8.4 -6.78 -1.33
28.24 -22.81 5.75
13.31 -10.75 -1.5
9.67 -7.81 -0.22
4.95 -4.03 -1.71
13.57 -11.04 0.31
5.41 -4.4 -1.61
5.93 -4.83 -1.49
6.93 -5.64 -1.41
8.36 -6.8 -1.32
28.17 -22.92 5.75
10.71 -8.71 -1.21
21.13 -17.19 -1.43
9.7 -7.89 -0.22
4.93 -4.04 -1.71
28.06 -22.99 0.63
5.4 -4.43 -1.61
13.76 -11.27 0.93
5.92 -4.85 -1.49
6.91 -5.66 -1.42
8.29 -6.8 -1.32
28.11 -23.03 5.75
10.52 -8.62 -1.19
9.5 -7.78 -0.64
9.58 -7.85 -0.22
4.91 -4.05 -1.71
13.77 -11.36 0.31
5.43 -4.48 -1.62
5.91 -4.88 -1.49
6.88 -5.67 -1.41
8.23 -6.79 -1.31
28.04 -23.13 5.76
10.59 -8.74 -1.2
9.63 -7.94 -0.65
13.8 -11.38 -0.31
4.88 -4.06 -1.7
13.88 -11.53 0.31
5.39 -4.48 -1.62
13.56 -11.27 0.92
5.91 -4.91 -1.49
13.64 -11.34 1.55
6.86 -5.7 -1.41
8.18 -6.8 -1.31
27.96 -23.23 5.76
13.2 -10.97 -1.5
9.59 -7.97 -0.22
4.87 -4.08 -1.7
13.61 -11.39 0.31
5.38 -4.5 -1.62
13.66 -11.43 0.93
5.83 -4.88 -1.48
13.55 -11.34 1.55
6.84 -5.73 -1.41
8.14 -6.81 -1.3
27.89 -23.34 5.76
13.17 -11.02 -1.5
11.05 -9.25 2.8
21.11 -17.66 -1.44
11.05 -9.25 3.33
13.67 -11.43 -0.31
11.03 -9.23 3.85
4.85 -4.09 -1.7
13.77 -11.6 0.31
5.36 -4.52 -1.62
11.06 -9.32 0.76
5.78 -4.87 -1.47
11.04 -9.31 1.26
6.82 -5.75 -1.41
11.04 -9.3 1.77
8.11 -6.83 -1.3
11.03 -9.29 2.28
13.16 -11.09 -1.51
10.99 -9.26 2.79
13.73 -11.57 -0.94
11.02 -9.28 3.33
13.69 -11.53 -0.31
11 -9.27 3.85
4.82 -4.09 -1.69
5.3 -4.5 -1.61
11 -9.34 0.76
5.75 -4.88 -1.47
11 -9.33 1.26
6.8 -5.77 -1.41
10.99 -9.33 1.77
8.09 -6.87 -1.3
11 -9.34 2.29
11.03 -9.36 -1.27
11.03 -9.36 -0.76
11.01 -9.34 -0.25
4.79 -4.1 -1.69
5.27 -4.5 -1.6
5.73 -4.9 -1.47
6.77 -5.79 -1.41
8.04 -6.87 -1.3
27.71 -23.68 5.77
13.04 -11.15 -1.5
4.78 -4.12 -1.69
25.4 -21.87 0.59
5.24 -4.51 -1.6
13.73 -11.82 0.95
5.73 -4.93 -1.47
6.75 -5.81 -1.41
8.1 -6.97 -1.31
27.64 -23.79 5.78
13.01 -11.2 -1.5
13.61 -11.72 -0.94
13.58 -11.69 -0.31
4.79 -4.15 -1.7
5.2 -4.51 -1.59
5.71 -4.95 -1.47
6.73 -5.84 -1.41
8.13 -7.05 -1.32
27.58 -23.91 5.78
12.97 -11.24 -1.5
9.89 -8.58 -0.69
13.56 -11.76 -0.31
4.74 -4.14 -1.68
13.53 -11.81 0.31
5.2 -4.54 -1.59
5.64 -4.92 -1.46
6.71 -5.86 -1.41
8.1 -7.07 -1.32
27.53 -24.03 5.79
12.95 -11.31 -1.5
20.76 -18.12 -1.44
25.54 -22.3 -0.59
4.67 -4.11 -1.67
13.44 -11.82 0.31
5.22 -4.59 -1.61
13.48 -11.85 0.94
5.6 -4.93 -1.45
6.69 -5.88 -1.41
7.93 -6.97 -1.3
27.49 -24.17 5.8
12.92 -11.35 -1.5
9.56 -8.4 -0.67
25.44 -22.37 -0.59
4.65 -4.12 -1.67
27.31 -24.18 0.64
5.18 -4.59 -1.6
13.58 -12.02 0.95
5.58 -4.94 -1.45
6.66 -5.9 -1.41
7.9 -7 -1.3
27.48 -24.33 5.81
12.86 -11.39 -1.5
20.69 -18.31 -1.45
25.4 -22.49 -0.59
4.64 -4.14 -1.67
13.2 -11.77 0.31
5.14 -4.58 -1.59
5.56 -4.96 -1.45
6.64 -5.92 -1.41
7.97 -7.1 -1.31
27.34 -24.38 5.8
12.85 -11.45 -1.51
20.61 -18.38 -1.45
10.3 -9.19 -0.24
4.63 -4.16 -1.67
5.12 -4.6 -1.59
5.55 -4.99 -1.45
6.62 -5.94 -1.41
7.98 -7.16 -1.32
27.31 -24.52 5.81
12.83 -11.52 -1.51
20.56 -18.46 -1.45
10.27 -9.22 -0.24
4.62 -4.18 -1.67
27.17 -24.56 0.64
5.11 -4.62 -1.59
5.57 -5.03 -1.46
9.18 -8.3 1.08
6.6 -5.97 -1.41
27.09 -24.49 4.48
7.98 -7.22 -1.32
27.23 -24.62 5.81
12.84 -11.61 -1.51
10.02 -9.06 -0.71
10.2 -9.23 -0.24
4.59 -4.18 -1.66
27.06 -24.64 0.64
5.1 -4.64 -1.59
27.05 -24.63 1.92
5.6 -5.1 -1.47
27.05 -24.64 3.2
6.58 -5.99 -1.41
27.02 -24.6 4.49
7.64 -6.95 -1.27
27.2 -24.76 5.83
12.81 -11.67 -1.52
20.49 -18.66 -1.45
10.14 -9.23 -0.24
4.57 -4.2 -1.66
26.99 -24.75 0.64
5.08 -4.66 -1.59
27 -24.76 1.92
5.6 -5.14 -1.48
27 -24.76 3.21
6.55 -6.01 -1.41
26.96 -24.72 4.49
7.58 -6.95 -1.26
27.16 -24.91 5.84
12.79 -11.73 -1.52
10.06 -9.22 -0.72
10.12 -9.28 -0.24
4.56 -4.21 -1.66
26.96 -24.89 0.64
5.04 -4.66 -1.58
8.96 -8.27 0.64
5.59 -5.16 -1.48
26.93 -24.87 3.21
6.53 -6.03 -1.41
26.9 -24.84 4.5
7.54 -6.97 -1.26
27.08 -25.01 5.84
12.76 -11.79 -1.52
9.93 -9.17 -0.71
23.63 -21.82 -0.56
4.56 -4.24 -1.67
9.23 -8.58 0.22
4.98 -4.63 -1.57
26.9 -25.02 1.93
5.58 -5.18 -1.48
26.89 -25 3.21
6.51 -6.05 -1.41
26.85 -24.97 4.5
7.55 -7.02 -1.27
27.02 -25.13 5.85
12.74 -11.85 -1.52
20.29 -18.87 -1.45
23.52 -21.87 -0.56
4.52 -4.23 -1.66
9.04 -8.47 0.22
4.92 -4.61 -1.56
26.82 -25.11 1.93
5.45 -5.1 -1.45
26.83 -25.13 3.22
6.49 -6.08 -1.41
26.81 -25.1 4.51
7.54 -7.06 -1.27
26.98 -25.27 5.85
12.76 -11.95 -1.53
20.22 -18.93 -1.45
23.42 -21.93 -0.56
4.48 -4.22 -1.65
9.3 -8.77 0.22
4.9 -4.62 -1.55
26.79 -25.27 1.93
5.43 -5.12 -1.45
26.78 -25.26 3.22
6.47 -6.1 -1.41
26.75 -25.23 4.51
7.75 -7.31 -1.31
12.78 -12.05 -1.54
20.23 -19.08 -1.46
9.14 -8.62 -0.22
4.47 -4.24 -1.65
26.74 -25.39 0.64
4.91 -4.66 -1.56
26.74 -25.38 1.93
5.5 -5.22 -1.47
26.74 -25.38 3.23
6.45 -6.12 -1.41
26.71 -25.36 4.52
7.73 -7.34 -1.31
9.16 -8.69 -1.1
9.29 -8.82 -0.67
9.14 -8.68 -0.22
4.46 -4.26 -1.65
26.7 -25.52 0.64
4.86 -4.64 -1.55
9.24 -8.83 0.67
5.5 -5.26 -1.48
26.69 -25.52 3.23
6.42 -6.14 -1.41
26.65 -25.48 4.53
7.72 -7.38 -1.31
13.09 -12.51 -1.58
9.29 -8.88 -0.67
9.12 -8.72 -0.22
4.47 -4.3 -1.66
26.65 -25.67 0.65
4.85 -4.67 -1.55
26.64 -25.65 1.94
5.49 -5.28 -1.48
9.39 -9.04 1.14
6.4 -6.16 -1.41
9.32 -8.98 1.59
7.67 -7.39 -1.31
9.21 -8.87 -1.12
9.29 -8.95 -0.68
24.03 -23.15 -0.58
4.45 -4.32 -1.66
26.6 -25.8 0.65
4.84 -4.69 -1.56
26.58 -25.78 1.94
5.43 -5.26 -1.47
26.59 -25.78 3.24
6.38 -6.19 -1.41
26.55 -25.75 4.54
7.63 -7.4 -1.3
9.31 -9.03 2.05
9.18 -8.9 -1.12
20.04 -19.43 -1.46
23.94 -23.22 -0.58
4.46 -4.36 -1.67
4.83 -4.72 -1.56
9.2 -8.98 0.67
5.17 -5.05 -1.41
8.74 -8.53 1.07
6.36 -6.21 -1.41
26.53 -25.91 4.55
7.57 -7.39 -1.3
9.15 -8.93 -1.12
9.25 -9.03 -0.68
9.22 -9 -0.22
4.46 -4.38 -1.67
9.22 -9.07 0.23
4.82 -4.74 -1.56
8.82 -8.68 0.65
5.15 -5.06 -1.4
9.47 -9.31 1.16
6.33 -6.22 -1.41
26.49 -26.05 4.56
7.59 -7.46 -1.31
9.23 -9.08 -1.13
9.13 -8.98 -0.67
9.04 -8.89 -0.22
4.44 -4.4 -1.68
8.88 -8.79 0.22
4.79 -4.74 -1.56
