# .PCD v0.7 - Point Cloud Data file format
VERSION 0.7
FIELDS x y z
SIZE 4 4 4
TYPE F F F
COUNT 1 1 1
WIDTH 2660
HEIGHT 1
VIEWPOINT 0 0 0 1 0 0 0
POINTS 2660
DATA ascii
1.43 -5.87 -1.62
7.22 -29.62 0.53
1.63 -6.67 -1.59
6.73 -27.6 1.49
2.22 -9.1 -1.82
6.57 -26.94 2.43
2.5 -10.25 -1.67
6.33 -25.95 3.28
3.07 -12.6 -1.59
3.78 -15.5 -1.4
6.41 -26.31 5.26
5.79 -23.74 -1.28
6.3 -25.84 -0.46
1.41 -5.89 -1.62
7.11 -29.62 0.53
1.6 -6.65 -1.58
6.28 -26.16 1.41
2.19 -9.11 -1.82
6.33 -26.38 2.37
2.46 -10.25 -1.67
6.47 -26.94 3.4
3.03 -12.61 -1.59
9.91 -41.28 6.72
3.72 -15.5 -1.4
9.89 -41.22 8.24
5.7 -23.76 -1.28
9.9 -41.24 9.79
6.2 -25.83 -0.46
9.87 -41.14 11.34
1.39 -5.9 -1.62
7.02 -29.71 0.53
1.57 -6.65 -1.58
6.92 -29.26 1.58
2.15 -9.11 -1.82
8.46 -35.79 3.22
2.42 -10.25 -1.67
6.21 -26.25 3.31
2.98 -12.61 -1.59
6.19 -26.18 4.26
3.67 -15.54 -1.4
5.62 -23.79 -1.28
6.82 -28.85 -0.52
1.37 -5.91 -1.62
6.98 -30.01 0.54
1.55 -6.67 -1.58
6.46 -27.75 1.49
2.12 -9.12 -1.82
8.38 -36 3.23
2.39 -10.25 -1.67
6.08 -26.15 3.3
2.93 -12.61 -1.59
6.08 -26.13 4.25
3.62 -15.56 -1.4
6.08 -26.14 5.22
5.54 -23.79 -1.28
6.71 -28.82 -0.52
1.35 -5.91 -1.62
6.9 -30.12 0.54
1.53 -6.69 -1.58
2.09 -9.12 -1.82
6.27 -27.38 2.46
2.35 -10.24 -1.66
9.89 -43.16 5.44
2.89 -12.63 -1.59
6.17 -26.96 4.38
3.57 -15.57 -1.4
5.45 -23.82 -1.28
6.63 -28.93 -0.52
1.33 -5.9 -1.62
6.81 -30.2 0.54
1.51 -6.69 -1.58
2.06 -9.14 -1.82
6.25 -27.75 2.49
2.3 -10.21 -1.66
5.67 -25.17 3.17
2.86 -12.68 -1.6
5.88 -26.08 4.23
3.51 -15.56 -1.4
5.37 -23.84 -1.28
10.51 -46.62 11.03
5.94 -26.34 -0.47
1.32 -5.94 -1.63
6.72 -30.3 0.54
1.54 -6.94 -1.64
5.78 -26.09 1.4
2.03 -9.14 -1.82
5.89 -26.58 2.38
2.26 -10.17 -1.65
5.62 -25.34 3.19
2.82 -12.72 -1.6
8.23 -37.11 6.02
3.44 -15.52 -1.39
5.3 -23.91 -1.28
5.84 -26.36 -0.47
1.3 -5.96 -1.63
5.68 -26.06 0.47
1.54 -7.07 -1.67
5.75 -26.37 1.41
1.99 -9.13 -1.82
7.87 -36.07 3.23
2.22 -10.16 -1.65
5.65 -25.9 3.25
2.77 -12.7 -1.6
5.62 -25.8 4.18
3.38 -15.52 -1.39
5.84 -26.78 5.33
5.21 -23.89 -1.28
7.11 -32.6 -0.58
8.43 -38.65 10.6
1.29 -6 -1.64
5.96 -27.79 0.5
1.46 -6.83 -1.61
5.72 -26.67 1.43
1.96 -9.13 -1.81
5.99 -27.95 2.5
2.18 -10.15 -1.64
5.5 -25.64 3.22
2.71 -12.65 -1.59
5.51 -25.68 4.16
3.33 -15.55 -1.39
5.13 -23.93 -1.28
7.02 -32.72 -0.58
8.25 -38.46 10.54
1.26 -6 -1.64
5.89 -27.93 0.5
1.49 -7.06 -1.67
1.92 -9.12 -1.81
7.64 -36.24 3.24
2.14 -10.16 -1.64
5.44 -25.81 3.24
2.66 -12.63 -1.58
5.4 -25.63 4.15
3.3 -15.64 -1.4
5.64 -26.75 5.31
5.04 -23.91 -1.28
9.83 -46.64 11
6.89 -32.69 -0.58
1.25 -6.02 -1.65
5.33 -25.76 0.46
1.47 -7.09 -1.67
9.07 -43.79 2.34
1.89 -9.12 -1.81
2.1 -10.16 -1.64
5.35 -25.84 3.24
2.61 -12.62 -1.58
5.5 -26.54 4.29
3.23 -15.59 -1.39
4.96 -23.93 -1.28
7.13 -34.41 8.11
6.79 -32.77 -0.58
1.22 -5.99 -1.64
5.68 -27.92 0.5
1.45 -7.11 -1.67
1.86 -9.14 -1.81
7.43 -36.52 3.26
2.07 -10.16 -1.64
5.25 -25.79 3.23
2.57 -12.65 -1.59
5.25 -25.81 4.17
3.17 -15.59 -1.39
5.25 -25.78 5.11
4.87 -23.94 -1.28
1.2 -5.99 -1.64
5.18 -25.9 0.46
1.42 -7.08 -1.67
5.22 -26.11 1.4
1.84 -9.18 -1.82
7.31 -36.56 3.26
2.04 -10.2 -1.65
7.52 -37.62 4.71
2.54 -12.7 -1.59
5.32 -26.58 4.29
3.12 -15.58 -1.39
4.79 -23.97 -1.28
7.02 -35.12 8.27
6.52 -32.62 -0.58
7 -34.98 9.56
1.18 -6.01 -1.64
1.38 -7.02 -1.65
5.53 -28.18 1.51
1.8 -9.18 -1.82
7.21 -36.7 3.27
2.01 -10.23 -1.65
5.07 -25.8 3.23
2.49 -12.66 -1.58
5.24 -26.68 4.31
3.06 -15.59 -1.39
4.71 -24 -1.28
5.45 -27.74 -0.49
1.15 -5.97 -1.63
5.32 -27.61 0.49
1.35 -7.01 -1.65
5.03 -26.12 1.39
1.77 -9.19 -1.82
5.04 -26.19 2.33
1.98 -10.29 -1.66
7.9 -41.01 5.13
2.44 -12.67 -1.58
10.12 -52.57 8.48
3 -15.6 -1.39
7.1 -36.86 7.3
4.62 -24.01 -1.28
5.17 -26.84 -0.48
6.78 -35.18 9.6
1.13 -5.96 -1.62
5 -26.47 0.47
1.32 -6.98 -1.64
4.99 -26.4 1.41
1.72 -9.1 -1.8
7.03 -37.2 3.31
1.95 -10.34 -1.67
5.11 -27.06 3.38
2.4 -12.7 -1.59
2.95 -15.6 -1.39
4.53 -24 -1.28
5.06 -26.77 -0.48
6.69 -35.43 9.66
1.11 -5.97 -1.63
4.9 -26.43 0.47
1.31 -7.08 -1.66
4.94 -26.63 1.42
1.68 -9.05 -1.79
4.86 -26.21 2.33
1.91 -10.3 -1.66
4.96 -26.74 3.34
2.36 -12.72 -1.59
5.09 -27.42 4.42
2.9 -15.63 -1.39
4.46 -24.04 -1.28
6.61 -35.62 8.36
5.01 -27.01 -0.48
1.09 -5.98 -1.63
4.79 -26.31 0.47
1.29 -7.07 -1.66
4.7 -25.86 1.38
1.65 -9.05 -1.79
1.88 -10.32 -1.66
4.66 -25.64 3.2
2.32 -12.78 -1.59
6.59 -36.21 5.83
2.85 -15.65 -1.39
4.38 -24.08 -1.28
4.88 -26.84 -0.48
1.07 -5.99 -1.63
1.26 -7.05 -1.65
1.61 -9.06 -1.79
4.73 -26.55 2.36
1.85 -10.41 -1.67
6.71 -37.7 4.7
2.28 -12.79 -1.59
4.9 -27.49 4.42
2.79 -15.69 -1.39
6.39 -35.85 7.08
4.29 -24.08 -1.28
4.68 -26.25 -0.47
1.04 -5.98 -1.63
4.63 -26.55 0.47
1.23 -7.06 -1.65
1.58 -9.06 -1.79
4.71 -27 2.4
1.8 -10.31 -1.66
6.3 -36.09 4.5
2.22 -12.7 -1.58
4.65 -26.62 4.28
2.75 -15.75 -1.4
4.21 -24.11 -1.28
7.45 -42.69 10
4.68 -26.83 -0.48
1.02 -5.96 -1.62
4.52 -26.46 0.47
1.19 -6.98 -1.64
6.3 -36.87 1.96
1.55 -9.07 -1.79
4.49 -26.25 2.33
1.75 -10.22 -1.64
4.56 -26.7 3.33
2.19 -12.8 -1.59
6.18 -36.18 5.81
2.67 -15.63 -1.39
4.12 -24.12 -1.28
6.85 -40.05 9.38
5.22 -30.55 -0.54
1 -5.98 -1.62
4.34 -25.94 0.46
1.19 -7.09 -1.66
4.64 -27.72 1.47
1.52 -9.09 -1.79
4.62 -27.61 2.45
1.7 -10.16 -1.63
4.43 -26.49 3.3
2.14 -12.81 -1.6
4.51 -26.95 4.33
2.61 -15.62 -1.39
4.04 -24.15 -1.28
5.14 -30.71 -0.54
0.98 -5.99 -1.63
4.34 -26.49 0.47
1.16 -7.05 -1.65
1.49 -9.09 -1.79
5.98 -36.45 3.23
1.67 -10.18 -1.63
6.67 -40.7 5.06
2.09 -12.75 -1.59
6.66 -40.63 6.52
2.56 -15.64 -1.39
4.34 -26.49 5.22
3.96 -24.15 -1.28
6.62 -40.41 9.45
5.03 -30.71 -0.54
6.62 -40.37 10.96
0.96 -6 -1.63
4.27 -26.66 0.47
1.13 -7.03 -1.64
5.88 -36.68 1.95
1.46 -9.1 -1.79
4.32 -26.97 2.39
1.63 -10.17 -1.63
4.39 -27.39 3.41
2.04 -12.7 -1.58
2.51 -15.62 -1.38
3.88 -24.18 -1.28
4.88 -30.44 -0.54
0.94 -6.01 -1.63
4.17 -26.57 0.47
1.1 -7.03 -1.64
1.42 -9.09 -1.79
4.16 -26.52 2.35
1.59 -10.17 -1.63
6.68 -42.59 5.29
1.98 -12.66 -1.57
4.28 -27.28 4.37
2.45 -15.61 -1.38
3.79 -24.2 -1.28
6.64 -42.35 9.9
4.42 -28.19 -0.5
6.63 -42.28 11.47
0.92 -5.99 -1.62
4.31 -28.12 0.5
1.07 -6.96 -1.63
4.15 -27.09 1.44
1.39 -9.11 -1.79
5.79 -37.79 3.34
1.56 -10.16 -1.63
4.04 -26.36 3.27
1.94 -12.65 -1.57
4.07 -26.55 4.25
2.39 -15.61 -1.38
3.72 -24.25 -1.29
4.69 -30.59 -0.54
0.9 -6 -1.62
4.25 -28.4 0.5
1.03 -6.9 -1.61
1.36 -9.11 -1.79
1.52 -10.16 -1.63
3.9 -26.09 3.24
1.9 -12.71 -1.58
4.02 -26.86 4.3
2.34 -15.63 -1.38
3.63 -24.26 -1.29
4.11 -27.47 -0.48
0.88 -6.01 -1.63
4.04 -27.66 0.49
1 -6.84 -1.6
5.17 -35.41 1.88
1.33 -9.11 -1.79
4.01 -27.46 2.43
1.49 -10.19 -1.63
1.86 -12.75 -1.58
6.45 -44.16 7.07
2.28 -15.64 -1.38
3.54 -24.26 -1.28
4.06 -27.78 -0.49
0.86 -6.03 -1.63
3.89 -27.32 0.48
1.01 -7.09 -1.65
3.76 -26.38 1.4
1.3 -9.09 -1.79
3.92 -27.51 2.43
1.46 -10.27 -1.64
3.7 -25.93 3.22
1.81 -12.71 -1.58
6.26 -43.95 7.03
2.23 -15.67 -1.38
3.46 -24.27 -1.28
0.84 -6.04 -1.63
3.86 -27.8 0.49
0.99 -7.13 -1.66
3.84 -27.67 1.46
1.26 -9.09 -1.78
3.82 -27.47 2.43
1.44 -10.37 -1.66
3.59 -25.85 3.2
1.78 -12.79 -1.59
6.12 -44.07 7.05
2.18 -15.68 -1.38
3.38 -24.3 -1.29
3.82 -27.52 -0.49
0.82 -6.04 -1.63
3.67 -27.07 0.48
0.96 -7.1 -1.65
3.57 -26.35 1.39
1.24 -9.13 -1.79
3.78 -27.9 2.46
1.41 -10.39 -1.66
3.49 -25.81 3.2
1.73 -12.78 -1.58
5.98 -44.17 7.06
2.12 -15.69 -1.39
6.28 -46.36 9.09
3.29 -24.33 -1.29
6.26 -46.26 10.78
3.79 -27.98 -0.49
0.8 -6.04 -1.63
3.57 -27.07 0.48
0.93 -7.06 -1.64
3.54 -26.82 1.42
1.21 -9.15 -1.79
3.48 -26.38 2.33
1.37 -10.4 -1.66
3.44 -26.07 3.23
1.69 -12.8 -1.58
5.82 -44.12 7.05
2.07 -15.7 -1.39
6.25 -47.42 9.3
3.21 -24.36 -1.29
3.65 -27.7 -0.49
0.78 -6.06 -1.64
4.12 -32.14 0.57
0.91 -7.07 -1.65
3.44 -26.79 1.42
1.18 -9.2 -1.8
3.55 -27.64 2.44
1.33 -10.35 -1.65
3.3 -25.69 3.18
1.64 -12.77 -1.58
5.98 -46.66 7.45
2.02 -15.73 -1.39
6.04 -47.05 9.22
3.12 -24.33 -1.29
5.93 -46.24 10.76
3.61 -28.11 -0.49
0.75 -6.05 -1.63
4.44 -35.57 0.63
0.86 -6.93 -1.61
4.44 -35.58 1.88
1.15 -9.2 -1.8
1.29 -10.34 -1.65
3.2 -25.63 3.17
1.59 -12.74 -1.58
5.82 -46.7 7.45
1.97 -15.83 -1.4
5.87 -47.02 9.21
3.04 -24.35 -1.29
3.46 -27.74 -0.49
0.73 -6.04 -1.63
3.24 -26.78 0.47
0.85 -7.02 -1.63
3.18 -26.22 1.38
1.11 -9.18 -1.8
3.26 -26.92 2.37
1.25 -10.33 -1.65
3.09 -25.52 3.16
1.54 -12.74 -1.58
5.66 -46.68 7.45
1.93 -15.92 -1.4
5.75 -47.48 9.3
2.95 -24.38 -1.29
3.39 -27.98 -0.49
4.64 -38.25 10.32
0.71 -6.06 -1.64
0.82 -7 -1.63
1.08 -9.17 -1.79
1.2 -10.2 -1.63
3 -25.54 3.16
1.5 -12.74 -1.58
6.87 -58.4 9.31
1.87 -15.88 -1.4
2.86 -24.33 -1.28
3.41 -28.96 -0.51
4.53 -38.49 10.38
0.7 -6.09 -1.64
4.11 -36.04 0.63
0.81 -7.08 -1.65
1.05 -9.17 -1.79
2.98 -26.1 2.3
1.16 -10.18 -1.62
2.97 -26.06 3.22
1.45 -12.74 -1.57
5.26 -46.13 7.35
1.82 -15.92 -1.4
2.78 -24.38 -1.29
3.29 -28.86 -0.51
0.67 -6.1 -1.64
3.2 -28.9 0.51
0.77 -6.94 -1.61
3.24 -29.27 1.54
1.02 -9.19 -1.8
1.13 -10.18 -1.62
2.88 -26.07 3.22
1.41 -12.73 -1.57
1.76 -15.96 -1.4
2.7 -24.38 -1.29
4.28 -38.7 8.99
3.2 -28.95 -0.51
0.65 -6.1 -1.64
0.74 -6.94 -1.61
4.06 -37.97 2
0.99 -9.25 -1.81
1.09 -10.21 -1.63
1.36 -12.71 -1.57
4.94 -46.11 7.34
1.71 -15.98 -1.41
2.59 -24.24 -1.28
3.39 -31.69 -0.56
4.14 -38.7 10.43
0.63 -6.1 -1.64
3.16 -30.55 0.54
0.72 -6.91 -1.6
3.94 -38.06 2.01
0.95 -9.2 -1.8
1.07 -10.35 -1.65
2.69 -25.94 3.2
1.32 -12.71 -1.57
4.02 -38.87 6.19
1.65 -15.98 -1.41
4.03 -38.93 7.61
2.52 -24.36 -1.28
3.18 -30.72 -0.54
0.61 -6.09 -1.64
3.78 -37.85 0.66
0.69 -6.91 -1.6
3.8 -37.96 2
0.93 -9.26 -1.81
3.9 -38.97 3.43
1.04 -10.36 -1.65
2.59 -25.9 3.2
1.27 -12.74 -1.57
3.87 -38.7 6.16
1.6 -15.97 -1.4
2.44 -24.36 -1.28
3.22 -32.21 -0.56
0.59 -6.1 -1.64
3.63 -37.66 0.66
0.67 -6.91 -1.6
3.68 -38.18 2.01
0.9 -9.29 -1.81
2.55 -26.47 2.33
1 -10.38 -1.65
4.34 -44.97 5.55
1.23 -12.72 -1.57
2.62 -27.19 4.33
1.54 -16 -1.41
3.72 -38.57 7.53
2.35 -24.35 -1.28
2.98 -30.92 -0.54
0.57 -6.1 -1.64
3.01 -32.39 0.57
0.65 -7.04 -1.63
3.53 -38.01 2
0.86 -9.3 -1.82
2.48 -26.64 2.34
0.97 -10.39 -1.65
2.52 -27.07 3.34
1.18 -12.74 -1.57
2.47 -26.56 4.22
1.48 -15.95 -1.4
2.26 -24.37 -1.28
3.59 -38.66 8.96
2.98 -32.03 -0.56
3.57 -38.45 10.35
0.55 -6.11 -1.64
3.31 -37.06 0.65
0.63 -7.04 -1.63
0.83 -9.31 -1.82
2.37 -26.46 2.32
0.93 -10.4 -1.65
2.42 -27.03 3.33
1.14 -12.76 -1.57
2.44 -27.32 4.34
1.42 -15.9 -1.4
2.18 -24.36 -1.28
2.88 -32.22 -0.56
3.49 -39.04 10.5
0.53 -6.11 -1.64
2.81 -32.76 0.57
0.6 -7.03 -1.63
0.8 -9.32 -1.82
3.39 -39.47 3.47
0.9 -10.42 -1.66
2.31 -26.84 3.31
1.09 -12.7 -1.56
2.28 -26.54 4.22
1.37 -15.89 -1.4
2.09 -24.36 -1.28
2.69 -31.32 -0.55
0.5 -6.1 -1.64
3.05 -36.99 0.65
0.58 -6.98 -1.62
2.62 -31.79 1.67
0.77 -9.34 -1.82
2.25 -27.32 2.4
0.86 -10.43 -1.66
2.21 -26.85 3.31
1.05 -12.72 -1.57
2.18 -26.49 4.21
1.31 -15.87 -1.39
2.14 -25.95 5.06
2.01 -24.34 -1.28
3.65 -44.33 10.27
2.62 -31.76 -0.56
0.48 -6.09 -1.64
2.28 -28.85 0.51
2.09 -26.43 2.32
0.82 -10.42 -1.66
2.14 -27.02 3.33
1.01 -12.72 -1.57
2.12 -26.81 4.26
1.25 -15.87 -1.39
1.92 -24.33 -1.28
2.46 -31.17 -0.55
0.46 -6.1 -1.64
2.1 -27.8 0.49
2.07 -27.44 1.44
2.89 -38.25 3.36
0.78 -10.37 -1.65
1.98 -26.27 3.24
0.96 -12.71 -1.57
1.97 -26.11 4.15
1.2 -15.9 -1.39
2.01 -26.61 5.19
1.83 -24.29 -1.28
2.11 -27.99 -0.49
0.44 -6.11 -1.64
1.99 -27.67 0.48
1.96 -27.18 1.43
2.74 -37.98 3.33
0.75 -10.37 -1.65
1.94 -26.97 3.32
0.92 -12.71 -1.56
1.9 -26.43 4.2
1.15 -15.9 -1.39
1.86 -25.8 5.03
1.75 -24.3 -1.28
2.02 -28.05 -0.49
0.42 -6.13 -1.65
1.94 -28.35 0.5
1.94 -28.37 1.49
0.64 -9.31 -1.81
1.8 -26.3 2.31
0.72 -10.47 -1.66
1.85 -26.94 3.32
0.87 -12.71 -1.56
1.8 -26.32 4.18
1.09 -15.91 -1.4
1.87 -27.25 5.31
1.66 -24.25 -1.27
1.92 -27.96 -0.49
0.4 -6.13 -1.65
1.83 -28.2 0.49
1.77 -27.21 1.43
1.92 -29.49 2.59
0.68 -10.47 -1.66
1.72 -26.47 3.26
0.83 -12.73 -1.57
1.7 -26.09 4.14
1.03 -15.92 -1.4
1.7 -26.12 5.09
1.58 -24.31 -1.28
1.81 -27.81 -0.49
0.38 -6.14 -1.65
2.26 -36.76 0.64
1.67 -27.22 1.43
1.75 -28.51 2.5
0.64 -10.48 -1.66
2.96 -48.12 5.92
0.79 -12.76 -1.57
1.64 -26.71 4.24
0.98 -15.92 -1.4
1.62 -26.4 5.14
1.49 -24.27 -1.27
1.72 -27.99 -0.49
1.57 -27.05 0.47
1.58 -27.23 1.43
1.52 -26.12 2.29
0.61 -10.49 -1.66
1.53 -26.36 3.24
0.74 -12.75 -1.57
0.92 -15.93 -1.4
1.52 -26.27 5.11
1.41 -24.23 -1.27
1.57 -28.88 0.5
1.48 -27.2 1.43
2.05 -37.59 3.29
0.57 -10.49 -1.66
2.4 -43.95 5.4
0.69 -12.73 -1.57
2.39 -43.86 6.96
0.87 -15.96 -1.4
1.32 -24.15 -1.27
2.39 -43.89 10.15
2.38 -43.73 11.73
1.62 -31.81 0.56
1.39 -27.19 1.43
1.35 -26.53 2.32
0.54 -10.49 -1.66
1.37 -26.84 3.3
0.65 -12.76 -1.57
1.91 -37.36 5.93
0.82 -15.99 -1.4
1.33 -26.03 5.07
1.24 -24.22 -1.27
1.37 -28.76 0.5
1.26 -26.62 1.4
1.25 -26.36 2.31
0.5 -10.48 -1.66
1.29 -27.2 3.34
0.61 -12.78 -1.57
2.31 -48.65 7.71
0.76 -16.01 -1.4
1.28 -27.01 5.26
1.15 -24.25 -1.27
1.21 -27.59 0.48
1.2 -27.31 1.43
1.3 -29.58 2.59
0.46 -10.37 -1.64
2.05 -46.56 5.72
0.56 -12.75 -1.57
0.71 -16.06 -1.41
1.19 -27.11 5.28
1.07 -24.22 -1.27
1.24 -28.27 -0.49
1.28 -31.55 0.55
1.17 -28.96 1.52
1.16 -28.56 2.5
0.42 -10.35 -1.64
1.08 -26.76 3.29
0.51 -12.69 -1.56
1.57 -38.85 6.16
0.65 -16.06 -1.41
0.98 -24.15 -1.27
1.1 -27.12 -0.47
1.04 -28.16 0.49
0.26 -7.03 -1.63
0.99 -26.66 1.4
1.06 -28.72 2.51
0.38 -10.35 -1.64
1.1 -29.7 3.65
0.47 -12.72 -1.56
1.44 -38.83 6.15
0.6 -16.11 -1.41
0.9 -24.2 -1.27
1.03 -27.88 -0.49
0.9 -26.92 0.47
0.24 -7.03 -1.63
0.9 -26.75 1.4
0.31 -9.39 -1.83
0.95 -28.35 2.48
0.35 -10.36 -1.64
0.94 -28.16 3.46
0.43 -12.72 -1.56
1.29 -38.43 6.09
0.54 -16.05 -1.41
1.65 -49.22 9.57
0.8 -23.86 -1.25
0.91 -27.26 -0.48
0.82 -27.19 0.47
0.21 -7.14 -1.65
0.81 -26.87 1.41
0.83 -27.65 2.42
0.31 -10.34 -1.64
0.88 -29.47 3.62
0.38 -12.61 -1.55
1.16 -38.75 6.14
0.48 -16.05 -1.4
1.49 -49.58 9.64
0.72 -24.1 -1.26
0.83 -27.66 -0.48
0.73 -27.55 0.48
0.19 -7.16 -1.65
0.71 -26.84 1.41
0.73 -27.48 2.41
0.27 -10.33 -1.64
0.78 -29.57 3.63
0.33 -12.6 -1.55
1.02 -38.42 6.09
0.43 -16.08 -1.41
1.25 -47.23 9.18
0.64 -24.14 -1.27
0.73 -27.66 -0.48
0.61 -26.62 0.46
0.61 -26.69 1.4
0.22 -9.41 -1.83
0.64 -27.58 2.41
0.24 -10.31 -1.63
1.12 -48.55 5.96
0.29 -12.59 -1.55
0.89 -38.7 6.13
0.37 -16.09 -1.41
0.56 -24.12 -1.26
0.63 -27.16 -0.47
1.08 -47.04 12.61
0.52 -26.74 0.47
0.54 -27.72 1.45
0.18 -9.38 -1.82
0.54 -27.49 2.41
0.2 -10.31 -1.63
0.95 -48.55 5.96
0.76 -38.78 6.14
0.31 -16.11 -1.41
0.47 -24.16 -1.27
0.75 -38.17 8.81
0.42 -26.22 0.46
0.44 -27.29 1.43
0.15 -9.38 -1.82
0.46 -28.96 2.53
0.17 -10.32 -1.63
0.46 -28.34 3.48
0.21 -12.77 -1.57
0.61 -38.27 6.06
0.26 -16.11 -1.41
0.61 -38.14 7.42
0.39 -24.11 -1.26
0.61 -38.11 8.8
0.44 -27.15 -0.47
0.61 -37.98 10.18
0.34 -26.94 0.47
0.37 -29.34 1.54
0.12 -9.36 -1.82
0.36 -28.56 2.5
0.13 -10.34 -1.64
0.35 -27.54 3.38
0.16 -12.71 -1.56
0.48 -38.3 6.07
0.2 -16.1 -1.41
0.47 -37.78 7.34
0.3 -24.27 -1.27
0.48 -38.17 8.81
0.33 -26.42 -0.46
0.25 -26.66 0.47
0.26 -27.4 1.44
0.09 -9.34 -1.82
0.26 -27.07 2.37
0.1 -10.33 -1.64
0.27 -28.32 3.48
0.12 -12.69 -1.56
0.36 -37.69 5.97
0.15 -16.12 -1.41
0.37 -38.74 7.53
0.23 -24.3 -1.27
0.35 -36.89 8.52
0.25 -26.24 -0.46
0.16 -26.62 0.46
0.16 -26.45 1.39
0.06 -9.36 -1.82
0.16 -26.21 2.29
0.06 -10.34 -1.64
0.17 -28.1 3.45
0.08 -12.72 -1.56
0.23 -38.63 6.12
0.1 -16.15 -1.41
0.14 -24.25 -1.27
0.16 -27.07 -0.47
0.23 -38.02 10.19
0.06 -26.28 0.46
0.07 -26.69 1.4
0.02 -9.37 -1.82
0.07 -27.31 2.39
0.03 -10.34 -1.64
0.07 -28.19 3.46
0.03 -12.72 -1.56
0.11 -46.16 7.31
0.04 -16.17 -1.42
0.06 -24.31 -1.27
0.06 -26.57 -0.46
-0.03 -26.41 0.46
-0.01 -7.06 -1.63
-0.03 -29.02 1.52
-0.01 -9.38 -1.82
-0.03 -25.82 2.26
-0.01 -10.35 -1.64
-0.03 -29.64 3.64
-0.01 -12.72 -1.56
-0.05 -46.24 7.32
-0.02 -16.17 -1.41
-0.03 -24.31 -1.27
-0.03 -26.66 -0.47
-0.13 -26.84 0.47
-0.03 -7.01 -1.62
-0.13 -27.39 1.44
-0.04 -8.42 -1.64
-0.14 -29.98 2.62
-0.05 -10.36 -1.64
-0.14 -30.36 3.73
-0.06 -12.73 -1.56
-0.22 -46.66 7.39
-0.08 -16.16 -1.41
-0.11 -24.31 -1.27
-0.18 -39.11 9.03
-0.13 -26.84 -0.47
-0.22 -27.28 0.48
-0.06 -7.02 -1.62
-0.22 -26.85 1.41
-0.08 -9.42 -1.83
-0.23 -28.04 2.45
-0.08 -10.32 -1.64
-0.25 -30.56 3.75
-0.1 -12.44 -1.53
-0.38 -46.59 7.38
-0.13 -16.18 -1.42
-0.2 -24.3 -1.27
-0.22 -26.39 -0.46
-0.32 -27.01 0.47
-0.08 -6.94 -1.6
-0.31 -26.72 1.4
-0.11 -9.4 -1.83
-0.31 -26.17 2.29
-0.12 -10.34 -1.64
-0.34 -29.05 3.57
-0.15 -12.42 -1.52
-0.54 -46.52 7.37
-0.19 -16.19 -1.42
-0.28 -24.27 -1.27
-0.44 -37.8 8.73
-0.32 -26.96 -0.47
-0.41 -27.11 0.47
-0.1 -6.9 -1.59
-0.41 -26.75 1.4
-0.14 -9.44 -1.84
-0.42 -27.54 2.41
-0.16 -10.38 -1.64
-0.45 -29.66 3.64
-0.19 -12.43 -1.53
-0.44 -29.26 4.63
-0.25 -16.2 -1.42
-0.37 -24.28 -1.27
-0.41 -26.8 -0.47
-0.5 -27.14 0.47
-0.13 -6.78 -1.57
-0.51 -27.36 1.43
-0.18 -9.46 -1.84
-0.5 -26.81 2.35
-0.19 -10.4 -1.65
-0.51 -27.45 3.37
-0.24 -12.91 -1.59
-0.56 -30.35 4.81
-0.3 -16.21 -1.42
-0.45 -24.31 -1.27
-0.49 -26.48 -0.46
-0.65 -29.23 0.51
-0.15 -6.89 -1.59
-0.7 -31.72 1.66
-0.21 -9.48 -1.84
-0.6 -27.01 2.36
-0.23 -10.42 -1.65
-0.63 -28.49 3.5
-0.29 -12.92 -1.59
-0.65 -29.63 4.69
-0.36 -16.22 -1.42
-0.54 -24.32 -1.27
-0.99 -44.67 10.31
-0.58 -26.47 -0.46
-0.7 -27.19 0.47
-0.17 -6.66 -1.54
-0.7 -27.15 1.42
-0.24 -9.48 -1.84
-0.71 -27.57 2.41
-0.27 -10.42 -1.65
-0.7 -27.28 3.35
-0.33 -12.82 -1.57
-0.42 -16.24 -1.42
-0.62 -24.27 -1.27
-1.15 -44.76 10.34
-0.68 -26.59 -0.46
-1.15 -44.66 11.97
-0.88 -29.93 0.52
-0.19 -6.6 -1.52
-0.81 -27.74 1.45
-0.28 -9.48 -1.84
-0.8 -27.51 2.41
-0.31 -10.44 -1.65
-0.8 -27.44 3.37
-0.37 -12.82 -1.57
-0.48 -16.31 -1.43
-0.71 -24.23 -1.27
-1.12 -38.33 8.85
-0.8 -27.23 -0.48
-0.96 -29.54 0.52
-0.22 -6.59 -1.52
-0.89 -27.33 1.43
-0.31 -9.48 -1.84
-0.91 -27.89 2.44
-0.34 -10.44 -1.65
-0.9 -27.44 3.37
-0.42 -12.78 -1.57
-0.95 -29.04 4.6
-0.53 -16.28 -1.42
-0.8 -24.41 -1.28
-0.88 -26.99 -0.47
-1.02 -28.2 0.49
-0.24 -6.56 -1.52
-0.99 -27.19 1.43
-0.34 -9.44 -1.84
-1.02 -28.04 2.45
-0.38 -10.44 -1.65
-0.98 -27.02 3.32
-0.46 -12.81 -1.57
-1.04 -28.66 4.54
-0.59 -16.3 -1.43
-0.89 -24.46 -1.28
-1.08 -27.25 0.48
-0.26 -6.54 -1.51
-1.21 -30.66 1.61
-0.37 -9.41 -1.83
-1.11 -28.01 2.45
-0.41 -10.46 -1.66
-1.07 -27.19 3.34
-0.5 -12.8 -1.57
-0.64 -16.3 -1.43
-0.97 -24.5 -1.29
-1.03 -26.17 -0.46
-1.29 -30.02 0.52
-0.28 -6.55 -1.51
-1.17 -27.21 1.43
-0.41 -9.41 -1.83
-0.45 -10.45 -1.66
-1.16 -27.06 3.33
-0.55 -12.82 -1.58
-1.28 -29.72 4.71
-0.7 -16.3 -1.43
-1.06 -24.54 -1.29
-1.24 -28.84 -0.5
-1.4 -30.06 0.53
-0.3 -6.54 -1.51
-1.27 -27.23 1.43
-0.44 -9.43 -1.84
-1.29 -27.75 2.43
-0.49 -10.46 -1.66
-1.32 -28.38 3.49
-0.6 -12.78 -1.57
-1.34 -28.66 4.54
-0.76 -16.33 -1.43
-1.15 -24.56 -1.29
-1.28 -27.37 -0.48
-1.5 -29.86 0.52
-0.33 -6.58 -1.52
-1.37 -27.23 1.43
-0.47 -9.42 -1.83
-1.37 -27.36 2.4
-0.52 -10.45 -1.66
-1.5 -29.77 3.66
-0.64 -12.7 -1.56
-1.52 -30.2 4.79
-0.82 -16.36 -1.43
-1.23 -24.59 -1.29
-1.54 -30.66 -0.54
-1.44 -26.93 0.47
-0.35 -6.57 -1.52
-1.47 -27.53 1.45
-0.5 -9.42 -1.83
-1.46 -27.36 2.4
-0.56 -10.42 -1.65
-1.57 -29.4 3.62
-0.68 -12.69 -1.56
-1.62 -30.34 4.81
-0.88 -16.37 -1.43
-2.22 -41.46 8.07
-1.32 -24.63 -1.29
-1.47 -27.46 -0.48
-1.57 -27.56 0.48
-0.38 -6.59 -1.52
-1.54 -26.95 1.41
-0.54 -9.47 -1.84
-1.56 -27.27 2.39
-0.59 -10.41 -1.65
-1.7 -29.78 3.66
-0.72 -12.69 -1.56
-1.66 -29.16 4.63
-0.93 -16.38 -1.44
-1.41 -24.69 -1.3
-2.36 -41.37 9.57
-1.6 -28.12 -0.49
-1.67 -27.62 0.48
-0.41 -6.72 -1.55
-1.81 -30 1.57
-0.57 -9.43 -1.84
-1.64 -27.19 2.38
-0.63 -10.4 -1.65
-1.74 -28.83 3.55
-0.76 -12.58 -1.55
-1.81 -29.99 4.76
-0.99 -16.37 -1.43
-2.34 -38.69 7.53
-1.5 -24.73 -1.3
-2.35 -38.86 8.99
-1.64 -27.09 -0.47
-2.36 -38.99 10.47
-1.96 -30.61 0.54
-0.43 -6.7 -1.55
-1.76 -27.51 1.44
-0.61 -9.48 -1.85
-1.76 -27.44 2.41
-0.67 -10.41 -1.65
-1.86 -29 3.57
-0.81 -12.64 -1.55
-2.76 -43.14 6.85
-1.05 -16.37 -1.44
-2.77 -43.23 8.42
-1.58 -24.72 -1.3
-2.64 -41.28 9.55
-1.78 -27.77 -0.49
-1.79 -26.5 0.46
-0.45 -6.69 -1.55
-2.12 -31.45 1.65
-0.64 -9.47 -1.85
-1.83 -27.17 2.38
-0.7 -10.42 -1.65
-1.96 -29.12 3.58
-0.85 -12.59 -1.55
-2.05 -30.38 4.82
-1.1 -16.26 -1.43
-1.67 -24.68 -1.3
-2.78 -41.26 9.55
-1.82 -26.94 -0.47
-2.9 -42.97 11.54
-1.92 -27.02 0.47
-0.47 -6.65 -1.54
-0.67 -9.46 -1.84
-2.23 -31.34 2.75
-0.74 -10.41 -1.65
-2.08 -29.21 3.6
-0.9 -12.6 -1.55
-2.11 -29.68 4.71
-1.15 -16.18 -1.42
-1.76 -24.79 -1.3
-2.06 -29.05 -0.51
-2.29 -30.71 0.54
-0.5 -6.66 -1.54
-2.07 -27.73 1.46
-0.71 -9.49 -1.85
-2.29 -30.71 2.69
-0.78 -10.4 -1.65
-2.28 -30.5 3.76
-0.94 -12.57 -1.55
-2.28 -30.54 4.85
-1.21 -16.17 -1.42
-1.85 -24.83 -1.3
-2.05 -27.46 -0.48
-2.4 -30.71 0.54
-0.52 -6.65 -1.54
-2.39 -30.59 1.61
-0.74 -9.51 -1.85
-2.31 -29.53 2.59
-0.81 -10.38 -1.65
-2.35 -30.05 3.7
-0.98 -12.53 -1.54
-2.4 -30.63 4.87
-1.27 -16.2 -1.42
-1.94 -24.79 -1.3
-4.49 -57.35 13.28
-2.25 -28.74 -0.5
-2.22 -27.15 0.48
-0.54 -6.66 -1.54
-2.41 -29.51 1.55
-0.78 -9.52 -1.86
-2.41 -29.54 2.59
-0.85 -10.37 -1.65
-2.48 -30.35 3.74
-1.03 -12.57 -1.55
-4.29 -52.51 8.34
-1.33 -16.22 -1.42
-2.03 -24.86 -1.31
-2.63 -32.22 -0.56
-2.33 -27.3 0.48
-0.57 -6.72 -1.56
-2.61 -30.62 1.61
-0.81 -9.49 -1.85
-2.6 -30.54 2.68
-0.88 -10.37 -1.65
-2.58 -30.3 3.73
-1.07 -12.57 -1.55
-2.6 -30.53 4.85
-1.38 -16.15 -1.42
-4.46 -52.35 10.21
-2.12 -24.9 -1.31
-2.75 -32.19 -0.56
-2.53 -28.61 0.5
-0.6 -6.78 -1.57
-2.39 -26.96 1.42
-0.84 -9.43 -1.84
-2.7 -30.53 2.68
-0.92 -10.4 -1.65
-2.67 -30.18 3.72
-1.11 -12.59 -1.55
-2.75 -31.09 4.94
-1.45 -16.39 -1.44
-2.21 -24.95 -1.31
-2.85 -32.23 -0.56
-0.63 -6.79 -1.58
-2.68 -29.08 1.53
-0.87 -9.42 -1.84
-2.71 -29.41 2.58
-0.96 -10.42 -1.66
-2.83 -30.66 3.78
-1.17 -12.7 -1.57
-2.85 -30.95 4.92
-1.5 -16.31 -1.43
-2.3 -25.01 -1.32
-4.9 -53.21 12.34
-2.52 -27.38 -0.48
-2.68 -27.96 0.49
-0.65 -6.79 -1.57
-0.9 -9.4 -1.84
-2.6 -27.13 2.38
-1 -10.42 -1.66
-3.01 -31.39 3.87
-1.23 -12.83 -1.58
-1.56 -16.28 -1.43
-5.08 -53.08 10.37
-2.4 -25.05 -1.32
-2.76 -28.79 -0.5
-3.25 -32.75 0.57
-0.67 -6.77 -1.57
-2.86 -28.76 1.51
-0.93 -9.4 -1.84
-2.96 -29.78 2.62
-1.04 -10.42 -1.66
-3.09 -31.05 3.83
-1.28 -12.89 -1.59
-5.29 -53.18 8.46
-1.62 -16.29 -1.43
-2.49 -25.09 -1.32
-2.83 -27.6 0.48
-0.69 -6.76 -1.57
-2.92 -28.49 1.5
-0.96 -9.4 -1.84
-3.04 -29.71 2.61
-1.07 -10.42 -1.66
-2.95 -28.78 3.55
-1.31 -12.79 -1.58
-5.44 -53.07 8.45
-1.65 -16.09 -1.42
-2.57 -25.12 -1.32
-3.04 -29.63 -0.52
-2.92 -27.54 0.48
-0.72 -6.78 -1.57
-3.04 -28.62 1.51
-1 -9.4 -1.84
-3.07 -28.91 2.54
-1.11 -10.43 -1.66
-3.15 -29.63 3.66
-1.35 -12.75 -1.57
-5.52 -51.95 8.27
-1.7 -15.99 -1.41
-2.67 -25.17 -1.33
-5.61 -52.88 12.28
-3.18 -29.98 -0.53
-0.74 -6.69 -1.55
-3.33 -30.33 1.6
-1.04 -9.43 -1.84
-3.29 -29.92 2.63
-1.15 -10.42 -1.66
-3.25 -29.54 3.65
-1.4 -12.75 -1.57
-1.77 -16.09 -1.42
-5.65 -51.44 10.06
-2.77 -25.18 -1.33
-5.81 -52.92 12.29
-3.34 -29.37 0.52
-1.08 -9.51 -1.86
-4.73 -41.66 3.67
-1.19 -10.48 -1.67
-3.45 -30.42 3.76
-1.44 -12.72 -1.57
-5.98 -52.68 8.4
-1.85 -16.27 -1.43
-5.88 -51.77 10.13
-2.87 -25.23 -1.33
-3.32 -29.26 -0.51
-3.19 -27.33 0.48
-3.33 -28.54 1.51
-1.11 -9.51 -1.86
-3.5 -30.01 2.64
-1.22 -10.5 -1.67
-4.85 -41.57 5.14
-1.49 -12.74 -1.57
-4.85 -41.6 6.63
-1.9 -16.29 -1.43
-4.85 -41.6 8.14
-2.94 -25.25 -1.33
-4.83 -41.45 9.63
-3.39 -29.04 -0.51
-4.83 -41.39 11.16
-3.92 -32.58 0.57
-1.13 -9.43 -1.85
-3.81 -31.63 2.79
-1.27 -10.53 -1.68
-5.33 -44.28 5.48
-1.55 -12.89 -1.59
-6.2 -51.53 8.22
-1.96 -16.31 -1.44
-3.04 -25.27 -1.33
-6.17 -51.31 11.93
-3.78 -31.44 -0.55
-5.15 -41.54 0.73
-1.17 -9.41 -1.84
-3.74 -30.22 2.66
-1.3 -10.53 -1.68
-5.48 -44.26 5.48
-1.59 -12.86 -1.59
-6.39 -51.6 8.24
-2.04 -16.44 -1.45
-6.41 -51.75 10.14
-3.13 -25.29 -1.34
-6.38 -51.52 11.98
-3.59 -28.95 -0.51
-4.05 -31.73 0.56
-4.01 -31.4 1.66
-1.2 -9.43 -1.85
-3.88 -30.38 2.68
-1.34 -10.51 -1.68
-6.66 -52.23 6.46
-1.63 -12.76 -1.58
-6.65 -52.17 8.33
-2.09 -16.41 -1.45
-3.23 -25.31 -1.34
-5.27 -41.34 9.62
-4.26 -33.4 -0.59
-3.83 -29.23 0.51
-4.12 -31.46 1.66
-1.24 -9.44 -1.85
-4 -30.49 2.69
-1.37 -10.48 -1.67
-6.7 -51.09 6.33
-1.67 -12.75 -1.58
-6.75 -51.46 8.22
-2.14 -16.32 -1.44
-6.73 -51.31 10.06
-3.32 -25.33 -1.34
-6.85 -52.21 12.16
-3.9 -29.74 -0.52
-4.2 -31.12 0.55
-1.27 -9.44 -1.85
-4.08 -30.28 2.67
-1.41 -10.49 -1.68
-6.84 -50.69 6.28
-1.72 -12.79 -1.58
-2.2 -16.29 -1.44
-3.42 -25.34 -1.34
-4 -29.65 -0.52
-5.53 -40.99 11.08
-4.1 -29.67 0.52
-4.38 -31.65 1.67
-1.31 -9.46 -1.86
-1.45 -10.5 -1.68
-7 -50.64 6.28
-1.77 -12.8 -1.59
-7.01 -50.72 8.11
-2.26 -16.36 -1.44
-3.5 -25.34 -1.34
-7 -50.62 11.8
-4.63 -33.47 -0.59
-4.38 -30.87 0.54
-4.78 -33.64 1.78
-1.34 -9.47 -1.86
-4.74 -33.4 2.95
-1.49 -10.51 -1.68
-4.41 -31.07 3.85
-1.81 -12.72 -1.58
-7.16 -50.43 8.07
-2.32 -16.37 -1.45
-7.39 -52.09 10.23
-3.6 -25.37 -1.34
-4.17 -29.4 -0.52
-4.47 -30.74 1.63
-1.38 -9.47 -1.86
-4.32 -29.74 2.63
-1.52 -10.49 -1.68
-7.39 -50.87 6.31
-1.85 -12.7 -1.58
-7.33 -50.4 8.07
-2.38 -16.35 -1.45
-7.52 -51.72 10.16
-3.69 -25.38 -1.34
-4.41 -30.34 -0.54
-4.36 -29.22 0.52
-1.41 -9.49 -1.86
-4.64 -31.13 2.75
-1.57 -10.5 -1.68
-1.89 -12.68 -1.57
-7.93 -53.22 8.52
-2.41 -16.14 -1.43
-7.72 -51.77 10.17
-3.78 -25.37 -1.34
-5.01 -33.63 -0.59
-4.59 -30.17 0.53
-7.29 -47.95 2.54
-1.45 -9.5 -1.87
-4.65 -30.57 2.7
-1.59 -10.46 -1.68
-7.93 -52.13 6.47
-1.93 -12.68 -1.58
-2.44 -16.03 -1.42
-3.86 -25.38 -1.35
-5.17 -33.98 -0.6
-4.65 -29.82 0.53
-4.72 -30.31 1.61
-1.49 -9.53 -1.88
-4.76 -30.56 2.71
-1.64 -10.5 -1.68
-4.73 -30.31 3.77
-1.98 -12.67 -1.58
-2.5 -16.04 -1.42
-8.06 -51.72 10.17
-3.96 -25.41 -1.35
-5.22 -33.51 -0.59
-4.64 -29.13 0.51
-6.23 -39.09 2.07
-1.52 -9.54 -1.88
-4.86 -30.45 2.7
-1.68 -10.52 -1.69
-2.02 -12.66 -1.57
-2.56 -16.07 -1.42
-4.05 -25.42 -1.35
-5.37 -33.69 -0.6
-5.94 -36.4 0.64
-6.25 -38.27 2.03
-1.56 -9.56 -1.88
-6.23 -38.15 3.38
-1.71 -10.48 -1.68
-6.33 -38.78 4.82
-2.07 -12.7 -1.58
-2.62 -16.04 -1.42
-4.15 -25.45 -1.35
-6.57 -40.25 9.42
-5.49 -33.65 -0.6
-5.85 -35.17 0.62
-6.45 -38.77 2.06
-1.59 -9.58 -1.89
-6.47 -38.85 3.45
-1.74 -10.47 -1.68
-5.01 -30.1 3.75
-2.09 -12.58 -1.57
-2.67 -16.03 -1.42
-4.24 -25.48 -1.35
-5.61 -33.73 -0.6
-5.59 -32.86 0.58
-6.56 -38.53 2.05
-1.58 -9.28 -1.83
-6.6 -38.77 3.44
-1.78 -10.47 -1.68
-5.21 -30.59 3.81
-2.14 -12.55 -1.56
-2.76 -16.21 -1.44
-4.34 -25.5 -1.36
-5.79 -34 -0.6
-6.26 -36.02 0.64
-6.61 -38.05 2.02
-1.62 -9.32 -1.84
-6.73 -38.7 3.44
-1.82 -10.47 -1.68
-5.31 -30.55 3.81
-2.18 -12.56 -1.57
-2.82 -16.2 -1.44
-4.44 -25.53 -1.36
-5.71 -32.83 -0.58
-5.36 -30.17 0.53
-6.73 -37.91 2.02
-1.63 -9.19 -1.81
-6.88 -38.73 3.44
-1.86 -10.49 -1.69
-10.4 -58.55 7.3
-2.24 -12.62 -1.57
-10.37 -58.37 9.39
-2.87 -16.16 -1.44
-4.54 -25.59 -1.36
-5.72 -32.22 -0.57
-5.43 -30.02 0.53
-6.86 -37.89 2.02
-1.65 -9.09 -1.8
-7.02 -38.78 3.45
-1.9 -10.48 -1.69
-10.7 -59.1 7.37
-2.3 -12.7 -1.59
-2.92 -16.14 -1.43
-4.63 -25.6 -1.36
-6.05 -33.43 -0.59
-5.94 -32.17 0.57
-7.14 -38.62 2.06
-1.68 -9.09 -1.8
-1.94 -10.47 -1.69
-2.33 -12.58 -1.57
-10.9 -58.99 9.5
-2.99 -16.16 -1.44
-4.73 -25.62 -1.37
-5.94 -32.14 -0.57
-5.73 -30.48 0.54
-7.27 -38.67 2.06
-1.71 -9.11 -1.8
-1.97 -10.47 -1.69
-8.9 -47.3 5.91
-2.37 -12.58 -1.57
-3.04 -16.16 -1.44
-4.82 -25.63 -1.37
-9.23 -49.11 11.54
-5.75 -30.55 -0.54
-6.09 -31.79 0.56
-6.91 -36.06 1.92
-1.75 -9.12 -1.8
-6.12 -31.96 2.85
-2.01 -10.47 -1.69
-11.33 -59.15 7.39
-2.41 -12.59 -1.57
-9.29 -48.48 7.82
-3.09 -16.15 -1.44
-4.91 -25.63 -1.37
-5.85 -30.55 -0.54
-5.88 -30.16 0.54
-6.19 -31.7 1.69
-1.78 -9.11 -1.8
-6.17 -31.65 2.82
-2.04 -10.48 -1.69
-9.26 -47.47 5.94
-2.47 -12.66 -1.58
-9.46 -48.47 7.82
-3.15 -16.14 -1.44
-5 -25.65 -1.37
-5.77 -29.59 -0.53
-6.49 -32.68 0.58
-5.96 -29.99 1.6
-1.84 -9.27 -1.84
-10.84 -54.56 4.87
-2.08 -10.49 -1.69
-10.81 -54.44 6.81
-2.51 -12.65 -1.58
-10.79 -54.32 8.77
-3.21 -16.14 -1.44
-5.1 -25.66 -1.37
-6.37 -32.08 -0.57
-5.96 -29.44 0.52
-6.05 -29.92 1.6
-1.88 -9.27 -1.84
-6.07 -29.98 2.68
-2.12 -10.46 -1.69
-2.56 -12.64 -1.58
-3.28 -16.19 -1.44
-5.2 -25.68 -1.37
-5.92 -29.28 -0.52
-6.92 -33.61 0.6
-6.11 -29.65 1.59
-1.92 -9.33 -1.85
-11.48 -55.75 4.98
-2.15 -10.45 -1.69
-9.95 -48.33 6.06
-2.6 -12.64 -1.58
-9.97 -48.4 7.83
-3.37 -16.36 -1.46
-5.29 -25.67 -1.37
-10 -48.58 11.45
-6.27 -30.46 -0.54
-7.38 -35.19 0.63
-6.75 -32.22 1.73
-1.95 -9.3 -1.85
-6.16 -29.37 2.62
-2.19 -10.44 -1.69
-11.93 -56.88 7.14
-2.64 -12.61 -1.58
-10.05 -47.94 7.76
-3.45 -16.46 -1.47
-5.38 -25.69 -1.38
-6.09 -29.04 -0.52
-7.19 -33.73 0.6
-1.98 -9.3 -1.85
-10.27 -48.16 4.31
-2.23 -10.45 -1.69
-12.16 -57.04 7.16
-2.72 -12.75 -1.6
-3.49 -16.35 -1.46
-5.48 -25.69 -1.38
-7.4 -34.09 0.61
-7.31 -33.69 1.81
-2.03 -9.35 -1.86
-6.49 -29.89 2.68
-2.26 -10.43 -1.69
-10.39 -47.92 6.02
-2.78 -12.81 -1.61
-3.59 -16.55 -1.48
-5.57 -25.69 -1.38
-6.72 -30.46 0.54
-7.02 -31.83 1.71
-2.06 -9.32 -1.86
-7.4 -33.58 3.01
-2.29 -10.4 -1.69
-12.5 -56.7 7.13
-2.81 -12.75 -1.6
-10.59 -48.03 7.79
-3.62 -16.42 -1.47
-5.66 -25.68 -1.38
-6.87 -31.14 -0.56
-7.27 -32.41 0.58
-2.14 -9.52 -1.9
-2.34 -10.43 -1.69
-12.01 -53.54 6.74
-2.85 -12.73 -1.6
-3.62 -16.16 -1.45
-5.77 -25.71 -1.38
-7.35 -32.75 -0.59
-6.56 -28.8 1.55
-2.16 -9.48 -1.89
-10.28 -45.1 4.05
-2.38 -10.44 -1.7
-12.56 -55.13 6.94
-2.91 -12.77 -1.61
-11 -48.26 7.84
-3.68 -16.15 -1.45
-5.86 -25.73 -1.38
-10.94 -48 11.36
-7.61 -33.41 -0.6
-7.7 -33.27 0.6
-2.13 -9.19 -1.83
-2.42 -10.45 -1.7
-10.45 -45.13 5.69
-2.95 -12.75 -1.61
-10.44 -45.06 7.33
-3.75 -16.19 -1.45
-5.96 -25.74 -1.38
-7.79 -33.63 -0.6
-6.78 -28.83 0.52
-6.77 -28.77 1.55
-2.18 -9.27 -1.85
-12.4 -52.73 4.74
-2.44 -10.39 -1.69
-2.97 -12.63 -1.59
-3.81 -16.22 -1.46
-10.56 -44.91 8.97
-6.04 -25.69 -1.38
-10.6 -45.07 10.69
-10.57 -44.94 12.37
-6.96 -29.11 0.52
-7.69 -32.17 1.73
-2.21 -9.26 -1.85
-6.87 -28.75 2.59
-2.49 -10.42 -1.7
-3 -12.56 -1.59
-12.12 -50.67 8.25
-3.91 -16.34 -1.47
-6.15 -25.73 -1.39
-7.49 -31.33 -0.56
-7.93 -32.65 0.59
-7.89 -32.49 1.75
-2.21 -9.11 -1.82
-2.54 -10.45 -1.7
-3.05 -12.57 -1.59
-13.05 -53.75 8.76
-3.99 -16.43 -1.48
-7.16 -29.49 -0.53
-7.95 -32.25 0.58
-7.1 -28.81 1.55
-2.29 -9.3 -1.86
-2.58 -10.48 -1.71
-12.61 -51.19 6.47
-3.09 -12.55 -1.59
-4.04 -16.39 -1.48
-6.33 -25.7 -1.39
-7.62 -30.91 -0.56
-7.29 -29.15 0.52
-2.28 -9.12 -1.83
-2.62 -10.47 -1.71
-11.57 -46.27 5.86
-3.14 -12.57 -1.59
-11.96 -47.86 7.81
-4.07 -16.27 -1.47
-6.42 -25.68 -1.39
-7.37 -29.49 -0.53
-7.43 -29.29 0.53
-7.34 -28.92 1.56
-2.27 -8.95 -1.8
-7.25 -28.58 2.58
-2.65 -10.45 -1.71
-13.87 -54.63 6.92
-3.18 -12.54 -1.59
-4.11 -16.19 -1.46
-6.51 -25.67 -1.39
-7.5 -29.54 -0.53
-7.46 -28.97 0.52
-7.46 -28.99 1.57
-2.3 -8.94 -1.79
-2.68 -10.42 -1.7
-13.21 -51.3 6.5
-3.23 -12.53 -1.59
-4.25 -16.5 -1.49
-6.61 -25.66 -1.39
-7.57 -29.42 -0.53
-8.32 -31.85 0.57
-8.52 -32.6 1.77
-2.34 -8.94 -1.8
-2.73 -10.44 -1.71
-3.28 -12.54 -1.59
-4.29 -16.43 -1.49
-6.7 -25.64 -1.39
-7.74 -29.62 -0.53
-8.67 -32.74 0.59
-8.37 -31.6 1.71
-2.37 -8.94 -1.8
-8.29 -31.3 2.83
-2.77 -10.46 -1.71
-8.17 -30.84 3.92
-3.32 -12.54 -1.59
-4.33 -16.33 -1.48
-6.79 -25.62 -1.39
-8.63 -32.13 0.58
-7.81 -29.07 1.58
-2.43 -9.03 -1.82
-7.73 -28.75 2.6
-2.81 -10.46 -1.72
-8.46 -31.48 4
-3.37 -12.55 -1.6
-14.98 -55.74 9.14
-4.38 -16.3 -1.48
-6.88 -25.62 -1.39
-8.63 -32.14 -0.58
-8.84 -32.45 0.59
-8.59 -31.54 1.71
-2.5 -9.19 -1.85
-2.84 -10.42 -1.71
-3.41 -12.54 -1.6
-4.45 -16.33 -1.48
-6.98 -25.63 -1.39
-9.58 -35.18 -0.64
-8.77 -31.74 0.57
-7.94 -28.73 1.56
-2.58 -9.32 -1.88
-7.94 -28.74 2.61
-2.88 -10.42 -1.71
-3.46 -12.52 -1.6
-4.5 -16.29 -1.48
-7.07 -25.57 -1.39
-9.06 -32.35 0.59
-7.99 -28.52 1.55
-2.62 -9.34 -1.89
-2.92 -10.44 -1.72
-8.78 -31.34 4
-3.51 -12.52 -1.6
-4.54 -16.2 -1.47
-7.16 -25.56 -1.39
-8.26 -29.48 -0.53
-9.17 -32.3 0.59
-8.11 -28.58 1.56
-2.66 -9.36 -1.89
-2.96 -10.44 -1.72
-3.56 -12.54 -1.6
-4.6 -16.21 -1.47
-7.25 -25.53 -1.39
-8.9 -31.35 -0.57
-9.56 -33.22 0.6
-8.19 -28.45 1.55
-2.67 -9.27 -1.87
-12.58 -43.74 3.98
-2.99 -10.41 -1.72
-8.99 -31.25 3.99
-3.61 -12.54 -1.6
-4.66 -16.19 -1.47
-7.33 -25.49 -1.39
-8.84 -30.74 -0.56
-9.4 -32.27 0.59
-9.19 -31.54 1.72
-2.46 -8.43 -1.71
-14.35 -49.27 4.49
-3.02 -10.36 -1.71
-3.65 -12.51 -1.6
-16.34 -56.1 9.26
-4.7 -16.15 -1.47
-7.41 -25.44 -1.39
-9.09 -31.19 -0.57
-9.85 -33.39 0.61
-9.25 -31.36 1.71
-2.73 -9.26 -1.88
-3.03 -10.26 -1.69
-3.7 -12.55 -1.61
-16.5 -55.93 9.24
-4.77 -16.15 -1.47
-7.5 -25.42 -1.39
-8.75 -29.66 -0.54
-10 -33.45 0.61
-9.36 -31.32 1.71
-2.75 -9.22 -1.87
-3.08 -10.31 -1.7
-12.75 -42.66 5.47
-3.74 -12.52 -1.6
-4.84 -16.18 -1.48
-7.59 -25.4 -1.39
-8.91 -29.8 -0.54
-10.18 -33.64 0.61
-9.47 -31.3 1.71
-2.78 -9.17 -1.86
-9.35 -30.9 2.82
-3.11 -10.27 -1.7
-14.56 -48.09 6.17
-3.78 -12.49 -1.6
-14.18 -46.84 7.75
-4.91 -16.23 -1.48
-7.68 -25.37 -1.39
-12.84 -42.44 10.24
-10.54 -34.83 -0.64
-10.24 -33.42 0.61
-9.51 -31.04 1.7
-2.77 -9.05 -1.84
-17 -55.47 5.08
-3.15 -10.27 -1.7
-17.28 -56.37 7.24
-3.83 -12.5 -1.6
-5.02 -16.39 -1.5
-7.79 -25.4 -1.39
-9.46 -30.85 -0.56
-10.23 -32.96 0.6
-9.71 -31.3 1.72
-2.8 -9.03 -1.84
-16.32 -52.6 4.82
-3.17 -10.21 -1.69
-16.69 -53.8 6.92
-3.88 -12.51 -1.61
-5.11 -16.48 -1.51
-13.83 -44.56 9.07
-7.85 -25.29 -1.39
-10.77 -34.72 -0.63
-10.33 -32.89 0.6
-9.84 -31.34 1.72
-2.8 -8.93 -1.82
-16.43 -52.32 4.8
-3.2 -10.19 -1.69
-16.9 -53.82 6.93
-3.95 -12.58 -1.62
-16.79 -53.47 8.88
-5.18 -16.51 -1.51
-7.94 -25.29 -1.39
-10.47 -32.94 0.6
-9.95 -31.33 1.72
-2.81 -8.85 -1.81
-3.25 -10.21 -1.7
-3.98 -12.52 -1.61
-15.29 -48.1 7.99
-5.24 -16.48 -1.51
-8.04 -25.3 -1.39
-9.71 -30.56 -0.56
-10.55 -32.79 0.6
-10.07 -31.29 1.72
-2.83 -8.79 -1.8
-14.03 -43.61 4.01
-3.32 -10.32 -1.72
-14 -43.53 5.62
-4.02 -12.48 -1.61
-5.28 -16.41 -1.51
-8.11 -25.2 -1.39
-11.06 -34.4 -0.63
-10.59 -32.54 0.6
-10.14 -31.15 1.72
-2.85 -8.77 -1.79
-14.18 -43.55 4.01
-3.37 -10.35 -1.72
-14.15 -43.46 5.61
-4.09 -12.57 -1.62
-14.14 -43.46 7.24
-5.32 -16.35 -1.5
-8.22 -25.26 -1.39
-14.19 -43.58 10.58
-10.9 -33.48 -0.61
-9.75 -29.6 0.54
-10.8 -32.81 1.81
-2.89 -8.77 -1.79
-3.41 -10.35 -1.73
-15.73 -47.75 6.17
-4.15 -12.61 -1.63
-15.8 -47.98 8
-5.38 -16.32 -1.5
-8.31 -25.23 -1.39
-10.89 -33.05 -0.61
-14.32 -43.48 12.27
-2.93 -8.8 -1.8
-16.91 -50.76 4.68
-3.45 -10.34 -1.73
-4.19 -12.59 -1.63
-17.54 -52.63 8.79
-5.43 -16.28 -1.5
-14.44 -43.33 8.88
-8.41 -25.24 -1.39
-10.3 -30.91 -0.57
-11.75 -34.83 0.64
-17.18 -50.93 2.82
-3.03 -8.97 -1.84
-3.49 -10.33 -1.73
-15.9 -47.14 6.11
-4.23 -12.55 -1.63
-18.61 -55.16 9.22
-5.53 -16.38 -1.51
-8.51 -25.22 -1.39
-11.77 -34.48 1.91
-3.05 -8.93 -1.83
-3.52 -10.32 -1.73
-4.27 -12.51 -1.62
-5.58 -16.34 -1.51
-8.61 -25.24 -1.4
-11.56 -33.88 -0.62
-3.04 -8.79 -1.81
-18.13 -52.54 4.86
-3.56 -10.31 -1.73
-4.32 -12.52 -1.63
-18.46 -53.48 8.96
-5.69 -16.48 -1.53
-8.71 -25.24 -1.4
-14.85 -43.02 10.51
-11.1 -31.81 0.59
-17.97 -51.5 2.86
-3.04 -8.7 -1.79
-4.38 -12.56 -1.63
-18.66 -53.47 8.97
-5.79 -16.58 -1.54
-8.8 -25.22 -1.4
-10.74 -30.78 -0.57
-11.95 -33.85 0.63
-18.26 -51.74 2.88
-3.05 -8.64 -1.78
-3.64 -10.3 -1.73
-4.47 -12.67 -1.65
-5.88 -16.67 -1.55
-8.89 -25.18 -1.4
-11.26 -31.89 -0.59
-15.11 -42.8 12.16
-11.64 -32.62 0.6
-11.63 -32.58 1.81
-3.08 -8.63 -1.78
-18.66 -52.29 4.86
-3.67 -10.29 -1.73
-18.8 -52.67 6.87
-4.52 -12.67 -1.65
-5.83 -16.34 -1.52
-8.98 -25.17 -1.4
-10.86 -30.44 -0.56
-10.76 -29.84 1.66
-3.1 -8.58 -1.77
-18.94 -52.52 4.88
-3.72 -10.32 -1.74
-19.1 -52.96 6.91
-4.54 -12.58 -1.64
-15.73 -43.62 7.34
-5.9 -16.36 -1.52
-9.07 -25.15 -1.4
-11.17 -30.97 -0.57
-3.18 -8.73 -1.81
-19.09 -52.36 4.88
-3.77 -10.34 -1.74
-4.58 -12.56 -1.64
-5.99 -16.43 -1.53
-9.17 -25.14 -1.4
-11.43 -31.35 -0.58
-3.19 -8.66 -1.8
-3.81 -10.33 -1.74
-15.83 -42.93 5.62
-4.62 -12.54 -1.64
-16.02 -43.45 7.33
-6.04 -16.39 -1.53
-19.47 -52.79 10.94
-9.28 -25.17 -1.41
-11.14 -30.23 -0.56
-11.27 -30.26 0.56
-3.16 -8.49 -1.76
-3.85 -10.32 -1.74
-4.68 -12.56 -1.65
-6.21 -16.66 -1.56
-9.37 -25.16 -1.41
-11.27 -30.24 -0.56
-11.39 -30.27 0.56
-11.23 -29.82 1.67
-3.17 -8.43 -1.75
-16.19 -43.01 4.02
-3.89 -10.33 -1.75
-4.76 -12.65 -1.66
-6.11 -16.23 -1.52
-9.47 -25.16 -1.41
-11.46 -30.44 -0.57
-11.51 -30.26 0.57
-11.21 -29.47 1.65
-3.21 -8.44 -1.76
-16.31 -42.88 5.63
-4.77 -12.53 -1.65
-6.2 -16.31 -1.53
-9.56 -25.14 -1.41
-20.26 -53.27 13.16
-11.36 -29.52 1.66
-2.79 -7.25 -1.51
-4 -10.4 -1.77
-4.8 -12.49 -1.64
-16.47 -42.81 7.26
-6.4 -16.64 -1.56
-9.66 -25.11 -1.41
-11.54 -30.01 -0.56
-11.63 -29.92 0.56
-2.95 -7.6 -1.58
-4.04 -10.4 -1.77
-16.37 -42.12 5.55
-4.85 -12.47 -1.64
-6.48 -16.68 -1.57
-9.74 -25.07 -1.41
-11.56 -29.46 0.55
-12.11 -30.85 1.74
-3.27 -8.32 -1.74
-4.08 -10.39 -1.77
-15.8 -40.26 5.31
-4.89 -12.46 -1.64
-6.59 -16.78 -1.58
-16.73 -42.63 8.9
-9.84 -25.06 -1.41
-11.89 -30.3 -0.57
-11.8 -29.78 0.56
-12.12 -30.58 1.72
-2.99 -7.54 -1.58
-21.31 -53.75 5.06
-4.13 -10.41 -1.77
-20.16 -50.86 6.72
-4.92 -12.41 -1.64
-21.09 -53.2 9.06
-6.64 -16.75 -1.58
-9.92 -25.03 -1.41
-16.9 -42.63 10.59
-11.93 -30.09 -0.56
-11.7 -29.2 0.55
-22.93 -57.25 3.23
-3.31 -8.26 -1.73
-16.29 -40.67 3.83
-4.18 -10.42 -1.78
-16.26 -40.58 5.37
-4.95 -12.37 -1.64
-6.74 -16.83 -1.59
-10.02 -25.02 -1.41
-17.1 -42.69 10.62
-12.77 -31.89 -0.6
-17.02 -42.49 12.26
-12.83 -31.73 0.6
-12.33 -30.47 1.72
-3.33 -8.23 -1.73
-18.89 -46.7 4.41
-3.94 -9.75 -1.67
-18.86 -46.63 6.18
-5.03 -12.44 -1.65
-16.21 -40.06 6.84
-6.8 -16.81 -1.59
-10.12 -25.01 -1.41
-12.6 -31.14 -0.59
-11.92 -29.15 0.55
-12.59 -30.8 1.74
-3.32 -8.13 -1.71
-3.98 -9.73 -1.66
-16.5 -40.36 5.35
-5.09 -12.44 -1.65
-19.06 -46.63 7.98
-6.83 -16.71 -1.58
-10.22 -25 -1.42
-11.98 -29.02 1.65
-3.33 -8.06 -1.69
-4.3 -10.43 -1.79
-5.16 -12.49 -1.66
-16.59 -40.19 6.89
-6.88 -16.67 -1.58
-16.48 -39.93 8.4
-10.31 -24.97 -1.42
-13.03 -31.58 -0.6
-13.21 -31.7 1.8
-3.18 -7.62 -1.6
-4 -9.59 -1.65
-5.21 -12.49 -1.66
-16.4 -39.34 6.75
-6.93 -16.63 -1.58
-10.4 -24.94 -1.42
-13.99 -33.56 -0.63
-13.25 -31.48 0.6
-18.44 -43.81 2.49
-3.21 -7.62 -1.61
-18.46 -43.85 4.16
-4.2 -9.99 -1.72
-5.27 -12.51 -1.67
-15.62 -37.11 6.38
-6.95 -16.51 -1.57
-10.49 -24.92 -1.42
-14.09 -33.47 -0.63
-17.88 -42.48 12.35
-12.6 -29.65 0.56
-12.21 -28.71 1.64
-3.24 -7.62 -1.61
-18.57 -43.69 4.15
-21.44 -50.44 6.73
-5.33 -12.55 -1.67
-15.77 -37.1 6.38
-7.14 -16.79 -1.6
-10.61 -24.95 -1.42
-14.2 -33.39 -0.63
-12.82 -29.87 0.57
-3.27 -7.62 -1.61
-4.42 -10.3 -1.78
-18.74 -43.67 5.84
-5.4 -12.58 -1.68
-15.93 -37.12 6.4
-7.23 -16.85 -1.6
-10.69 -24.91 -1.42
-13.42 -31.28 -0.59
-21.69 -50.05 0.95
-13.16 -30.37 1.73
-3.31 -7.64 -1.62
-4.49 -10.35 -1.79
-5.45 -12.57 -1.68
-15.94 -36.79 6.35
-7.27 -16.78 -1.6
-10.78 -24.88 -1.42
-13.38 -30.87 -0.59
-21.04 -48.09 0.92
-3.34 -7.62 -1.62
-4.52 -10.34 -1.79
-5.5 -12.58 -1.69
-15.67 -35.82 6.19
-7.33 -16.77 -1.6
-10.88 -24.87 -1.42
-13.74 -31.11 0.59
-3.37 -7.63 -1.62
-4.48 -10.15 -1.76
-21.23 -48.07 6.45
-5.58 -12.63 -1.69
-15.69 -35.52 6.15
-7.42 -16.8 -1.61
-19.26 -43.61 9.27
-10.97 -24.83 -1.42
-13.93 -31.53 -0.6
-16.94 -38.36 11.24
-14.09 -31.62 0.6
-13.43 -30.13 1.73
-3.39 -7.61 -1.62
-22.73 -50.99 4.88
-4.59 -10.29 -1.78
-22.84 -51.24 6.89
-5.64 -12.65 -1.7
-15.9 -35.67 6.19
-7.48 -16.79 -1.61
-11.06 -24.81 -1.42
-15.24 -34.18 -0.65
-13.95 -30.99 0.59
-13.74 -30.53 1.75
-3.42 -7.61 -1.62
-4.35 -9.66 -1.68
-15.92 -35.38 4.76
-5.68 -12.62 -1.7
-16.02 -35.6 6.18
-7.55 -16.77 -1.61
-11.19 -24.85 -1.43
-21.51 -47.79 12.1
-13.85 -30.77 -0.59
-14.36 -31.63 0.61
-3.42 -7.53 -1.61
-4.77 -10.51 -1.83
-16.36 -36.01 4.86
-5.72 -12.6 -1.7
-16.16 -35.59 6.19
-7.59 -16.72 -1.61
-11.28 -24.83 -1.43
-14.28 -31.45 -0.6
-14.44 -31.49 1.82
-3.46 -7.55 -1.61
-27.8 -60.64 5.84
-16.43 -35.84 4.84
-5.76 -12.57 -1.7
-16.38 -35.74 6.23
-7.68 -16.76 -1.61
-11.37 -24.81 -1.43
-17.04 -37.17 9.44
-14.28 -31.15 -0.6
-17.62 -38.43 11.33
-14.07 -30.42 0.59
-3.48 -7.53 -1.61
-24.01 -51.91 5
-16.65 -35.98 4.87
-5.82 -12.59 -1.7
-17.59 -38.02 6.63
-7.74 -16.73 -1.61
-11.46 -24.78 -1.43
-17.7 -38.27 9.73
-17.08 -36.93 10.9
-18.22 -39.03 3.77
-4.44 -9.5 -1.66
-16.47 -35.27 4.78
-5.84 -12.5 -1.69
-17.74 -37.98 6.64
-7.8 -16.71 -1.61
-16.78 -35.95 7.71
-11.57 -24.78 -1.43
-17.31 -37.06 9.44
-14.13 -30.27 -0.58
-14.16 -30.07 0.58
-3.55 -7.54 -1.62
-18.36 -38.98 3.77
-4.51 -9.58 -1.68
-16.74 -35.54 4.82
-5.87 -12.46 -1.69
-7.88 -16.73 -1.62
-16.89 -35.87 7.71
-11.64 -24.7 -1.43
-14.67 -31.15 -0.6
-14.38 -30.27 0.59
-16.56 -34.85 2.02
-3.57 -7.51 -1.62
-18.42 -38.78 3.76
-4.58 -9.64 -1.69
-16.91 -35.59 4.84
-5.91 -12.43 -1.69
-18.27 -38.47 6.75
-7.97 -16.78 -1.63
-17.07 -35.94 7.73
-11.73 -24.69 -1.43
-17.51 -36.86 9.42
-14.45 -30.41 -0.59
-16.55 -34.54 2.01
-3.59 -7.49 -1.61
-18.59 -38.81 3.76
-4.62 -9.63 -1.69
-17.14 -35.77 4.87
-5.95 -12.41 -1.69
-17.85 -37.26 6.54
-8 -16.7 -1.62
-11.82 -24.67 -1.43
-17.55 -36.62 9.38
-17.44 -36.4 -0.7
-17.5 -36.53 10.85
-18.37 -37.95 2.21
-3.62 -7.48 -1.62
-18.04 -37.27 3.62
-4.61 -9.52 -1.67
-17.5 -36.15 4.93
-5.97 -12.33 -1.68
-18 -37.17 6.54
-8.08 -16.69 -1.62
-18.26 -37.73 8.15
-11.94 -24.68 -1.44
-19.31 -39.89 10.23
-17.56 -36.27 10.8
-17.04 -34.91 2.04
-3.62 -7.42 -1.61
-22.25 -45.57 4.44
-17.61 -36.08 4.93
-5.99 -12.26 -1.68
-18.15 -37.18 6.55
-8.13 -16.66 -1.62
-18.15 -37.19 8.04
-12.05 -24.69 -1.44
-17.28 -35.41 9.1
-30.93 -62.77 1.22
-18.74 -38.04 2.22
-3.66 -7.43 -1.61
-23.74 -48.18 4.7
-4.91 -9.96 -1.76
-17.46 -35.44 4.85
-6 -12.18 -1.67
-17.38 -35.27 6.23
-8.16 -16.56 -1.61
-17.26 -35.04 7.59
-12.16 -24.69 -1.44
-17.44 -35.4 9.11
-18.2 -36.93 11.03
-22.55 -45.38 0.88
-18.61 -37.46 2.19
-18.59 -37.43 3.66
-4.92 -9.9 -1.75
-16.9 -34.01 4.66
-6.05 -12.17 -1.67
-18.53 -37.29 6.59
-8.2 -16.51 -1.61
-17.35 -34.93 7.58
-12.26 -24.68 -1.44
-17.56 -35.35 9.11
-18.81 -37.87 -0.74
-18.98 -38.2 11.43
-18.81 -37.56 0.73
-18.43 -36.78 2.16
-18.63 -37.19 3.64
-4.98 -9.93 -1.76
-17.43 -34.79 4.78
-6.09 -12.15 -1.67
-18.69 -37.3 6.61
-8.26 -16.48 -1.61
-17.56 -35.05 7.62
-12.34 -24.64 -1.44
-18.93 -37.78 -0.74
-19 -37.93 11.37
-18.94 -37.5 0.73
-18.82 -37.26 2.19
-18.4 -36.42 3.57
-4.97 -9.83 -1.74
-17.83 -35.29 4.86
-6.12 -12.12 -1.67
-17.84 -35.32 6.27
-8.28 -16.39 -1.61
-18.21 -36.04 7.85
-12.41 -24.56 -1.44
-17.38 -34.4 8.9
-16.14 -31.94 -0.62
-18.61 -36.83 11.06
-19.13 -37.53 0.74
-18.73 -36.75 2.16
-19.14 -37.55 3.69
-4.93 -9.68 -1.72
-17.61 -34.56 4.76
-6.18 -12.13 -1.67
-17.98 -35.27 6.27
-8.35 -16.38 -1.61
-12.51 -24.55 -1.44
-17.45 -34.24 8.87
-19.61 -38.15 0.75
-17.93 -34.89 2.06
-21.98 -42.78 4.21
-4.95 -9.63 -1.72
-18.22 -35.46 4.9
-6.37 -12.39 -1.71
-8.37 -16.28 -1.6
-18.05 -35.13 7.68
-12.62 -24.56 -1.45
-17.32 -33.7 8.75
-16.43 -31.96 -0.63
-17.9 -34.5 2.04
-18.94 -36.52 3.6
-5 -9.63 -1.72
-18.37 -35.41 4.9
-6.4 -12.34 -1.71
-21.88 -42.18 7.53
-8.41 -16.2 -1.6
-17.99 -34.67 7.59
-12.71 -24.49 -1.45
-17.43 -33.59 8.74
-16.55 -31.89 -0.63
-17.2 -32.88 0.65
-17.99 -34.4 2.03
-3.88 -7.42 -1.63
-19.01 -36.34 3.59
-5.08 -9.71 -1.74
-19 -36.33 5.03
-6.4 -12.23 -1.69
-8.45 -16.16 -1.6
-17.84 -34.12 7.48
-12.8 -24.47 -1.45
-18.36 -35.1 9.15
-16.66 -31.86 -0.63
-18.97 -36.27 10.97
-17.35 -32.88 0.65
-18.08 -34.27 2.03
-3.88 -7.36 -1.62
-20.08 -38.07 3.77
-5.19 -9.85 -1.76
-19.16 -36.33 5.04
-6.42 -12.17 -1.69
-18.23 -34.56 6.19
-8.54 -16.2 -1.6
-12.92 -24.49 -1.45
-20.32 -38.53 10.06
-24.49 -46.05 0.91
-18.62 -35.03 2.08
-3.9 -7.34 -1.62
-20.07 -37.74 3.74
-5.18 -9.75 -1.75
-19.3 -36.3 5.05
-6.46 -12.16 -1.69
-19.47 -36.62 6.57
-8.56 -16.1 -1.6
-17.73 -33.35 7.34
-13.04 -24.53 -1.46
-18.91 -35.56 9.3
-16.96 -31.9 -0.63
-22.03 -41.07 0.81
-18.71 -34.89 2.07
-3.92 -7.31 -1.61
-20.21 -37.68 3.74
-5.2 -9.69 -1.74
-21.9 -40.83 5.69
-6.51 -12.13 -1.69
-19.63 -36.59 6.58
-8.63 -16.09 -1.6
-17.94 -33.45 7.38
-13.18 -24.57 -1.46
-19.03 -35.48 9.29
-18.49 -34.2 2.04
-5.22 -9.66 -1.74
-22.29 -41.23 5.75
-6.57 -12.16 -1.7
-19 -35.15 6.33
-8.7 -16.09 -1.6
-13.26 -24.53 -1.46
-19.16 -35.44 9.3
-19.68 -36.41 11.09
-18.65 -34.2 2.04
-22.26 -40.8 4.07
-5.32 -9.75 -1.76
-22.18 -40.66 5.69
-6.62 -12.14 -1.7
-19.09 -35 6.31
-8.75 -16.05 -1.6
-13.36 -24.5 -1.46
-18.77 -34.41 10.5
-18.64 -33.91 2.03
-22.17 -40.32 4.03
-5.36 -9.75 -1.76
-22.69 -41.27 5.78
-6.6 -12.01 -1.68
-19.21 -34.94 6.31
-8.78 -15.97 -1.59
-19.85 -36.11 8.01
-13.46 -24.48 -1.46
-19.56 -35.57 9.37
-18.12 -32.97 -0.66
-18.97 -34.5 10.55
-18.71 -33.73 2.02
-22.4 -40.38 4.04
-5.38 -9.7 -1.76
-22.23 -40.08 5.63
-6.68 -12.04 -1.69
-22.42 -40.42 7.32
-8.85 -15.95 -1.6
-20.16 -36.34 8.08
-13.56 -24.44 -1.46
-19.7 -35.51 9.38
-19.6 -35.34 10.83
-18.25 -32.64 0.65
-18.73 -33.5 2.01
-23.12 -41.35 4.14
-5.38 -9.61 -1.74
-21.02 -37.59 5.29
-6.72 -12.02 -1.69
-22.53 -40.3 7.31
-8.92 -15.95 -1.6
-22.58 -40.38 8.99
-13.66 -24.43 -1.47
-18.31 -32.48 1.95
-18.22 -32.33 3.25
-5.4 -9.58 -1.74
-19.53 -34.64 4.88
-6.81 -12.08 -1.7
-20.22 -35.87 6.52
-8.98 -15.94 -1.6
-18.67 -33.13 7.39
-13.74 -24.38 -1.47
-19.84 -35.2 9.33
-19.23 -34.12 10.49
-19.47 -34.26 2.07
-20.63 -36.32 3.65
-5.45 -9.59 -1.75
-19.49 -34.32 4.85
-6.81 -11.98 -1.69
-19.73 -34.74 6.33
-9 -15.84 -1.59
-19.86 -34.96 7.81
-13.81 -24.32 -1.47
-19.21 -33.82 8.98
-21.46 -37.78 -0.76
-27.31 -47.66 0.96
-19.6 -34.21 2.07
-18.45 -32.21 3.25
-5.57 -9.72 -1.77
-19.13 -33.39 4.72
-6.83 -11.92 -1.69
-20.16 -35.19 6.42
-9.03 -15.75 -1.59
-19.78 -34.52 7.73
-13.94 -24.34 -1.47
-19.4 -33.86 9.01
-17.93 -31.29 -0.63
-22.85 -39.55 0.8
-19.66 -34.03 2.06
-19.07 -33 3.33
-5.76 -9.97 -1.82
-19.36 -33.52 4.75
-6.88 -11.92 -1.69
-20.23 -35.01 6.4
-9.08 -15.72 -1.59
-19.77 -34.23 7.68
-14.11 -24.42 -1.48
-19.47 -33.71 8.99
-17.83 -30.87 -0.62
-20.21 -34.99 10.83
-22.96 -39.41 0.8
-19.76 -33.92 2.06
-20.74 -35.6 3.6
-5.6 -9.61 -1.76
-19.28 -33.1 4.7
-6.98 -11.98 -1.7
-20.29 -34.83 6.39
-9.11 -15.65 -1.58
-20.16 -34.6 7.78
-14.2 -24.37 -1.48
-17.94 -30.79 -0.62
-22.04 -37.54 0.76
-19.95 -33.98 2.07
-20.64 -35.14 3.57
-5.6 -9.54 -1.75
-19.37 -32.98 4.7
-7.05 -12.01 -1.71
-23.11 -39.35 7.23
-9.18 -15.62 -1.59
-20.25 -34.48 7.77
-14.29 -24.33 -1.48
-21.39 -36.42 9.75
-18.26 -31.1 -0.63
-20.6 -35.08 10.9
-3.26 -5.52 -1.72
-18.11 -30.61 0.62
-20.8 -35.15 2.14
-20.8 -35.15 3.57
-5.64 -9.54 -1.76
-19.53 -33 4.71
-7.08 -11.96 -1.71
-27.4 -46.31 8.52
-9.25 -15.64 -1.59
-20.74 -35.06 7.92
-14.37 -24.29 -1.48
-19.77 -33.42 8.97
-19.84 -33.54 10.44
-3.29 -5.51 -1.72
-23.33 -39.11 0.79
-21.28 -35.68 2.18
-20.88 -35 3.57
-5.72 -9.58 -1.77
-23.5 -39.39 5.63
-7.11 -11.92 -1.7
-21.59 -36.19 6.67
-9.35 -15.67 -1.6
-19.62 -32.9 7.45
-14.46 -24.24 -1.48
-21.43 -35.92 9.66
-20.6 -34.54 10.78
-3.3 -5.48 -1.71
-18.38 -30.58 0.62
-18.35 -30.53 1.87
-4.35 -7.24 -1.64
-20.33 -33.82 3.45
-5.75 -9.57 -1.77
-23.67 -39.38 5.64
-7.13 -11.86 -1.7
-21.85 -36.36 6.72
-9.4 -15.64 -1.6
-19.73 -32.82 7.44
-14.53 -24.17 -1.48
-20.01 -33.28 8.97
-3.31 -5.46 -1.71
-18.46 -30.46 0.62
-4.38 -7.23 -1.64
-20.47 -33.79 3.46
-5.84 -9.63 -1.78
-20.73 -34.21 4.91
-7.19 -11.87 -1.7
-21.48 -35.44 6.56
-9.46 -15.6 -1.6
-14.64 -24.16 -1.48
-21.6 -35.64 9.62
-20.28 -33.47 10.49
-3.33 -5.46 -1.71
-19.19 -31.42 0.64
-20.84 -34.13 2.1
-4.41 -7.22 -1.64
-20.58 -33.71 3.46
-5.98 -9.79 -1.82
-20.81 -34.08 4.9
-7.23 -11.84 -1.7
-9.57 -15.68 -1.61
-19.95 -32.68 7.44
-14.73 -24.13 -1.48
-23.04 -37.74 10.21
-20.04 -32.83 -0.67
-3.35 -5.45 -1.71
-19.09 -31.01 0.64
-19 -30.87 1.9
-4.45 -7.23 -1.65
-20.69 -33.61 3.45
-6 -9.74 -1.81
-32.92 -53.48 7.71
-7.31 -11.88 -1.71
-20.92 -33.98 6.32
-9.64 -15.67 -1.61
-19.95 -32.4 7.4
-14.84 -24.11 -1.48
-19.52 -31.72 -0.65
-3.37 -5.44 -1.71
-19.34 -31.19 0.64
-20.92 -33.72 2.08
-4.48 -7.23 -1.65
-20.77 -33.48 3.45
-6.03 -9.72 -1.81
-22.53 -36.33 5.25
-7.34 -11.83 -1.71
-21.14 -34.09 6.35
-9.64 -15.53 -1.6
-14.93 -24.07 -1.48
-22.92 -36.96 10.04
-19.55 -31.52 -0.65
-3.4 -5.43 -1.72
-20.73 -33.16 0.68
-4.51 -7.22 -1.65
-21.49 -34.38 3.55
-20.86 -33.36 4.83
-7.39 -11.82 -1.71
-22.73 -36.35 6.79
-9.64 -15.42 -1.59
-20.38 -32.6 7.47
-15.06 -24.09 -1.49
-21.8 -34.87 9.49
-19.65 -31.43 -0.65
-3.41 -5.42 -1.72
-22.12 -35.12 0.72
-19.35 -30.73 1.9
-23.6 -37.47 3.87
-6.02 -9.56 -1.79
-21.11 -33.52 4.86
-7.43 -11.8 -1.71
-22.96 -36.46 6.82
-9.68 -15.37 -1.59
-15.17 -24.09 -1.49
-21.91 -34.79 9.49
-3.43 -5.4 -1.71
-19.36 -30.51 1.89
-4.93 -7.77 -1.46
-20.95 -33 4.8
-7.5 -11.82 -1.72
-23.82 -37.53 7.04
-9.73 -15.34 -1.59
-20.53 -32.34 7.45
-15.29 -24.09 -1.5
-22.04 -34.72 9.49
-3.45 -5.39 -1.72
-19.95 -31.19 0.65
-6.09 -9.53 -1.79
-7.54 -11.79 -1.72
-9.8 -15.32 -1.59
-15.39 -24.06 -1.5
-3.47 -5.38 -1.72
-19.99 -31.01 0.64
-21.61 -33.53 2.09
-21.32 -33.07 3.44
-5.99 -9.29 -1.75
-22.35 -34.67 5.07
-7.58 -11.76 -1.72
-9.87 -15.31 -1.59
-23.94 -37.14 8.59
-15.45 -23.97 -1.49
-22.46 -34.84 9.57
-19.65 -30.48 -0.63
-3.49 -5.37 -1.72
-21.37 -32.9 3.43
-5.19 -7.99 -1.51
-22.69 -34.95 5.12
-7.62 -11.74 -1.72
-9.94 -15.3 -1.6
-15.57 -23.97 -1.5
-22.69 -34.94 9.62
-3.5 -5.35 -1.71
-20.27 -30.97 0.65
-22.02 -33.64 2.11
-21.53 -32.89 3.44
-5.31 -8.11 -1.53
-22.58 -34.49 5.06
-7.68 -11.73 -1.72
-10.1 -15.43 -1.61
-15.7 -23.98 -1.5
