# .PCD v0.7 - Point Cloud Data file format
VERSION 0.7
FIELDS x y z
SIZE 4 4 4
TYPE F F F
COUNT 1 1 1
WIDTH 2877
HEIGHT 1
VIEWPOINT 0 0 0 1 0 0 0
POINTS 2877
DATA ascii
28.06 25.67 7.39
27.82 25.46 -0.66
27.58 25.24 10.02
4.55 4.13 -1.65
5.24 4.76 -1.63
6.13 5.57 -1.61
33.81 30.73 4
7.41 6.73 -1.59
9.95 9.04 -1.65
14.63 13.3 -1.73
28.43 25.84 7.47
27.88 25.34 8.7
4.55 4.11 -1.64
5.25 4.74 -1.63
6.15 5.55 -1.61
7.43 6.71 -1.59
32.68 29.47 5.4
9.96 8.99 -1.65
14.65 13.21 -1.73
27.74 25.02 8.62
4.57 4.09 -1.64
5.27 4.72 -1.63
6.17 5.53 -1.61
32.43 29.05 3.81
7.45 6.67 -1.58
9.97 8.93 -1.64
14.66 13.13 -1.72
4.59 4.08 -1.65
5.27 4.69 -1.63
6.19 5.51 -1.61
7.47 6.64 -1.58
9.98 8.88 -1.64
14.67 13.05 -1.72
29.68 26.41 10.64
4.6 4.07 -1.65
5.29 4.68 -1.63
6.21 5.48 -1.61
7.49 6.62 -1.58
9.99 8.83 -1.64
14.67 12.96 -1.71
4.62 4.05 -1.65
5.31 4.66 -1.63
6.22 5.45 -1.61
7.51 6.59 -1.58
32.03 28.1 5.23
10.01 8.79 -1.64
14.69 12.89 -1.71
28.03 24.59 8.61
4.62 4.03 -1.64
5.32 4.64 -1.63
6.24 5.44 -1.61
7.54 6.57 -1.58
32.43 28.25 5.28
10.03 8.74 -1.63
32.28 28.13 6.78
14.7 12.81 -1.71
28.11 24.49 8.61
4.64 4.01 -1.64
5.35 4.63 -1.63
32.35 27.99 2.24
6.26 5.42 -1.61
7.56 6.54 -1.58
10.02 8.67 -1.63
14.71 12.73 -1.7
28.21 24.4 8.61
4.65 4 -1.64
5.35 4.6 -1.63
6.28 5.4 -1.61
7.57 6.51 -1.58
9.99 8.58 -1.62
14.73 12.65 -1.7
28.72 24.67 8.74
4.68 3.99 -1.65
32.14 27.41 0.74
5.37 4.58 -1.63
6.3 5.37 -1.61
7.6 6.48 -1.58
10.04 8.56 -1.62
14.72 12.55 -1.69
4.68 3.97 -1.64
5.39 4.57 -1.63
6.31 5.35 -1.61
7.62 6.46 -1.58
10.06 8.52 -1.62
14.76 12.5 -1.69
32.15 27.23 -0.74
4.69 3.95 -1.64
5.41 4.55 -1.63
6.33 5.33 -1.61
7.64 6.43 -1.58
32.16 27.06 5.16
10.09 8.49 -1.62
14.77 12.42 -1.69
32.17 27.06 -0.73
4.7 3.93 -1.64
32.3 26.98 0.73
5.43 4.54 -1.63
32.34 27.02 2.21
6.35 5.31 -1.61
32.36 27.03 3.69
7.66 6.4 -1.58
31.84 26.6 6.57
14.74 12.32 -1.68
24.37 20.36 -1.66
4.72 3.91 -1.64
5.44 4.51 -1.63
6.37 5.28 -1.61
7.68 6.37 -1.58
10.11 8.38 -1.61
14.75 12.23 -1.68
24.54 20.35 -1.67
4.74 3.9 -1.65
5.45 4.49 -1.63
6.39 5.26 -1.61
7.71 6.34 -1.58
10.12 8.33 -1.61
14.78 12.17 -1.67
24.7 20.34 -1.68
4.75 3.88 -1.64
5.47 4.48 -1.63
6.4 5.23 -1.61
7.73 6.32 -1.58
10.14 8.29 -1.61
14.79 12.1 -1.67
24.73 20.22 -1.67
4.76 3.86 -1.64
5.49 4.46 -1.63
6.42 5.21 -1.61
7.74 6.29 -1.58
10.14 8.23 -1.6
14.79 12 -1.67
24.94 20.25 -1.68
4.77 3.85 -1.64
5.51 4.44 -1.63
6.44 5.19 -1.61
7.76 6.25 -1.58
10.1 8.14 -1.59
32.04 25.82 6.52
14.79 11.92 -1.66
25.15 20.26 -1.69
4.78 3.83 -1.64
5.52 4.41 -1.63
6.46 5.17 -1.61
7.78 6.23 -1.58
10.16 8.13 -1.6
14.81 11.85 -1.66
25.32 20.26 -1.7
4.8 3.82 -1.64
5.53 4.39 -1.63
6.47 5.14 -1.61
7.81 6.2 -1.58
10.14 8.06 -1.59
14.82 11.78 -1.66
25.46 20.23 -1.7
4.82 3.8 -1.64
33.41 26.37 0.74
5.55 4.38 -1.63
6.48 5.12 -1.61
7.83 6.18 -1.58
10.19 8.04 -1.59
14.85 11.72 -1.66
25.57 20.17 -1.71
33.49 26.43 -0.74
4.82 3.77 -1.64
5.57 4.36 -1.63
6.51 5.1 -1.61
7.85 6.15 -1.58
14.85 11.63 -1.65
25.86 20.26 -1.72
33.59 26.31 -0.74
4.83 3.76 -1.64
5.58 4.34 -1.63
6.52 5.07 -1.61
7.87 6.12 -1.58
10.22 7.95 -1.59
14.86 11.55 -1.65
25.94 20.17 -1.72
4.85 3.75 -1.64
5.59 4.31 -1.63
6.54 5.05 -1.61
7.89 6.09 -1.58
10.22 7.89 -1.59
14.85 11.47 -1.64
26.04 20.1 -1.72
4.87 3.73 -1.65
5.6 4.29 -1.63
6.56 5.03 -1.61
7.9 6.06 -1.58
10.24 7.85 -1.58
14.87 11.4 -1.64
26.17 20.06 -1.73
4.88 3.71 -1.64
5.62 4.27 -1.63
6.57 5 -1.6
7.93 6.03 -1.58
10.25 7.8 -1.58
14.88 11.32 -1.64
26.41 20.1 -1.74
4.88 3.69 -1.64
5.64 4.26 -1.63
6.59 4.98 -1.6
7.95 6.01 -1.58
10.27 7.76 -1.58
14.88 11.24 -1.63
26.61 20.1 -1.75
4.9 3.68 -1.64
33.98 25.48 0.74
5.65 4.24 -1.63
6.6 4.95 -1.6
33.76 25.32 3.69
7.96 5.97 -1.58
33.46 25.09 5.14
10.28 7.71 -1.58
14.87 11.15 -1.63
26.74 20.05 -1.75
4.92 3.66 -1.64
5.66 4.21 -1.63
6.62 4.93 -1.61
7.98 5.94 -1.58
33.2 24.72 5.08
10.29 7.66 -1.58
14.89 11.09 -1.62
26.86 20 -1.76
4.93 3.64 -1.64
5.67 4.19 -1.63
6.64 4.91 -1.61
8 5.92 -1.58
10.28 7.6 -1.57
14.91 11.02 -1.62
26.92 19.9 -1.75
4.94 3.63 -1.64
38.16 28 0.83
5.69 4.18 -1.63
6.65 4.88 -1.6
8.02 5.89 -1.58
10.3 7.56 -1.57
14.92 10.95 -1.62
27.1 19.88 -1.76
4.95 3.61 -1.64
5.71 4.16 -1.63
6.67 4.86 -1.6
8.04 5.86 -1.58
38.43 28 5.84
10.31 7.52 -1.57
38.17 27.81 7.48
14.91 10.86 -1.61
27.27 19.87 -1.77
4.96 3.59 -1.64
40.03 28.95 0.86
5.73 4.14 -1.63
38.42 27.79 2.49
6.69 4.84 -1.6
36.61 26.48 3.95
8.05 5.82 -1.57
10.32 7.47 -1.56
14.89 10.77 -1.61
27.5 19.89 -1.78
4.97 3.57 -1.64
5.73 4.11 -1.63
36.69 26.35 2.37
6.71 4.82 -1.61
8.06 5.79 -1.57
36.55 26.25 5.52
10.34 7.42 -1.56
14.91 10.71 -1.61
27.59 19.82 -1.78
4.99 3.56 -1.64
36.71 26.18 0.79
5.74 4.1 -1.63
6.72 4.8 -1.61
8.09 5.77 -1.57
10.33 7.37 -1.56
14.93 10.64 -1.6
27.82 19.84 -1.79
5 3.54 -1.64
5.76 4.08 -1.63
6.73 4.76 -1.6
8.11 5.74 -1.57
10.36 7.33 -1.56
14.94 10.57 -1.6
27.96 19.78 -1.79
36.78 26.02 -0.79
5 3.51 -1.64
5.78 4.06 -1.63
6.75 4.74 -1.6
8.13 5.71 -1.57
10.37 7.28 -1.56
14.93 10.49 -1.6
24.93 17.51 -1.6
5.02 3.5 -1.64
5.79 4.03 -1.63
6.77 4.72 -1.6
8.14 5.68 -1.57
39.28 27.37 5.88
10.39 7.24 -1.56
14.93 10.41 -1.59
24.99 17.41 -1.6
5.04 3.48 -1.64
5.8 4.01 -1.63
6.79 4.7 -1.61
8.16 5.64 -1.57
10.4 7.2 -1.55
14.95 10.34 -1.59
25.13 17.38 -1.6
5.06 3.47 -1.64
5.81 3.99 -1.63
42.58 29.25 2.71
6.8 4.67 -1.6
8.18 5.62 -1.57
10.4 7.15 -1.55
14.96 10.27 -1.59
25.34 17.41 -1.61
5.06 3.45 -1.64
5.83 3.97 -1.63
6.81 4.64 -1.6
8.2 5.59 -1.57
10.43 7.11 -1.55
14.97 10.21 -1.59
25.57 17.44 -1.62
5.07 3.43 -1.64
5.85 3.96 -1.63
6.83 4.62 -1.6
8.22 5.56 -1.57
10.45 7.07 -1.55
14.95 10.11 -1.58
25.8 17.45 -1.63
5.07 3.41 -1.64
5.85 3.93 -1.63
6.85 4.6 -1.6
8.23 5.52 -1.57
10.46 7.02 -1.55
14.95 10.04 -1.58
26.11 17.53 -1.65
5.09 3.39 -1.64
5.86 3.91 -1.63
6.86 4.57 -1.6
8.25 5.5 -1.57
10.48 6.99 -1.55
14.96 9.97 -1.57
5.11 3.38 -1.64
5.87 3.88 -1.63
6.88 4.55 -1.6
8.27 5.47 -1.57
10.49 6.94 -1.54
14.97 9.9 -1.57
5.12 3.36 -1.64
5.89 3.87 -1.63
6.89 4.52 -1.6
8.29 5.44 -1.57
10.52 6.9 -1.54
14.98 9.83 -1.57
5.12 3.34 -1.64
5.91 3.85 -1.63
6.91 4.5 -1.6
8.3 5.41 -1.57
10.55 6.87 -1.55
14.97 9.75 -1.56
5.13 3.32 -1.64
5.92 3.83 -1.63
6.92 4.48 -1.6
8.32 5.38 -1.57
10.56 6.83 -1.54
14.97 9.68 -1.56
5.15 3.3 -1.64
5.92 3.8 -1.63
6.94 4.45 -1.6
8.33 5.35 -1.57
10.58 6.79 -1.54
14.96 9.6 -1.56
5.16 3.29 -1.64
5.93 3.78 -1.62
6.96 4.43 -1.6
8.36 5.32 -1.57
10.59 6.74 -1.54
14.98 9.53 -1.55
5.17 3.27 -1.64
5.95 3.76 -1.63
6.96 4.4 -1.6
8.37 5.29 -1.57
10.62 6.71 -1.54
14.97 9.46 -1.55
5.17 3.24 -1.64
5.97 3.74 -1.63
6.98 4.38 -1.6
8.39 5.26 -1.57
10.64 6.67 -1.54
14.93 9.36 -1.54
5.19 3.23 -1.64
5.98 3.72 -1.63
6.99 4.35 -1.6
8.41 5.23 -1.57
10.66 6.63 -1.54
14.9 9.27 -1.53
5.21 3.21 -1.64
5.98 3.69 -1.62
7.01 4.33 -1.6
8.43 5.2 -1.57
10.68 6.59 -1.54
14.92 9.21 -1.53
5.22 3.19 -1.64
6 3.67 -1.62
7.03 4.3 -1.6
8.45 5.17 -1.57
10.69 6.55 -1.54
14.99 9.18 -1.54
5.23 3.18 -1.64
6.02 3.66 -1.63
7.03 4.27 -1.6
8.46 5.14 -1.57
10.71 6.51 -1.54
14.96 9.09 -1.53
5.23 3.15 -1.64
6.04 3.64 -1.63
7.05 4.25 -1.6
52.25 31.5 5.34
8.48 5.11 -1.57
10.73 6.47 -1.54
14.95 9.01 -1.53
5.25 3.14 -1.64
6.04 3.61 -1.63
7.07 4.23 -1.6
8.49 5.08 -1.57
10.77 6.44 -1.54
14.95 8.94 -1.52
5.26 3.12 -1.64
6.04 3.59 -1.62
7.08 4.2 -1.6
8.51 5.05 -1.57
10.78 6.4 -1.54
14.94 8.86 -1.52
5.27 3.11 -1.64
6.06 3.57 -1.62
7.1 4.18 -1.6
8.53 5.02 -1.57
10.79 6.36 -1.54
14.95 8.81 -1.52
5.28 3.08 -1.64
6.08 3.55 -1.63
7.11 4.15 -1.6
8.54 4.99 -1.57
10.8 6.31 -1.54
14.97 8.75 -1.52
5.28 3.06 -1.64
6.09 3.53 -1.63
7.13 4.13 -1.6
8.56 4.96 -1.57
10.83 6.27 -1.54
14.95 8.66 -1.51
5.29 3.04 -1.64
6.11 3.51 -1.63
7.14 4.1 -1.6
8.57 4.93 -1.57
34.89 20.04 4.94
10.85 6.24 -1.54
14.94 8.59 -1.51
5.31 3.02 -1.64
34.83 19.85 0.7
6.11 3.48 -1.62
34.91 19.9 2.11
7.16 4.08 -1.6
8.59 4.9 -1.57
10.87 6.19 -1.54
14.94 8.51 -1.5
5.33 3.01 -1.64
6.12 3.46 -1.62
7.17 4.05 -1.6
8.61 4.87 -1.57
10.89 6.16 -1.54
14.95 8.45 -1.5
5.33 2.99 -1.64
6.14 3.44 -1.63
7.18 4.03 -1.6
8.63 4.84 -1.57
10.9 6.12 -1.53
14.95 8.39 -1.5
5.34 2.97 -1.64
6.15 3.42 -1.63
7.2 4 -1.6
8.64 4.81 -1.57
10.93 6.08 -1.54
14.94 8.31 -1.5
5.34 2.95 -1.64
6.16 3.4 -1.63
7.21 3.98 -1.6
8.65 4.77 -1.56
10.95 6.04 -1.54
14.93 8.24 -1.49
25.33 13.99 -1.52
5.36 2.93 -1.64
6.16 3.37 -1.62
7.22 3.95 -1.6
8.67 4.75 -1.57
10.96 6 -1.53
14.93 8.17 -1.49
25.46 13.94 -1.52
5.37 2.92 -1.64
6.18 3.36 -1.62
7.24 3.93 -1.6
8.69 4.71 -1.57
10.98 5.96 -1.53
14.94 8.11 -1.49
5.38 2.9 -1.64
6.19 3.33 -1.62
7.24 3.9 -1.6
8.7 4.69 -1.57
11 5.92 -1.53
14.92 8.03 -1.48
5.38 2.87 -1.63
61.46 32.83 1.22
6.21 3.31 -1.62
7.26 3.88 -1.6
8.72 4.66 -1.57
11.02 5.88 -1.53
14.88 7.95 -1.48
5.39 2.86 -1.63
61.62 32.65 1.22
6.22 3.29 -1.62
7.27 3.85 -1.6
8.73 4.63 -1.57
11.04 5.85 -1.53
14.89 7.89 -1.47
5.41 2.84 -1.64
6.22 3.27 -1.62
7.29 3.82 -1.6
8.75 4.59 -1.56
11.06 5.81 -1.53
14.95 7.85 -1.48
5.42 2.82 -1.64
6.23 3.24 -1.62
7.3 3.8 -1.6
8.76 4.56 -1.56
11.07 5.76 -1.53
14.93 7.78 -1.47
5.43 2.8 -1.64
6.25 3.23 -1.62
7.3 3.77 -1.6
8.78 4.54 -1.57
11.09 5.72 -1.53
14.95 7.72 -1.47
5.43 2.78 -1.64
6.26 3.21 -1.62
7.32 3.75 -1.6
8.79 4.5 -1.56
11.11 5.69 -1.53
14.92 7.64 -1.47
5.45 2.76 -1.64
6.28 3.18 -1.62
7.34 3.72 -1.6
8.8 4.47 -1.56
11.13 5.65 -1.53
14.95 7.58 -1.47
5.46 2.75 -1.64
6.28 3.16 -1.62
7.35 3.7 -1.6
8.82 4.44 -1.56
11.15 5.61 -1.53
14.99 7.54 -1.47
5.47 2.73 -1.64
6.3 3.14 -1.62
7.36 3.67 -1.6
8.84 4.41 -1.56
11.13 5.55 -1.53
15.03 7.49 -1.47
5.48 2.71 -1.64
6.3 3.12 -1.62
7.37 3.64 -1.6
8.86 4.38 -1.56
11.17 5.52 -1.53
5.49 2.69 -1.64
6.32 3.1 -1.62
7.38 3.62 -1.6
8.87 4.35 -1.56
11.18 5.48 -1.53
15.06 7.38 -1.47
5.49 2.67 -1.64
6.33 3.07 -1.62
7.4 3.59 -1.6
8.88 4.31 -1.56
11.21 5.45 -1.53
15.08 7.32 -1.47
5.51 2.65 -1.64
6.33 3.05 -1.62
7.41 3.57 -1.6
8.89 4.28 -1.56
11.22 5.4 -1.53
15.1 7.27 -1.47
5.52 2.63 -1.64
6.34 3.03 -1.62
7.42 3.54 -1.6
8.91 4.25 -1.56
11.24 5.36 -1.53
15.12 7.22 -1.47
5.53 2.61 -1.64
6.36 3.01 -1.62
7.43 3.51 -1.6
8.93 4.22 -1.56
11.26 5.32 -1.53
15.15 7.16 -1.47
5.53 2.59 -1.64
6.37 2.99 -1.63
7.45 3.49 -1.6
8.94 4.19 -1.56
11.28 5.28 -1.53
15.16 7.1 -1.46
5.54 2.57 -1.64
6.38 2.96 -1.62
7.46 3.46 -1.6
8.95 4.16 -1.56
11.3 5.25 -1.53
15.18 7.05 -1.46
5.55 2.56 -1.64
6.38 2.94 -1.62
7.47 3.44 -1.6
8.96 4.12 -1.56
11.31 5.21 -1.53
15.21 7 -1.46
5.57 2.54 -1.64
6.39 2.91 -1.62
7.48 3.41 -1.6
8.98 4.09 -1.56
11.33 5.16 -1.53
15.23 6.94 -1.46
5.57 2.52 -1.64
6.4 2.89 -1.62
7.48 3.38 -1.6
9 4.06 -1.56
11.34 5.12 -1.53
15.25 6.89 -1.46
5.57 2.49 -1.64
6.42 2.87 -1.62
7.5 3.35 -1.6
9.01 4.03 -1.56
11.37 5.08 -1.53
15.26 6.83 -1.46
5.58 2.47 -1.63
73.18 32.45 1.4
6.42 2.85 -1.62
7.51 3.33 -1.6
9.02 4 -1.56
11.39 5.05 -1.53
15.28 6.77 -1.46
24.1 10.69 -1.38
5.59 2.45 -1.64
6.43 2.82 -1.62
7.53 3.31 -1.6
9.03 3.96 -1.56
11.4 5 -1.53
15.31 6.72 -1.46
24.12 10.59 -1.38
5.6 2.44 -1.64
6.44 2.8 -1.62
7.54 3.28 -1.6
9.05 3.94 -1.56
11.41 4.96 -1.53
15.33 6.67 -1.46
24.17 10.51 -1.38
5.62 2.42 -1.64
6.46 2.78 -1.62
7.54 3.25 -1.6
9.06 3.9 -1.56
11.42 4.92 -1.53
15.34 6.61 -1.46
5.61 2.39 -1.63
6.47 2.76 -1.62
7.55 3.22 -1.6
9.07 3.87 -1.56
11.44 4.88 -1.53
15.36 6.56 -1.46
5.61 2.37 -1.63
6.48 2.74 -1.62
7.56 3.19 -1.6
9.07 3.83 -1.56
11.46 4.84 -1.53
15.37 6.49 -1.46
24.1 10.18 -1.37
5.64 2.36 -1.64
6.48 2.71 -1.62
7.58 3.17 -1.6
9.09 3.8 -1.56
11.47 4.8 -1.53
15.4 6.44 -1.46
24.07 10.07 -1.37
5.66 2.34 -1.64
6.49 2.69 -1.62
7.59 3.15 -1.6
9.1 3.77 -1.56
11.48 4.76 -1.53
15.43 6.39 -1.46
5.65 2.32 -1.64
6.5 2.67 -1.62
7.59 3.11 -1.59
9.12 3.74 -1.56
11.5 4.72 -1.53
15.45 6.34 -1.46
24.02 9.86 -1.36
5.65 2.3 -1.63
6.52 2.65 -1.63
7.6 3.09 -1.6
9.13 3.71 -1.56
11.51 4.68 -1.53
15.45 6.28 -1.46
5.66 2.28 -1.64
6.52 2.62 -1.62
7.62 3.06 -1.6
9.14 3.68 -1.56
11.53 4.64 -1.53
15.43 6.21 -1.46
5.67 2.26 -1.64
6.52 2.6 -1.62
7.63 3.04 -1.6
9.15 3.64 -1.56
11.55 4.6 -1.53
15.46 6.15 -1.46
5.69 2.24 -1.64
6.54 2.58 -1.62
7.63 3.01 -1.6
9.17 3.61 -1.56
11.55 4.55 -1.52
15.47 6.1 -1.45
5.71 2.23 -1.64
6.55 2.56 -1.62
7.65 2.98 -1.6
9.18 3.58 -1.56
11.57 4.51 -1.52
15.54 6.07 -1.46
5.69 2.2 -1.64
6.56 2.53 -1.62
7.65 2.96 -1.59
9.19 3.55 -1.56
11.59 4.48 -1.53
15.52 6 -1.46
5.71 2.18 -1.64
6.57 2.51 -1.62
7.67 2.93 -1.6
9.2 3.51 -1.56
11.61 4.43 -1.53
15.55 5.94 -1.46
5.72 2.16 -1.64
6.57 2.48 -1.62
7.69 2.91 -1.6
9.21 3.48 -1.56
11.62 4.39 -1.53
15.57 5.89 -1.46
23.73 8.97 -1.33
5.73 2.14 -1.64
6.58 2.46 -1.62
7.7 2.88 -1.6
9.22 3.45 -1.56
11.63 4.35 -1.52
15.58 5.83 -1.46
23.76 8.89 -1.33
5.74 2.12 -1.64
6.59 2.44 -1.62
7.69 2.85 -1.59
9.24 3.42 -1.56
11.64 4.31 -1.52
15.6 5.78 -1.46
23.79 8.81 -1.33
5.74 2.1 -1.64
6.61 2.42 -1.62
7.7 2.82 -1.59
9.25 3.39 -1.56
11.66 4.27 -1.53
15.6 5.71 -1.45
23.82 8.72 -1.33
5.75 2.08 -1.64
6.62 2.4 -1.63
7.72 2.8 -1.6
9.25 3.35 -1.56
11.67 4.23 -1.52
15.62 5.66 -1.45
23.85 8.64 -1.33
5.76 2.06 -1.64
6.62 2.37 -1.62
7.73 2.77 -1.6
9.26 3.32 -1.56
11.68 4.18 -1.52
15.64 5.6 -1.45
23.88 8.56 -1.33
5.77 2.05 -1.64
6.63 2.35 -1.62
7.73 2.74 -1.6
9.28 3.29 -1.56
11.69 4.14 -1.52
15.66 5.55 -1.45
23.82 8.44 -1.32
5.78 2.03 -1.64
6.64 2.33 -1.63
7.74 2.71 -1.59
9.29 3.26 -1.56
11.7 4.1 -1.52
15.68 5.49 -1.45
23.85 8.36 -1.32
5.78 2 -1.64
6.65 2.31 -1.63
7.74 2.68 -1.59
9.3 3.22 -1.56
11.72 4.06 -1.52
15.69 5.44 -1.45
23.87 8.27 -1.32
5.78 1.98 -1.64
6.66 2.28 -1.63
7.76 2.66 -1.6
9.3 3.19 -1.56
11.73 4.02 -1.52
15.71 5.38 -1.45
5.8 1.96 -1.64
6.66 2.26 -1.62
7.79 2.64 -1.6
9.32 3.16 -1.56
11.75 3.98 -1.52
15.73 5.33 -1.45
23.83 8.07 -1.32
5.8 1.94 -1.64
6.68 2.24 -1.63
7.79 2.61 -1.6
9.33 3.12 -1.56
11.76 3.94 -1.52
15.74 5.27 -1.45
23.91 8.01 -1.32
5.8 1.92 -1.64
6.69 2.21 -1.63
7.79 2.58 -1.6
9.34 3.09 -1.56
11.76 3.89 -1.52
15.75 5.21 -1.45
23.89 7.9 -1.32
5.8 1.9 -1.64
6.7 2.19 -1.63
7.8 2.55 -1.59
9.35 3.06 -1.56
11.78 3.85 -1.52
15.76 5.15 -1.45
23.95 7.83 -1.32
5.82 1.88 -1.64
6.7 2.17 -1.63
7.8 2.52 -1.59
9.36 3.02 -1.56
11.8 3.81 -1.52
15.77 5.09 -1.45
23.95 7.74 -1.32
5.83 1.86 -1.64
6.7 2.14 -1.63
7.82 2.5 -1.6
9.37 2.99 -1.56
11.81 3.77 -1.52
15.79 5.04 -1.45
23.97 7.66 -1.32
5.84 1.84 -1.64
6.71 2.12 -1.63
7.84 2.47 -1.6
9.39 2.96 -1.56
11.81 3.73 -1.52
15.82 4.99 -1.45
24 7.57 -1.32
5.83 1.82 -1.64
6.73 2.1 -1.63
7.83 2.44 -1.6
9.4 2.93 -1.56
11.83 3.69 -1.52
15.82 4.93 -1.45
23.9 7.45 -1.31
5.84 1.8 -1.64
6.73 2.07 -1.63
7.85 2.42 -1.6
9.41 2.9 -1.56
11.85 3.65 -1.52
15.83 4.87 -1.45
23.94 7.37 -1.31
5.84 1.78 -1.64
6.74 2.05 -1.63
7.86 2.39 -1.6
9.4 2.86 -1.56
11.86 3.61 -1.52
15.84 4.82 -1.45
24 7.3 -1.31
5.85 1.76 -1.64
6.73 2.02 -1.62
7.88 2.37 -1.6
9.42 2.83 -1.56
11.87 3.57 -1.52
15.82 4.75 -1.45
24.1 7.24 -1.32
5.86 1.74 -1.64
6.74 2 -1.62
7.88 2.34 -1.6
9.43 2.8 -1.56
11.88 3.53 -1.52
15.85 4.71 -1.45
24.05 7.14 -1.31
5.86 1.72 -1.64
6.75 1.98 -1.62
7.89 2.31 -1.6
9.44 2.77 -1.56
11.89 3.48 -1.52
15.87 4.65 -1.45
24.1 7.06 -1.32
5.86 1.69 -1.63
6.76 1.95 -1.63
7.89 2.28 -1.6
9.46 2.73 -1.56
11.91 3.44 -1.52
15.86 4.58 -1.44
24.11 6.97 -1.32
5.87 1.67 -1.64
6.77 1.93 -1.63
7.9 2.25 -1.6
9.45 2.7 -1.56
11.92 3.4 -1.52
15.87 4.53 -1.44
24.1 6.87 -1.31
5.88 1.66 -1.64
55.36 15.58 1
6.76 1.9 -1.62
7.91 2.23 -1.6
9.47 2.66 -1.56
11.93 3.36 -1.52
15.89 4.47 -1.44
24.16 6.8 -1.32
5.89 1.64 -1.64
55.4 15.38 1
6.77 1.88 -1.62
7.92 2.2 -1.6
9.49 2.63 -1.56
11.93 3.31 -1.52
15.91 4.42 -1.44
24.17 6.71 -1.31
5.88 1.61 -1.63
55.44 15.19 1
6.79 1.86 -1.63
7.92 2.17 -1.6
9.5 2.6 -1.56
11.95 3.27 -1.52
15.92 4.36 -1.44
24.16 6.62 -1.31
5.88 1.59 -1.63
55.51 14.99 1
6.8 1.84 -1.63
7.93 2.14 -1.6
9.51 2.57 -1.56
11.98 3.23 -1.52
15.91 4.3 -1.44
24.18 6.53 -1.31
5.89 1.57 -1.63
55.55 14.82 1
6.8 1.81 -1.63
7.94 2.12 -1.6
9.52 2.54 -1.56
11.99 3.2 -1.52
15.93 4.25 -1.44
24.25 6.47 -1.32
5.9 1.55 -1.64
55.61 14.63 1
6.8 1.79 -1.62
7.95 2.09 -1.6
9.52 2.5 -1.56
12.02 3.16 -1.53
15.96 4.2 -1.44
24.26 6.38 -1.31
5.91 1.53 -1.64
6.8 1.76 -1.62
7.95 2.06 -1.6
9.53 2.47 -1.56
12.03 3.12 -1.53
16 4.15 -1.45
24.27 6.29 -1.31
5.91 1.51 -1.63
6.81 1.74 -1.62
7.95 2.03 -1.59
9.55 2.44 -1.56
12.04 3.08 -1.53
16.03 4.09 -1.45
24.29 6.2 -1.31
5.9 1.49 -1.63
6.82 1.72 -1.62
7.96 2 -1.6
9.56 2.41 -1.56
12.05 3.03 -1.53
16.02 4.03 -1.45
24.31 6.12 -1.31
5.92 1.47 -1.63
6.83 1.7 -1.63
7.96 1.98 -1.59
9.55 2.37 -1.56
12.07 3 -1.53
16.03 3.98 -1.45
24.28 6.02 -1.31
5.93 1.45 -1.64
6.82 1.67 -1.62
7.98 1.95 -1.6
9.56 2.34 -1.56
12.07 2.95 -1.53
16.06 3.93 -1.45
24.33 5.95 -1.31
5.94 1.43 -1.64
6.83 1.65 -1.62
7.98 1.92 -1.6
9.56 2.3 -1.56
12.06 2.91 -1.52
16.07 3.87 -1.45
24.32 5.86 -1.31
5.94 1.41 -1.64
6.84 1.62 -1.62
70.09 16.61 3.77
7.98 1.89 -1.59
9.58 2.27 -1.56
12.06 2.86 -1.52
16.1 3.82 -1.45
24.35 5.77 -1.31
5.95 1.39 -1.64
6.85 1.6 -1.62
7.99 1.86 -1.59
9.58 2.24 -1.56
12.08 2.82 -1.52
16.12 3.76 -1.45
24.41 5.7 -1.31
5.94 1.36 -1.63
6.86 1.58 -1.63
8 1.84 -1.59
9.58 2.2 -1.56
12.08 2.78 -1.52
16.15 3.71 -1.45
24.4 5.61 -1.31
5.95 1.35 -1.64
6.86 1.55 -1.62
8.01 1.81 -1.6
9.59 2.17 -1.56
12.09 2.73 -1.52
16.17 3.66 -1.45
24.33 5.5 -1.31
5.96 1.33 -1.64
6.86 1.53 -1.62
70.27 15.63 3.77
8.02 1.78 -1.6
9.6 2.14 -1.56
12.09 2.69 -1.52
16.19 3.6 -1.45
24.45 5.44 -1.31
5.97 1.31 -1.64
6.87 1.5 -1.62
70.37 15.4 3.78
8.01 1.75 -1.59
9.6 2.1 -1.56
12.1 2.65 -1.52
16.18 3.54 -1.45
24.44 5.35 -1.31
5.96 1.28 -1.63
6.88 1.48 -1.63
8.03 1.72 -1.6
9.61 2.07 -1.56
12.1 2.6 -1.52
16.18 3.48 -1.45
24.41 5.25 -1.31
5.97 1.26 -1.64
6.88 1.46 -1.62
8.03 1.7 -1.6
9.61 2.03 -1.56
12.11 2.56 -1.52
16.19 3.42 -1.45
24.5 5.18 -1.31
5.98 1.24 -1.64
6.88 1.43 -1.62
8.04 1.67 -1.6
9.6 1.99 -1.55
12.1 2.51 -1.52
16.19 3.36 -1.45
24.45 5.08 -1.31
5.99 1.22 -1.64
6.89 1.41 -1.62
8.05 1.64 -1.6
9.63 1.97 -1.56
12.09 2.47 -1.52
16.2 3.31 -1.45
5.99 1.2 -1.64
6.9 1.38 -1.62
8.04 1.61 -1.59
9.65 1.93 -1.56
12.1 2.43 -1.52
16.23 3.25 -1.45
5.98 1.18 -1.63
6.9 1.36 -1.62
8.05 1.59 -1.6
9.65 1.9 -1.56
12.12 2.39 -1.52
16.22 3.2 -1.45
5.99 1.16 -1.63
6.91 1.33 -1.62
8.07 1.56 -1.6
9.65 1.86 -1.56
12.13 2.34 -1.52
16.17 3.12 -1.44
6 1.14 -1.64
6.91 1.31 -1.62
8.07 1.53 -1.6
9.66 1.83 -1.56
12.14 2.3 -1.52
16.2 3.07 -1.44
24.53 4.65 -1.31
6.01 1.12 -1.64
6.91 1.29 -1.62
8.08 1.5 -1.6
9.67 1.8 -1.56
12.14 2.26 -1.52
16.21 3.02 -1.44
6.01 1.1 -1.64
6.91 1.26 -1.62
8.07 1.48 -1.6
9.68 1.77 -1.56
12.15 2.22 -1.52
24.63 4.5 -1.31
6.01 1.08 -1.64
6.93 1.24 -1.63
8.08 1.45 -1.6
9.69 1.73 -1.56
12.17 2.18 -1.52
16.25 2.91 -1.44
24.44 4.38 -1.3
6.01 1.05 -1.63
6.93 1.22 -1.62
8.09 1.42 -1.6
9.69 1.7 -1.56
12.18 2.14 -1.52
16.27 2.86 -1.45
24.4 4.28 -1.3
6.01 1.03 -1.64
6.92 1.19 -1.62
8.1 1.39 -1.6
9.69 1.66 -1.56
12.17 2.09 -1.52
16.28 2.8 -1.44
24.49 4.21 -1.3
6.03 1.01 -1.64
6.93 1.17 -1.62
8.1 1.36 -1.6
9.69 1.63 -1.56
12.18 2.05 -1.52
16.29 2.74 -1.45
24.56 4.13 -1.31
6.03 0.99 -1.64
6.94 1.14 -1.62
8.09 1.33 -1.59
9.7 1.59 -1.56
12.18 2 -1.52
16.29 2.68 -1.44
24.57 4.04 -1.31
6.02 0.97 -1.63
6.94 1.11 -1.62
8.1 1.3 -1.59
9.7 1.56 -1.56
12.18 1.96 -1.52
16.3 2.62 -1.44
24.55 3.95 -1.3
6.03 0.95 -1.63
6.94 1.09 -1.62
8.11 1.27 -1.6
9.69 1.52 -1.55
12.19 1.92 -1.51
16.29 2.56 -1.44
24.59 3.86 -1.3
6.03 0.93 -1.64
60.18 9.24 1.06
6.93 1.06 -1.62
8.11 1.25 -1.6
9.7 1.49 -1.55
12.19 1.87 -1.51
16.32 2.51 -1.44
24.54 3.77 -1.3
6.04 0.91 -1.64
60.13 9.04 1.06
6.94 1.04 -1.62
8.11 1.22 -1.59
9.71 1.46 -1.55
12.19 1.83 -1.51
16.31 2.45 -1.44
24.57 3.69 -1.3
6.04 0.89 -1.64
60.1 8.82 1.06
6.95 1.02 -1.62
8.11 1.19 -1.59
9.72 1.43 -1.56
12.19 1.79 -1.51
16.3 2.39 -1.44
20.29 2.98 -1.07
6.03 0.86 -1.63
60.08 8.6 1.06
6.95 1 -1.62
70.31 10.07 3.72
8.11 1.16 -1.59
9.72 1.39 -1.55
12.19 1.75 -1.51
16.31 2.34 -1.44
20.13 2.88 -1.07
20.42 2.93 -0.36
6.03 0.84 -1.63
60.01 8.38 1.06
6.96 0.97 -1.62
8.12 1.13 -1.59
9.72 1.36 -1.55
12.2 1.7 -1.51
16.29 2.28 -1.44
20.17 2.82 -1.07
20.35 2.84 -0.36
6.04 0.82 -1.63
59.98 8.14 1.06
6.95 0.94 -1.62
8.13 1.1 -1.59
9.72 1.32 -1.55
12.2 1.66 -1.51
16.31 2.21 -1.44
20.15 2.74 -1.07
20.33 2.76 -0.36
6.04 0.8 -1.63
60.07 7.94 1.06
6.96 0.92 -1.62
70.2 9.28 3.71
8.12 1.07 -1.59
9.72 1.28 -1.55
12.2 1.61 -1.51
16.31 2.16 -1.44
20.15 2.66 -1.07
20.33 2.69 -0.36
6.05 0.78 -1.63
6.96 0.9 -1.62
8.12 1.04 -1.59
9.73 1.25 -1.55
12.21 1.57 -1.51
16.31 2.1 -1.44
20.16 2.59 -1.07
20.28 2.61 -0.36
6.04 0.76 -1.63
6.97 0.87 -1.62
70.36 8.8 3.72
8.13 1.02 -1.59
9.73 1.22 -1.55
12.21 1.53 -1.51
16.3 2.04 -1.44
20.18 2.52 -1.07
20.27 2.54 -0.36
6.04 0.73 -1.63
6.97 0.85 -1.62
8.14 0.99 -1.59
9.72 1.18 -1.55
12.21 1.48 -1.51
16.3 1.98 -1.44
20.19 2.45 -1.07
20.28 2.46 -0.36
6.05 0.71 -1.63
6.96 0.82 -1.62
8.14 0.96 -1.59
9.73 1.15 -1.55
12.21 1.44 -1.51
16.3 1.92 -1.44
20.19 2.38 -1.07
20.28 2.39 -0.36
6.06 0.7 -1.63
6.96 0.8 -1.62
8.15 0.94 -1.59
9.73 1.12 -1.55
12.2 1.4 -1.51
16.31 1.87 -1.44
20.21 2.32 -1.07
20.27 2.33 -0.36
6.06 0.67 -1.63
6.97 0.78 -1.62
8.14 0.91 -1.59
9.74 1.08 -1.55
12.2 1.36 -1.51
16.31 1.82 -1.44
20.25 2.25 -1.07
20.28 2.26 -0.36
6.05 0.65 -1.63
6.98 0.75 -1.62
8.13 0.88 -1.59
9.74 1.05 -1.55
12.22 1.32 -1.51
16.31 1.76 -1.44
20.25 2.18 -1.07
20.28 2.19 -0.36
6.06 0.63 -1.63
6.98 0.73 -1.62
8.15 0.85 -1.59
9.73 1.01 -1.55
12.22 1.27 -1.51
16.32 1.7 -1.44
20.26 2.11 -1.07
20.3 2.12 -0.36
6.06 0.61 -1.63
6.97 0.7 -1.62
8.15 0.82 -1.59
9.74 0.98 -1.55
12.21 1.23 -1.51
16.32 1.64 -1.44
20.25 2.04 -1.07
20.31 2.05 -0.36
6.07 0.59 -1.63
6.97 0.68 -1.62
8.15 0.79 -1.59
9.74 0.95 -1.55
12.21 1.19 -1.51
16.31 1.59 -1.43
20.25 1.97 -1.07
20.34 1.98 -0.36
6.07 0.57 -1.63
6.98 0.65 -1.62
8.14 0.76 -1.59
9.75 0.91 -1.55
12.21 1.14 -1.51
16.3 1.53 -1.43
20.28 1.9 -1.07
20.34 1.91 -0.36
6.06 0.55 -1.63
6.98 0.63 -1.62
8.15 0.73 -1.59
9.75 0.88 -1.55
12.21 1.1 -1.51
16.29 1.47 -1.43
20.29 1.83 -1.07
20.36 1.84 -0.36
6.07 0.53 -1.63
6.98 0.6 -1.62
8.15 0.71 -1.59
9.74 0.84 -1.55
12.22 1.06 -1.51
16.3 1.41 -1.43
20.3 1.76 -1.07
20.41 1.77 -0.36
6.08 0.5 -1.63
6.98 0.58 -1.62
8.16 0.68 -1.59
9.75 0.81 -1.55
12.22 1.02 -1.51
16.31 1.36 -1.43
20.3 1.69 -1.07
20.44 1.7 -0.36
6.07 0.48 -1.63
6.98 0.55 -1.62
8.16 0.65 -1.59
9.76 0.77 -1.55
12.22 0.97 -1.5
16.32 1.3 -1.43
20.31 1.61 -1.07
20.49 1.63 -0.36
6.08 0.46 -1.63
6.98 0.53 -1.62
8.14 0.62 -1.59
9.76 0.74 -1.55
12.22 0.93 -1.51
16.31 1.24 -1.43
20.33 1.54 -1.07
20.55 1.56 -0.36
6.06 0.44 -1.63
6.99 0.5 -1.62
8.15 0.59 -1.59
9.76 0.7 -1.55
12.22 0.88 -1.5
16.3 1.18 -1.43
20.34 1.47 -1.07
20.63 1.49 -0.36
6.07 0.42 -1.63
6.99 0.48 -1.62
8.16 0.56 -1.59
9.75 0.67 -1.55
12.23 0.84 -1.51
16.3 1.12 -1.43
20.44 1.4 -1.07
6.08 0.4 -1.63
6.98 0.46 -1.61
8.16 0.54 -1.59
9.75 0.64 -1.55
12.23 0.8 -1.5
16.32 1.07 -1.43
24.6 1.61 -1.29
6.09 0.38 -1.63
6.98 0.43 -1.61
8.17 0.51 -1.59
9.76 0.6 -1.55
12.22 0.76 -1.5
16.33 1.01 -1.43
24.6 1.52 -1.29
6.08 0.36 -1.63
6.99 0.41 -1.62
8.16 0.48 -1.59
9.76 0.57 -1.55
12.23 0.72 -1.5
16.37 0.96 -1.43
24.58 1.44 -1.29
6.07 0.33 -1.63
7 0.38 -1.62
8.16 0.45 -1.59
9.77 0.54 -1.55
12.23 0.67 -1.5
16.34 0.9 -1.43
24.59 1.35 -1.29
6.08 0.31 -1.63
7 0.36 -1.62
8.16 0.42 -1.59
9.76 0.5 -1.55
12.24 0.63 -1.5
16.35 0.84 -1.43
24.68 1.27 -1.29
6.09 0.29 -1.63
44.65 2.14 0.78
6.98 0.33 -1.61
8.17 0.39 -1.59
29.43 1.41 2.58
9.76 0.47 -1.55
12.23 0.59 -1.5
16.36 0.78 -1.43
44.64 2.14 -0.78
6.09 0.27 -1.63
45 2 0.79
6.99 0.31 -1.62
44.59 1.99 2.34
8.17 0.36 -1.59
9.76 0.43 -1.55
12.23 0.54 -1.5
16.37 0.73 -1.43
24.74 1.1 -1.3
44.81 2 -0.78
6.09 0.25 -1.63
44.31 1.81 0.77
6.99 0.29 -1.62
8.16 0.33 -1.59
9.77 0.4 -1.55
12.24 0.5 -1.5
16.36 0.67 -1.43
6.08 0.23 -1.63
7 0.26 -1.62
8.16 0.31 -1.59
9.77 0.37 -1.55
12.24 0.46 -1.5
16.37 0.61 -1.43
24.75 0.93 -1.3
6.08 0.21 -1.63
6.99 0.24 -1.62
8.17 0.28 -1.59
9.76 0.33 -1.55
12.25 0.42 -1.5
16.38 0.56 -1.43
24.55 0.83 -1.29
6.09 0.19 -1.63
6.99 0.21 -1.61
8.17 0.25 -1.59
9.76 0.3 -1.55
12.24 0.37 -1.5
16.38 0.5 -1.43
23.88 0.73 -1.25
6.09 0.16 -1.63
6.99 0.19 -1.61
8.17 0.22 -1.59
9.77 0.26 -1.55
12.24 0.33 -1.5
16.38 0.44 -1.43
23.31 0.63 -1.22
6.1 0.14 -1.63
6.99 0.16 -1.61
8.16 0.19 -1.59
9.78 0.23 -1.55
12.24 0.29 -1.5
16.37 0.38 -1.43
23.12 0.54 -1.21
6.08 0.12 -1.63
7 0.14 -1.62
8.16 0.16 -1.59
9.78 0.19 -1.55
12.25 0.24 -1.5
16.37 0.32 -1.43
23.03 0.46 -1.21
6.08 0.1 -1.63
29.16 0.49 0.51
7 0.12 -1.62
8.17 0.14 -1.59
28.31 0.47 2.48
9.76 0.16 -1.55
12.25 0.21 -1.5
16.36 0.27 -1.43
22.88 0.38 -1.2
29.27 0.49 -0.51
6.09 0.08 -1.63
6.99 0.09 -1.61
8.17 0.11 -1.59
9.77 0.13 -1.55
12.26 0.16 -1.51
16.37 0.22 -1.43
22.67 0.3 -1.19
6.1 0.06 -1.64
6.99 0.07 -1.61
8.17 0.08 -1.59
9.77 0.1 -1.55
29.3 0.29 3.6
12.24 0.12 -1.5
16.36 0.16 -1.43
22.51 0.22 -1.18
6.09 0.04 -1.63
6.99 0.04 -1.61
8.16 0.05 -1.59
28.96 0.18 2.53
9.77 0.06 -1.55
28.78 0.18 3.53
12.24 0.08 -1.5
16.36 0.1 -1.43
22.41 0.14 -1.17
6.08 0.02 -1.63
29.19 0.08 0.51
7.01 0.02 -1.62
29.09 0.08 1.52
8.16 0.02 -1.59
29.26 0.08 2.56
9.78 0.03 -1.55
12.25 0.03 -1.5
16.36 0.05 -1.43
22.32 0.06 -1.17
29.26 0.08 -0.51
6.08 -0 -1.63
29.21 -0.02 0.51
7 -0.01 -1.62
29.12 -0.02 1.53
8.17 -0.01 -1.59
9.76 -0.01 -1.55
29.1 -0.02 3.57
12.25 -0.01 -1.5
29.18 -0.02 4.62
16.37 -0.01 -1.43
22.26 -0.02 -1.17
29.28 -0.02 -0.51
6.09 -0.03 -1.63
6.99 -0.03 -1.61
8.17 -0.04 -1.59
9.78 -0.04 -1.55
29.36 -0.13 3.6
12.25 -0.06 -1.5
16.43 -0.07 -1.44
22.26 -0.1 -1.17
6.09 -0.05 -1.63
29.49 -0.23 0.51
6.99 -0.05 -1.61
8.17 -0.06 -1.59
28.96 -0.23 2.53
9.77 -0.08 -1.55
12.24 -0.1 -1.5
16.47 -0.13 -1.44
22.11 -0.17 -1.16
29.51 -0.23 -0.52
6.08 -0.07 -1.63
28.92 -0.32 0.5
7 -0.08 -1.62
8.16 -0.09 -1.59
9.77 -0.11 -1.55
28.93 -0.32 3.55
12.24 -0.14 -1.5
16.44 -0.18 -1.44
21.88 -0.24 -1.15
28.97 -0.32 -0.51
6.08 -0.09 -1.63
7 -0.1 -1.62
66.62 -0.97 3.49
8.17 -0.12 -1.59
9.77 -0.14 -1.55
12.23 -0.18 -1.5
16.45 -0.24 -1.44
21.97 -0.32 -1.15
6.08 -0.11 -1.63
7 -0.13 -1.62
8.16 -0.15 -1.59
9.76 -0.18 -1.55
12.24 -0.22 -1.5
16.45 -0.3 -1.44
22.02 -0.4 -1.15
6.08 -0.13 -1.63
6.99 -0.15 -1.61
8.17 -0.18 -1.59
9.77 -0.21 -1.55
12.24 -0.26 -1.5
16.4 -0.35 -1.43
21.99 -0.47 -1.15
6.08 -0.15 -1.63
6.99 -0.18 -1.61
66.53 -1.68 3.49
8.16 -0.21 -1.59
9.77 -0.25 -1.55
12.23 -0.31 -1.5
16.2 -0.41 -1.42
21.9 -0.55 -1.15
6.09 -0.17 -1.63
7 -0.2 -1.62
8.15 -0.23 -1.59
9.77 -0.28 -1.55
12.22 -0.35 -1.5
16.17 -0.46 -1.42
21.89 -0.63 -1.15
6.08 -0.2 -1.63
6.99 -0.23 -1.62
66.69 -2.15 3.5
8.16 -0.26 -1.59
9.76 -0.32 -1.55
12.22 -0.39 -1.5
16.14 -0.52 -1.41
21.86 -0.71 -1.15
6.08 -0.22 -1.63
7 -0.25 -1.62
8.16 -0.29 -1.59
9.76 -0.35 -1.55
12.22 -0.44 -1.5
16.11 -0.57 -1.41
21.77 -0.78 -1.14
6.08 -0.24 -1.63
6.98 -0.27 -1.61
8.16 -0.32 -1.59
9.75 -0.38 -1.55
12.23 -0.48 -1.5
16.07 -0.63 -1.41
21.66 -0.85 -1.14
6.08 -0.26 -1.63
6.99 -0.3 -1.61
8.16 -0.35 -1.59
9.76 -0.41 -1.55
12.21 -0.52 -1.5
16.01 -0.68 -1.4
21.68 -0.92 -1.14
6.08 -0.28 -1.63
6.99 -0.32 -1.62
48.31 -2.23 2.53
8.15 -0.38 -1.59
9.77 -0.45 -1.55
12.21 -0.56 -1.5
15.99 -0.74 -1.4
21.55 -0.99 -1.13
6.07 -0.3 -1.63
7 -0.35 -1.62
8.16 -0.4 -1.59
9.76 -0.48 -1.55
12.24 -0.61 -1.5
15.94 -0.79 -1.4
21.55 -1.07 -1.13
6.07 -0.32 -1.63
6.99 -0.37 -1.62
8.16 -0.43 -1.59
47.84 -2.54 4.19
9.75 -0.52 -1.55
12.26 -0.65 -1.51
15.91 -0.84 -1.39
21.49 -1.14 -1.13
43.4 -2.3 -0.76
6.08 -0.34 -1.63
6.98 -0.39 -1.61
47.49 -2.68 2.49
8.17 -0.46 -1.59
9.74 -0.55 -1.55
12.25 -0.69 -1.51
15.88 -0.9 -1.39
21.32 -1.2 -1.12
6.08 -0.37 -1.63
48.42 -2.91 0.85
6.98 -0.42 -1.61
8.16 -0.49 -1.59
9.74 -0.59 -1.55
12.25 -0.74 -1.51
15.85 -0.95 -1.39
21.33 -1.28 -1.12
6.08 -0.39 -1.63
6.99 -0.44 -1.62
8.15 -0.52 -1.59
9.74 -0.62 -1.55
12.27 -0.78 -1.51
15.81 -1 -1.39
21.29 -1.35 -1.12
41.8 -2.65 -0.73
6.07 -0.41 -1.63
6.99 -0.47 -1.62
48.06 -3.23 2.52
8.14 -0.55 -1.59
9.74 -0.65 -1.55
12.26 -0.82 -1.51
15.77 -1.06 -1.38
21.28 -1.43 -1.12
6.07 -0.43 -1.63
6.99 -0.49 -1.62
8.15 -0.57 -1.59
9.73 -0.69 -1.54
12.26 -0.86 -1.51
15.75 -1.11 -1.38
21.34 -1.5 -1.12
6.07 -0.45 -1.63
6.97 -0.52 -1.61
8.16 -0.6 -1.59
9.72 -0.72 -1.54
12.26 -0.91 -1.51
15.73 -1.17 -1.38
21.87 -1.62 -1.15
6.07 -0.47 -1.63
6.98 -0.54 -1.62
8.15 -0.63 -1.59
9.72 -0.75 -1.54
12.22 -0.95 -1.5
15.71 -1.22 -1.38
21.83 -1.69 -1.15
39.2 -3.04 -0.69
6.07 -0.49 -1.63
6.98 -0.57 -1.62
8.13 -0.66 -1.59
9.72 -0.79 -1.55
12.07 -0.98 -1.49
15.68 -1.27 -1.38
21.76 -1.77 -1.14
6.06 -0.51 -1.63
6.98 -0.59 -1.62
8.14 -0.69 -1.59
9.72 -0.82 -1.55
11.92 -1.01 -1.47
15.64 -1.32 -1.37
21.97 -1.86 -1.16
6.07 -0.54 -1.63
6.98 -0.62 -1.62
8.14 -0.72 -1.59
9.71 -0.86 -1.54
11.81 -1.04 -1.46
15.62 -1.38 -1.37
22.03 -1.95 -1.16
6.07 -0.56 -1.63
6.96 -0.64 -1.61
8.15 -0.75 -1.59
9.71 -0.89 -1.54
11.77 -1.08 -1.45
15.6 -1.43 -1.37
21.87 -2.01 -1.15
6.07 -0.58 -1.63
6.97 -0.66 -1.62
8.14 -0.78 -1.59
9.71 -0.92 -1.55
11.75 -1.12 -1.45
14.68 -1.4 -1.29
21.79 -2.08 -1.15
6.06 -0.6 -1.63
6.97 -0.69 -1.62
8.13 -0.8 -1.59
9.72 -0.96 -1.55
11.75 -1.16 -1.45
14.67 -1.45 -1.29
21.15 -2.09 -1.11
6.05 -0.62 -1.63
36.63 -3.75 0.64
6.97 -0.71 -1.62
8.13 -0.83 -1.59
9.71 -0.99 -1.55
11.79 -1.21 -1.46
14.61 -1.49 -1.28
21.54 -2.2 -1.13
36.6 -3.74 -0.64
6.05 -0.64 -1.63
34.72 -3.67 0.61
6.97 -0.74 -1.62
8.13 -0.86 -1.59
9.7 -1.03 -1.54
11.77 -1.24 -1.45
14.63 -1.55 -1.29
21.49 -2.27 -1.13
6.05 -0.66 -1.63
6.95 -0.76 -1.62
36.77 -4.02 1.94
8.12 -0.89 -1.59
9.69 -1.06 -1.54
11.77 -1.29 -1.45
14.64 -1.6 -1.29
21.34 -2.33 -1.13
6.06 -0.68 -1.63
36.63 -4.13 0.64
6.95 -0.78 -1.62
36.76 -4.15 1.94
8.13 -0.92 -1.59
9.7 -1.09 -1.55
11.78 -1.33 -1.46
14.63 -1.65 -1.29
21.35 -2.41 -1.13
36.69 -4.14 -0.64
6.05 -0.7 -1.63
6.96 -0.81 -1.62
8.12 -0.94 -1.59
9.69 -1.13 -1.55
11.76 -1.37 -1.45
14.72 -1.71 -1.3
21.21 -2.47 -1.12
6.04 -0.72 -1.63
37.03 -4.44 0.65
6.96 -0.83 -1.62
8.11 -0.97 -1.59
9.67 -1.16 -1.54
11.72 -1.4 -1.45
14.6 -1.75 -1.29
22.06 -2.64 -1.16
6.05 -0.75 -1.63
36.21 -4.47 0.64
6.95 -0.86 -1.62
8.11 -1 -1.59
9.65 -1.19 -1.54
11.72 -1.45 -1.45
63.92 -7.89 10.2
14.67 -1.81 -1.29
22.03 -2.72 -1.16
36.24 -4.48 -0.64
6.04 -0.77 -1.63
6.94 -0.88 -1.61
8.11 -1.03 -1.59
9.66 -1.23 -1.54
63.67 -8.08 7.88
11.72 -1.49 -1.45
14.63 -1.86 -1.29
21.92 -2.78 -1.16
6.04 -0.79 -1.63
6.94 -0.91 -1.62
8.11 -1.06 -1.59
9.66 -1.26 -1.54
11.7 -1.53 -1.45
14.64 -1.91 -1.29
21.9 -2.86 -1.16
6.04 -0.81 -1.63
6.94 -0.93 -1.62
8.09 -1.08 -1.59
9.65 -1.29 -1.54
11.68 -1.57 -1.45
14.65 -1.96 -1.29
21.84 -2.93 -1.15
6.03 -0.83 -1.63
6.94 -0.96 -1.62
63.33 -8.72 3.35
8.09 -1.11 -1.59
9.66 -1.33 -1.54
11.68 -1.61 -1.45
14.7 -2.02 -1.3
21.77 -3 -1.15
6.03 -0.85 -1.63
6.94 -0.98 -1.62
8.09 -1.14 -1.59
9.66 -1.36 -1.54
11.65 -1.64 -1.44
14.7 -2.07 -1.3
21.74 -3.07 -1.15
6.03 -0.87 -1.63
6.92 -1 -1.62
8.1 -1.17 -1.59
9.65 -1.4 -1.54
11.63 -1.68 -1.44
12.69 -1.84 2.03
14.77 -2.14 -1.31
21.64 -3.13 -1.15
63.88 -9.24 14.9
30.31 -4.38 -0.53
6.03 -0.89 -1.63
6.93 -1.03 -1.62
8.09 -1.2 -1.59
9.65 -1.43 -1.55
11.64 -1.72 -1.44
12.67 -1.88 2.03
14.74 -2.18 -1.3
21.6 -3.2 -1.14
6.03 -0.92 -1.63
6.93 -1.05 -1.62
8.08 -1.23 -1.59
9.66 -1.47 -1.55
11.58 -1.76 -1.44
14.77 -2.24 -1.31
12.61 -1.91 2.48
21.55 -3.27 -1.14
6.02 -0.93 -1.63
28.73 -4.46 0.51
6.92 -1.08 -1.62
8.07 -1.25 -1.59
9.64 -1.5 -1.55
11.55 -1.79 -1.44
14.69 -2.28 -1.3
12.58 -1.95 2.47
21.49 -3.34 -1.14
12.69 -1.97 3.44
6.02 -0.96 -1.63
6.93 -1.1 -1.62
8.08 -1.28 -1.59
9.65 -1.53 -1.55
11.56 -1.84 -1.44
14.66 -2.33 -1.3
21.38 -3.4 -1.13
28.91 -4.59 -0.51
6.02 -0.98 -1.63
28.73 -4.67 0.51
6.91 -1.12 -1.62
8.07 -1.31 -1.59
9.67 -1.57 -1.55
11.69 -1.9 -1.45
14.74 -2.39 -1.31
21.36 -3.47 -1.13
28.85 -4.68 -0.51
6.02 -1 -1.63
28.7 -4.77 0.51
6.9 -1.15 -1.62
8.07 -1.34 -1.59
9.63 -1.6 -1.55
11.73 -1.95 -1.46
14.66 -2.43 -1.3
12.58 -2.09 2.48
21.3 -3.54 -1.13
6.01 -1.02 -1.63
28.77 -4.88 0.51
6.91 -1.17 -1.62
8.06 -1.37 -1.59
28.79 -4.88 2.56
9.62 -1.63 -1.55
11.71 -1.99 -1.46
14.62 -2.48 -1.3
12.59 -2.13 2.48
21.24 -3.6 -1.13
31.23 -5.3 -0.55
5.99 -1.04 -1.63
28.95 -5.02 0.51
6.9 -1.2 -1.62
8.05 -1.4 -1.59
9.6 -1.66 -1.54
11.71 -2.03 -1.46
12.02 -2.09 -1.07
12.44 -2.16 2.45
12.05 -2.09 -0.64
29.1 -5.05 -0.52
6 -1.06 -1.63
11.98 -2.12 0.21
6.9 -1.22 -1.62
11.96 -2.12 0.64
8.02 -1.42 -1.58
29.01 -5.13 2.58
9.56 -1.69 -1.54
11.67 -2.07 -1.46
12.02 -2.13 -1.07
12.01 -2.13 -0.64
12.01 -2.12 -0.21
12.7 -2.25 3.46
6.01 -1.08 -1.64
11.95 -2.16 0.21
6.88 -1.24 -1.62
11.93 -2.15 0.64
8.03 -1.45 -1.59
9.53 -1.72 -1.53
11.71 -2.11 -1.46
14.73 -2.66 -1.31
12 -2.17 -0.64
12.47 -2.25 2.92
12 -2.17 -0.21
5.99 -1.1 -1.63
11.97 -2.2 0.21
6.88 -1.27 -1.61
11.91 -2.19 0.63
8.03 -1.48 -1.59
9.53 -1.75 -1.54
11.63 -2.14 -1.45
11.47 -2.11 1.85
14.63 -2.69 -1.3
11.29 -2.08 3.08
5.99 -1.13 -1.63
6.88 -1.29 -1.62
11.89 -2.23 0.63
8.02 -1.51 -1.59
9.53 -1.79 -1.54
11.67 -2.19 -1.46
11.57 -2.17 1.86
14.64 -2.75 -1.3
20.97 -3.94 -1.12
12.46 -2.34 2.93
25.73 -4.83 -0.46
12.02 -2.26 3.28
5.98 -1.14 -1.63
29.2 -5.58 0.52
6.89 -1.32 -1.62
11.89 -2.27 0.63
8 -1.53 -1.58
28.59 -5.47 2.55
9.48 -1.81 -1.53
12.26 -2.34 1.53
11.71 -2.24 -1.46
14.66 -2.8 -1.31
20.91 -4 -1.12
25.77 -4.93 -0.46
5.98 -1.17 -1.63
25.81 -5.03 0.46
6.88 -1.34 -1.62
11.88 -2.31 0.63
8 -1.56 -1.58
28.82 -5.62 2.57
9.43 -1.84 -1.52
11.67 -2.28 -1.46
14.56 -2.84 -1.3
12.3 -2.4 2.44
20.87 -4.07 -1.11
12.26 -2.39 2.88
25.78 -5.02 -0.46
5.97 -1.19 -1.63
29.56 -5.87 0.53
6.86 -1.36 -1.62
11.86 -2.35 0.63
8.01 -1.59 -1.59
29.22 -5.8 2.61
9.41 -1.87 -1.52
11.67 -2.32 1.46
11.58 -2.3 -1.45
14.58 -2.89 -1.3
12.24 -2.43 2.43
20.8 -4.13 -1.11
12.12 -2.41 2.85
25.71 -5.1 -0.46
5.99 -1.21 -1.64
28.81 -5.82 0.51
6.86 -1.39 -1.62
11.85 -2.39 0.63
8.01 -1.62 -1.59
9.4 -1.9 -1.52
11.57 -2.34 -1.45
12.57 -2.54 2.03
14.71 -2.97 -1.31
12.75 -2.58 2.53
20.76 -4.2 -1.11
28.88 -5.84 -0.51
12.07 -2.44 3.3
5.98 -1.23 -1.64
28.85 -5.94 0.51
6.86 -1.41 -1.62
11.84 -2.44 0.63
8.01 -1.65 -1.59
28.37 -5.84 2.53
9.38 -1.93 -1.52
11.52 -2.37 -1.44
11.54 -2.37 1.87
12.12 -2.49 -1.08
11.32 -2.33 2.25
20.72 -4.26 -1.11
11.91 -2.45 2.81
24.79 -5.1 -0.44
11.99 -2.47 3.28
5.97 -1.25 -1.63
12.13 -2.54 0.22
6.86 -1.44 -1.62
11.84 -2.48 0.63
8.06 -1.69 -1.6
11.91 -2.49 1.06
9.37 -1.96 -1.52
12.01 -2.52 1.51
11.52 -2.41 -1.44
11.48 -2.41 1.86
12.05 -2.52 -1.08
11.95 -2.5 2.37
12.07 -2.53 -0.65
12 -2.51 2.83
12.04 -2.52 -0.21
12.15 -2.54 3.33
5.95 -1.27 -1.63
12.01 -2.56 0.21
6.86 -1.46 -1.62
11.87 -2.53 0.64
8.11 -1.73 -1.61
11.98 -2.55 1.07
9.32 -1.98 -1.51
11.99 -2.55 1.5
11.57 -2.46 -1.45
11.98 -2.55 1.94
12.04 -2.57 -1.08
11.31 -2.41 2.25
12.04 -2.56 -0.65
12.01 -2.56 -0.21
11.97 -2.55 3.28
5.95 -1.29 -1.63
11.98 -2.6 0.21
6.84 -1.48 -1.61
11.89 -2.58 0.64
8.1 -1.76 -1.61
11.98 -2.6 1.07
9.3 -2.02 -1.51
11.98 -2.6 1.5
11.5 -2.5 -1.45
11.97 -2.6 1.94
12.03 -2.61 -1.08
11.84 -2.57 2.35
12.01 -2.6 -0.64
11.99 -2.6 -0.21
11.87 -2.58 3.26
5.96 -1.31 -1.63
11.99 -2.64 0.21
6.84 -1.51 -1.62
11.84 -2.61 0.64
8.1 -1.79 -1.61
9.29 -2.05 -1.51
11.51 -2.54 -1.45
12.25 -2.7 -1.1
12.02 -2.65 -0.64
11.07 -2.44 2.62
12.03 -2.65 -0.22
11.86 -2.62 3.25
5.95 -1.33 -1.63
12.49 -2.8 0.22
6.84 -1.53 -1.62
12.31 -2.76 0.66
8.09 -1.81 -1.61
9.29 -2.08 -1.51
11.58 -2.59 -1.46
12.71 -2.85 2.06
14.41 -3.23 -1.29
11.27 -2.53 2.67
11.98 -2.68 3.29
5.93 -1.35 -1.63
6.84 -1.56 -1.62
11.81 -2.69 0.63
7.98 -1.82 -1.59
9.28 -2.11 -1.51
12.38 -2.82 1.56
11.57 -2.63 -1.46
14.39 -3.28 -1.29
20.44 -4.65 -1.1
11.63 -2.65 2.75
26.68 -6.07 -0.48
11.82 -2.69 3.25
5.92 -1.37 -1.63
6.83 -1.58 -1.62
11.78 -2.73 0.63
7.95 -1.84 -1.59
9.34 -2.16 -1.52
12.24 -2.83 1.54
11.51 -2.66 -1.45
14.33 -3.32 -1.29
12.4 -2.87 2.47
20.4 -4.72 -1.1
11.56 -2.68 2.74
10.72 -2.48 2.95
5.93 -1.39 -1.63
6.82 -1.6 -1.62
11.78 -2.77 0.63
7.94 -1.87 -1.59
9.29 -2.18 -1.51
11.41 -2.68 -1.44
14.3 -3.36 -1.29
12.29 -2.89 2.45
20.39 -4.79 -1.1
21.9 -5.15 -0.39
5.93 -1.42 -1.63
6.81 -1.63 -1.62
11.76 -2.81 0.63
7.95 -1.9 -1.59
9.31 -2.22 -1.52
11.83 -2.83 1.49
11.39 -2.72 -1.44
14.23 -3.4 -1.28
20.38 -4.87 -1.1
12.54 -2.99 2.98
21.85 -5.22 -0.39
11.22 -2.68 3.09
5.92 -1.44 -1.63
11.78 -2.86 0.21
6.8 -1.65 -1.62
11.75 -2.85 0.63
7.91 -1.92 -1.58
9.38 -2.27 -1.53
11.84 -2.87 1.5
11.4 -2.76 -1.44
12.1 -2.93 1.97
11.78 -2.86 -1.06
12.01 -2.91 2.4
11.78 -2.86 -0.64
11.78 -2.86 -0.21
5.91 -1.46 -1.63
11.75 -2.89 0.21
6.8 -1.68 -1.62
11.75 -2.89 0.63
7.85 -1.93 -1.57
9.36 -2.3 -1.53
11.44 -2.82 -1.45
12.07 -2.97 1.97
11.78 -2.9 -1.06
11.8 -2.9 -0.64
12.52 -3.08 2.98
11.76 -2.9 -0.21
5.91 -1.48 -1.63
11.75 -2.93 0.21
6.79 -1.7 -1.62
11.74 -2.93 0.63
7.85 -1.96 -1.57
9.28 -2.32 -1.51
11.45 -2.86 -1.45
12.06 -3.01 1.97
14.21 -3.55 -1.28
12.7 -3.17 3.51
5.91 -1.5 -1.63
6.79 -1.72 -1.62
11.76 -2.98 0.64
7.85 -1.99 -1.57
9.27 -2.35 -1.52
11.3 -2.87 -1.43
14.19 -3.6 -1.28
20.2 -5.12 -1.09
12.81 -3.25 3.54
5.91 -1.52 -1.64
23.72 -6.1 0.43
6.79 -1.75 -1.62
7.84 -2.02 -1.57
9.28 -2.39 -1.52
11.27 -2.9 -1.43
11.72 -3.01 1.92
14.15 -3.64 -1.28
20.1 -5.17 -1.09
5.9 -1.54 -1.63
23.98 -6.26 0.43
6.78 -1.77 -1.62
7.8 -2.04 -1.57
9.27 -2.42 -1.52
13.49 -3.52 1.71
11.43 -2.98 -1.45
11.67 -3.05 1.91
14.14 -3.69 -1.28
11.49 -3 2.31
20.02 -5.23 -1.08
11.31 -2.95 2.7
23.73 -6.19 -0.43
5.88 -1.56 -1.63
6.77 -1.79 -1.62
7.79 -2.06 -1.57
9.38 -2.48 -1.54
11.4 -3.02 -1.45
14.1 -3.73 -1.28
20.07 -5.31 -1.09
23.64 -6.26 -0.43
5.89 -1.58 -1.63
6.8 -1.82 -1.62
7.86 -2.11 -1.58
9.37 -2.52 -1.54
11.35 -3.05 -1.44
14.06 -3.78 -1.27
20.11 -5.4 -1.09
11.43 -3.07 2.73
23.93 -6.43 -0.43
5.88 -1.6 -1.63
6.83 -1.86 -1.63
7.88 -2.14 -1.59
9.34 -2.54 -1.53
11.34 -3.09 -1.44
14.02 -3.82 -1.27
20.07 -5.46 -1.09
50.16 -13.66 12
49.88 -13.58 13.85
5.88 -1.62 -1.64
6.83 -1.89 -1.64
7.92 -2.18 -1.6
9.31 -2.57 -1.53
11.38 -3.14 -1.45
14.02 -3.87 -1.27
20.08 -5.54 -1.09
49.87 -13.77 11.94
23.6 -6.51 -0.43
49.64 -13.7 13.8
5.88 -1.64 -1.63
6.79 -1.9 -1.63
7.88 -2.2 -1.59
9.32 -2.61 -1.53
11.36 -3.18 -1.45
13.98 -3.91 -1.27
20.08 -5.62 -1.09
49.62 -13.88 11.9
49.41 -13.82 13.75
5.87 -1.66 -1.63
6.84 -1.94 -1.64
7.85 -2.23 -1.59
10.63 -3.01 0.97
9.34 -2.65 -1.54
11.3 -3.2 -1.44
13.95 -3.95 -1.27
50.93 -14.44 10.29
20.07 -5.69 -1.09
49.41 -14.01 11.86
49.17 -13.94 13.7
5.85 -1.68 -1.63
6.81 -1.96 -1.63
7.86 -2.26 -1.59
10.6 -3.05 0.97
9.34 -2.68 -1.54
11.29 -3.24 -1.44
13.93 -4 -1.27
50.69 -14.56 10.25
20.03 -5.75 -1.09
49.17 -14.13 11.81
5.86 -1.71 -1.64
6.75 -1.96 -1.62
7.88 -2.29 -1.59
41.95 -12.21 3.82
9.34 -2.72 -1.54
41.87 -12.19 5.35
11.18 -3.26 -1.43
13.92 -4.05 -1.27
50.45 -14.69 10.21
20 -5.82 -1.09
48.95 -14.25 11.77
5.86 -1.73 -1.64
6.73 -1.99 -1.62
7.85 -2.31 -1.59
41.72 -12.3 3.81
9.33 -2.75 -1.54
11.12 -3.28 -1.42
13.89 -4.1 -1.27
50.21 -14.81 10.18
20.02 -5.91 -1.09
48.72 -14.37 11.73
5.84 -1.75 -1.63
6.72 -2.01 -1.62
7.85 -2.35 -1.59
9.31 -2.78 -1.54
41.21 -12.31 5.28
11.17 -3.34 -1.43
13.86 -4.14 -1.27
49.97 -14.92 10.14
20.01 -5.98 -1.09
48.52 -14.49 11.69
5.83 -1.76 -1.63
6.74 -2.04 -1.63
7.86 -2.38 -1.6
41.06 -12.42 3.75
9.27 -2.81 -1.53
11.16 -3.38 -1.43
12.27 -3.71 2.03
13.84 -4.19 -1.26
49.82 -15.07 10.12
19.99 -6.05 -1.09
48.28 -14.6 11.64
5.83 -1.79 -1.63
40.93 -12.54 0.75
6.75 -2.07 -1.63
7.95 -2.43 -1.62
9.25 -2.83 -1.53
40.75 -12.48 5.23
11.1 -3.4 -1.42
12.29 -3.77 2.04
13.81 -4.23 -1.26
19.98 -6.12 -1.1
48.07 -14.73 11.61
5.82 -1.81 -1.63
6.77 -2.1 -1.64
8 -2.48 -1.63
40.59 -12.59 3.72
9.28 -2.88 -1.54
11.1 -3.44 -1.43
49.38 -15.32 8.19
13.78 -4.27 -1.26
19.96 -6.19 -1.1
11.68 -3.62 2.82
5.81 -1.82 -1.63
6.73 -2.11 -1.63
8.02 -2.52 -1.63
9.3 -2.92 -1.54
40.09 -12.59 5.16
11.05 -3.47 -1.42
49.19 -15.44 8.17
13.76 -4.32 -1.26
19.99 -6.28 -1.1
11.64 -3.65 2.82
5.81 -1.85 -1.63
6.7 -2.13 -1.62
7.98 -2.54 -1.63
9.26 -2.94 -1.54
39.86 -12.67 5.14
11.02 -3.5 -1.42
48.93 -15.55 8.13
13.73 -4.36 -1.26
20 -6.35 -1.1
47.44 -15.07 11.49
47.17 -14.99 13.26
5.79 -1.86 -1.63
6.7 -2.15 -1.62
7.86 -2.53 -1.6
9.25 -2.97 -1.54
39.63 -12.75 5.11
11 -3.54 -1.42
48.75 -15.68 8.11
13.69 -4.4 -1.26
19.99 -6.43 -1.1
47.21 -15.18 11.45
5.8 -1.89 -1.63
6.68 -2.17 -1.62
7.86 -2.56 -1.61
39.47 -12.85 3.63
9.22 -3 -1.54
39.39 -12.82 5.09
10.96 -3.57 -1.41
13.67 -4.45 -1.26
19.98 -6.5 -1.1
47.01 -15.3 11.41
5.8 -1.91 -1.64
6.67 -2.2 -1.62
7.88 -2.6 -1.61
39.23 -12.92 3.61
9.18 -3.02 -1.53
39.16 -12.9 5.06
10.94 -3.6 -1.41
13.64 -4.49 -1.26
19.93 -6.56 -1.1
46.82 -15.42 11.38
46.53 -15.33 13.13
5.8 -1.93 -1.64
39.16 -13.05 0.72
6.71 -2.24 -1.63
39.07 -13.02 2.16
7.91 -2.64 -1.62
39.05 -13.01 3.6
9.18 -3.06 -1.53
38.93 -12.97 5.04
10.9 -3.63 -1.41
48.08 -16.02 8.03
13.62 -4.54 -1.26
19.93 -6.64 -1.1
46.59 -15.52 11.34
46.34 -15.44 13.09
5.87 -1.98 -1.66
38.92 -13.12 0.72
6.71 -2.26 -1.64
38.9 -13.11 2.15
7.85 -2.65 -1.61
38.76 -13.07 3.58
9.17 -3.09 -1.53
38.74 -13.06 5.02
10.79 -3.64 -1.4
47.89 -16.14 8
13.59 -4.58 -1.26
19.98 -6.74 -1.11
46.4 -15.64 11.3
46.17 -15.56 13.05
5.85 -2 -1.66
38.81 -13.24 0.72
6.73 -2.3 -1.64
38.69 -13.2 2.14
7.69 -2.62 -1.58
38.56 -13.15 3.56
9.16 -3.12 -1.53
38.5 -13.13 4.99
10.79 -3.68 -1.4
47.67 -16.25 7.98
13.55 -4.62 -1.25
19.98 -6.81 -1.11
46.21 -15.76 11.27
46 -15.69 13.02
5.86 -2.02 -1.66
38.52 -13.27 0.71
6.64 -2.29 -1.62
38.56 -13.28 2.14
7.69 -2.65 -1.58
38.39 -13.23 3.55
9.14 -3.15 -1.53
38.27 -13.18 4.97
10.77 -3.71 -1.4
47.45 -16.35 7.95
13.53 -4.66 -1.25
20 -6.89 -1.11
46 -15.85 11.23
5.85 -2.04 -1.66
38.25 -13.33 0.71
6.74 -2.35 -1.65
38.25 -13.33 2.12
7.7 -2.68 -1.58
38.25 -13.33 3.54
9.13 -3.18 -1.53
38.04 -13.25 4.95
10.75 -3.74 -1.4
47.28 -16.47 7.93
13.51 -4.71 -1.25
20.1 -7 -1.12
45.8 -15.96 11.2
5.86 -2.07 -1.67
38.07 -13.43 0.7
6.8 -2.4 -1.66
38.01 -13.41 2.11
7.79 -2.75 -1.61
37.94 -13.38 3.52
9.09 -3.21 -1.53
37.84 -13.35 4.93
10.72 -3.78 -1.4
13.48 -4.75 -1.25
47.01 -16.58 9.69
20.2 -7.12 -1.12
45.58 -16.08 11.16
45.38 -16.01 12.89
5.83 -2.08 -1.66
37.83 -13.49 0.7
6.75 -2.41 -1.65
37.8 -13.48 2.1
7.75 -2.76 -1.6
37.78 -13.47 3.51
9.07 -3.23 -1.52
37.61 -13.41 4.9
10.67 -3.8 -1.39
13.43 -4.79 -1.25
46.85 -16.7 9.67
20.19 -7.2 -1.12
45.4 -16.18 11.13
37.92 -13.52 -0.7
45.24 -16.13 12.87
5.79 -2.09 -1.65
37.67 -13.57 0.7
6.7 -2.42 -1.65
37.64 -13.56 2.1
7.74 -2.79 -1.6
37.55 -13.53 3.49
9.05 -3.26 -1.52
37.44 -13.49 4.89
10.6 -3.82 -1.38
13.4 -4.83 -1.25
46.67 -16.81 9.64
20.28 -7.31 -1.13
45.19 -16.28 11.09
5.81 -2.11 -1.66
37.46 -13.63 0.7
6.69 -2.43 -1.64
37.42 -13.62 2.09
7.68 -2.79 -1.59
37.36 -13.6 3.48
9.03 -3.29 -1.52
37.25 -13.56 4.87
10.58 -3.85 -1.38
13.38 -4.87 -1.25
46.43 -16.9 9.6
20.37 -7.41 -1.14
37.46 -13.63 -0.7
44.76 -16.29 12.76
5.78 -2.13 -1.65
37.27 -13.72 0.69
6.66 -2.45 -1.64
37.23 -13.7 2.08
7.76 -2.86 -1.61
37.17 -13.68 3.47
9.07 -3.34 -1.53
37.06 -13.64 4.85
10.55 -3.88 -1.38
13.35 -4.91 -1.24
20.27 -7.46 -1.13
37.41 -13.77 -0.7
5.75 -2.14 -1.65
37.09 -13.79 0.69
6.66 -2.48 -1.64
37.04 -13.78 2.07
7.74 -2.88 -1.61
36.97 -13.75 3.45
9.05 -3.37 -1.53
36.88 -13.71 4.83
10.5 -3.9 -1.38
13.33 -4.96 -1.24
20.48 -7.62 -1.15
37.12 -13.8 -0.69
44.47 -16.54 12.71
5.73 -2.15 -1.64
36.89 -13.87 0.69
6.6 -2.48 -1.63
36.9 -13.88 2.07
7.71 -2.9 -1.6
36.8 -13.84 3.44
9.05 -3.4 -1.53
36.69 -13.8 4.81
10.43 -3.92 -1.37
13.3 -5 -1.24
20.43 -7.68 -1.14
44.56 -16.76 10.99
36.94 -13.89 -0.69
5.71 -2.17 -1.64
36.71 -13.95 0.69
6.61 -2.51 -1.63
36.68 -13.93 2.06
7.68 -2.92 -1.6
36.63 -13.92 3.43
9.02 -3.43 -1.53
36.53 -13.88 4.8
10.42 -3.96 -1.37
13.25 -5.03 -1.24
15.92 -6.05 -0.89
44.28 -16.82 10.94
15.91 -6.04 -0.3
5.7 -2.19 -1.64
36.57 -14.04 0.68
6.59 -2.53 -1.63
36.5 -14.02 2.05
7.73 -2.97 -1.61
36.46 -14 3.42
8.95 -3.44 -1.52
36.33 -13.95 4.78
10.39 -3.99 -1.37
13.23 -5.08 -1.24
20.72 -7.96 -1.16
5.68 -2.2 -1.63
36.37 -14.11 0.68
6.51 -2.52 -1.61
36.34 -14.09 2.04
7.73 -3 -1.61
36.28 -14.07 3.4
8.94 -3.47 -1.52
36.16 -14.02 4.76
10.41 -4.04 -1.37
13.2 -5.12 -1.24
20.67 -8.02 -1.16
36.42 -14.13 -0.68
43.69 -16.95 12.56
5.69 -2.23 -1.64
36.19 -14.19 0.68
6.56 -2.57 -1.63
36.18 -14.18 2.04
7.69 -3.01 -1.61
36.1 -14.15 3.39
8.86 -3.48 -1.51
36.03 -14.13 4.75
10.36 -4.06 -1.37
13.18 -5.17 -1.24
20.86 -8.18 -1.17
45.01 -17.65 11.16
36.27 -14.22 -0.68
43.45 -17.04 12.51
5.67 -2.24 -1.63
36.03 -14.27 0.68
6.55 -2.59 -1.63
35.97 -14.24 2.03
7.67 -3.04 -1.6
35.91 -14.22 3.38
8.81 -3.49 -1.5
35.84 -14.19 4.73
10.31 -4.08 -1.36
13.16 -5.21 -1.24
21.05 -8.33 -1.19
44.83 -17.75 11.13
36.08 -14.29 -0.68
43.39 -17.18 12.51
5.63 -2.25 -1.62
35.88 -14.36 0.67
6.54 -2.62 -1.63
35.83 -14.34 2.02
7.64 -3.06 -1.6
35.76 -14.31 3.37
8.79 -3.52 -1.5
35.69 -14.28 4.72
10.29 -4.12 -1.36
13.12 -5.25 -1.24
21.11 -8.45 -1.19
44.64 -17.86 11.1
35.94 -14.38 -0.68
43.12 -17.25 12.44
5.62 -2.27 -1.62
35.69 -14.42 0.67
6.52 -2.64 -1.62
35.68 -14.41 2.02
7.66 -3.09 -1.61
35.6 -14.38 3.36
8.82 -3.56 -1.51
35.51 -14.35 4.7
10.24 -4.14 -1.36
13.1 -5.29 -1.24
21.15 -8.55 -1.2
44.52 -17.99 11.09
35.74 -14.44 -0.67
42.94 -17.35 12.41
5.6 -2.29 -1.62
35.53 -14.51 0.67
6.54 -2.67 -1.63
35.5 -14.5 2.01
7.64 -3.12 -1.61
35.46 -14.48 3.35
8.79 -3.59 -1.5
35.35 -14.43 4.69
10.15 -4.14 -1.35
13.07 -5.34 -1.24
21.23 -8.67 -1.2
44.27 -18.08 11.04
35.59 -14.53 -0.67
42.74 -17.45 12.37
5.6 -2.31 -1.62
6.57 -2.71 -1.64
35.36 -14.57 2
7.65 -3.15 -1.61
35.3 -14.55 3.34
8.78 -3.62 -1.5
35.23 -14.52 4.68
10.1 -4.16 -1.34
13.05 -5.38 -1.24
21.4 -8.82 -1.21
44.07 -18.16 11.01
42.59 -17.55 12.34
5.59 -2.33 -1.62
6.65 -2.77 -1.66
35.19 -14.66 2
7.61 -3.17 -1.6
35.14 -14.64 3.33
8.71 -3.63 -1.49
35.03 -14.59 4.66
10.24 -4.26 -1.36
13.02 -5.42 -1.23
21.32 -8.88 -1.21
43.91 -18.29 10.98
5.57 -2.34 -1.62
6.58 -2.76 -1.65
35.05 -14.73 1.99
7.59 -3.19 -1.6
34.99 -14.71 3.32
8.67 -3.65 -1.49
34.92 -14.68 4.65
10.21 -4.29 -1.36
12.98 -5.46 -1.23
21.68 -9.11 -1.23
43.75 -18.39 10.96
5.6 -2.38 -1.63
6.55 -2.78 -1.64
34.91 -14.83 1.99
7.58 -3.22 -1.6
34.83 -14.79 3.31
8.71 -3.7 -1.5
34.75 -14.76 4.64
10.2 -4.33 -1.36
12.95 -5.5 -1.23
21.69 -9.21 -1.24
43.57 -18.5 10.93
15.21 -6.46 -0.29
5.68 -2.43 -1.66
6.55 -2.81 -1.65
34.76 -14.9 1.98
7.54 -3.23 -1.59
34.7 -14.87 3.3
8.7 -3.73 -1.5
34.6 -14.83 4.62
10.18 -4.36 -1.36
12.93 -5.54 -1.23
43.39 -18.6 10.9
5.69 -2.47 -1.66
6.49 -2.81 -1.63
34.56 -14.96 1.97
7.49 -3.24 -1.59
34.55 -14.96 3.29
8.67 -3.75 -1.5
34.46 -14.92 4.61
10.14 -4.39 -1.36
34.77 -15.05 6
12.9 -5.59 -1.23
14.96 -6.48 -0.85
15.32 -6.63 -0.29
5.68 -2.48 -1.66
6.49 -2.84 -1.63
34.45 -15.05 1.97
7.49 -3.27 -1.59
34.42 -15.04 3.29
8.59 -3.75 -1.48
34.33 -15 4.6
10.13 -4.43 -1.36
12.86 -5.62 -1.23
15.09 -6.59 -0.86
15.2 -6.64 -0.29
5.66 -2.5 -1.66
6.57 -2.9 -1.66
34.33 -15.15 1.97
7.49 -3.31 -1.59
34.24 -15.11 3.27
8.55 -3.77 -1.48
34.18 -15.08 4.59
10.11 -4.46 -1.36
12.81 -5.65 -1.22
20.66 -9.12 -1.18
15.32 -6.76 -0.29
5.69 -2.53 -1.67
6.55 -2.92 -1.66
34.2 -15.23 1.96
7.5 -3.34 -1.6
34.13 -15.2 3.27
8.53 -3.8 -1.48
34.05 -15.16 4.58
10.1 -4.5 -1.36
12.78 -5.69 -1.22
20.75 -9.24 -1.19
5.7 -2.56 -1.67
13.6 -6.12 0.26
6.51 -2.93 -1.65
34.04 -15.3 1.96
7.49 -3.37 -1.6
33.99 -15.28 3.26
8.52 -3.83 -1.48
33.89 -15.24 4.56
10.06 -4.52 -1.35
12.76 -5.74 -1.22
20.74 -9.33 -1.19
41.05 -18.46 12.06
5.66 -2.57 -1.67
6.46 -2.93 -1.64
33.88 -15.38 1.95
7.45 -3.38 -1.59
33.85 -15.36 3.25
8.49 -3.85 -1.48
33.77 -15.33 4.55
10.04 -4.56 -1.35
12.73 -5.78 -1.22
20.86 -9.46 -1.2
40.92 -18.57 12.04
5.65 -2.59 -1.67
13.94 -6.38 0.27
6.45 -2.96 -1.64
33.75 -15.46 1.95
7.45 -3.41 -1.59
33.71 -15.44 3.24
8.48 -3.89 -1.48
33.62 -15.4 4.54
10.01 -4.59 -1.35
12.7 -5.82 -1.22
14.88 -6.82 -0.86
40.77 -18.67 12.01
5.65 -2.61 -1.67
33.65 -15.56 0.65
6.47 -2.99 -1.65
33.64 -15.55 1.94
7.43 -3.43 -1.59
33.58 -15.52 3.24
8.46 -3.91 -1.48
33.52 -15.5 4.53
9.99 -4.62 -1.35
12.66 -5.85 -1.22
14.8 -6.84 -0.85
33.76 -15.61 -0.65
5.64 -2.63 -1.67
33.49 -15.62 0.65
6.52 -3.04 -1.66
33.5 -15.63 1.94
7.39 -3.45 -1.59
33.44 -15.6 3.23
8.42 -3.93 -1.47
33.35 -15.56 4.52
9.98 -4.66 -1.35
12.63 -5.89 -1.22
22.5 -10.5 -1.3
13.79 -6.43 -0.27
5.62 -2.65 -1.67
33.36 -15.71 0.64
6.52 -3.07 -1.66
33.36 -15.71 1.93
7.37 -3.47 -1.58
33.31 -15.68 3.22
8.38 -3.94 -1.47
33.24 -15.65 4.51
9.96 -4.69 -1.35
12.61 -5.94 -1.22
22.57 -10.62 -1.31
15.02 -7.07 -0.29
5.6 -2.66 -1.66
33.27 -15.8 0.64
6.53 -3.1 -1.67
33.22 -15.78 1.93
7.36 -3.5 -1.58
33.2 -15.77 3.22
8.32 -3.95 -1.46
33.12 -15.73 4.5
9.93 -4.72 -1.35
12.62 -5.99 -1.22
41.44 -19.68 8.92
14.8 -7.03 -0.86
5.57 -2.67 -1.65
33.12 -15.87 0.64
6.53 -3.13 -1.67
33.08 -15.86 1.92
7.35 -3.52 -1.58
33.05 -15.84 3.21
8.27 -3.96 -1.45
32.97 -15.8 4.49
9.91 -4.75 -1.35
12.53 -6.01 -1.22
41.32 -19.81 8.91
13.3 -6.38 -0.26
39.88 -19.11 11.85
5.54 -2.68 -1.65
33.02 -15.96 0.64
6.46 -3.12 -1.66
32.98 -15.94 1.92
7.35 -3.55 -1.59
32.93 -15.92 3.2
8.2 -3.97 -1.44
32.88 -15.89 4.48
9.89 -4.78 -1.35
12.36 -5.97 -1.2
41.16 -19.9 8.89
22.48 -10.87 -1.31
13.06 -6.31 -0.25
5.53 -2.7 -1.65
32.85 -16.02 0.64
6.43 -3.14 -1.65
32.83 -16.01 1.91
7.33 -3.58 -1.59
32.81 -16 3.19
