# .PCD v0.7 - Point Cloud Data file format
VERSION 0.7
FIELDS x y z
SIZE 4 4 4
TYPE F F F
COUNT 1 1 1
WIDTH 2928
HEIGHT 1
VIEWPOINT 0 0 0 1 0 0 0
POINTS 2928
DATA ascii
2.31 7.78 -1.87
5.63 18.96 1.04
2.82 9.5 -1.93
5.62 18.95 1.73
3.52 11.84 -1.96
5.3 17.85 2.29
4.53 15.24 -1.95
5.55 18.71 3.09
6.83 22.99 4.66
5.44 18.33 -1
5.56 18.72 4.51
5.41 18.21 -0.33
1.97 6.55 -1.83
2.34 7.78 -1.88
5.7 19 1.04
2.85 9.51 -1.93
6.92 23.06 2.11
3.55 11.83 -1.96
6.93 23.09 2.96
4.57 15.24 -1.95
6.92 23.05 3.81
5.4 18 -1.64
5.6 18.65 3.78
5.51 18.34 -1
5.53 18.42 4.44
6.99 23.27 -0.42
1.99 6.55 -1.84
7.07 23.23 0.42
2.36 7.75 -1.87
7.08 23.29 1.28
2.88 9.48 -1.93
7.01 23.04 2.11
3.59 11.81 -1.96
7.08 23.29 2.99
4.63 15.21 -1.95
7.07 23.26 3.85
5.65 18.56 -1.7
7.09 23.32 4.74
5.76 18.93 -1.04
7.1 23.36 5.64
5.74 18.89 -0.34
7.15 23.5 6.58
2.02 6.54 -1.84
7.07 22.97 0.42
2.39 7.75 -1.87
7.07 22.95 1.26
2.92 9.47 -1.93
5.84 18.95 1.73
3.64 11.81 -1.96
6.43 20.86 2.68
4.68 15.18 -1.95
5.75 18.67 3.09
5.79 18.78 -1.72
7.17 23.28 4.74
5.81 18.86 -1.03
7.19 23.34 5.64
7.08 22.98 -0.42
7.22 23.45 6.58
2.04 6.54 -1.84
7.17 22.99 0.42
2.42 7.74 -1.87
7.16 22.96 1.26
2.95 9.45 -1.92
5.7 18.27 1.67
3.68 11.81 -1.96
5.54 17.77 2.29
4.73 15.18 -1.95
11.39 36.52 6.06
5.72 18.34 -1.68
5.92 18.98 -1.04
7.17 22.98 -0.42
10.22 32.76 9.2
2.06 6.52 -1.83
7.64 24.21 0.44
2.44 7.74 -1.87
6 18.99 1.04
2.98 9.45 -1.93
5.58 17.67 1.62
3.72 11.8 -1.96
6 19.01 2.45
4.79 15.16 -1.95
13.89 44 7.31
5.81 18.41 -1.69
6.2 19.63 4
5.77 18.29 -1
6.41 20.3 4.91
5.87 18.58 -0.34
2.08 6.52 -1.83
9.23 28.89 0.53
2.47 7.73 -1.87
6.12 19.14 1.05
3.01 9.43 -1.92
5.68 17.77 1.63
3.76 11.77 -1.96
6.04 18.9 2.44
4.84 15.14 -1.95
6.35 19.88 3.31
5.56 17.39 -1.6
5.64 17.64 3.6
7.1 22.21 -1.22
10.51 32.87 7.97
5.94 18.59 -0.34
2.1 6.51 -1.83
7.79 24.12 0.44
2.49 7.71 -1.87
8.25 25.51 1.41
3.05 9.42 -1.93
9.97 30.86 2.84
3.8 11.76 -1.96
6.08 18.8 2.43
4.89 15.12 -1.95
5.7 17.65 2.94
5.89 18.21 -1.67
6.76 20.91 4.27
5.55 17.16 -0.95
6.34 19.61 4.76
5.96 18.44 -0.34
8.91 27.57 7.76
2.13 6.51 -1.84
7.93 24.23 0.45
2.52 7.7 -1.87
3.08 9.41 -1.92
10.12 30.93 2.85
3.85 11.75 -1.96
6.04 18.47 2.39
4.93 15.08 -1.95
5.77 17.62 -1.62
6.9 21.1 -1.16
6.55 20.02 4.86
7.86 24.02 -0.44
8.98 27.45 7.74
2.15 6.5 -1.84
5.99 18.09 0.33
2.55 7.7 -1.87
6.23 18.82 1.04
3.11 9.39 -1.92
5.95 17.98 1.66
3.89 11.75 -1.96
6.17 18.63 2.41
4.99 15.06 -1.95
6.17 18.64 3.11
6.9 20.85 -1.92
6.56 19.81 4.06
7.22 21.8 -1.2
6.5 19.63 4.77
7.93 23.96 -0.44
2.17 6.48 -1.83
6.92 20.66 0.38
2.58 7.69 -1.87
10.3 30.74 1.7
3.14 9.38 -1.92
6.06 18.1 1.67
3.93 11.74 -1.96
6.26 18.68 2.42
5.04 15.04 -1.95
6 17.92 -1.65
6.78 20.23 4.15
7.81 23.32 -1.29
6.03 18 4.38
8.01 23.91 -0.44
6.91 20.62 5.83
2.2 6.48 -1.83
8.03 23.7 0.44
2.6 7.69 -1.87
6.03 17.8 0.99
3.18 9.37 -1.92
6.07 17.91 1.65
3.97 11.72 -1.96
6.25 18.45 2.39
5.1 15.05 -1.95
6.77 19.97 3.34
6.08 17.94 -1.66
6.69 19.74 4.05
6.12 18.05 -1
6.84 20.19 4.92
8.08 23.84 -0.44
6.98 20.59 5.83
2.22 6.47 -1.83
8.11 23.67 0.44
2.63 7.67 -1.87
6.11 17.84 0.99
3.21 9.36 -1.92
6.17 18 1.66
4.01 11.71 -1.96
6.35 18.52 2.4
5.15 15.02 -1.95
6.16 17.97 -1.66
7.53 21.96 -1.22
6.85 19.97 4.87
8.09 23.62 -0.44
7.09 20.68 5.86
2.24 6.47 -1.84
6.59 19.02 0.35
2.65 7.66 -1.87
6.47 18.67 1.04
3.24 9.35 -1.92
6.26 18.05 1.67
4.06 11.7 -1.96
10.65 30.71 3.99
5.19 14.98 -1.95
7.05 20.33 3.41
6.2 17.88 -1.66
6.21 17.92 3.69
6.05 17.45 -0.97
7.15 20.61 5.04
7.28 21 5.96
2.26 6.46 -1.83
8.3 23.67 0.44
2.68 7.65 -1.87
8.77 25 1.39
3.27 9.32 -1.92
6.38 18.19 1.69
4.1 11.7 -1.96
7.73 22.06 2.87
5.25 14.97 -1.95
8.57 24.45 4.1
6.29 17.93 -1.66
6.29 17.93 3.69
7.68 21.9 -1.22
7.42 21.15 5.18
8.52 24.3 -0.45
9.34 26.63 7.56
2.28 6.44 -1.83
10.19 28.77 0.53
2.71 7.65 -1.87
8.89 25.1 1.4
3.3 9.32 -1.92
6.5 18.35 1.7
4.14 11.68 -1.96
7.17 20.25 2.64
5.3 14.96 -1.95
6.82 19.24 3.23
7.39 20.86 -1.94
6.31 17.81 3.67
9.43 26.61 -1.48
7.4 20.89 5.94
2.3 6.43 -1.83
8.44 23.56 0.44
2.73 7.63 -1.87
6.46 18.02 1
3.33 9.3 -1.92
8.95 24.97 2.32
4.18 11.66 -1.96
7.28 20.33 2.65
5.35 14.93 -1.95
13.9 38.8 6.53
6.46 18.04 -1.68
7.36 20.54 4.24
9.56 26.69 -1.49
6.65 18.56 -0.34
7.48 20.89 5.95
2.33 6.43 -1.83
2.76 7.61 -1.87
7.2 19.88 1.11
3.36 9.29 -1.92
7.28 20.12 1.87
4.22 11.65 -1.96
7.86 21.72 2.84
5.27 14.56 -1.9
6.83 18.88 3.18
6.44 17.8 -1.66
7.46 20.61 4.26
6.7 18.51 -0.34
9.74 26.9 7.67
2.35 6.43 -1.83
13.59 37.14 0.69
2.78 7.61 -1.87
6.72 18.36 1.02
3.4 9.28 -1.92
6.83 18.67 1.74
4.26 11.64 -1.96
7.89 21.55 2.82
5.45 14.9 -1.95
7.5 20.48 3.45
7.74 21.16 -1.97
6.73 18.4 3.81
11.9 32.53 8
8.53 23.31 -0.43
2.37 6.41 -1.83
8.29 22.39 0.42
2.81 7.6 -1.87
7.39 19.97 1.12
3.43 9.26 -1.92
9.22 24.92 2.32
4.31 11.63 -1.96
7.93 21.44 2.81
5.51 14.88 -1.95
7.57 20.45 3.45
7.82 21.13 -1.97
6.82 18.44 3.82
8.39 22.66 -1.27
8.43 22.79 -0.42
9.54 25.78 7.37
2.39 6.4 -1.83
8.93 23.86 0.44
2.84 7.59 -1.87
9.54 25.5 1.43
3.46 9.25 -1.92
6.79 18.16 1.7
4.35 11.62 -1.96
7.6 20.31 2.66
5.56 14.87 -1.95
13.62 36.41 6.16
7.89 21.08 -1.97
7.48 20 4.15
8.25 22.05 -1.23
6.87 18.37 -0.34
9.79 26.18 7.49
2.42 6.39 -1.83
7.5 19.83 0.37
2.87 7.58 -1.87
9.56 25.28 1.42
3.49 9.24 -1.92
7.64 20.21 1.89
4.39 11.6 -1.96
7.64 20.2 2.65
5.59 14.8 -1.94
6.8 17.98 3.04
7.51 19.86 -1.86
7.56 19.99 -1.12
12.37 32.73 8.08
7.47 19.75 -0.37
9.85 26.05 7.46
2.44 6.39 -1.83
7.59 19.85 0.37
2.89 7.56 -1.87
7.7 20.14 1.13
3.52 9.22 -1.92
7.7 20.15 1.89
4.43 11.59 -1.97
7.69 20.12 2.64
5.67 14.84 -1.95
6.73 17.62 2.99
7.56 19.79 -1.85
12.43 32.53 6.77
7.58 19.84 -1.11
9.36 24.5 6.05
7.59 19.86 -0.37
9.06 23.71 6.8
2.46 6.38 -1.83
7.66 19.83 0.37
2.92 7.56 -1.87
7.74 20.05 1.13
3.56 9.21 -1.92
7.78 20.16 1.89
4.47 11.59 -1.97
7.75 20.08 2.64
5.73 14.84 -1.95
6.95 18 3.06
7.65 19.82 -1.86
12.51 32.4 6.75
7.57 19.61 -1.1
7.83 20.28 5.02
7.68 19.88 -0.37
7.82 20.26 5.82
2.48 6.37 -1.83
7.76 19.88 0.37
2.94 7.55 -1.87
7.82 20.05 1.13
3.58 9.19 -1.92
7.09 18.18 1.71
4.51 11.57 -1.97
7.83 20.08 2.65
5.77 14.8 -1.95
7.85 20.12 3.42
7.73 19.81 -1.86
7.88 20.2 4.21
7.69 19.72 -1.11
7.88 20.21 5.01
7.77 19.91 -0.37
7.88 20.2 5.81
2.5 6.35 -1.83
2.97 7.54 -1.87
7.94 20.16 1.14
3.62 9.18 -1.92
4.55 11.56 -1.97
5.78 14.66 -1.94
7.62 19.35 3.29
7.64 19.38 -1.82
7.94 20.15 4.21
9.21 23.38 -1.32
7.96 20.22 5.02
9.07 23.03 -0.43
7.96 20.2 5.82
2.52 6.34 -1.83
8.19 20.58 0.39
3 7.53 -1.87
9.6 24.14 1.36
3.65 9.17 -1.92
12.33 30.99 2.92
4.59 11.54 -1.97
12.21 30.69 4.06
5.86 14.73 -1.95
7.51 18.88 3.22
7.71 19.37 -1.82
10.36 26.02 5.44
9.47 23.81 -1.34
12.15 30.54 7.59
8.24 20.7 -0.39
12.1 30.4 8.77
2.55 6.34 -1.83
8.18 20.36 0.38
3.02 7.51 -1.87
3.68 9.16 -1.92
18.15 45.16 4.26
4.64 11.53 -1.97
9.58 23.82 3.15
5.92 14.73 -1.95
7.55 18.78 3.21
8.15 20.28 4.25
9.68 24.09 -1.36
9.46 23.54 5.86
9.37 23.32 6.73
2.57 6.33 -1.83
10.1 24.87 0.47
3.05 7.5 -1.87
10.11 24.89 1.41
3.71 9.15 -1.92
4.68 11.53 -1.97
9.62 23.69 3.14
5.97 14.7 -1.95
7.61 18.74 3.2
7.69 18.93 -1.79
9.66 23.79 4.99
9.99 24.61 -1.39
9.53 23.47 5.85
9.11 22.44 -0.42
9.45 23.28 6.73
2.59 6.32 -1.83
9.77 23.81 0.45
3.07 7.49 -1.87
7.74 18.87 1.07
3.74 9.12 -1.92
8.24 20.09 1.9
4.72 11.51 -1.97
14.36 35.02 4.65
6.03 14.7 -1.95
10.62 25.89 4.43
9.64 23.51 4.94
10.09 24.6 -1.39
10.2 24.86 -0.47
10.39 25.32 7.33
2.61 6.3 -1.83
9.87 23.83 0.45
3.1 7.49 -1.87
9.92 23.95 1.36
3.77 9.11 -1.92
9.91 23.92 2.27
4.76 11.5 -1.97
10.69 25.8 3.43
6.08 14.68 -1.95
10.66 25.74 4.41
8.31 20.07 -1.9
9.74 23.51 4.95
9.96 24.03 -1.36
14.26 34.43 8.6
9.44 22.8 -0.43
9.21 22.23 6.45
2.63 6.3 -1.83
9.31 22.26 0.42
3.13 7.48 -1.87
10 23.91 1.36
3.8 9.1 -1.92
9.99 23.9 2.27
4.8 11.49 -1.97
10.79 25.8 3.43
6.13 14.66 -1.95
9.9 23.68 4.06
7.83 18.72 -1.77
10.68 25.53 5.38
10.04 24.02 -1.36
10.66 25.5 6.38
10.02 23.96 -0.45
10.61 25.38 7.37
2.66 6.29 -1.83
10.17 24.08 0.46
3.15 7.46 -1.87
10.93 25.88 1.47
3.83 9.08 -1.92
7.8 18.48 1.76
4.85 11.48 -1.97
10.02 23.73 3.16
6.18 14.63 -1.95
7.71 18.27 3.14
7.93 18.79 -1.78
10.77 25.52 5.38
8.16 19.32 -1.1
10.77 25.52 6.4
8.39 19.88 -0.38
10.73 25.4 7.39
2.68 6.28 -1.83
10.21 23.95 0.45
3.18 7.45 -1.87
8.09 18.96 1.08
3.87 9.07 -1.92
18.7 43.85 4.17
4.89 11.47 -1.97
7.87 18.45 2.46
6.23 14.6 -1.95
10.11 23.7 4.08
8.02 18.79 -1.79
8.7 20.4 -1.16
15.39 36.08 9.06
8.47 19.86 -0.38
9.3 21.8 6.35
2.7 6.27 -1.83
9.76 22.65 0.43
3.21 7.44 -1.87
7.61 17.66 1.01
3.89 9.04 -1.91
10.28 23.87 2.27
4.93 11.45 -1.98
7.89 18.32 2.45
6.29 14.6 -1.95
19.07 44.28 7.64
7.77 18.04 -1.72
8.45 19.61 -0.37
13.13 30.49 8.89
2.72 6.25 -1.83
9.93 22.83 0.43
3.23 7.43 -1.87
7.68 17.66 1.01
3.92 9.02 -1.91
4.98 11.45 -1.98
8.11 18.65 2.5
6.34 14.57 -1.95
8.31 19.12 3.3
8.36 19.24 4.08
10.19 23.44 -0.45
2.74 6.24 -1.83
10.52 23.96 0.46
3.26 7.42 -1.87
3.96 9.02 -1.91
11.06 25.2 2.41
5.01 11.42 -1.98
7.93 18.07 2.42
6.39 14.55 -1.95
8.41 19.17 3.32
7.93 18.07 -1.73
13.56 30.88 6.56
8.72 19.87 -1.14
13.55 30.87 7.78
2.76 6.24 -1.83
10.2 23.02 0.44
3.28 7.4 -1.87
8.76 19.77 1.13
3.99 9.01 -1.91
8.47 19.13 1.83
5.08 11.46 -1.98
10.39 23.46 3.15
6.42 14.49 -1.95
8.53 19.27 3.34
8.71 19.67 -1.88
11.55 26.07 5.54
10.1 22.79 -1.31
16.2 36.58 9.24
2.79 6.23 -1.83
10.78 24.11 0.46
3.3 7.39 -1.87
8.08 18.06 1.04
4.02 8.99 -1.91
8.43 18.86 1.81
5.12 11.46 -1.99
6.37 14.26 -1.92
8.55 19.12 3.32
8.58 19.18 -1.84
9.48 21.21 -1.22
2.8 6.22 -1.83
12.84 28.46 0.54
3.33 7.38 -1.87
8.21 18.2 1.05
4.05 8.97 -1.91
8.31 18.41 1.77
5.16 11.44 -1.99
8.13 18.02 2.43
6.44 14.27 -1.92
8.65 19.17 3.33
9.06 20.08 -1.93
8.79 19.49 4.16
9.55 21.18 -1.22
7.99 17.71 -0.34
14.43 31.99 9.4
2.83 6.2 -1.83
8.38 18.42 0.35
3.35 7.37 -1.87
8.3 18.23 1.05
4.08 8.96 -1.91
10.79 23.71 2.28
5.2 11.43 -1.99
18.23 40.04 5.4
6.5 14.27 -1.93
8.74 19.2 3.34
8.23 18.08 -1.74
8.87 19.49 4.16
8.21 18.03 -1.04
8.06 17.71 -0.34
2.85 6.2 -1.83
3.38 7.35 -1.87
8.24 17.92 1.03
4.11 8.95 -1.91
18.15 39.47 3.8
5.23 11.37 -1.98
11.21 24.39 3.3
6.54 14.24 -1.92
8.82 19.18 3.34
9.44 20.54 -1.98
9.72 21.13 -1.22
16.51 35.91 9.12
8 17.4 -0.33
14.98 32.58 9.61
2.87 6.19 -1.83
3.4 7.33 -1.87
9.56 20.6 1.19
4.15 8.94 -1.91
8.55 18.43 1.78
5.27 11.36 -1.98
15.21 32.79 4.44
6.59 14.21 -1.92
8.87 19.12 3.34
8.37 18.05 -1.74
14.88 32.08 6.87
9.81 21.14 -1.22
16.21 34.95 8.89
7.94 17.11 -0.33
2.89 6.17 -1.83
8.76 18.72 0.36
3.42 7.32 -1.87
8.33 17.8 1.03
4.18 8.92 -1.91
8.56 18.28 1.77
5.32 11.36 -1.99
15.35 32.79 4.45
6.66 14.22 -1.93
15.07 32.21 5.63
8.72 18.64 -1.8
15.09 32.23 6.92
9.91 21.17 -1.23
15.1 32.27 8.23
8.03 17.15 -0.33
15.22 32.53 9.62
2.91 6.16 -1.83
9.83 20.82 0.4
3.46 7.32 -1.87
8.38 17.75 1.03
4.2 8.9 -1.91
5.36 11.35 -1.99
15.15 32.09 4.36
6.71 14.22 -1.93
15.18 32.15 5.63
8.91 18.86 -1.82
16.38 34.68 8.85
8.14 17.23 -0.33
2.93 6.15 -1.82
9.95 20.88 0.4
3.48 7.31 -1.87
8.9 18.67 1.08
4.23 8.88 -1.91
15.28 32.06 3.11
5.4 11.33 -1.99
6.78 14.23 -1.93
9.09 19.07 3.35
8.92 18.71 -1.81
10.86 22.8 -1.32
8.25 17.31 -0.33
15.57 32.67 9.7
2.95 6.14 -1.82
8.9 18.51 0.36
3.5 7.29 -1.87
8.5 17.68 1.03
4.26 8.87 -1.91
9.13 19 1.84
5.44 11.32 -1.99
6.86 14.27 -1.94
9.17 19.08 3.35
9.68 20.13 -1.95
9.29 19.32 4.17
8.79 18.29 -1.06
8.36 17.38 -0.34
2.97 6.13 -1.83
3.53 7.27 -1.87
8.94 18.42 1.07
4.3 8.85 -1.91
8.52 17.57 1.71
5.48 11.3 -1.99
6.92 14.25 -1.95
8.51 17.55 -1.71
14.2 29.27 6.32
8.9 18.35 -1.07
8.59 17.7 -0.34
3 6.12 -1.83
9.09 18.56 0.36
3.55 7.26 -1.87
8.67 17.71 1.03
4.32 8.84 -1.91
9.06 18.51 1.8
5.53 11.3 -1.99
8.99 18.37 2.51
6.95 14.2 -1.94
9.42 19.24 3.39
8.75 17.88 -1.74
8.99 18.37 -1.07
8.68 17.74 -0.34
3.02 6.11 -1.83
9.21 18.65 0.36
3.58 7.25 -1.87
8.76 17.74 1.04
4.35 8.81 -1.91
9.18 18.59 1.81
5.57 11.28 -1.99
9.11 18.45 2.53
7.01 14.2 -1.94
8.86 17.95 -1.75
9.53 19.3 4.18
9.07 18.36 -1.07
8.45 17.12 -0.33
3.03 6.09 -1.82
9.26 18.58 0.36
3.61 7.24 -1.87
9.2 18.46 1.08
4.38 8.8 -1.91
8.52 17.1 1.67
5.61 11.27 -1.99
9.28 18.63 2.56
7.06 14.17 -1.94
9.11 18.28 3.23
8.96 17.98 -1.76
9.2 18.47 -1.08
8.58 17.22 -0.34
3.06 6.08 -1.82
11.61 23.11 0.45
3.63 7.23 -1.87
11.63 23.14 1.36
4.41 8.79 -1.91
8.97 17.85 1.75
5.66 11.26 -2
11.49 22.87 3.14
7.12 14.17 -1.95
11.39 22.67 4.02
8.7 17.31 -1.7
11.35 22.58 4.91
9.26 18.43 -1.08
11.34 22.57 5.83
8.74 17.39 -0.34
11.25 22.39 6.71
3.08 6.07 -1.82
9.27 18.28 0.36
3.65 7.2 -1.86
11.73 23.14 1.36
4.45 8.77 -1.91
9.33 18.41 1.81
5.7 11.25 -2
8.46 16.68 2.3
7.17 14.14 -1.95
11.48 22.64 4.02
9.33 18.4 -1.8
11.45 22.59 4.92
9.33 18.42 -1.08
11.4 22.5 5.82
8.67 17.11 -0.33
11.35 22.4 6.73
3.1 6.06 -1.82
11.99 23.45 0.46
3.68 7.19 -1.86
9.33 18.25 1.07
4.48 8.76 -1.91
9.44 18.46 1.81
5.74 11.24 -2
9.57 18.71 2.58
7.23 14.15 -1.95
8.97 17.55 3.12
9.39 18.36 -1.8
9.23 18.05 -1.06
16.24 31.76 8.23
8.67 16.96 -0.33
16.08 31.45 9.47
3.12 6.05 -1.83
9.35 18.12 0.36
3.7 7.18 -1.86
8.81 17.09 1.01
4.5 8.73 -1.91
8.8 17.07 1.68
5.79 11.23 -2
9.55 18.53 2.56
7.27 14.1 -1.95
16.35 31.71 5.65
16.37 31.74 6.94
9.51 18.45 -1.09
18.23 35.34 9.18
8.75 16.96 -0.33
3.13 6.03 -1.82
9.37 18.03 0.35
3.73 7.17 -1.87
9.62 18.51 1.09
4.53 8.72 -1.91
9.26 17.81 1.76
5.83 11.21 -2
9.57 18.42 2.55
7.32 14.08 -1.95
16.43 31.62 5.64
9.42 18.12 -1.79
9.54 18.37 -1.08
8.81 16.96 -0.33
14.62 28.12 8.49
3.15 6.02 -1.82
9.32 17.78 0.35
3.75 7.16 -1.87
9.66 18.44 1.09
4.56 8.7 -1.91
8.8 16.79 1.66
5.86 11.18 -2
7.37 14.06 -1.95
9.2 17.56 -1.73
9.52 18.16 -1.07
9.36 17.86 -0.35
16.29 31.08 9.4
3.18 6.02 -1.82
9.38 17.74 0.35
3.77 7.13 -1.86
8.96 16.95 1
4.59 8.69 -1.91
8.88 16.81 1.66
5.9 11.16 -2
9.12 17.26 2.4
7.43 14.06 -1.95
9.94 18.8 3.37
9.54 18.04 -1.79
9.13 17.27 3.8
9.55 18.07 -1.07
8.63 16.33 4.27
9.43 17.83 -0.35
3.2 6.01 -1.82
9.4 17.64 0.35
3.8 7.12 -1.86
9.01 16.91 1
4.62 8.67 -1.91
9.23 17.31 1.72
5.94 11.15 -2
9.88 18.53 2.58
7.48 14.03 -1.95
10.11 18.96 3.4
9.3 17.44 -1.73
18.57 34.84 7.67
9.57 17.96 -1.07
18.51 34.72 9.08
8.92 16.73 -0.33
13.87 26.01 7.9
3.22 5.99 -1.82
9.44 17.57 0.35
3.82 7.11 -1.86
10.09 18.77 1.12
4.65 8.65 -1.91
9.05 16.84 1.67
5.95 11.07 -1.99
9.38 17.45 2.43
7.51 13.96 -1.95
18.74 34.86 6.27
9.8 18.23 -1.81
9.56 17.79 -1.06
16.75 31.17 8.17
9.22 17.15 -0.34
14.89 27.69 8.42
3.24 5.97 -1.82
9.57 17.66 0.35
3.85 7.1 -1.87
10.18 18.78 1.12
4.68 8.63 -1.91
9.13 16.85 1.68
5.99 11.06 -1.99
10.23 18.88 2.64
7.55 13.92 -1.94
8.79 16.21 2.92
9.45 17.44 -1.74
9.12 16.83 3.72
9.69 17.88 -1.07
16.8 30.99 8.14
9.88 18.23 -0.36
16.33 30.12 9.18
3.26 5.96 -1.82
9.61 17.58 0.35
3.87 7.09 -1.86
9.5 17.38 1.04
4.72 8.62 -1.91
10.12 18.52 1.85
6.03 11.02 -1.99
10.01 18.31 2.56
7.66 14.01 -1.96
8.83 16.15 2.92
9.52 17.41 -1.74
8.95 16.36 3.62
9.79 17.91 -1.07
15.34 28.05 7.38
12.05 22.05 -0.44
3.28 5.96 -1.82
9.69 17.58 0.35
3.9 7.07 -1.86
12.22 22.17 1.33
4.74 8.6 -1.91
16.16 29.31 2.93
6.08 11.02 -1.99
10.07 18.27 2.56
7.71 13.99 -1.96
9.99 18.13 3.28
9.8 17.77 -1.78
9.16 16.62 3.69
9.89 17.94 -1.07
8.88 16.11 4.25
12.96 23.51 -0.47
13.92 25.25 7.73
3.3 5.94 -1.82
10.28 18.5 0.37
3.92 7.05 -1.86
9.57 17.22 1.03
4.77 8.59 -1.91
6.13 11.03 -2
17.14 30.84 4.33
7.77 13.98 -1.96
10.03 18.06 3.27
9.58 17.23 -1.72
9.95 17.91 3.98
11.4 20.51 -1.23
8.87 15.96 4.21
15.56 28 -0.56
9.81 17.65 5.41
3.32 5.93 -1.82
10.07 17.97 0.36
3.95 7.04 -1.86
15.67 27.97 1.68
4.8 8.57 -1.91
15.68 27.98 2.81
6.18 11.04 -2
15.62 27.88 3.92
7.83 13.97 -1.97
10.11 18.04 3.28
10.08 17.99 -1.8
9.99 17.84 3.97
9.97 17.8 -1.07
9.7 17.31 4.58
3.34 5.91 -1.82
10.1 17.88 0.36
3.97 7.03 -1.86
9.79 17.34 1.04
4.83 8.55 -1.91
15.86 28.08 2.82
6.23 11.03 -2.01
7.86 13.92 -1.96
10.2 18.06 3.28
9.61 17.01 -1.71
9.23 16.33 3.65
10.23 18.12 -1.09
9.99 17.69 4.69
11.47 20.3 -0.41
10.37 18.36 5.65
3.36 5.9 -1.82
16.21 28.47 0.57
4 7.02 -1.86
10.04 17.63 1.06
4.86 8.53 -1.91
12.69 22.29 2.24
6.26 11 -2.01
16.55 29.06 4.11
7.94 13.95 -1.97
12.79 22.46 4.09
10.58 18.58 -1.87
17.28 30.35 6.79
10.46 18.36 -1.11
10.01 17.59 4.67
10.16 17.84 -0.36
10.15 17.82 5.5
3.38 5.89 -1.82
12.39 21.58 0.43
4.02 7 -1.86
11.6 20.21 1.22
4.89 8.52 -1.91
16.3 28.4 2.86
6.3 10.98 -2
9.62 16.75 2.37
7.99 13.91 -1.97
12.89 22.46 4.1
10.49 18.28 -1.84
9.95 17.33 3.88
11.68 20.34 -1.23
10.56 18.39 4.9
10.24 17.83 -0.36
9.43 16.43 5.08
3.4 5.88 -1.82
13.55 23.42 0.47
4.04 6.98 -1.86
10 17.28 1.05
4.92 8.5 -1.91
6.33 10.95 -2
16.04 27.72 3.93
7.99 13.81 -1.96
12.74 22.01 4.03
9.89 17.08 -1.73
10.55 18.22 -1.1
9.08 15.69 4.18
11.76 20.32 -0.41
3.42 5.87 -1.82
12.19 20.91 0.42
4.07 6.97 -1.86
10.06 17.25 1.05
4.94 8.48 -1.91
14.85 25.46 2.58
6.36 10.91 -2
14.87 25.49 3.62
8.04 13.79 -1.96
14.86 25.49 4.67
10.55 18.09 -1.83
14.86 25.48 5.73
9.96 17.08 -1.04
12.51 21.44 5.73
13.63 23.37 -0.47
15.26 26.17 8.12
3.44 5.85 -1.82
15.13 25.73 0.52
4.09 6.97 -1.87
11.95 20.33 1.24
4.97 8.46 -1.91
13.72 23.34 2.37
6.4 10.89 -2
14.66 24.94 3.55
8.09 13.76 -1.96
9.68 16.46 3.02
10.01 17.03 -1.73
13.53 23.01 5.19
11.47 19.51 -1.19
10.6 18.02 -0.36
12.06 20.52 6.38
3.46 5.84 -1.82
14.97 25.25 0.51
4.12 6.94 -1.86
12.05 20.32 1.24
5.01 8.44 -1.91
9.94 16.75 1.7
6.43 10.85 -2
9.75 16.44 2.35
8.14 13.73 -1.96
8.94 15.07 2.78
10.13 17.08 -1.74
14.99 25.27 5.71
13.59 22.92 6.15
11.96 20.16 -0.41
10.36 17.47 5.44
3.48 5.82 -1.82
14.44 24.16 0.49
4.13 6.92 -1.86
14.97 25.05 1.53
5.04 8.42 -1.91
10.03 16.78 1.71
6.46 10.81 -1.99
9.79 16.38 2.34
8.21 13.74 -1.97
13.75 23.01 4.25
10.19 17.05 -1.74
11.47 19.18 -1.17
16.51 27.62 7.43
12.22 20.45 -0.42
10.41 17.42 5.44
3.5 5.82 -1.82
12.48 20.73 0.42
4.16 6.91 -1.86
12.2 20.26 1.24
5.06 8.41 -1.91
10.1 16.77 1.71
6.49 10.78 -1.99
12.39 20.58 2.95
8.24 13.68 -1.96
12.34 20.49 3.79
10.3 17.11 -1.75
12.33 20.47 4.65
11.28 18.73 -1.15
12.34 20.5 5.52
12.53 20.82 -0.42
10.45 17.36 5.43
3.52 5.8 -1.82
12.53 20.65 0.42
4.19 6.9 -1.86
12.52 20.64 1.27
5.09 8.38 -1.91
12.68 20.89 2.14
6.51 10.73 -1.99
15.18 25.01 3.59
8.31 13.69 -1.97
12.41 20.45 3.79
10.22 16.84 -1.72
12.4 20.43 4.65
11.35 18.7 -1.15
12.6 20.77 -0.42
9.99 16.46 5.16
3.54 5.78 -1.82
12.66 20.69 0.42
4.21 6.89 -1.86
12.67 20.7 1.27
5.12 8.36 -1.91
12.81 20.93 2.15
6.55 10.7 -1.99
18.99 31.02 4.47
8.37 13.68 -1.97
27.27 44.56 8.27
10.26 16.77 -1.72
11.5 18.78 -1.15
13.84 22.61 6.12
11.29 18.45 -0.38
9.66 15.78 4.96
3.56 5.77 -1.82
13.79 22.35 0.46
4.24 6.87 -1.86
13.31 21.58 1.33
5.15 8.35 -1.91
14.27 23.12 2.38
6.57 10.66 -1.98
12.89 20.9 3.02
8.46 13.71 -1.98
16.96 27.5 5.12
10.28 16.67 -1.71
9.24 14.97 3.42
11.6 18.81 -1.16
13.44 21.79 5.91
18.38 29.79 9.38
3.58 5.76 -1.82
19.66 31.65 0.65
4.25 6.84 -1.86
14.53 23.39 1.44
5.18 8.33 -1.91
10.36 16.68 1.72
6.6 10.63 -1.98
12.94 20.82 3.01
8.5 13.68 -1.98
12.63 20.32 3.79
10.91 17.56 -1.81
10.53 16.95 3.88
11.17 17.98 -1.11
11.43 18.4 -0.38
13.87 22.33 7.04
3.6 5.75 -1.82
4.28 6.83 -1.86
15.61 24.93 1.54
5.2 8.31 -1.91
10.44 16.67 1.72
6.63 10.59 -1.98
13.01 20.77 3.01
8.53 13.63 -1.97
9.86 15.75 2.94
11.03 17.61 -1.82
14.36 22.93 5.26
11.94 19.07 -1.18
11.95 19.09 5.2
12.67 20.24 -0.42
12.58 20.09 6.35
3.62 5.74 -1.82
16.34 25.89 0.53
4.31 6.82 -1.86
15.18 24.05 1.49
5.23 8.28 -1.9
10.84 17.17 1.78
6.67 10.57 -1.98
10.23 16.21 2.35
8.6 13.62 -1.98
13.07 20.71 3.88
11.05 17.51 -1.81
9.56 15.15 3.48
12.77 20.23 -1.25
12.02 19.05 5.2
12.69 20.11 6.37
3.63 5.71 -1.81
16.7 26.26 0.54
4.33 6.81 -1.86
5.26 8.27 -1.91
10.54 16.56 1.72
6.7 10.54 -1.98
10.28 16.16 2.35
8.67 13.63 -1.98
10.42 16.39 3.08
11.15 17.52 -1.82
13.09 20.58 4.74
12 18.87 -1.17
12.12 19.06 5.21
13.59 21.37 -0.44
12.97 20.39 6.47
3.65 5.7 -1.81
14.53 22.67 0.47
4.35 6.79 -1.86
5.29 8.25 -1.91
10.55 16.45 1.71
6.74 10.51 -1.98
10.32 16.1 2.35
8.72 13.61 -1.98
10.47 16.34 3.07
10.63 16.59 -1.72
13.67 21.32 4.92
12.07 18.83 -1.17
12.19 19.02 5.22
13.03 20.32 -0.42
13.17 20.55 6.54
3.68 5.69 -1.82
4.37 6.76 -1.86
5.32 8.24 -1.91
10.64 16.47 1.72
6.76 10.47 -1.97
12.82 19.85 2.9
8.75 13.54 -1.98
10.42 16.14 3.04
11.18 17.31 -1.8
9.69 15 3.47
12.28 19.01 -1.19
12.22 18.91 5.2
12.06 18.67 5.95
3.7 5.68 -1.82
4.39 6.75 -1.86
15.15 23.27 1.46
5.35 8.22 -1.91
10.69 16.42 1.71
6.8 10.45 -1.97
12.89 19.81 2.9
8.8 13.52 -1.98
13.13 20.17 3.81
11.85 18.2 -1.9
12.83 19.71 4.57
12.86 19.76 -1.24
12.57 19.31 -0.4
11.96 18.38 5.88
3.72 5.67 -1.82
4.42 6.73 -1.86
15.03 22.92 1.44
5.37 8.18 -1.9
10.79 16.45 1.72
6.83 10.42 -1.97
8.88 13.53 -1.99
12.62 19.24 3.64
11.25 17.15 -1.79
12.43 18.96 4.41
12.95 19.74 -1.24
15.87 24.2 -0.51
3.73 5.65 -1.81
23.19 35.1 0.73
4.45 6.73 -1.86
15.19 22.99 1.44
5.4 8.17 -1.9
10.87 16.46 1.73
6.86 10.38 -1.97
8.96 13.56 -2
11.55 17.48 -1.83
13.07 19.78 4.61
12.56 19.02 -1.19
13.46 20.37 5.64
12.39 18.75 6.02
3.75 5.63 -1.81
23.61 35.47 0.74
4.46 6.7 -1.86
5.42 8.15 -1.9
10.87 16.33 1.72
6.89 10.35 -1.97
17.39 26.12 3.85
9 13.52 -1.99
23.23 34.9 6.64
11.7 17.58 -1.85
13.85 20.81 -1.31
12.29 18.46 5.12
9.62 14.46 4.65
3.77 5.63 -1.82
4.48 6.68 -1.86
5.45 8.13 -1.9
11.03 16.45 1.73
6.93 10.33 -1.97
24.47 36.5 5.4
9.03 13.47 -1.99
12.1 18.05 -1.9
12.53 18.69 4.37
12.7 18.94 5.26
14.02 20.91 -0.44
14.55 21.7 7
3.79 5.62 -1.82
4.5 6.66 -1.85
5.48 8.11 -1.9
11.15 16.51 1.74
6.96 10.31 -1.97
9.11 13.48 -2
22.08 32.69 6.25
11.33 16.77 -1.77
16.49 24.41 -1.54
12.46 18.44 5.14
14.08 20.85 -0.44
9.51 14.08 4.55
3.81 5.6 -1.82
4.52 6.64 -1.85
5.51 8.09 -1.9
11.76 17.28 1.83
7 10.28 -1.97
22.33 32.81 4.87
9.15 13.44 -2
26.88 39.49 7.57
11.98 17.61 -1.86
13.33 19.58 5.47
17.16 25.21 -0.53
9.47 13.92 4.51
3.83 5.58 -1.81
17.21 25.1 0.53
4.54 6.62 -1.85
17.14 25 1.59
5.53 8.07 -1.9
11.37 16.58 1.76
7.04 10.27 -1.97
17.12 24.96 3.72
9.2 13.42 -2
12.2 17.79 -1.89
16.89 24.63 5.81
20.53 29.94 8.38
17.22 25.11 -0.53
11.97 17.46 5.67
3.85 5.57 -1.81
17.3 25.04 0.53
4.56 6.6 -1.85
17.22 24.93 1.59
5.56 8.05 -1.9
17.22 24.92 2.65
7.06 10.22 -1.97
17.17 24.85 3.71
9.25 13.39 -2
17.12 24.78 4.77
16.59 24.02 -1.53
13.36 19.34 5.43
12.03 17.41 5.67
3.87 5.56 -1.82
4.58 6.58 -1.85
18.07 25.96 1.66
5.59 8.03 -1.9
20.61 29.62 3.16
7.09 10.19 -1.97
20.65 29.67 4.44
9.34 13.42 -2.01
17.24 24.77 4.78
12.36 17.76 -1.89
17.25 24.78 5.87
17.33 24.9 7
10 14.36 4.69
3.89 5.54 -1.81
18.09 25.8 0.55
4.61 6.57 -1.85
20.6 29.38 1.88
5.62 8.01 -1.9
7.13 10.17 -1.97
9.37 13.37 -2
10.89 15.52 3
12.44 17.74 -1.9
12.62 17.99 -1.15
20.46 29.18 8.23
17.29 24.66 8.07
3.9 5.53 -1.81
12.61 17.86 0.38
4.63 6.56 -1.85
5.64 7.98 -1.9
7.16 10.14 -1.97
9.42 13.34 -2
22.77 32.23 6.25
12.46 17.64 -1.89
12.59 17.81 -1.14
17.36 24.57 6.95
12.4 17.55 -0.38
12.17 17.23 5.65
3.92 5.51 -1.81
12.56 17.65 0.38
4.66 6.55 -1.85
12.65 17.78 1.14
5.66 7.96 -1.9
12.67 17.81 1.91
7.18 10.1 -1.96
12.68 17.83 2.69
9.45 13.28 -2
11.27 15.84 3.08
11.89 16.71 -1.79
11.71 16.46 3.93
12.49 17.56 -1.13
11.54 16.22 4.59
12.37 17.39 -0.37
3.94 5.5 -1.81
12.39 17.29 0.37
4.68 6.52 -1.85
12.69 17.71 1.14
5.69 7.94 -1.9
12.71 17.73 1.91
7.22 10.07 -1.96
12.71 17.74 2.68
9.5 13.26 -2
12.73 17.76 3.46
12.52 17.47 -1.88
12.69 17.7 4.23
12.46 17.39 -1.12
11.65 16.25 4.62
12.45 17.37 -0.37
12.19 17 5.6
3.96 5.49 -1.81
12.47 17.28 0.37
4.69 6.5 -1.85
12.37 17.13 1.11
5.72 7.92 -1.9
12.37 17.13 1.85
7.25 10.04 -1.96
11.21 15.53 2.35
9.57 13.25 -2.01
12.76 17.68 3.45
12.58 17.43 -1.88
12.73 17.63 4.23
12.51 17.32 -1.12
12.18 16.87 4.8
12.73 17.63 -0.38
12.74 17.65 5.83
3.98 5.48 -1.81
17.98 24.72 0.53
4.71 6.48 -1.85
12.45 17.11 1.11
5.75 7.9 -1.9
12.43 17.09 1.85
7.29 10.02 -1.96
12.24 16.83 2.56
9.63 13.24 -2.01
12.82 17.63 3.45
12.61 17.33 -1.88
12.84 17.65 4.24
12.71 17.47 -1.13
12.1 16.63 4.75
12.58 17.3 -0.37
10.07 13.84 4.59
4 5.46 -1.81
15.63 21.33 0.46
4.74 6.46 -1.85
15.71 21.43 1.39
5.77 7.87 -1.9
12.23 16.69 1.81
7.32 9.99 -1.96
11.42 15.58 2.37
9.67 13.19 -2.01
12.9 17.6 3.46
12.84 17.52 -1.9
12.73 17.36 -1.13
12.88 17.57 5.03
12.66 17.27 -0.37
11.56 15.77 5.24
4.01 5.43 -1.81
12.58 17.04 0.37
4.76 6.45 -1.85
15.75 21.34 1.39
5.79 7.85 -1.9
12.83 17.38 1.89
7.35 9.95 -1.96
11.31 15.32 2.34
9.7 13.14 -2
10.94 14.82 2.92
12.66 17.14 -1.86
12.08 16.37 3.95
12.8 17.33 -1.13
12.46 16.88 4.84
12.66 17.15 -0.37
17.65 23.91 7.96
4.04 5.43 -1.81
12.58 16.91 0.37
4.78 6.43 -1.85
12.46 16.75 1.09
5.82 7.83 -1.9
15.86 21.32 2.32
7.38 9.92 -1.96
11.38 15.31 2.34
9.78 13.16 -2.01
10.97 14.75 2.91
12.73 17.12 -1.87
12.31 16.55 4.01
12.98 17.45 -1.14
11.81 15.87 4.57
12.77 17.17 -0.37
11.37 15.29 5.11
4.06 5.41 -1.81
4.8 6.41 -1.85
12.56 16.77 1.1
5.85 7.81 -1.9
28.7 38.31 4.19
7.41 9.89 -1.96
12.12 16.17 2.48
9.86 13.15 -2.02
11.85 15.81 3.13
13.11 17.5 -1.91
12.25 16.36 3.97
12.51 16.7 4.82
12.9 17.21 -0.38
11.42 15.25 5.1
4.08 5.4 -1.81
12.75 16.91 0.37
4.82 6.39 -1.85
12.71 16.84 1.11
5.87 7.78 -1.9
20.36 26.98 2.96
7.44 9.86 -1.96
12.15 16.11 2.48
9.92 13.16 -2.02
11 14.58 2.89
13.21 17.52 -1.92
12.27 16.27 3.96
14.57 19.32 -1.27
10.6 14.05 4.06
13 17.23 -0.38
4.09 5.38 -1.81
12.93 17.02 0.37
4.84 6.38 -1.85
12.73 16.75 1.1
5.89 7.76 -1.89
26.51 34.89 3.83
7.47 9.83 -1.96
26.58 34.98 5.39
9.93 13.07 -2.02
11.06 14.56 2.9
13.28 17.48 -1.92
12.27 16.14 3.94
12.5 16.45 4.77
17.83 23.47 -0.51
12.12 15.95 5.37
4.11 5.37 -1.81
13.01 16.99 0.37
4.87 6.36 -1.85
12.79 16.71 1.1
5.92 7.73 -1.89
12.51 16.35 1.8
7.5 9.8 -1.96
23.3 30.44 4.71
9.97 13.03 -2.01
11.13 14.55 2.9
13.07 17.08 -1.88
12.5 16.34 4
18.46 24.12 -1.59
10.75 14.04 4.08
12.25 16 5.4
4.13 5.35 -1.81
18.53 24.04 0.53
4.89 6.34 -1.85
13.09 16.98 1.12
5.95 7.71 -1.89
12.56 16.29 1.8
7.53 9.77 -1.95
10.02 12.99 -2.01
15.86 20.57 4.11
13.29 17.23 -1.9
16.7 21.67 -1.43
12.48 16.19 4.72
4.15 5.34 -1.81
4.91 6.32 -1.85
13.07 16.83 1.12
5.97 7.69 -1.89
13.25 17.06 1.89
7.56 9.74 -1.95
10.06 12.96 -2.01
20.86 26.87 5.39
13.27 17.09 -1.89
12.47 16.06 3.95
10.84 13.96 4.08
12.35 15.9 5.39
4.17 5.33 -1.81
4.93 6.3 -1.85
13.15 16.81 1.12
6 7.67 -1.89
13.28 16.98 1.89
7.59 9.71 -1.95
10.12 12.93 -2.02
11.25 14.38 2.89
13.5 17.26 -1.92
12.76 16.31 4.02
12.27 15.69 4.6
4.19 5.31 -1.81
4.96 6.29 -1.85
6.02 7.64 -1.89
12.83 16.29 1.81
7.62 9.68 -1.95
17.49 22.2 3.47
10.22 12.97 -2.03
17.44 22.14 4.46
13.58 17.24 -1.92
17.4 22.09 5.47
17.7 22.47 -1.5
10.82 13.73 4.04
15.89 20.17 -0.45
12.43 15.78 5.38
4.2 5.29 -1.81
17.79 22.42 0.5
4.98 6.28 -1.85
6.04 7.62 -1.89
12.87 16.21 1.81
7.66 9.65 -1.95
17.61 22.2 3.48
10.27 12.95 -2.03
11.95 15.06 3.05
14.34 18.07 -2.02
11.33 14.28 3.54
15.73 19.82 -1.33
11.04 13.91 4.1
17.81 22.45 -0.5
12.37 15.59 5.33
4.21 5.27 -1.81
17.81 22.29 0.5
5 6.25 -1.85
17.79 22.26 1.49
6.07 7.59 -1.89
17.74 22.2 2.49
7.68 9.61 -1.95
10.31 12.91 -2.03
12.07 15.1 3.06
13.74 17.19 -1.93
11.36 14.21 3.54
17.91 22.41 -1.5
10.95 13.7 4.05
17.9 22.4 -0.5
17.2 21.53 7.38
4.24 5.26 -1.81
17.93 22.27 0.5
5.01 6.22 -1.84
17.87 22.2 1.49
6.1 7.58 -1.89
7.71 9.58 -1.95
12.72 15.8 2.49
10.38 12.89 -2.03
12.43 15.44 3.14
13.74 17.08 -1.92
11.4 14.16 3.53
17.78 22.09 -1.49
12.56 15.61 4.63
18.71 23.25 -0.52
12.23 15.2 5.23
4.25 5.25 -1.81
5.03 6.21 -1.85
15.25 18.81 1.27
6.12 7.55 -1.89
22.37 27.6 3.11
7.74 9.55 -1.95
12.77 15.75 2.49
10.42 12.86 -2.03
13.92 17.17 -1.93
13.13 16.2 4.05
18.56 22.9 -1.54
13.85 17.08 5.08
18.78 23.17 -0.52
13.87 17.11 5.9
4.27 5.23 -1.81
18.93 23.18 0.52
5.06 6.19 -1.85
15.32 18.76 1.27
6.14 7.52 -1.89
18.02 22.07 2.49
7.78 9.52 -1.95
13.15 16.11 2.55
10.48 12.84 -2.03
16.65 20.39 4.17
14.01 17.16 -1.94
11.77 14.42 3.62
17.46 21.39 -1.45
11.25 13.78 4.11
13.76 16.85 5.83
4.28 5.21 -1.81
19 23.12 0.52
5.08 6.18 -1.85
19.06 23.2 1.57
6.16 7.49 -1.89
22.32 27.17 3.08
7.8 9.5 -1.95
12.81 15.59 2.48
10.51 12.79 -2.03
26.06 31.71 6.5
14.06 17.11 -1.94
11.87 14.45 3.64
11.23 13.67 4.08
13.73 16.71 5.79
4.3 5.2 -1.81
22.32 26.97 0.61
5.1 6.16 -1.85
15.44 18.66 1.27
6.19 7.47 -1.89
19.24 23.24 2.64
7.82 9.45 -1.94
13.28 16.04 2.56
10.51 12.7 -2.02
14.07 17 -1.93
17.12 20.68 -1.41
17.61 21.28 -0.48
12.52 15.13 5.26
4.32 5.18 -1.81
16.1 19.32 0.44
5.11 6.13 -1.84
6.21 7.45 -1.89
13.53 16.24 1.85
7.86 9.43 -1.94
19.17 23 3.68
10.55 12.65 -2.02
17.4 20.88 4.3
14.03 16.83 -1.92
12.2 14.64 3.7
15.21 18.25 -1.25
11.28 13.53 4.07
12.41 14.89 5.19
4.34 5.17 -1.81
5.13 6.11 -1.84
19.24 22.92 1.57
6.23 7.43 -1.88
13.56 16.15 1.85
7.89 9.4 -1.94
22.66 26.99 4.33
10.64 12.68 -2.03
12.93 15.4 3.19
14.08 16.77 -1.92
12.53 14.93 3.79
16.4 19.53 -1.34
17.91 21.33 6.43
12.34 14.71 5.14
4.36 5.15 -1.81
5.15 6.1 -1.84
17.82 21.09 1.45
6.25 7.4 -1.88
7.92 9.37 -1.94
10.69 12.65 -2.03
12.96 15.33 3.18
13.93 16.47 -1.89
18.11 21.43 -1.47
11.5 13.6 4.11
18.48 21.86 -0.5
12.52 14.81 5.2
4.37 5.13 -1.81
5.17 6.08 -1.84
6.27 7.37 -1.88
7.95 9.34 -1.94
18.4 21.61 3.49
10.74 12.61 -2.03
29.87 35.08 7.3
13.91 16.34 -1.88
18.14 21.31 -1.47
17.98 21.12 6.4
18.52 21.75 -0.5
12.74 14.96 5.27
4.38 5.11 -1.81
5.2 6.06 -1.84
6.3 7.35 -1.88
16.33 19.04 2.19
7.98 9.3 -1.94
16.46 19.2 3.1
10.84 12.64 -2.04
13.48 15.72 3.28
14 16.32 -1.88
12.59 14.69 3.76
16.12 18.8 -1.3
12.71 14.82 4.51
13.68 15.96 5.63
4.41 5.1 -1.81
5.21 6.03 -1.84
6.33 7.33 -1.88
16.28 18.86 2.18
8.01 9.27 -1.94
16.52 19.13 3.1
10.89 12.61 -2.05
13.51 15.65 3.27
11.84 13.71 -1.58
12.89 14.93 3.83
16.58 19.2 -1.33
19.72 22.84 6.97
16.49 19.1 -0.44
13.73 15.9 5.63
4.43 5.09 -1.81
16.26 18.7 0.43
5.23 6.02 -1.84
18.53 21.31 1.48
6.35 7.3 -1.88
16.22 18.65 2.16
8.04 9.25 -1.94
16.15 18.57 3.02
10.86 12.49 -2.03
11.83 13.6 -1.58
12.24 14.08 3.63
11.84 13.62 -0.95
19.8 22.77 6.97
16.63 19.13 -0.44
19.77 22.73 8.07
4.44 5.07 -1.81
16.25 18.56 0.43
5.25 6 -1.84
6.36 7.27 -1.88
17.57 20.07 2.33
8.07 9.22 -1.94
10.91 12.45 -2.03
19.81 22.62 4.76
11.84 13.52 -1.57
12.29 14.03 3.62
11.84 13.52 -0.94
19.69 22.48 6.9
16.71 19.08 -0.44
4.45 5.05 -1.8
16.2 18.38 0.43
5.28 5.99 -1.84
18.66 21.16 1.48
6.39 7.24 -1.88
8.1 9.18 -1.94
13.82 15.68 2.57
11 12.47 -2.04
19.92 22.6 4.77
11.82 13.41 -1.56
12.61 14.31 3.71
11.84 13.43 -0.94
16.74 18.99 -0.44
4.47 5.03 -1.8
16.34 18.4 0.43
5.3 5.96 -1.84
25.04 28.21 1.98
6.41 7.22 -1.88
8.12 9.14 -1.94
13.85 15.6 2.56
11.17 12.58 -2.06
18.08 20.36 4.31
11.86 13.35 -1.56
12.6 14.19 3.69
11.87 13.37 -0.94
13.47 15.17 4.68
4.49 5.02 -1.81
16.6 18.56 0.43
5.31 5.94 -1.84
16.74 18.73 1.32
6.44 7.21 -1.88
16.1 18.01 2.11
8.14 9.11 -1.93
11.15 12.47 -2.05
18.62 20.83 4.43
11.95 13.37 -1.57
11.94 13.36 -0.94
12.2 13.64 4.22
16.65 18.62 -0.44
4.51 5.01 -1.81
16.76 18.61 0.44
5.33 5.92 -1.84
16.84 18.7 1.32
6.46 7.18 -1.88
16.19 17.99 2.12
8.17 9.08 -1.93
11.17 12.41 -2.05
18.6 20.66 4.4
12.03 13.37 -1.57
20.1 22.32 5.84
12.02 13.35 -0.94
12.27 13.63 4.23
17.67 19.63 -0.46
14.61 16.23 5.85
4.52 4.98 -1.8
17.71 19.54 0.46
5.35 5.9 -1.84
17.59 19.4 1.37
6.48 7.15 -1.88
17.7 19.52 2.31
8.2 9.04 -1.93
17.7 19.52 3.24
11.21 12.37 -2.05
12.11 13.36 -1.58
13.48 14.87 3.9
12.1 13.35 -0.94
12.18 13.43 4.19
17.77 19.6 -0.46
14.62 16.13 5.83
4.53 4.96 -1.8
15.96 17.48 0.41
5.37 5.88 -1.84
15.97 17.49 1.24
6.5 7.12 -1.87
16 17.52 2.08
8.23 9.01 -1.93
17.7 19.38 3.22
11.27 12.34 -2.05
17.63 19.31 4.14
12.19 13.35 -1.58
17.52 19.18 5.05
12.2 13.36 -0.95
12.3 13.47 4.21
15.95 17.47 -0.41
14.69 16.09 5.84
4.55 4.95 -1.8
16 17.4 0.41
5.39 5.87 -1.84
16.03 17.43 1.24
6.53 7.1 -1.87
16.12 17.53 2.08
8.25 8.97 -1.93
17.17 18.67 3.11
11.29 12.27 -2.05
17.71 19.25 4.14
12.28 13.35 -1.59
12.25 13.32 3.52
12.28 13.35 -0.95
12.42 13.51 4.24
16.03 17.44 -0.41
4.57 4.94 -1.8
16.19 17.48 0.42
5.4 5.84 -1.84
16.21 17.51 1.25
6.55 7.08 -1.87
16.3 17.6 2.1
8.28 8.94 -1.93
11.34 12.25 -2.05
25.93 28 6.04
12.37 13.36 -1.59
17.7 19.11 5.06
12.36 13.34 -0.95
12.87 13.9 4.37
16.21 17.51 -0.42
17.61 19.01 6.94
4.59 4.92 -1.8
16.35 17.53 0.42
5.43 5.82 -1.84
16.37 17.55 1.26
6.58 7.05 -1.87
17.81 19.1 2.28
8.31 8.91 -1.93
17.31 18.56 3.12
11.53 12.37 -2.08
17.84 19.13 4.14
12.46 13.36 -1.6
12.43 13.33 -0.96
16.37 17.56 -0.42
13.32 14.29 5.23
4.61 4.91 -1.8
16.51 17.58 0.42
5.45 5.8 -1.84
16.52 17.6 1.27
6.59 7.02 -1.87
17.56 18.7 2.24
8.34 8.88 -1.93
11.5 12.25 -2.06
17.7 18.85 4.1
14.85 15.82 -1.9
12.47 13.28 3.54
12.82 13.65 4.32
16.53 17.61 -0.42
20 21.3 7.83
4.62 4.88 -1.8
16.68 17.64 0.42
5.47 5.79 -1.84
16.69 17.65 1.27
6.62 7 -1.87
17.69 18.71 2.25
8.36 8.85 -1.93
16.86 17.82 3.01
11.55 12.21 -2.06
17.61 18.63 4.06
14.9 15.76 -1.9
12.49 13.21 3.53
12.82 13.55 4.31
16.71 17.67 -0.42
4.63 4.87 -1.8
16.84 17.68 0.43
5.49 5.76 -1.84
16.88 17.72 1.28
6.64 6.98 -1.87
17.73 18.62 2.25
8.38 8.8 -1.92
16.83 17.68 3
11.67 12.26 -2.08
14.95 15.7 -1.9
14.4 15.12 4.82
16.88 17.72 -0.43
13.12 13.78 5.1
4.65 4.85 -1.8
17.04 17.77 0.43
5.5 5.74 -1.84
17.06 17.79 1.29
6.67 6.95 -1.87
17.77 18.53 2.25
8.41 8.77 -1.92
16.9 17.63 3
11.71 12.21 -2.08
14.17 14.77 3.24
15.02 15.66 -1.9
17.84 18.6 5.01
17.02 17.75 -1.29
14.48 15.1 4.83
17.04 17.77 -0.43
17.88 18.65 6.92
4.68 4.84 -1.8
17.22 17.83 0.43
5.52 5.72 -1.84
17.2 17.81 1.3
6.69 6.93 -1.87
17.82 18.45 2.24
8.43 8.73 -1.92
23.52 24.36 4.16
11.72 12.14 -2.07
14.22 14.73 3.24
15.08 15.62 -1.9
17.92 18.55 5.01
17.17 17.78 -1.3
13.12 13.58 4.36
17.22 17.83 -0.43
12.92 13.38 4.98
4.69 4.82 -1.8
17.4 17.89 0.44
5.55 5.7 -1.84
17.37 17.86 1.31
6.71 6.9 -1.87
18.31 18.83 2.3
8.46 8.7 -1.92
19.73 20.29 3.48
11.75 12.08 -2.07
17.98 18.49 4.08
15.14 15.57 -1.9
17.35 17.84 -1.3
17.37 17.86 -0.43
12.95 13.32 4.98
4.7 4.8 -1.8
17.55 17.92 0.44
5.57 5.69 -1.84
17.55 17.92 1.31
6.73 6.88 -1.87
18.35 18.74 2.29
8.49 8.67 -1.92
18.64 19.03 3.27
11.78 12.03 -2.07
24.15 24.66 5.47
15.18 15.51 -1.9
18.15 18.53 5.04
17.53 17.9 -1.31
25.81 26.36 8.52
17.56 17.93 -0.44
13.07 13.35 5.01
4.72 4.78 -1.8
17.74 17.98 0.44
5.59 5.67 -1.84
17.72 17.97 1.32
6.75 6.85 -1.87
18.41 18.67 2.29
8.51 8.63 -1.92
18.65 18.91 3.26
11.82 11.99 -2.07
14.23 14.43 3.21
15.26 15.47 -1.9
17.7 17.95 -1.32
17.87 18.12 5.88
17.74 17.99 -0.44
4.74 4.77 -1.8
17.91 18.04 0.44
5.6 5.63 -1.83
17.89 18.02 1.33
6.78 6.83 -1.87
18.45 18.58 2.29
8.54 8.6 -1.92
17.74 17.87 3.09
11.89 11.98 -2.07
15.32 15.43 -1.9
18.51 18.64 5.1
17.87 18 -1.33
14.91 15.01 4.88
17.92 18.04 -0.44
4.75 4.75 -1.8
17.98 17.99 0.44
5.62 5.62 -1.83
18.01 18.02 1.34
6.8 6.8 -1.87
18.49 18.5 2.29
8.57 8.57 -1.92
11.9 11.91 -2.07
15.39 15.4 -1.91
18.56 18.57 5.1
17.98 17.99 -1.33
18.01 18.02 -0.44
13.41 13.41 5.08
4.77 4.74 -1.8
19.51 19.38 0.48
5.64 5.6 -1.83
25.87 25.7 1.91
6.81 6.76 -1.87
18.53 18.4 2.28
8.59 8.54 -1.92
12.02 11.94 -2.08
16.62 16.51 3.71
15.47 15.37 -1.91
18.63 18.51 5.11
15 14.9 4.88
25.87 25.7 -0.64
14.55 14.45 5.49
4.77 4.71 -1.8
19.62 19.35 0.48
5.66 5.58 -1.83
26.01 25.66 1.91
6.83 6.74 -1.87
18.58 18.33 2.28
8.62 8.5 -1.92
18.83 18.57 3.25
12.09 11.93 -2.08
16.77 16.54 3.73
15.54 15.33 -1.91
16.49 16.26 4.5
22.17 21.87 -1.63
22.12 21.82 -0.54
18.01 17.76 6.78
4.79 4.69 -1.8
19.79 19.39 0.48
5.68 5.56 -1.83
22.21 21.76 1.63
6.86 6.72 -1.87
18.61 18.24 2.28
8.64 8.46 -1.92
18.88 18.5 3.25
10.82 10.59 -1.86
18.05 17.68 4
15.61 15.29 -1.91
20.26 19.85 5.51
22.21 21.76 -0.54
13.46 13.18 5.05
4.81 4.68 -1.8
19.86 19.32 0.48
5.69 5.53 -1.83
22.28 21.68 1.63
6.88 6.69 -1.87
18.67 18.16 2.28
8.67 8.43 -1.92
18.95 18.43 3.25
10.94 10.64 -1.87
26.21 25.49 5.79
15.69 15.26 -1.92
16.51 16.06 4.48
22.18 21.58 -1.62
18.27 17.78 5.89
22.26 21.66 -0.54
14.68 14.28 5.49
4.83 4.67 -1.8
20.02 19.34 0.49
5.7 5.51 -1.83
22.33 21.58 1.63
6.91 6.67 -1.87
18.77 18.13 2.28
8.7 8.4 -1.92
19.02 18.38 3.25
10.96 10.59 -1.87
17.02 16.44 3.75
15.77 15.23 -1.92
22.26 21.5 -1.62
18.32 17.69 5.88
22.31 21.55 -0.54
14.76 14.26 5.5
4.84 4.64 -1.8
22.35 21.44 0.54
5.73 5.49 -1.83
22.4 21.49 1.63
6.92 6.64 -1.86
18.87 18.1 2.29
8.73 8.38 -1.92
10.99 10.54 -1.87
17.02 16.33 3.74
15.83 15.19 -1.92
16.38 15.72 4.41
22.31 21.4 -1.62
22.35 21.44 -0.54
13.69 13.13 5.08
4.85 4.62 -1.79
22.39 21.33 0.54
5.75 5.47 -1.83
6.94 6.62 -1.86
18.83 17.94 2.27
8.76 8.35 -1.92
13.92 13.26 2.36
11.04 10.52 -1.87
17.07 16.26 3.73
15.89 15.14 -1.92
16.45 15.67 4.42
22.36 21.3 -1.62
22.39 21.33 -0.54
4.87 4.61 -1.8
22.44 21.23 0.54
5.77 5.45 -1.83
20.06 18.97 1.45
6.97 6.59 -1.87
18.84 17.82 2.27
8.78 8.3 -1.91
13.98 13.22 2.36
11.1 10.5 -1.88
15.96 15.1 -1.92
16.45 15.57 4.4
22.42 21.21 -1.62
19.37 18.33 6.16
22.45 21.23 -0.54
4.89 4.59 -1.8
22.48 21.12 0.54
5.78 5.43 -1.83
7 6.57 -1.87
18.87 17.73 2.27
8.8 8.27 -1.91
26.32 24.73 4.43
11.25 10.57 -1.9
14.81 13.91 3.22
16.06 15.08 -1.93
18.48 17.36 4.93
22.44 21.08 -1.61
21.78 20.46 6.9
22.49 21.13 -0.54
4.9 4.57 -1.8
22.53 21.01 0.54
5.8 5.41 -1.83
22.57 21.05 1.62
7.01 6.54 -1.86
18.94 17.67 2.27
8.84 8.24 -1.91
18.07 16.86 3.04
11.28 10.52 -1.89
27.18 25.36 5.89
16.14 15.06 -1.93
22.5 20.99 -1.61
15.93 14.86 5.03
22.53 21.02 -0.54
13.81 12.88 5.06
4.92 4.55 -1.8
22.58 20.92 0.54
5.82 5.39 -1.83
22.61 20.95 1.62
7.02 6.51 -1.86
19.01 17.61 2.27
8.87 8.21 -1.91
14.09 13.05 2.36
11.33 10.5 -1.9
15.01 13.91 3.24
16.2 15 -1.93
18.38 17.03 4.87
22.5 20.85 -1.61
15.96 14.78 5.02
22.55 20.89 -0.54
13.95 12.92 5.09
4.93 4.53 -1.79
22.62 20.81 0.54
5.84 5.37 -1.83
22.65 20.84 1.61
7.04 6.48 -1.86
19.08 17.56 2.27
8.89 8.18 -1.91
14.04 12.92 2.34
11.38 10.47 -1.9
14.37 13.22 3.09
16.26 14.96 -1.93
17.98 16.55 4.75
22.55 20.75 -1.61
14.65 13.48 4.6
22.62 20.82 -0.54
15.6 14.35 5.68
4.94 4.52 -1.79
22.66 20.71 0.54
5.85 5.35 -1.83
22.72 20.76 1.61
7.06 6.45 -1.86
19.15 17.5 2.27
8.91 8.14 -1.91
18.18 16.61 3.02
11.43 10.45 -1.9
14.46 13.22 3.1
16.36 14.95 -1.94
17.65 16.13 4.65
22.6 20.66 -1.6
14.66 13.4 4.58
22.67 20.72 -0.54
15.46 14.13 5.61
4.96 4.5 -1.79
22.71 20.6 0.54
5.86 5.32 -1.83
22.78 20.66 1.61
7.08 6.42 -1.86
19.36 17.56 2.29
8.93 8.1 -1.91
18.21 16.51 3.02
11.47 10.4 -1.9
14.43 13.09 3.09
16.41 14.89 -1.94
17.57 15.93 4.61
22.65 20.54 -1.6
16.24 14.73 5.06
22.72 20.61 -0.54
14.02 12.71 5.07
4.98 4.48 -1.8
22.76 20.51 0.53
5.89 5.3 -1.83
20.61 18.57 1.45
7.1 6.4 -1.86
19.35 17.44 2.28
8.96 8.07 -1.91
18.21 16.4 3.01
11.51 10.37 -1.9
14.45 13.02 3.08
16.48 14.85 -1.94
17.88 16.11 4.68
22.71 20.46 -1.6
16.44 14.81 5.11
22.77 20.51 -0.53
15.47 13.94 5.58
4.99 4.46 -1.79
22.81 20.4 0.53
5.9 5.28 -1.83
7.11 6.36 -1.85
19.39 17.35 2.28
8.99 8.04 -1.91
18.25 16.33 3.01
11.55 10.33 -1.9
14.22 12.72 3.02
16.57 14.82 -1.94
18.77 16.79 4.89
22.76 20.37 -1.6
18.87 16.89 5.85
22.8 20.4 -0.53
14.18 12.69 5.1
5 4.44 -1.79
22.84 20.3 0.53
5.92 5.26 -1.83
7.14 6.35 -1.86
19.57 17.39 2.29
9.01 8.01 -1.91
18.3 16.26 3.01
11.61 10.32 -1.91
14.23 12.65 3.02
16.61 14.76 -1.94
17.8 15.82 4.63
22.82 20.28 -1.6
18.91 16.81 5.84
22.86 20.31 -0.53
5.01 4.42 -1.79
22.89 20.19 0.53
5.94 5.24 -1.83
22.91 20.21 1.6
7.16 6.32 -1.86
9.03 7.97 -1.91
18.04 15.92 2.95
11.69 10.31 -1.91
14.38 12.69 3.04
16.68 14.71 -1.95
15.76 13.91 4.09
22.88 20.19 -1.6
16.25 14.34 5
22.9 20.21 -0.53
15.6 13.77 5.58
5.03 4.41 -1.79
22.93 20.1 0.53
5.95 5.21 -1.83
20.07 17.58 1.4
7.17 6.29 -1.85
9.05 7.93 -1.91
18.27 16 2.98
11.76 10.3 -1.92
14.47 12.68 3.05
16.75 14.68 -1.95
15.88 13.91 4.1
22.91 20.07 -1.6
16.68 14.61 5.12
22.95 20.1 -0.53
20.15 17.66 7.18
5.05 4.39 -1.79
22.98 19.99 0.53
5.97 5.19 -1.83
23 20.01 1.6
7.2 6.26 -1.85
19.69 17.13 2.28
9.08 7.9 -1.91
18.98 16.51 3.09
11.82 10.28 -1.92
14.57 12.68 3.06
16.83 14.64 -1.95
18.85 16.4 4.86
22.95 19.97 -1.59
15.84 13.78 4.85
22.96 19.97 -0.53
15.6 13.57 5.54
5.07 4.38 -1.79
22.98 19.85 0.53
5.99 5.17 -1.83
13.28 11.47 0.92
7.21 6.23 -1.85
9.11 7.87 -1.91
18.41 15.91 2.99
11.9 10.28 -1.93
14.56 12.58 3.05
16.88 14.58 -1.95
18.83 16.27 4.84
15.9 13.73 4.85
22.99 19.86 -0.53
18.75 16.2 6.64
5.08 4.35 -1.79
6.01 5.15 -1.83
13.29 11.4 0.92
7.24 6.21 -1.85
19.94 17.1 2.3
9.13 7.83 -1.91
18.47 15.84 2.99
12 10.29 -1.94
14.61 12.53 3.05
16.98 14.56 -1.96
15.97 13.7 4.09
16.18 13.88 4.92
15.57 13.35 5.5
5.09 4.33 -1.79
6.02 5.13 -1.83
13.28 11.31 0.91
7.26 6.19 -1.85
20.1 17.12 2.31
9.14 7.79 -1.9
18.45 15.72 2.98
12.07 10.28 -1.95
14.66 12.49 3.05
17.07 14.54 -1.96
18.2 15.5 4.65
16.04 13.66 4.86
13.21 11.26 -0.3
5.1 4.31 -1.79
13.2 11.16 0.3
6.03 5.1 -1.82
13.23 11.18 0.91
7.28 6.16 -1.85
20.21 17.09 2.32
9.18 7.76 -1.9
18.11 15.32 2.91
12.16 10.28 -1.96
14.71 12.44 3.05
13.22 11.18 -1.51
18.18 15.37 4.63
13.19 11.15 -0.91
16.31 13.8 4.93
13.23 11.19 -0.3
15.59 13.19 5.47
5.12 4.3 -1.79
6.05 5.08 -1.82
13.28 11.15 0.91
7.31 6.14 -1.85
20.25 17 2.31
9.2 7.73 -1.9
18.58 15.61 2.98
12.24 10.28 -1.96
17 14.27 3.52
17.17 14.42 -1.96
18.18 15.27 4.62
16.35 13.73 4.93
15.46 12.99 5.41
5.14 4.28 -1.79
6.07 5.06 -1.83
13.28 11.08 0.91
7.31 6.1 -1.85
9.23 7.69 -1.9
20.98 17.49 3.35
12.33 10.28 -1.97
16.98 14.16 3.5
17.18 14.32 -1.96
16.2 13.51 4.1
16.09 13.41 4.84
18.38 15.33 6.41
5.14 4.26 -1.79
6.09 5.04 -1.82
13.28 11 0.9
7.34 6.07 -1.85
20.17 16.7 2.29
9.25 7.66 -1.9
18.75 15.52 2.99
12.41 10.28 -1.98
17.16 14.21 -1.95
16.22 13.43 4.09
16.01 13.26 4.8
18.86 15.62 6.56
5.16 4.24 -1.79
6.1 5.02 -1.82
7.36 6.05 -1.85
19.91 16.37 2.26
9.26 7.62 -1.9
18.85 15.5 3
12.49 10.27 -1.99
17.01 13.98 3.49
17.24 14.17 -1.95
17.15 14.1 4.32
16.71 13.73 4.99
18.46 15.17 6.4
5.17 4.22 -1.79
6.11 4.99 -1.82
7.38 6.03 -1.85
19.93 16.27 2.25
9.3 7.59 -1.9
20.75 16.94 3.29
12.6 10.28 -2
16.97 13.85 3.47
17.25 14.08 -1.95
19.07 15.57 4.79
16.48 13.46 4.91
18.41 15.03 6.37
5.19 4.2 -1.79
6.13 4.97 -1.82
7.4 6 -1.85
20.73 16.8 2.33
9.32 7.56 -1.9
18.32 14.85 2.9
12.66 10.26 -2
17.02 13.79 3.47
17.22 13.95 -1.94
16.48 13.35 4.9
19.03 15.42 6.56
5.2 4.18 -1.79
6.15 4.95 -1.82
7.42 5.97 -1.85
20.92 16.83 2.35
9.35 7.53 -1.9
18.35 14.77 2.89
12.77 10.28 -2.01
18.19 14.64 3.7
17.42 14.02 -1.96
20.61 16.58 5.14
16.52 13.29 4.9
15.97 12.85 5.49
5.2 4.16 -1.78
6.17 4.93 -1.82
7.44 5.94 -1.85
9.37 7.49 -1.9
12.84 10.26 -2.02
20.45 16.34 4.15
17.58 14.05 -1.97
16.53 13.21 4.11
16.54 13.21 4.89
19.21 15.34 6.59
5.22 4.14 -1.79
6.18 4.91 -1.82
7.46 5.92 -1.85
9.39 7.45 -1.9
19.04 15.11 2.98
12.86 10.2 -2.02
18.51 14.69 3.74
17.67 14.02 -1.97
17.69 14.04 4.39
19.77 15.69 5.83
16.08 12.75 5.5
5.24 4.12 -1.79
6.19 4.88 -1.82
7.48 5.89 -1.85
9.41 7.41 -1.9
18.88 14.87 2.95
12.86 10.13 -2.01
17.9 14.1 3.61
17.79 14.01 -1.98
16.45 12.95 4.07
16.62 13.09 4.88
18.58 14.63 6.34
5.25 4.11 -1.79
6.21 4.86 -1.82
7.49 5.86 -1.85
9.44 7.38 -1.9
19.89 15.55 3.1
12.87 10.07 -2.01
18.47 14.45 3.71
17.65 13.81 -1.96
16.47 12.88 4.06
19.86 15.53 5.82
19.98 15.62 6.8
5.26 4.09 -1.78
6.23 4.84 -1.82
7.51 5.83 -1.85
9.46 7.35 -1.9
19.93 15.48 3.1
12.84 9.97 -2
17.94 13.93 -1.99
16.02 12.44 5.44
5.27 4.07 -1.78
18.39 14.19 0.41
6.25 4.82 -1.82
7.52 5.81 -1.85
9.49 7.32 -1.9
12.84 9.91 -1.99
18.26 14.08 3.65
18 13.89 -1.99
17.94 13.84 4.4
19.26 14.86 6.52
5.28 4.04 -1.78
6.26 4.79 -1.82
7.55 5.78 -1.85
9.51 7.27 -1.9
12.88 9.86 -1.99
18.06 13.82 -1.99
18.72 14.32 4.58
19.61 15.01 6.62
5.3 4.03 -1.78
6.27 4.76 -1.82
7.58 5.76 -1.85
9.53 7.24 -1.9
12.93 9.83 -1.99
20.27 15.4 4.03
18.2 13.83 -2
18.03 13.7 4.4
3.81 2.9 -0.25
3.82 2.9 -0.08
19.33 14.69 6.51
5.32 4.01 -1.78
6.28 4.74 -1.82
7.59 5.73 -1.85
9.55 7.21 -1.9
20.56 15.51 3.16
12.94 9.76 -1.99
18.34 13.83 -2.01
18.04 13.61 4.39
5.33 3.99 -1.78
6.31 4.72 -1.82
7.6 5.7 -1.85
9.57 7.17 -1.89
20.58 15.42 3.16
3.7 2.77 -0.57
18.05 13.52 3.57
3.79 2.84 -0.41
17.99 13.48 4.37
3.77 2.83 -0.25
5.33 3.96 -1.78
18.47 13.73 0.4
6.32 4.7 -1.82
7.64 5.68 -1.85
9.6 7.14 -1.89
20.67 15.37 3.16
3.69 2.75 -0.57
18.49 13.75 3.65
18.24 13.56 4.42
3.76 2.8 -0.25
5.35 3.95 -1.78
18.45 13.62 0.4
3.72 2.75 -1.07
3.69 2.72 -0.89
18.51 13.67 3.64
3.76 2.78 -0.41
20.45 15.11 4.94
3.74 2.76 -0.24
3.74 2.76 -0.08
18.49 13.55 0.4
18.25 13.37 3.58
3.74 2.74 -0.41
18.37 13.46 4.43
3.72 2.73 -0.24
18.29 13.4 5.24
3.74 2.74 -0.08
3.71 2.7 0.08
3.72 2.71 -0.4
3.71 2.7 -0.24
3.73 2.71 -0.08
3.69 2.66 -1.22
3.7 2.67 0.08
3.69 2.66 -0.72
3.71 2.68 -0.4
3.69 2.66 -0.24
3.71 2.68 -0.08
3.67 2.63 -1.21
3.69 2.64 0.08
3.68 2.64 -1.04
3.66 2.62 -0.88
3.68 2.64 -0.72
3.68 2.64 -0.56
19.58 14.04 3.82
3.67 2.63 -0.4
3.68 2.64 -0.24
3.69 2.64 -0.08
3.65 2.6 -1.2
3.65 2.6 0.08
3.66 2.6 -1.04
3.66 2.6 -0.87
3.66 2.61 -0.71
3.66 2.61 -0.55
19.51 13.89 3.79
3.65 2.6 -0.39
3.66 2.61 -0.24
3.67 2.61 -0.08
3.65 2.58 -1.2
3.63 2.57 0.08
3.63 2.56 -1.03
3.65 2.58 -0.87
3.65 2.58 -0.71
3.65 2.58 -0.55
3.64 2.57 -0.39
3.64 2.57 -0.23
3.65 2.58 -0.08
3.63 2.55 -1.19
3.62 2.54 -1.02
3.63 2.55 -0.86
3.63 2.55 -0.7
3.64 2.55 -0.55
19.68 13.8 3.81
3.63 2.55 -0.39
3.62 2.54 -0.23
3.63 2.55 -0.08
3.62 2.52 -1.18
3.69 2.57 0.08
3.62 2.52 -1.02
3.62 2.52 -0.86
3.63 2.53 -0.7
3.66 2.55 -0.55
3.62 2.52 -0.39
3.6 2.5 -0.23
3.6 2.5 -0.08
3.67 2.53 -0.55
3.6 2.48 -0.38
3.58 2.47 -0.23
3.59 2.48 -0.08
5.46 3.75 -1.77
6.47 4.44 -1.81
3.64 2.49 -0.86
3.64 2.5 -0.7
3.68 2.53 -0.55
3.58 2.46 -0.38
3.56 2.44 -0.23
3.58 2.45 -0.08
5.48 3.73 -1.78
6.48 4.41 -1.81
3.65 2.49 -0.86
3.67 2.49 -0.7
3.71 2.52 -0.55
3.55 2.42 -0.23
3.57 2.43 -0.08
5.5 3.72 -1.78
6.49 4.38 -1.81
7.87 5.32 -1.85
9.84 6.65 -1.88
13.3 8.98 -1.97
3.54 2.39 -0.22
5.51 3.7 -1.78
6.51 4.37 -1.81
7.89 5.29 -1.85
9.87 6.62 -1.88
13.3 8.92 -1.97
19.02 12.76 -2
5.52 3.67 -1.78
6.52 4.34 -1.81
7.91 5.27 -1.85
9.88 6.58 -1.88
13.34 8.88 -1.97
19.06 12.7 -2
5.53 3.65 -1.77
6.54 4.32 -1.81
7.92 5.23 -1.85
9.89 6.53 -1.88
13.36 8.82 -1.97
19.15 12.64 -2.01
5.54 3.63 -1.78
6.54 4.29 -1.81
7.94 5.21 -1.85
9.92 6.51 -1.88
13.37 8.77 -1.96
19.13 12.54 -2
33.81 22.16 -2.12
5.56 3.62 -1.78
6.56 4.27 -1.81
7.95 5.17 -1.84
9.94 6.47 -1.88
13.4 8.72 -1.96
19.04 12.39 -1.99
33.74 21.95 -2.11
5.57 3.59 -1.78
6.57 4.24 -1.81
7.96 5.14 -1.84
9.95 6.43 -1.88
13.42 8.67 -1.96
19.07 12.32 -1.99
33.6 21.7 -2.1
5.57 3.57 -1.77
6.59 4.22 -1.81
7.98 5.11 -1.84
9.97 6.39 -1.88
13.46 8.62 -1.96
18.86 12.08 -1.96
33.45 21.43 -2.08
5.58 3.55 -1.77
6.6 4.2 -1.81
8 5.08 -1.84
9.99 6.35 -1.87
13.47 8.56 -1.96
19.04 12.11 -1.97
5.6 3.53 -1.77
6.61 4.17 -1.8
8.02 5.06 -1.84
10 6.31 -1.87
13.5 8.52 -1.96
19 11.98 -1.96
5.62 3.52 -1.78
6.62 4.14 -1.8
8.03 5.03 -1.84
10.02 6.27 -1.87
13.5 8.45 -1.96
18.89 11.82 -1.95
5.62 3.49 -1.77
26.83 16.66 0.55
6.64 4.12 -1.8
8.03 4.99 -1.84
10.03 6.23 -1.87
13.49 8.38 -1.95
18.8 11.68 -1.94
5.63 3.47 -1.77
26.87 16.56 0.55
6.66 4.1 -1.81
8.05 4.96 -1.84
10.05 6.19 -1.87
13.5 8.32 -1.95
18.89 11.64 -1.94
26.96 16.62 -0.55
5.64 3.45 -1.77
26.92 16.46 0.55
6.67 4.08 -1.8
8.07 4.93 -1.84
10.05 6.15 -1.87
13.53 8.27 -1.95
18.86 11.53 -1.93
5.66 3.43 -1.77
27 16.38 0.55
6.67 4.05 -1.8
8.08 4.9 -1.84
10.08 6.11 -1.87
13.55 8.22 -1.95
18.56 11.26 -1.9
5.67 3.42 -1.77
27.07 16.3 0.55
6.68 4.02 -1.8
8.1 4.88 -1.84
10.09 6.08 -1.87
13.55 8.16 -1.94
18.42 11.09 -1.88
5.67 3.39 -1.77
27.14 16.22 0.55
6.7 4 -1.8
8.1 4.84 -1.83
10.11 6.04 -1.87
13.56 8.1 -1.94
18.48 11.05 -1.88
5.68 3.37 -1.77
27.25 16.15 0.55
6.72 3.98 -1.8
8.12 4.81 -1.83
10.12 6 -1.86
13.58 8.05 -1.94
18.67 11.07 -1.9
5.68 3.34 -1.77
6.73 3.96 -1.8
8.14 4.79 -1.84
10.13 5.96 -1.86
13.61 8 -1.94
18.77 11.04 -1.9
5.7 3.33 -1.77
26.13 15.24 0.53
6.73 3.92 -1.8
8.16 4.76 -1.84
10.16 5.92 -1.86
13.61 7.94 -1.94
19.05 11.11 -1.93
26.13 15.24 -1.59
5.72 3.31 -1.77
6.74 3.9 -1.8
8.17 4.73 -1.84
10.18 5.89 -1.86
13.62 7.88 -1.93
19.29 11.16 -1.95
5.73 3.29 -1.77
6.75 3.88 -1.8
8.18 4.69 -1.83
10.2 5.85 -1.86
13.63 7.82 -1.93
19.6 11.25 -1.98
5.73 3.26 -1.77
6.77 3.85 -1.8
8.19 4.66 -1.83
10.21 5.81 -1.86
13.65 7.77 -1.93
19.81 11.28 -1.99
5.73 3.24 -1.76
6.78 3.83 -1.8
8.21 4.64 -1.83
10.23 5.78 -1.86
13.67 7.72 -1.93
19.92 11.25 -2
5.75 3.22 -1.77
6.79 3.8 -1.8
8.23 4.61 -1.83
10.24 5.73 -1.86
13.68 7.66 -1.92
19.95 11.18 -2
5.76 3.2 -1.77
6.79 3.77 -1.79
8.24 4.58 -1.83
10.26 5.7 -1.86
13.7 7.61 -1.92
19.99 11.11 -2
5.77 3.18 -1.76
6.81 3.75 -1.8
8.24 4.54 -1.83
10.29 5.67 -1.86
13.71 7.56 -1.92
20.05 11.05 -2
5.77 3.16 -1.76
6.83 3.73 -1.8
8.26 4.52 -1.83
10.3 5.63 -1.86
13.73 7.5 -1.92
5.78 3.13 -1.76
6.83 3.7 -1.79
8.28 4.49 -1.83
10.31 5.59 -1.86
13.75 7.45 -1.92
5.79 3.11 -1.76
6.84 3.68 -1.79
8.29 4.46 -1.83
10.34 5.56 -1.86
13.77 7.4 -1.92
5.8 3.09 -1.76
6.84 3.65 -1.79
8.31 4.43 -1.83
10.34 5.51 -1.86
13.78 7.34 -1.92
5.82 3.08 -1.76
6.86 3.63 -1.79
8.31 4.39 -1.83
10.37 5.48 -1.86
13.8 7.29 -1.92
5.82 3.05 -1.76
6.87 3.6 -1.79
8.32 4.36 -1.83
10.38 5.44 -1.86
13.81 7.24 -1.92
5.83 3.03 -1.76
6.88 3.58 -1.79
8.34 4.33 -1.83
10.38 5.4 -1.85
13.83 7.19 -1.91
20.07 10.43 -1.98
5.84 3.01 -1.76
6.88 3.55 -1.79
8.35 4.3 -1.83
10.4 5.36 -1.85
13.85 7.13 -1.91
20.11 10.36 -1.98
5.86 2.99 -1.76
6.89 3.52 -1.79
8.36 4.27 -1.83
10.42 5.33 -1.85
13.85 7.08 -1.91
20.15 10.3 -1.98
5.86 2.97 -1.76
6.9 3.5 -1.79
8.37 4.24 -1.82
10.44 5.29 -1.85
13.87 7.03 -1.91
20.14 10.2 -1.98
5.86 2.94 -1.76
