# .PCD v0.7 - Point Cloud Data file format
VERSION 0.7
FIELDS x y z
SIZE 4 4 4
TYPE F F F
COUNT 1 1 1
WIDTH 2953
HEIGHT 1
VIEWPOINT 0 0 0 1 0 0 0
POINTS 2953
DATA ascii
1.56 10.97 -1.75
2.03 14.31 -1.78
2.87 20.18 -1.78
0.94 6.48 -1.75
1.1 7.54 -1.76
1.3 8.94 -1.76
1.6 10.96 -1.75
2.08 14.29 -1.77
2.94 20.14 -1.78
0.96 6.46 -1.75
1.12 7.53 -1.76
1.33 8.93 -1.76
1.63 10.95 -1.75
2.13 14.28 -1.77
3 20.08 -1.78
5.13 34.36 -1.82
0.99 6.46 -1.75
1.15 7.52 -1.76
1.36 8.92 -1.75
1.67 10.93 -1.75
2.18 14.27 -1.77
3.06 20.04 -1.77
5.25 34.34 -1.82
1.01 6.46 -1.75
1.17 7.5 -1.75
1.4 8.92 -1.75
1.71 10.92 -1.75
2.23 14.25 -1.77
3.13 19.99 -1.77
1.03 6.47 -1.75
1.2 7.5 -1.75
1.42 8.92 -1.76
1.74 10.91 -1.75
2.27 14.23 -1.77
3.19 19.95 -1.77
1.05 6.44 -1.75
1.22 7.49 -1.75
1.45 8.89 -1.75
1.78 10.9 -1.75
2.32 14.22 -1.77
3.26 19.92 -1.77
5.57 34.09 -1.81
1.08 6.43 -1.75
1.25 7.5 -1.75
1.49 8.89 -1.75
1.82 10.89 -1.75
2.37 14.2 -1.77
3.32 19.89 -1.76
5.71 34.16 -1.82
2.44 14.62 3.97
1.1 6.43 -1.75
1.28 7.49 -1.75
1.52 8.88 -1.75
1.85 10.86 -1.75
2.42 14.19 -1.77
3.39 19.88 -1.76
1.12 6.43 -1.75
1.3 7.46 -1.75
1.55 8.88 -1.75
1.89 10.85 -1.74
2.47 14.18 -1.77
3.46 19.87 -1.76
1.14 6.42 -1.75
1.33 7.46 -1.75
1.58 8.87 -1.75
1.93 10.85 -1.75
2.51 14.12 -1.76
3.53 19.83 -1.76
6.09 34.2 -1.82
2.6 14.58 3.97
1.17 6.42 -1.75
1.35 7.46 -1.75
1.61 8.85 -1.75
1.97 10.84 -1.75
2.57 14.14 -1.76
3.6 19.8 -1.76
2.64 14.52 3.95
1.18 6.39 -1.74
1.38 7.46 -1.75
1.64 8.84 -1.75
2.01 10.83 -1.75
2.61 14.12 -1.76
3.67 19.81 -1.76
2.68 14.46 3.94
1.21 6.39 -1.74
1.4 7.44 -1.75
1.66 8.81 -1.74
2.04 10.82 -1.74
2.67 14.13 -1.77
3.74 19.79 -1.76
2.71 14.35 3.91
1.23 6.39 -1.74
1.43 7.44 -1.75
1.7 8.82 -1.75
2.08 10.81 -1.74
2.72 14.12 -1.76
3.81 19.78 -1.76
2.76 14.34 3.91
1.25 6.39 -1.75
1.46 7.43 -1.75
1.73 8.81 -1.75
2.12 10.8 -1.74
2.76 14.09 -1.76
3.88 19.78 -1.76
2.84 14.51 3.96
1.27 6.39 -1.74
1.48 7.42 -1.75
1.75 8.79 -1.74
2.16 10.8 -1.74
2.81 14.08 -1.76
3.95 19.77 -1.76
6.74 33.75 -1.8
2.92 14.6 3.99
1.29 6.37 -1.74
1.51 7.43 -1.75
1.79 8.8 -1.75
2.19 10.79 -1.74
2.86 14.07 -1.76
4.02 19.77 -1.77
6.84 33.65 -1.8
1.32 6.37 -1.74
1.54 7.42 -1.75
1.82 8.8 -1.75
2.23 10.77 -1.74
2.91 14.07 -1.76
4.09 19.78 -1.77
1.34 6.37 -1.74
1.56 7.4 -1.74
1.85 8.79 -1.75
2.27 10.76 -1.74
2.96 14.06 -1.76
4.17 19.79 -1.77
7.08 33.61 -1.8
1.36 6.35 -1.74
1.58 7.39 -1.74
1.88 8.8 -1.75
2.3 10.76 -1.74
3.01 14.04 -1.76
4.24 19.8 -1.77
7.19 33.58 -1.8
1.38 6.35 -1.74
1.61 7.39 -1.75
1.91 8.77 -1.75
2.34 10.75 -1.74
3.06 14.03 -1.76
4.31 19.79 -1.77
1.4 6.34 -1.74
1.63 7.38 -1.75
1.94 8.77 -1.75
2.38 10.75 -1.74
3.11 14.03 -1.76
4.38 19.76 -1.77
1.43 6.34 -1.74
1.66 7.37 -1.74
1.97 8.77 -1.75
2.42 10.74 -1.74
3.16 14.01 -1.76
4.45 19.75 -1.77
1.45 6.32 -1.74
1.68 7.36 -1.74
2.01 8.77 -1.75
2.45 10.73 -1.74
3.2 14 -1.76
4.51 19.72 -1.77
1.47 6.32 -1.74
1.71 7.35 -1.74
2.04 8.76 -1.75
2.49 10.72 -1.74
3.25 13.97 -1.76
4.58 19.68 -1.77
1.49 6.32 -1.74
1.74 7.35 -1.74
2.06 8.74 -1.75
2.53 10.72 -1.74
3.3 13.96 -1.76
4.63 19.62 -1.76
1.51 6.3 -1.74
1.76 7.35 -1.75
2.1 8.74 -1.75
2.57 10.71 -1.74
3.35 13.95 -1.76
4.69 19.55 -1.76
1.54 6.3 -1.74
1.79 7.34 -1.75
2.13 8.74 -1.75
2.6 10.69 -1.74
3.39 13.94 -1.76
4.75 19.51 -1.76
8.13 33.37 -1.8
1.56 6.3 -1.74
1.81 7.33 -1.74
2.16 8.73 -1.75
2.64 10.68 -1.74
3.44 13.92 -1.76
4.81 19.47 -1.75
8.22 33.24 -1.79
1.58 6.31 -1.74
1.84 7.33 -1.74
2.19 8.73 -1.75
2.68 10.68 -1.74
3.49 13.89 -1.76
4.88 19.45 -1.75
8.31 33.12 -1.79
1.61 6.3 -1.74
1.87 7.33 -1.75
2.22 8.71 -1.75
2.72 10.67 -1.74
3.54 13.88 -1.76
4.95 19.43 -1.75
1.62 6.29 -1.74
1.89 7.33 -1.75
2.25 8.7 -1.75
2.76 10.66 -1.74
3.58 13.86 -1.76
5.01 19.39 -1.75
1.64 6.27 -1.74
1.92 7.31 -1.75
2.28 8.69 -1.75
2.79 10.64 -1.74
3.63 13.84 -1.76
5.08 19.38 -1.75
1.67 6.27 -1.74
1.94 7.3 -1.74
2.31 8.69 -1.75
2.83 10.63 -1.74
3.68 13.83 -1.76
5.15 19.36 -1.75
8.77 33 -1.79
1.69 6.27 -1.74
1.96 7.28 -1.74
2.34 8.68 -1.75
2.86 10.62 -1.74
3.72 13.79 -1.75
5.22 19.34 -1.75
1.71 6.27 -1.74
1.99 7.28 -1.74
2.37 8.66 -1.75
2.9 10.61 -1.74
3.77 13.77 -1.75
5.28 19.32 -1.75
1.73 6.26 -1.74
2.02 7.28 -1.75
2.4 8.66 -1.75
2.94 10.6 -1.74
3.81 13.76 -1.75
5.35 19.29 -1.75
1.75 6.24 -1.74
2.04 7.28 -1.75
2.43 8.65 -1.75
2.97 10.58 -1.74
3.86 13.75 -1.75
5.41 19.27 -1.75
1.78 6.24 -1.74
2.07 7.26 -1.74
2.46 8.65 -1.75
3.01 10.56 -1.74
3.91 13.73 -1.75
5.49 19.26 -1.75
8.7 30.55 -1.66
1.8 6.24 -1.74
2.09 7.25 -1.74
2.49 8.63 -1.75
3.04 10.55 -1.74
3.96 13.71 -1.75
5.55 19.24 -1.75
1.82 6.23 -1.74
2.12 7.26 -1.75
2.52 8.61 -1.74
3.08 10.54 -1.74
4 13.69 -1.75
5.62 19.24 -1.75
9.78 33.44 -1.83
1.84 6.21 -1.74
2.15 7.24 -1.74
2.55 8.61 -1.74
3.12 10.52 -1.74
4.05 13.68 -1.75
5.7 19.25 -1.76
9.95 33.58 -1.84
1.86 6.21 -1.74
2.17 7.24 -1.74
2.58 8.6 -1.75
3.15 10.49 -1.73
4.1 13.68 -1.75
5.77 19.26 -1.76
10.05 33.52 -1.83
1.88 6.21 -1.74
2.19 7.22 -1.74
2.61 8.59 -1.74
3.18 10.48 -1.73
4.14 13.65 -1.75
5.85 19.26 -1.76
10.11 33.3 -1.82
1.91 6.2 -1.74
2.22 7.21 -1.74
2.64 8.58 -1.74
3.22 10.46 -1.73
4.19 13.62 -1.75
5.92 19.24 -1.76
10.18 33.12 -1.82
1.93 6.2 -1.74
2.24 7.2 -1.74
2.67 8.57 -1.74
3.25 10.45 -1.73
4.23 13.61 -1.75
5.99 19.23 -1.76
10.2 32.78 -1.8
1.95 6.17 -1.73
2.27 7.2 -1.74
2.69 8.55 -1.74
3.28 10.42 -1.73
4.28 13.59 -1.75
6.05 19.19 -1.76
10.26 32.56 -1.79
1.97 6.17 -1.73
2.3 7.2 -1.74
2.72 8.54 -1.74
3.32 10.41 -1.73
4.33 13.57 -1.75
6.1 19.13 -1.76
10.29 32.27 -1.78
1.99 6.17 -1.74
2.32 7.17 -1.74
2.75 8.53 -1.74
3.36 10.39 -1.73
4.38 13.56 -1.75
6.16 19.08 -1.75
10.34 32 -1.76
2.01 6.16 -1.74
2.34 7.17 -1.74
2.78 8.52 -1.74
3.39 10.39 -1.73
4.42 13.53 -1.75
6.21 19.01 -1.75
10.34 31.63 -1.74
2.03 6.15 -1.74
2.37 7.16 -1.74
2.81 8.5 -1.74
3.43 10.38 -1.73
4.47 13.52 -1.75
6.26 18.95 -1.75
10.38 31.4 -1.73
2.05 6.14 -1.73
2.39 7.15 -1.74
2.84 8.48 -1.74
3.46 10.36 -1.73
4.52 13.51 -1.75
6.32 18.89 -1.74
10.41 31.13 -1.72
2.08 6.13 -1.73
2.42 7.14 -1.74
2.87 8.48 -1.74
3.5 10.33 -1.73
4.57 13.5 -1.75
6.39 18.87 -1.74
10.45 30.86 -1.71
2.1 6.12 -1.73
2.44 7.12 -1.74
2.9 8.47 -1.74
3.53 10.32 -1.73
4.62 13.48 -1.75
6.45 18.84 -1.74
10.48 30.6 -1.7
2.12 6.12 -1.74
2.46 7.12 -1.74
2.92 8.45 -1.74
3.57 10.31 -1.73
4.66 13.47 -1.75
6.52 18.83 -1.74
10.49 30.3 -1.68
2.14 6.11 -1.74
2.49 7.11 -1.74
2.95 8.43 -1.74
3.61 10.31 -1.73
4.71 13.45 -1.75
6.57 18.76 -1.74
10.52 30.05 -1.67
2.16 6.1 -1.73
2.51 7.1 -1.74
2.98 8.42 -1.74
3.64 10.29 -1.73
4.76 13.44 -1.75
6.65 18.78 -1.74
10.65 30.08 -1.67
2.18 6.1 -1.73
2.54 7.09 -1.74
3.01 8.41 -1.74
3.67 10.27 -1.73
4.8 13.42 -1.75
6.71 18.75 -1.74
10.61 29.64 -1.65
2.2 6.09 -1.73
2.56 7.07 -1.74
3.04 8.41 -1.74
3.71 10.26 -1.73
4.85 13.4 -1.75
6.77 18.7 -1.74
10.66 29.48 -1.64
2.22 6.08 -1.73
2.58 7.06 -1.74
3.07 8.39 -1.74
3.75 10.24 -1.73
4.89 13.37 -1.75
6.79 18.56 -1.73
10.71 29.28 -1.63
2.25 6.07 -1.73
2.61 7.05 -1.74
3.1 8.37 -1.73
3.79 10.23 -1.73
4.94 13.36 -1.75
6.73 18.2 -1.7
10.78 29.13 -1.63
2.26 6.05 -1.73
2.63 7.04 -1.74
3.12 8.35 -1.73
3.82 10.22 -1.73
4.99 13.34 -1.75
6.69 17.9 -1.67
10.82 28.92 -1.62
2.28 6.05 -1.73
2.66 7.03 -1.74
3.15 8.35 -1.73
3.85 10.2 -1.73
5.03 13.33 -1.75
6.64 17.57 -1.64
10.87 28.79 -1.61
2.3 6.04 -1.73
2.68 7.02 -1.73
3.18 8.34 -1.73
3.89 10.18 -1.73
5.08 13.3 -1.75
6.61 17.31 -1.62
10.93 28.62 -1.61
2.33 6.03 -1.73
2.7 7.01 -1.73
3.21 8.33 -1.73
3.92 10.17 -1.73
5.12 13.26 -1.75
6.65 17.24 -1.62
10.96 28.41 -1.6
2.35 6.02 -1.73
2.73 7 -1.73
3.23 8.3 -1.73
3.96 10.16 -1.73
5.16 13.24 -1.75
6.7 17.19 -1.61
11.05 28.34 -1.59
2.36 6.01 -1.73
2.75 6.99 -1.73
3.26 8.29 -1.73
3.99 10.14 -1.73
5.2 13.21 -1.74
6.69 16.99 -1.6
2.39 6 -1.73
2.78 6.98 -1.73
3.29 8.28 -1.73
4.03 10.12 -1.72
5.25 13.18 -1.74
6.67 16.76 -1.58
12.2 30.66 -1.73
2.41 6 -1.73
2.8 6.96 -1.73
3.32 8.27 -1.73
4.06 10.11 -1.73
5.28 13.14 -1.74
6.71 16.7 -1.57
12.24 30.45 -1.72
2.43 5.98 -1.73
2.82 6.95 -1.73
3.35 8.26 -1.73
4.1 10.09 -1.73
5.32 13.1 -1.74
6.75 16.62 -1.57
2.45 5.98 -1.73
2.85 6.95 -1.73
3.38 8.24 -1.73
4.13 10.09 -1.73
5.35 13.06 -1.73
6.75 16.47 -1.56
2.47 5.96 -1.73
2.87 6.94 -1.73
3.41 8.23 -1.73
4.17 10.07 -1.73
5.4 13.04 -1.73
6.8 16.41 -1.55
12.6 30.44 -1.73
2.49 5.95 -1.73
2.9 6.93 -1.73
3.44 8.21 -1.73
4.2 10.04 -1.72
5.45 13.02 -1.73
6.88 16.44 -1.56
12.68 30.3 -1.72
2.51 5.94 -1.73
2.92 6.91 -1.73
3.47 8.21 -1.73
4.24 10.03 -1.72
5.49 12.99 -1.73
6.93 16.41 -1.56
2.53 5.94 -1.73
2.94 6.89 -1.73
3.49 8.19 -1.73
4.27 10.02 -1.73
5.53 12.96 -1.73
7.01 16.44 -1.56
2.55 5.92 -1.73
2.97 6.89 -1.73
3.52 8.17 -1.73
4.31 10.01 -1.73
5.57 12.93 -1.73
7.17 16.64 -1.59
2.57 5.91 -1.73
2.99 6.88 -1.73
3.54 8.15 -1.73
4.35 10 -1.73
5.61 12.9 -1.73
7.12 16.38 -1.56
2.59 5.9 -1.73
3.01 6.87 -1.73
3.58 8.15 -1.73
4.38 9.97 -1.73
5.66 12.89 -1.73
7.2 16.39 -1.57
2.61 5.89 -1.73
3.03 6.85 -1.73
3.61 8.14 -1.73
4.41 9.96 -1.73
5.7 12.86 -1.73
7.29 16.45 -1.57
13.27 29.94 -1.72
2.63 5.88 -1.73
3.06 6.84 -1.73
3.63 8.11 -1.73
4.45 9.95 -1.73
5.74 12.83 -1.73
7.37 16.47 -1.58
13.37 29.89 -1.72
2.65 5.87 -1.73
3.09 6.83 -1.73
3.66 8.1 -1.73
4.48 9.93 -1.73
5.79 12.83 -1.73
7.43 16.45 -1.58
13.48 29.84 -1.72
2.67 5.86 -1.72
3.11 6.82 -1.73
3.69 8.09 -1.73
4.52 9.92 -1.73
5.84 12.82 -1.73
7.52 16.49 -1.59
2.69 5.84 -1.72
3.13 6.81 -1.73
3.71 8.08 -1.73
4.55 9.89 -1.72
5.89 12.8 -1.73
7.59 16.5 -1.59
2.71 5.84 -1.72
3.15 6.8 -1.73
3.75 8.07 -1.73
4.59 9.88 -1.73
5.92 12.76 -1.73
7.67 16.53 -1.59
2.73 5.83 -1.73
3.18 6.78 -1.73
3.78 8.06 -1.73
4.62 9.86 -1.72
5.92 12.64 -1.71
7.76 16.56 -1.6
2.75 5.82 -1.73
3.2 6.77 -1.73
3.8 8.03 -1.73
4.65 9.84 -1.72
5.93 12.54 -1.7
7.85 16.61 -1.61
2.77 5.8 -1.72
3.23 6.76 -1.73
3.83 8.02 -1.73
4.68 9.82 -1.72
5.94 12.46 -1.69
7.87 16.51 -1.6
2.79 5.79 -1.72
3.25 6.76 -1.73
3.86 8.02 -1.73
4.71 9.79 -1.72
5.94 12.34 -1.68
8 16.61 -1.61
2.81 5.79 -1.72
3.27 6.74 -1.73
3.89 8.01 -1.73
4.74 9.76 -1.72
5.94 12.24 -1.67
8.09 16.66 -1.62
2.83 5.78 -1.73
3.3 6.73 -1.73
3.91 7.99 -1.73
4.77 9.74 -1.72
5.95 12.15 -1.66
8.16 16.66 -1.62
2.86 5.78 -1.73
3.32 6.72 -1.73
3.94 7.97 -1.73
4.8 9.72 -1.72
5.97 12.07 -1.65
8.23 16.65 -1.62
2.87 5.75 -1.72
3.35 6.71 -1.73
3.97 7.96 -1.73
4.84 9.7 -1.72
5.96 11.96 -1.64
8.29 16.62 -1.62
2.89 5.75 -1.72
3.37 6.69 -1.73
4 7.96 -1.73
4.86 9.65 -1.71
5.98 11.89 -1.63
8.33 16.56 -1.62
2.91 5.74 -1.72
3.39 6.67 -1.73
4.03 7.94 -1.73
4.89 9.64 -1.71
5.99 11.81 -1.63
8.41 16.59 -1.63
2.93 5.73 -1.72
3.41 6.66 -1.73
4.06 7.93 -1.73
4.92 9.62 -1.71
5.99 11.71 -1.62
8.51 16.64 -1.64
2.95 5.72 -1.73
3.44 6.66 -1.73
4.08 7.9 -1.73
7.14 13.83 1.36
4.95 9.6 -1.71
6.01 11.64 -1.61
8.59 16.64 -1.64
2.97 5.7 -1.72
3.46 6.64 -1.73
7.17 13.78 0.81
4.11 7.89 -1.73
7.15 13.74 1.36
4.98 9.57 -1.71
6.03 11.59 -1.6
7.05 13.55 -1.34
2.99 5.69 -1.72
7.11 13.55 0.27
3.48 6.63 -1.73
7.17 13.66 0.81
4.14 7.88 -1.73
7.17 13.65 1.35
5.01 9.54 -1.71
6.07 11.57 -1.6
7.08 13.48 -1.33
7.09 13.5 -0.8
7.1 13.52 -0.27
3.01 5.69 -1.72
7.13 13.47 0.27
3.5 6.62 -1.73
7.14 13.48 0.8
4.17 7.88 -1.73
7.15 13.51 1.34
5.04 9.52 -1.71
7.15 13.51 1.88
6.1 11.52 -1.6
7.14 13.49 -1.34
7.13 13.47 -0.8
7.14 13.48 -0.27
3.03 5.68 -1.72
7.19 13.47 0.27
3.53 6.6 -1.73
7.18 13.45 0.8
4.19 7.85 -1.73
7.2 13.48 1.34
5.08 9.52 -1.71
7.19 13.47 1.87
6.13 11.47 -1.6
8.83 16.54 -1.64
15.34 28.74 -1.71
7.23 13.55 -0.27
3.05 5.66 -1.72
3.55 6.6 -1.73
4.21 7.82 -1.73
5.09 9.46 -1.7
6.16 11.44 -1.6
8.9 16.53 -1.64
15.37 28.55 -1.7
3.06 5.64 -1.72
3.58 6.59 -1.73
4.24 7.81 -1.73
5.13 9.45 -1.7
6.19 11.39 -1.59
9 16.58 -1.65
15.41 28.39 -1.69
25.56 47.07 -0.93
3.09 5.64 -1.72
3.6 6.57 -1.73
4.27 7.79 -1.73
5.16 9.42 -1.7
6.22 11.35 -1.59
9.02 16.47 -1.64
3.11 5.63 -1.72
3.62 6.55 -1.73
4.3 7.78 -1.73
5.19 9.4 -1.7
6.23 11.29 -1.58
9.04 16.38 -1.64
3.13 5.62 -1.72
3.64 6.55 -1.73
4.32 7.76 -1.73
5.22 9.38 -1.7
6.26 11.24 -1.58
9.13 16.4 -1.64
3.14 5.6 -1.72
3.67 6.53 -1.73
4.34 7.73 -1.72
5.26 9.37 -1.7
6.29 11.22 -1.58
9.14 16.29 -1.63
3.16 5.59 -1.72
3.69 6.52 -1.73
4.36 7.71 -1.72
5.29 9.35 -1.7
6.29 11.12 -1.57
9.1 16.09 -1.62
3.18 5.57 -1.72
3.71 6.51 -1.73
4.39 7.69 -1.72
5.31 9.31 -1.7
6.33 11.1 -1.57
9.13 16.01 -1.61
3.2 5.57 -1.72
3.73 6.49 -1.73
4.42 7.68 -1.72
5.35 9.3 -1.7
6.36 11.07 -1.57
9.18 15.97 -1.61
3.23 5.57 -1.72
3.75 6.48 -1.73
4.44 7.66 -1.72
5.39 9.3 -1.7
6.38 11.01 -1.56
9.3 16.04 -1.62
3.24 5.55 -1.72
3.77 6.46 -1.73
4.46 7.63 -1.72
5.42 9.28 -1.7
6.4 10.95 -1.56
9.39 16.08 -1.63
3.26 5.53 -1.72
3.81 6.46 -1.73
4.49 7.62 -1.72
5.45 9.25 -1.7
6.43 10.92 -1.56
9.38 15.93 -1.62
3.28 5.52 -1.72
3.82 6.44 -1.73
4.52 7.6 -1.72
5.48 9.23 -1.7
6.46 10.88 -1.55
9.47 15.95 -1.62
3.3 5.51 -1.72
3.84 6.42 -1.73
4.54 7.59 -1.72
5.5 9.2 -1.7
6.48 10.83 -1.55
9.44 15.78 -1.61
3.32 5.51 -1.72
3.87 6.41 -1.73
4.56 7.56 -1.72
5.54 9.18 -1.7
6.52 10.81 -1.55
9.52 15.79 -1.61
3.34 5.49 -1.72
3.89 6.39 -1.73
4.58 7.54 -1.71
5.57 9.16 -1.7
6.57 10.8 -1.55
9.58 15.76 -1.61
3.35 5.47 -1.72
3.91 6.39 -1.73
4.61 7.52 -1.71
5.61 9.15 -1.7
6.58 10.73 -1.55
9.64 15.74 -1.61
3.38 5.47 -1.72
3.94 6.37 -1.73
4.64 7.51 -1.71
5.63 9.12 -1.7
6.62 10.72 -1.55
9.69 15.69 -1.61
3.39 5.45 -1.72
3.95 6.35 -1.73
4.66 7.49 -1.71
5.66 9.1 -1.7
6.66 10.7 -1.55
9.76 15.69 -1.62
3.42 5.45 -1.72
3.97 6.33 -1.73
4.69 7.47 -1.71
5.69 9.08 -1.7
6.67 10.64 -1.54
9.78 15.59 -1.61
3.44 5.44 -1.72
4 6.32 -1.73
4.7 7.44 -1.71
5.74 9.07 -1.7
6.71 10.61 -1.54
9.81 15.51 -1.61
3.45 5.42 -1.72
4.01 6.3 -1.72
4.73 7.42 -1.71
5.77 9.05 -1.7
6.76 10.61 -1.55
9.82 15.41 -1.6
3.47 5.4 -1.72
4.04 6.29 -1.73
4.76 7.42 -1.71
5.79 9.02 -1.7
6.79 10.57 -1.54
9.89 15.4 -1.6
3.49 5.4 -1.72
4.05 6.26 -1.72
4.79 7.39 -1.71
5.83 9 -1.7
6.83 10.55 -1.54
9.88 15.27 -1.59
3.51 5.39 -1.72
4.07 6.25 -1.72
4.81 7.37 -1.71
5.86 8.98 -1.7
6.85 10.5 -1.54
9.92 15.21 -1.59
3.53 5.38 -1.72
4.09 6.23 -1.72
4.82 7.34 -1.71
5.89 8.97 -1.7
6.9 10.51 -1.54
9.92 15.1 -1.58
3.54 5.35 -1.72
4.12 6.22 -1.72
4.85 7.33 -1.71
5.92 8.95 -1.7
6.94 10.48 -1.54
10 15.11 -1.59
3.56 5.34 -1.72
4.13 6.2 -1.72
4.88 7.31 -1.71
5.95 8.92 -1.7
6.96 10.44 -1.54
10.03 15.04 -1.58
3.59 5.34 -1.72
4.15 6.18 -1.72
4.9 7.29 -1.71
5.98 8.9 -1.7
6.97 10.38 -1.54
10.05 14.96 -1.58
3.6 5.32 -1.72
4.17 6.15 -1.72
4.93 7.27 -1.71
6.01 8.87 -1.7
7 10.34 -1.53
10.08 14.88 -1.57
3.62 5.31 -1.72
4.19 6.14 -1.72
4.95 7.25 -1.71
6.04 8.86 -1.7
7.04 10.32 -1.53
10.09 14.79 -1.57
3.64 5.29 -1.72
4.21 6.13 -1.72
4.97 7.23 -1.71
6.07 8.83 -1.7
7.07 10.29 -1.53
10.08 14.67 -1.56
3.66 5.28 -1.72
4.23 6.11 -1.72
4.99 7.21 -1.71
6.1 8.81 -1.7
7.12 10.29 -1.54
10.1 14.59 -1.55
3.68 5.27 -1.72
4.24 6.08 -1.71
5.03 7.2 -1.71
6.12 8.78 -1.7
7.14 10.23 -1.53
10.12 14.5 -1.55
3.7 5.26 -1.72
4.26 6.06 -1.71
5.04 7.18 -1.71
6.15 8.76 -1.7
7.16 10.18 -1.53
10.18 14.49 -1.55
3.72 5.25 -1.72
4.29 6.06 -1.71
5.07 7.16 -1.7
6.19 8.74 -1.7
7.19 10.16 -1.53
10.27 14.51 -1.56
3.72 5.22 -1.72
4.32 6.05 -1.72
5.09 7.14 -1.7
6.21 8.71 -1.69
7.22 10.12 -1.53
10.3 14.44 -1.55
3.75 5.21 -1.72
4.33 6.02 -1.71
5.12 7.12 -1.7
6.23 8.68 -1.69
7.24 10.08 -1.52
10.34 14.39 -1.55
3.77 5.2 -1.72
4.34 6 -1.71
5.14 7.11 -1.71
6.27 8.66 -1.69
7.29 10.07 -1.53
10.37 14.33 -1.55
3.78 5.19 -1.72
4.37 5.99 -1.71
5.17 7.08 -1.7
6.3 8.63 -1.69
7.31 10.02 -1.52
10.42 14.29 -1.55
3.8 5.17 -1.72
4.39 5.97 -1.71
5.18 7.05 -1.7
6.33 8.61 -1.69
7.34 9.98 -1.52
10.45 14.22 -1.54
3.81 5.15 -1.72
4.41 5.96 -1.71
5.21 7.04 -1.7
6.36 8.59 -1.69
7.44 10.05 -1.54
10.47 14.15 -1.54
22.21 30.01 -1.96
3.83 5.14 -1.72
4.43 5.94 -1.71
5.24 7.03 -1.7
6.39 8.56 -1.69
7.45 10 -1.53
10.51 14.09 -1.54
22.2 29.77 -1.95
3.85 5.13 -1.72
4.45 5.92 -1.71
5.26 7 -1.7
6.42 8.54 -1.69
7.48 9.96 -1.53
10.55 14.04 -1.54
22.24 29.61 -1.94
3.87 5.12 -1.72
4.46 5.9 -1.71
5.28 6.98 -1.7
6.44 8.52 -1.69
7.52 9.94 -1.53
10.56 13.96 -1.53
22.19 29.34 -1.93
3.88 5.1 -1.72
4.49 5.89 -1.71
5.3 6.96 -1.7
6.47 8.49 -1.69
7.55 9.91 -1.53
10.58 13.89 -1.53
22.27 29.23 -1.93
3.89 5.07 -1.71
4.5 5.87 -1.71
5.32 6.94 -1.7
6.49 8.46 -1.69
7.58 9.88 -1.53
10.65 13.88 -1.53
22.3 29.07 -1.92
3.91 5.06 -1.71
4.52 5.85 -1.71
5.35 6.92 -1.7
6.52 8.43 -1.69
7.62 9.86 -1.53
10.73 13.88 -1.53
22.34 28.91 -1.91
3.93 5.05 -1.71
4.53 5.82 -1.7
5.37 6.9 -1.7
6.54 8.41 -1.69
7.67 9.86 -1.53
10.72 13.77 -1.53
22.44 28.83 -1.91
3.95 5.04 -1.72
4.55 5.8 -1.7
5.39 6.88 -1.7
6.57 8.38 -1.69
7.69 9.81 -1.53
10.79 13.76 -1.53
22.42 28.59 -1.9
3.97 5.02 -1.71
4.58 5.8 -1.71
5.41 6.85 -1.7
6.61 8.37 -1.69
7.74 9.8 -1.53
10.83 13.71 -1.53
22.4 28.36 -1.89
3.98 5 -1.71
4.6 5.78 -1.71
5.43 6.83 -1.7
6.63 8.34 -1.69
7.79 9.8 -1.54
10.85 13.64 -1.52
22.42 28.18 -1.89
3.99 4.98 -1.71
4.62 5.76 -1.71
5.46 6.81 -1.7
6.66 8.31 -1.69
7.8 9.74 -1.53
10.75 13.41 -1.5
22.39 27.94 -1.88
4.02 4.97 -1.71
4.63 5.74 -1.7
5.49 6.8 -1.7
6.69 8.28 -1.69
7.82 9.69 -1.53
10.66 13.2 -1.48
22.45 27.81 -1.87
4.03 4.96 -1.71
4.65 5.72 -1.7
5.5 6.77 -1.7
6.72 8.26 -1.69
7.85 9.65 -1.53
10.7 13.16 -1.48
4.05 4.94 -1.71
4.68 5.71 -1.7
5.52 6.74 -1.69
6.74 8.24 -1.69
7.89 9.63 -1.53
10.75 13.13 -1.48
4.06 4.92 -1.71
4.71 5.71 -1.71
5.54 6.72 -1.69
6.77 8.21 -1.69
7.94 9.63 -1.53
10.79 13.09 -1.48
4.08 4.91 -1.71
4.72 5.69 -1.71
5.56 6.7 -1.69
6.79 8.17 -1.68
7.97 9.6 -1.53
10.85 13.07 -1.49
10.85 13.07 -0.3
4.1 4.9 -1.71
4.73 5.66 -1.7
5.59 6.68 -1.69
6.81 8.15 -1.68
8.02 9.59 -1.54
10.89 13.02 -1.49
10.88 13 -0.3
4.12 4.89 -1.71
4.75 5.64 -1.7
5.61 6.66 -1.69
6.84 8.12 -1.68
8.05 9.56 -1.53
11.02 13.08 -1.5
10.96 13.01 -0.89
10.94 12.99 -0.3
4.13 4.87 -1.71
4.78 5.63 -1.71
5.63 6.63 -1.69
6.87 8.1 -1.68
8.08 9.53 -1.53
11.07 13.05 -1.5
11.05 13.03 -0.9
11 12.96 -0.3
4.14 4.85 -1.71
4.79 5.61 -1.7
5.65 6.62 -1.69
6.9 8.07 -1.68
8.13 9.52 -1.54
11.13 13.02 -1.5
11.13 13.03 -0.9
11.1 12.99 -0.3
4.16 4.84 -1.71
4.81 5.59 -1.7
5.67 6.59 -1.69
6.91 8.04 -1.68
8.16 9.48 -1.54
11.21 13.03 -1.5
11.16 12.97 -0.3
4.18 4.82 -1.71
4.83 5.57 -1.7
5.69 6.57 -1.69
6.94 8.02 -1.68
8.21 9.48 -1.54
11.17 12.9 -1.49
8.79 10.15 -0.23
4.19 4.81 -1.71
4.85 5.56 -1.7
5.71 6.55 -1.69
6.98 8 -1.68
8.25 9.45 -1.54
11.24 12.88 -1.5
4.22 4.8 -1.71
4.87 5.54 -1.7
5.73 6.52 -1.69
7 7.97 -1.68
8.29 9.43 -1.54
11.28 12.84 -1.5
8.95 10.19 -0.71
4.23 4.78 -1.71
4.89 5.52 -1.7
5.76 6.5 -1.69
7.02 7.94 -1.68
8.33 9.42 -1.54
4.24 4.76 -1.71
9.05 10.15 0.24
4.9 5.5 -1.7
5.78 6.49 -1.69
7.04 7.9 -1.68
8.38 9.41 -1.55
9.01 10.11 -0.24
4.26 4.75 -1.71
9.07 10.1 0.24
4.92 5.48 -1.7
5.8 6.46 -1.69
7.06 7.87 -1.68
8.43 9.4 -1.55
9.09 10.13 -0.24
4.28 4.74 -1.71
9.11 10.08 0.24
4.94 5.47 -1.7
5.82 6.44 -1.69
7.09 7.85 -1.68
8.48 9.38 -1.55
9.14 10.11 -1.19
9.15 10.13 -0.24
4.29 4.71 -1.71
9.18 10.09 0.24
4.95 5.44 -1.7
5.84 6.41 -1.69
7.12 7.82 -1.68
8.5 9.34 -1.55
9.19 10.09 -1.19
9.19 10.09 -0.72
9.21 10.11 -0.24
4.3 4.7 -1.71
9.23 10.08 0.24
4.98 5.43 -1.7
5.86 6.39 -1.68
7.14 7.8 -1.67
8.53 9.3 -1.55
9.28 10.12 -0.24
4.32 4.68 -1.71
9.29 10.06 0.24
4.99 5.41 -1.7
5.88 6.37 -1.69
7.16 7.76 -1.67
8.56 9.27 -1.55
9.24 10.01 -0.71
9.34 10.12 -0.24
4.34 4.67 -1.71
5 5.38 -1.7
5.9 6.35 -1.68
7.18 7.73 -1.67
8.59 9.24 -1.55
11.53 12.41 -1.48
9.27 9.98 -0.71
9.4 10.11 -0.24
4.35 4.65 -1.71
5.02 5.37 -1.7
5.92 6.33 -1.68
7.21 7.7 -1.67
8.65 9.24 -1.55
11.54 12.33 -1.48
9.33 9.97 -0.72
4.37 4.64 -1.71
5.04 5.35 -1.7
5.94 6.3 -1.68
7.24 7.68 -1.67
8.71 9.24 -1.56
11.56 12.26 -1.47
26.46 28.08 -2.02
4.38 4.62 -1.71
5.07 5.34 -1.7
5.96 6.28 -1.68
7.26 7.65 -1.67
8.76 9.23 -1.56
11.58 12.19 -1.47
26.3 27.7 -2
9.51 10.02 -0.24
4.4 4.6 -1.71
5.08 5.32 -1.7
5.98 6.26 -1.68
7.28 7.62 -1.67
8.83 9.23 -1.57
11.55 12.09 -1.46
26.29 27.51 -1.99
4.42 4.59 -1.71
5.09 5.29 -1.69
6 6.24 -1.68
7.3 7.59 -1.67
8.89 9.24 -1.57
12.97 13.48 -1.64
26.36 27.39 -1.99
4.43 4.57 -1.7
5.11 5.27 -1.7
6.02 6.22 -1.68
7.33 7.57 -1.67
8.94 9.23 -1.58
13.03 13.44 -1.64
26.48 27.32 -1.99
4.44 4.55 -1.7
5.14 5.26 -1.7
6.04 6.19 -1.68
7.36 7.54 -1.67
9 9.22 -1.58
13.07 13.39 -1.64
4.45 4.53 -1.7
5.16 5.25 -1.7
6.06 6.17 -1.68
7.39 7.51 -1.67
9.07 9.23 -1.59
13.12 13.35 -1.64
4.47 4.52 -1.7
5.17 5.23 -1.7
6.09 6.15 -1.68
7.4 7.47 -1.67
9.13 9.22 -1.59
13.16 13.3 -1.64
26.97 27.24 -2.01
4.49 4.5 -1.7
5.18 5.2 -1.69
6.11 6.13 -1.68
7.43 7.45 -1.67
9.2 9.23 -1.6
13.22 13.26 -1.64
27.07 27.15 -2.01
4.5 4.48 -1.7
5.2 5.18 -1.69
6.12 6.1 -1.68
7.45 7.42 -1.67
9.27 9.23 -1.61
13.27 13.22 -1.64
26.9 26.8 -1.99
4.52 4.47 -1.7
5.22 5.16 -1.7
6.14 6.08 -1.68
7.47 7.39 -1.66
9.34 9.24 -1.61
13.31 13.17 -1.64
26.97 26.68 -1.99
4.53 4.45 -1.7
5.25 5.15 -1.7
6.16 6.05 -1.68
7.49 7.36 -1.66
9.43 9.26 -1.62
13.37 13.13 -1.64
26.99 26.5 -1.98
4.54 4.43 -1.7
5.26 5.13 -1.7
6.19 6.03 -1.68
7.51 7.32 -1.66
9.52 9.28 -1.63
13.42 13.08 -1.64
4.57 4.42 -1.7
5.27 5.1 -1.69
6.2 6.01 -1.68
7.53 7.3 -1.66
9.59 9.29 -1.64
13.46 13.04 -1.64
4.58 4.4 -1.7
5.29 5.09 -1.69
6.23 5.99 -1.68
7.55 7.27 -1.66
9.67 9.3 -1.65
13.52 13 -1.64
4.6 4.39 -1.7
5.31 5.07 -1.69
6.23 5.96 -1.68
7.58 7.24 -1.66
9.7 9.27 -1.65
13.56 12.95 -1.64
4.6 4.36 -1.7
5.33 5.05 -1.69
6.26 5.93 -1.68
7.6 7.21 -1.66
9.73 9.23 -1.65
13.6 12.9 -1.64
4.62 4.35 -1.7
5.34 5.03 -1.69
6.28 5.91 -1.68
7.62 7.18 -1.66
9.75 9.18 -1.64
13.65 12.86 -1.64
4.63 4.33 -1.7
5.36 5.01 -1.69
6.3 5.9 -1.68
7.65 7.15 -1.66
9.76 9.13 -1.64
13.71 12.82 -1.64
4.65 4.32 -1.7
5.37 4.99 -1.69
6.32 5.87 -1.68
7.67 7.13 -1.66
9.78 9.09 -1.64
13.75 12.77 -1.64
4.67 4.31 -1.7
5.39 4.97 -1.69
6.34 5.84 -1.68
7.7 7.1 -1.66
9.81 9.05 -1.64
13.8 12.73 -1.64
4.67 4.28 -1.7
5.41 4.95 -1.69
6.35 5.82 -1.67
7.72 7.07 -1.66
9.84 9.02 -1.64
13.86 12.69 -1.64
4.69 4.26 -1.7
5.43 4.94 -1.69
6.38 5.8 -1.68
7.73 7.03 -1.66
9.89 8.99 -1.64
13.9 12.64 -1.64
4.71 4.25 -1.7
5.44 4.91 -1.69
6.4 5.78 -1.68
7.76 7 -1.66
9.91 8.95 -1.64
13.95 12.6 -1.64
4.73 4.24 -1.7
5.45 4.89 -1.69
6.42 5.76 -1.68
7.78 6.98 -1.66
9.94 8.91 -1.64
14 12.55 -1.64
4.74 4.22 -1.7
5.47 4.87 -1.69
6.43 5.73 -1.67
7.8 6.95 -1.65
9.97 8.87 -1.64
14.04 12.5 -1.64
4.74 4.19 -1.7
5.49 4.85 -1.69
6.45 5.71 -1.67
7.83 6.92 -1.65
10 8.84 -1.64
14.07 12.43 -1.64
4.76 4.18 -1.7
5.51 4.84 -1.69
6.47 5.68 -1.67
7.84 6.88 -1.65
9.64 8.46 -1.58
14.13 12.4 -1.64
4.78 4.16 -1.7
5.52 4.81 -1.69
6.5 5.66 -1.67
7.86 6.85 -1.65
9.75 8.5 -1.59
14.18 12.36 -1.65
4.8 4.15 -1.7
5.54 4.79 -1.69
6.51 5.64 -1.67
7.89 6.83 -1.65
9.79 8.47 -1.59
14.21 12.3 -1.64
4.81 4.14 -1.7
5.56 4.77 -1.69
6.53 5.61 -1.67
7.91 6.8 -1.65
9.85 8.46 -1.59
14.26 12.26 -1.65
4.82 4.11 -1.7
5.57 4.76 -1.69
6.55 5.59 -1.67
7.93 6.77 -1.65
9.94 8.48 -1.6
14.32 12.22 -1.65
4.83 4.1 -1.7
5.59 4.74 -1.69
6.57 5.56 -1.67
7.95 6.74 -1.65
10.18 8.63 -1.64
14.35 12.16 -1.65
31.37 26.59 -2.16
4.85 4.08 -1.7
5.6 4.71 -1.69
6.58 5.54 -1.67
7.96 6.7 -1.65
10.23 8.61 -1.64
14.39 12.11 -1.65
31.46 26.48 -2.16
4.86 4.07 -1.7
5.61 4.69 -1.69
6.61 5.52 -1.67
7.98 6.67 -1.65
10.27 8.58 -1.64
14.45 12.08 -1.65
4.87 4.04 -1.7
5.63 4.67 -1.69
6.62 5.49 -1.67
8.01 6.65 -1.65
10.32 8.56 -1.65
14.5 12.03 -1.65
32.11 26.64 -2.19
4.88 4.02 -1.7
5.65 4.66 -1.69
6.64 5.47 -1.67
8.04 6.62 -1.65
10.34 8.52 -1.65
14.55 11.98 -1.65
32.21 26.53 -2.19
4.9 4.01 -1.7
5.66 4.63 -1.69
6.66 5.45 -1.67
8.05 6.58 -1.65
10.36 8.48 -1.64
14.6 11.94 -1.65
31.99 26.16 -2.17
4.92 3.99 -1.7
5.67 4.61 -1.69
6.68 5.42 -1.67
8.07 6.55 -1.65
10.4 8.44 -1.64
14.65 11.9 -1.65
4.93 3.98 -1.7
5.69 4.59 -1.69
6.7 5.4 -1.67
8.09 6.52 -1.65
10.42 8.4 -1.64
14.7 11.85 -1.65
4.94 3.96 -1.7
5.71 4.57 -1.69
6.71 5.37 -1.67
8.11 6.49 -1.65
10.44 8.35 -1.64
14.73 11.79 -1.65
31.48 25.2 -2.11
4.94 3.93 -1.69
5.72 4.55 -1.69
6.72 5.34 -1.67
8.12 6.46 -1.64
10.47 8.32 -1.64
14.77 11.74 -1.65
4.96 3.91 -1.69
5.74 4.53 -1.69
6.75 5.33 -1.67
8.14 6.42 -1.64
10.51 8.29 -1.64
14.81 11.69 -1.65
4.98 3.9 -1.69
5.75 4.5 -1.69
6.77 5.3 -1.67
8.16 6.4 -1.64
10.52 8.24 -1.64
14.87 11.65 -1.65
5 3.89 -1.7
5.76 4.48 -1.69
6.78 5.28 -1.67
8.19 6.37 -1.64
10.55 8.21 -1.64
14.91 11.6 -1.65
5 3.86 -1.69
5.78 4.46 -1.69
6.79 5.25 -1.67
8.22 6.35 -1.64
10.58 8.17 -1.64
14.95 11.55 -1.65
5.01 3.84 -1.69
5.8 4.45 -1.69
6.81 5.22 -1.67
8.24 6.32 -1.64
10.61 8.14 -1.64
15 11.5 -1.65
5.03 3.83 -1.69
5.81 4.43 -1.69
6.83 5.2 -1.67
8.24 6.27 -1.64
10.64 8.1 -1.64
15.05 11.46 -1.66
33.89 25.8 -2.23
5.04 3.81 -1.69
5.82 4.4 -1.68
6.85 5.18 -1.67
8.26 6.25 -1.64
10.67 8.06 -1.64
15.1 11.41 -1.66
33.89 25.61 -2.23
5.06 3.79 -1.69
5.83 4.38 -1.68
6.87 5.15 -1.67
8.28 6.21 -1.64
10.68 8.01 -1.64
15.16 11.38 -1.66
5.07 3.78 -1.69
5.85 4.36 -1.68
6.88 5.12 -1.67
8.31 6.19 -1.64
10.7 7.97 -1.64
15.23 11.34 -1.66
5.08 3.75 -1.69
5.87 4.34 -1.68
6.9 5.1 -1.67
8.33 6.16 -1.64
10.74 7.94 -1.64
15.28 11.3 -1.66
5.09 3.73 -1.69
5.89 4.32 -1.69
6.92 5.08 -1.67
8.35 6.13 -1.64
10.78 7.91 -1.64
15.36 11.28 -1.67
33.96 24.93 -2.21
5.11 3.72 -1.69
5.89 4.29 -1.68
6.93 5.05 -1.67
8.37 6.1 -1.64
10.8 7.87 -1.64
15.42 11.23 -1.67
34.04 24.81 -2.21
5.12 3.7 -1.69
5.9 4.27 -1.68
6.95 5.03 -1.67
8.39 6.07 -1.64
10.82 7.83 -1.64
15.48 11.2 -1.67
5.13 3.69 -1.69
5.92 4.25 -1.68
6.96 5 -1.67
8.42 6.04 -1.64
10.85 7.79 -1.64
15.53 11.15 -1.67
26.92 19.33 -1.74
27.02 19.4 -0.58
5.14 3.66 -1.69
27.03 19.27 0.58
5.94 4.23 -1.68
27.1 19.31 1.74
6.98 4.97 -1.66
27.12 19.33 2.91
8.44 6.01 -1.64
10.88 7.76 -1.64
15.58 11.11 -1.67
5.15 3.65 -1.69
5.95 4.21 -1.68
7 4.95 -1.67
8.46 5.98 -1.64
27.18 19.23 4.09
10.9 7.71 -1.64
27.25 19.28 5.29
15.63 11.06 -1.67
5.17 3.63 -1.69
5.96 4.18 -1.68
27.07 19.01 1.73
7.01 4.92 -1.66
8.47 5.95 -1.64
10.95 7.69 -1.64
15.7 11.03 -1.68
27.27 19.15 6.48
27.36 19.21 7.72
5.19 3.62 -1.69
5.97 4.16 -1.68
7.02 4.89 -1.66
27.15 18.92 2.89
8.49 5.92 -1.64
10.96 7.64 -1.64
15.75 10.98 -1.68
27.44 19.13 7.72
5.19 3.59 -1.69
5.99 4.15 -1.68
7.03 4.87 -1.66
8.52 5.9 -1.64
10.98 7.59 -1.64
27.87 19.28 5.37
15.84 10.96 -1.69
5.19 3.57 -1.69
27.02 18.55 0.57
6.01 4.12 -1.68
7.05 4.84 -1.66
8.54 5.86 -1.64
27.15 18.64 4.04
11.01 7.56 -1.64
15.87 10.9 -1.68
5.21 3.55 -1.69
27.02 18.42 0.57
6.02 4.1 -1.68
7.07 4.82 -1.66
28.37 19.34 3
8.55 5.83 -1.64
11.04 7.53 -1.64
15.93 10.86 -1.69
5.23 3.54 -1.69
6.02 4.07 -1.68
7.09 4.8 -1.66
8.57 5.8 -1.64
11.07 7.49 -1.64
27.19 18.4 5.2
16 10.82 -1.69
26.96 18.24 -1.71
5.24 3.52 -1.69
28.91 19.41 0.61
6.04 4.06 -1.68
7.1 4.77 -1.66
8.59 5.77 -1.64
11.08 7.44 -1.64
16.04 10.77 -1.69
27.27 18.31 6.38
26.85 18.03 -1.7
5.25 3.5 -1.69
29 19.33 0.61
6.06 4.04 -1.68
28.98 19.32 1.83
7.12 4.74 -1.66
28.96 19.3 3.04
8.62 5.74 -1.64
27.15 18.09 4.01
11.13 7.42 -1.64
28.89 19.25 5.5
16.09 10.72 -1.69
26.92 17.94 -1.7
28.91 19.27 8.02
28.82 19.2 9.28
5.26 3.48 -1.69
6.07 4.02 -1.68
7.13 4.72 -1.66
27.12 17.94 2.84
8.64 5.71 -1.64
11.14 7.37 -1.64
16.13 10.67 -1.69
26.9 17.79 -1.69
27.36 18.09 7.57
5.27 3.46 -1.69
29.02 19.05 0.61
6.08 3.99 -1.68
7.15 4.69 -1.66
8.65 5.68 -1.64
11.17 7.33 -1.64
28.93 18.99 5.48
16.18 10.62 -1.69
26.87 17.64 -1.68
27.37 17.96 8.77
5.29 3.44 -1.69
27 17.58 0.56
6.1 3.97 -1.68
27.11 17.66 1.7
7.16 4.67 -1.66
8.68 5.65 -1.64
27.23 17.74 3.99
11.2 7.3 -1.64
16.25 10.59 -1.7
26.94 17.55 -1.68
27.32 17.8 7.53
27.36 17.82 8.75
5.3 3.42 -1.69
26.99 17.45 0.56
6.11 3.95 -1.68
27.08 17.51 1.69
7.18 4.64 -1.66
27.13 17.54 2.83
8.7 5.62 -1.64
27.15 17.55 3.97
11.23 7.26 -1.64
27.22 17.59 5.13
16.31 10.54 -1.7
27.32 17.66 6.32
26.9 17.39 -1.68
27.38 17.7 7.53
27 17.45 -0.56
5.31 3.4 -1.69
27.12 17.4 0.56
6.13 3.93 -1.68
7.19 4.61 -1.66
29.07 18.65 3.02
8.72 5.59 -1.64
28.93 18.56 4.22
11.25 7.22 -1.64
16.38 10.51 -1.7
27.06 17.36 -1.68
5.31 3.38 -1.69
6.14 3.91 -1.68
7.2 4.59 -1.66
27.54 17.53 2.86
8.74 5.56 -1.64
28.9 18.4 4.21
11.27 7.18 -1.64
16.43 10.46 -1.7
5.32 3.36 -1.69
6.15 3.89 -1.68
7.23 4.57 -1.66
28.93 18.27 2.99
8.75 5.52 -1.64
11.28 7.13 -1.64
16.49 10.42 -1.71
5.34 3.35 -1.69
6.16 3.86 -1.68
7.25 4.54 -1.66
8.76 5.49 -1.64
11.3 7.08 -1.64
16.54 10.37 -1.71
5.36 3.33 -1.69
6.17 3.84 -1.68
7.26 4.51 -1.66
8.79 5.46 -1.64
11.31 7.04 -1.64
12.71 7.91 -1.31
28.18 17.53 7.66
5.36 3.31 -1.69
6.19 3.82 -1.68
29 17.89 1.79
7.27 4.48 -1.66
28.04 17.3 2.88
8.81 5.43 -1.64
28.04 17.3 4.05
11.33 6.99 -1.63
28.11 17.34 5.23
12.61 7.78 -1.3
5.37 3.29 -1.69
28.02 17.15 0.57
6.21 3.8 -1.68
7.28 4.45 -1.66
8.82 5.4 -1.64
11.36 6.95 -1.64
12.54 7.68 -1.29
5.38 3.27 -1.69
6.21 3.77 -1.68
7.3 4.43 -1.66
28.95 17.58 2.96
8.83 5.36 -1.64
28.9 17.55 4.15
11.38 6.91 -1.64
12.31 7.48 -1.26
12.48 7.58 -0.77
5.4 3.25 -1.69
28.99 17.47 0.59
6.22 3.75 -1.68
7.32 4.41 -1.66
8.86 5.34 -1.64
11.41 6.88 -1.64
12.21 7.35 -1.25
12.38 7.46 -0.76
29.01 17.48 -0.59
5.4 3.23 -1.69
6.23 3.73 -1.68
7.33 4.38 -1.66
8.87 5.3 -1.64
11.43 6.84 -1.64
12.07 7.22 -1.23
12.24 7.32 -0.75
5.42 3.21 -1.69
6.26 3.71 -1.68
7.34 4.35 -1.66
8.89 5.27 -1.64
11.47 6.8 -1.64
11.93 7.08 -1.21
12.1 7.18 -0.74
5.42 3.19 -1.68
6.26 3.69 -1.68
7.35 4.33 -1.66
8.91 5.24 -1.64
11.48 6.76 -1.64
11.81 6.95 -1.2
11.97 7.04 -0.73
5.43 3.17 -1.68
6.28 3.67 -1.68
7.36 4.3 -1.66
8.92 5.21 -1.64
11.51 6.72 -1.64
11.71 6.83 -1.19
11.83 6.91 -0.72
5.45 3.15 -1.69
6.28 3.64 -1.68
7.39 4.28 -1.66
46.94 27.18 4.75
8.93 5.17 -1.64
11.53 6.68 -1.64
11.61 6.72 -1.17
11.71 6.78 -0.71
5.46 3.14 -1.69
6.3 3.62 -1.68
7.4 4.25 -1.66
8.96 5.14 -1.64
11.55 6.63 -1.63
11.5 6.6 -1.16
11.61 6.67 -0.7
5.46 3.11 -1.68
6.32 3.6 -1.68
7.41 4.22 -1.66
8.98 5.12 -1.64
11.57 6.59 -1.63
11.41 6.5 -1.15
11.51 6.56 -0.69
12.07 6.88 -0.24
5.47 3.09 -1.68
6.33 3.58 -1.68
7.42 4.19 -1.66
9 5.08 -1.64
11.59 6.55 -1.63
11.31 6.39 -1.14
11.42 6.45 -0.69
11.95 6.75 -0.24
5.48 3.07 -1.68
6.34 3.55 -1.68
7.43 4.17 -1.66
9.01 5.05 -1.64
11.61 6.51 -1.63
11.16 6.25 -1.12
11.32 6.35 -0.68
11.83 6.63 -0.24
5.49 3.05 -1.68
45.62 25.36 0.91
6.34 3.53 -1.67
7.45 4.14 -1.66
9.02 5.02 -1.64
47.47 26.39 6.67
11.63 6.47 -1.63
11.21 6.23 -1.12
11.21 6.23 -0.67
11.73 6.52 -0.23
5.5 3.03 -1.68
6.36 3.5 -1.68
7.46 4.11 -1.66
9.04 4.98 -1.64
11.02 6.08 -1.55
11.14 6.14 -1.11
11.14 6.14 -0.67
11.63 6.41 -0.23
5.51 3.01 -1.68
6.37 3.48 -1.68
7.47 4.08 -1.65
9.06 4.95 -1.64
10.92 5.97 -1.53
10.96 5.99 -1.09
11.06 6.05 -0.66
11.53 6.31 -0.23
5.52 2.99 -1.68
6.38 3.46 -1.68
7.48 4.06 -1.65
9.08 4.93 -1.64
47.05 25.51 6.57
10.84 5.88 -1.51
10.83 5.87 -1.08
11.02 5.97 -0.66
11.44 6.2 -0.23
5.53 2.97 -1.68
6.39 3.44 -1.68
7.5 4.03 -1.65
9.08 4.88 -1.63
10.83 5.82 -1.51
10.75 5.78 -1.07
10.94 5.88 -0.65
11.37 6.12 -0.23
5.54 2.95 -1.68
6.4 3.41 -1.67
7.51 4.01 -1.65
9.1 4.85 -1.63
10.85 5.79 -1.51
10.73 5.72 -1.06
10.91 5.82 -0.65
11.3 6.03 -0.22
5.56 2.94 -1.68
6.41 3.39 -1.67
7.53 3.98 -1.66
9.12 4.82 -1.63
10.89 5.76 -1.51
10.73 5.67 -1.06
10.87 5.75 -0.64
11.25 5.95 -0.22
5.56 2.91 -1.68
6.42 3.37 -1.67
7.53 3.95 -1.65
9.14 4.79 -1.64
11.78 6.18 -1.63
10.74 5.63 -1.06
10.87 5.7 -0.64
11.22 5.89 -0.22
5.56 2.89 -1.68
6.43 3.34 -1.67
7.54 3.92 -1.65
9.15 4.76 -1.63
11.8 6.13 -1.63
10.74 5.58 -1.06
11.24 5.84 -0.22
5.57 2.87 -1.68
6.45 3.32 -1.67
7.56 3.9 -1.65
9.17 4.73 -1.63
11.82 6.09 -1.63
10.76 5.55 -1.06
10.91 5.62 -0.64
11.23 5.79 -0.22
5.59 2.86 -1.68
6.45 3.3 -1.67
7.58 3.87 -1.66
9.18 4.69 -1.63
11.85 6.06 -1.63
10.79 5.51 -1.06
10.92 5.58 -0.64
11.24 5.75 -0.22
5.59 2.83 -1.68
6.46 3.27 -1.67
7.6 3.85 -1.66
9.2 4.66 -1.63
11.86 6.01 -1.63
10.81 5.48 -1.06
11.05 5.6 -0.65
11.25 5.7 -0.22
5.6 2.81 -1.68
6.47 3.25 -1.67
7.59 3.81 -1.65
9.22 4.63 -1.63
11.87 5.96 -1.63
10.84 5.44 -1.06
11.07 5.56 -0.65
11.26 5.65 -0.22
5.6 2.79 -1.68
6.49 3.23 -1.67
7.61 3.79 -1.65
9.24 4.6 -1.63
11.9 5.93 -1.63
10.86 5.41 -1.06
11.29 5.62 -0.22
5.62 2.77 -1.68
6.5 3.21 -1.67
7.63 3.77 -1.65
9.24 4.56 -1.63
48.17 23.78 6.6
12 5.92 -1.64
10.93 5.39 -1.07
11.33 5.59 -0.22
5.63 2.75 -1.68
6.5 3.18 -1.67
7.64 3.74 -1.65
9.26 4.53 -1.63
48.61 23.78 6.64
12.02 5.88 -1.64
10.95 5.36 -1.07
11.36 5.56 -0.22
5.64 2.74 -1.68
6.51 3.16 -1.67
7.65 3.71 -1.65
9.28 4.5 -1.63
11.96 5.8 -1.63
10.99 5.33 -1.07
11.4 5.53 -0.22
5.65 2.71 -1.68
6.53 3.14 -1.67
7.65 3.68 -1.65
9.31 4.47 -1.64
11.98 5.76 -1.63
11.01 5.29 -1.07
11.42 5.49 -0.22
5.65 2.69 -1.68
6.54 3.11 -1.67
7.67 3.65 -1.65
9.32 4.44 -1.63
12 5.72 -1.63
11.46 5.46 -0.22
5.66 2.67 -1.68
6.55 3.09 -1.67
7.68 3.62 -1.65
9.33 4.4 -1.63
46.97 22.16 6.38
12.02 5.67 -1.63
11.07 5.22 -1.07
11.5 5.43 -0.22
5.67 2.65 -1.68
6.55 3.06 -1.67
7.7 3.6 -1.65
9.35 4.37 -1.64
12.03 5.63 -1.63
11.11 5.19 -1.07
11.54 5.4 -0.22
5.69 2.64 -1.68
6.56 3.04 -1.67
7.71 3.57 -1.65
9.37 4.35 -1.64
12.05 5.58 -1.63
48.16 22.32 8.41
11.16 5.17 -1.08
11.24 5.21 -0.65
11.57 5.37 -0.22
5.69 2.61 -1.68
6.58 3.02 -1.67
7.71 3.54 -1.65
9.4 4.32 -1.64
12.07 5.54 -1.63
11.19 5.14 -1.08
11.23 5.16 -0.65
11.6 5.33 -0.22
5.69 2.59 -1.68
6.59 3 -1.67
7.72 3.51 -1.65
9.41 4.28 -1.64
47.27 21.51 6.38
12.09 5.5 -1.63
11.21 5.1 -1.08
11.31 5.14 -0.65
11.63 5.29 -0.22
5.7 2.57 -1.68
6.6 2.98 -1.67
7.74 3.49 -1.65
9.42 4.25 -1.64
12.11 5.46 -1.63
11.25 5.07 -1.08
11.68 5.27 -0.22
5.71 2.55 -1.68
43.59 19.47 0.83
6.6 2.95 -1.67
7.75 3.46 -1.65
9.44 4.22 -1.64
12.12 5.41 -1.63
11.29 5.04 -1.08
11.72 5.24 -0.22
5.73 2.53 -1.68
6.61 2.93 -1.67
7.76 3.44 -1.65
9.46 4.19 -1.64
12.12 5.36 -1.63
11.32 5.01 -1.08
11.76 5.2 -0.22
5.73 2.51 -1.68
6.63 2.9 -1.67
7.76 3.4 -1.65
9.47 4.15 -1.64
12.15 5.32 -1.63
11.35 4.97 -1.08
11.82 5.18 -0.23
5.73 2.49 -1.68
6.64 2.88 -1.67
7.78 3.38 -1.65
9.49 4.12 -1.64
12.16 5.28 -1.63
11.38 4.94 -1.09
12.02 5.22 -0.23
5.75 2.47 -1.68
6.66 2.86 -1.67
7.79 3.35 -1.65
9.48 4.08 -1.63
12.18 5.24 -1.63
12 5.16 -0.23
5.75 2.45 -1.68
6.64 2.83 -1.67
7.8 3.32 -1.65
9.49 4.04 -1.63
12.19 5.19 -1.63
11.46 4.88 -1.09
5.77 2.43 -1.68
6.65 2.81 -1.67
7.82 3.3 -1.65
9.5 4.01 -1.63
12.03 5.07 -1.6
11.51 4.85 -1.09
5.77 2.41 -1.68
6.67 2.78 -1.67
7.81 3.26 -1.65
9.52 3.98 -1.63
11.94 4.99 -1.59
11.54 4.82 -1.09
5.77 2.39 -1.67
6.68 2.76 -1.67
7.82 3.24 -1.65
9.53 3.94 -1.63
11.92 4.93 -1.58
11.53 4.77 -1.09
11.82 4.89 -0.67
5.78 2.37 -1.67
6.69 2.74 -1.67
7.84 3.21 -1.65
9.53 3.9 -1.63
11.93 4.89 -1.58
11.59 4.74 -1.1
11.78 4.82 -0.67
5.79 2.35 -1.67
6.69 2.71 -1.67
7.86 3.18 -1.65
9.54 3.87 -1.63
11.97 4.85 -1.59
11.64 4.72 -1.1
11.81 4.79 -0.67
5.8 2.33 -1.68
6.69 2.69 -1.67
7.86 3.15 -1.65
9.55 3.83 -1.63
12.28 4.93 -1.62
11.69 4.69 -1.1
5.81 2.31 -1.67
6.71 2.66 -1.67
7.87 3.12 -1.65
9.56 3.8 -1.63
12.31 4.89 -1.63
11.74 4.66 -1.11
5.81 2.28 -1.67
6.72 2.64 -1.67
7.88 3.1 -1.65
9.56 3.76 -1.63
12.31 4.84 -1.62
5.82 2.27 -1.67
6.73 2.62 -1.67
7.9 3.07 -1.65
9.58 3.73 -1.63
12.34 4.8 -1.63
11.74 4.57 -1.1
42.14 16.4 -2.37
5.83 2.25 -1.67
6.73 2.59 -1.66
7.9 3.04 -1.65
9.6 3.7 -1.63
12.35 4.76 -1.62
19.54 7.52 -1.83
42.15 16.23 -2.37
5.84 2.23 -1.68
6.74 2.57 -1.66
7.92 3.02 -1.65
9.61 3.66 -1.63
12.35 4.71 -1.62
19.61 7.47 -1.84
5.84 2.2 -1.67
6.75 2.54 -1.67
7.92 2.98 -1.64
9.62 3.63 -1.63
12.37 4.66 -1.62
19.59 7.38 -1.83
5.84 2.18 -1.67
6.75 2.52 -1.66
7.93 2.96 -1.65
9.63 3.59 -1.63
12.39 4.62 -1.62
19.66 7.33 -1.84
42.09 15.69 -2.35
5.85 2.16 -1.67
6.77 2.5 -1.67
7.94 2.93 -1.65
9.63 3.55 -1.63
12.4 4.57 -1.62
19.7 7.27 -1.84
42.03 15.51 -2.35
5.87 2.14 -1.67
6.77 2.47 -1.66
7.96 2.91 -1.65
9.65 3.52 -1.63
12.42 4.53 -1.62
19.76 7.21 -1.84
42.15 15.38 -2.35
5.88 2.12 -1.68
6.77 2.45 -1.66
7.96 2.88 -1.65
9.66 3.49 -1.63
12.42 4.48 -1.62
19.81 7.15 -1.84
41.94 15.14 -2.34
5.89 2.1 -1.67
6.79 2.42 -1.66
7.97 2.85 -1.65
9.67 3.45 -1.63
12.44 4.44 -1.62
19.84 7.08 -1.84
41.92 14.97 -2.33
5.88 2.08 -1.67
6.8 2.4 -1.66
7.98 2.82 -1.65
9.68 3.42 -1.63
12.46 4.4 -1.62
19.9 7.03 -1.85
5.9 2.06 -1.67
6.81 2.38 -1.66
8 2.79 -1.65
9.69 3.38 -1.63
12.48 4.36 -1.62
19.93 6.96 -1.85
42.03 14.68 -2.33
5.91 2.04 -1.67
6.8 2.35 -1.66
8.01 2.77 -1.65
9.7 3.35 -1.62
12.49 4.31 -1.62
20.01 6.91 -1.85
41.89 14.46 -2.32
5.91 2.02 -1.67
6.82 2.33 -1.66
8.02 2.74 -1.65
9.72 3.32 -1.63
12.49 4.27 -1.62
20.09 6.86 -1.86
41.94 14.32 -2.32
5.92 2 -1.67
6.83 2.31 -1.66
8.02 2.71 -1.64
9.73 3.28 -1.63
12.51 4.22 -1.62
20.12 6.79 -1.86
42.03 14.18 -2.32
5.91 1.97 -1.67
6.83 2.28 -1.66
8.03 2.68 -1.64
9.74 3.25 -1.63
12.53 4.18 -1.62
20.17 6.73 -1.86
5.93 1.95 -1.67
6.84 2.26 -1.66
8.04 2.65 -1.65
9.74 3.21 -1.62
12.54 4.14 -1.62
20.2 6.66 -1.86
5.94 1.94 -1.67
6.84 2.23 -1.66
8.05 2.62 -1.65
9.75 3.18 -1.62
12.55 4.09 -1.62
20.23 6.59 -1.86
5.94 1.91 -1.67
6.85 2.21 -1.66
8.06 2.59 -1.65
9.76 3.14 -1.62
12.55 4.04 -1.62
20.29 6.53 -1.86
5.94 1.89 -1.67
6.86 2.19 -1.66
8.06 2.56 -1.64
9.78 3.11 -1.63
12.56 4 -1.62
20.37 6.49 -1.87
41.89 13.34 -2.3
5.95 1.87 -1.67
6.87 2.16 -1.66
8.08 2.54 -1.65
9.79 3.08 -1.63
12.59 3.96 -1.62
20.35 6.4 -1.87
5.96 1.85 -1.67
6.89 2.14 -1.66
8.08 2.51 -1.65
9.79 3.04 -1.62
12.6 3.92 -1.62
20.44 6.35 -1.87
42.32 13.15 -2.32
5.96 1.83 -1.67
6.87 2.11 -1.66
8.09 2.48 -1.65
9.8 3.01 -1.62
12.61 3.87 -1.62
20.43 6.27 -1.87
5.97 1.81 -1.67
6.89 2.09 -1.66
8.1 2.45 -1.64
9.81 2.97 -1.62
12.61 3.82 -1.62
20.51 6.21 -1.88
5.98 1.79 -1.67
6.9 2.06 -1.66
8.1 2.42 -1.64
9.83 2.94 -1.62
12.63 3.78 -1.62
20.56 6.15 -1.88
42.65 12.75 -2.33
5.98 1.76 -1.67
6.92 2.04 -1.66
8.11 2.39 -1.64
9.83 2.9 -1.62
12.64 3.73 -1.62
20.58 6.08 -1.88
5.99 1.74 -1.67
6.91 2.01 -1.66
8.12 2.37 -1.64
9.84 2.87 -1.62
12.66 3.69 -1.62
20.61 6.01 -1.88
5.99 1.72 -1.67
6.92 1.99 -1.66
8.13 2.34 -1.64
9.84 2.83 -1.62
12.67 3.65 -1.62
20.64 5.94 -1.88
6.01 1.7 -1.67
6.92 1.96 -1.66
8.14 2.31 -1.65
9.86 2.8 -1.62
12.66 3.59 -1.62
20.68 5.87 -1.88
43.4 12.32 -2.36
6 1.68 -1.67
6.92 1.94 -1.66
8.13 2.28 -1.64
9.87 2.76 -1.62
12.68 3.55 -1.62
20.7 5.8 -1.88
6 1.66 -1.67
6.94 1.92 -1.66
8.14 2.25 -1.64
9.88 2.73 -1.62
12.69 3.51 -1.62
20.7 5.72 -1.88
6.01 1.64 -1.67
23.57 6.43 0.43
6.94 1.89 -1.66
8.15 2.22 -1.64
9.87 2.69 -1.62
12.7 3.47 -1.62
20.79 5.67 -1.89
6.02 1.62 -1.67
6.93 1.86 -1.66
8.17 2.2 -1.64
9.89 2.66 -1.62
12.71 3.42 -1.62
20.8 5.6 -1.88
6.04 1.6 -1.67
23.26 6.17 0.42
6.94 1.84 -1.66
8.17 2.17 -1.64
9.9 2.62 -1.62
12.71 3.37 -1.62
20.82 5.52 -1.88
23.15 6.14 -1.25
23.19 6.15 -0.42
6.03 1.58 -1.67
23.2 6.06 0.42
6.95 1.82 -1.66
23.23 6.07 1.26
8.17 2.13 -1.64
9.91 2.59 -1.62
12.73 3.33 -1.62
20.88 5.46 -1.89
23.19 6.06 -1.26
23.24 6.07 -0.42
6.03 1.55 -1.67
23.34 6.02 0.42
6.96 1.79 -1.66
23.39 6.03 1.27
8.17 2.11 -1.64
9.91 2.55 -1.62
12.73 3.28 -1.61
20.9 5.39 -1.89
6.03 1.53 -1.67
23.29 5.91 0.42
6.96 1.77 -1.66
23.41 5.94 1.27
8.18 2.08 -1.64
9.91 2.52 -1.62
12.74 3.23 -1.61
20.94 5.31 -1.89
6.04 1.51 -1.67
23.19 5.8 0.42
6.96 1.74 -1.66
8.2 2.05 -1.64
9.92 2.48 -1.62
12.75 3.19 -1.61
20.97 5.25 -1.89
6.05 1.49 -1.67
6.97 1.72 -1.66
8.2 2.02 -1.64
9.93 2.45 -1.62
12.75 3.14 -1.61
20.99 5.17 -1.89
6.05 1.47 -1.67
6.98 1.69 -1.66
8.2 1.99 -1.64
9.95 2.41 -1.62
12.76 3.1 -1.61
21.04 5.11 -1.89
6.05 1.45 -1.67
6.98 1.67 -1.66
8.21 1.96 -1.64
9.95 2.38 -1.62
12.77 3.05 -1.61
21.09 5.04 -1.9
6.06 1.43 -1.67
6.99 1.64 -1.66
8.22 1.93 -1.64
9.95 2.34 -1.62
12.8 3.01 -1.61
21.1 4.96 -1.9
6.06 1.4 -1.67
6.98 1.62 -1.66
8.23 1.9 -1.64
9.95 2.3 -1.62
12.79 2.96 -1.61
21.12 4.89 -1.9
6.07 1.38 -1.67
6.99 1.59 -1.66
8.23 1.88 -1.64
9.97 2.27 -1.62
12.81 2.92 -1.61
21.13 4.82 -1.9
6.08 1.36 -1.67
7.01 1.57 -1.66
8.23 1.85 -1.64
9.98 2.24 -1.62
12.81 2.87 -1.61
21.05 4.72 -1.89
6.07 1.34 -1.67
7.01 1.55 -1.66
8.24 1.82 -1.64
9.98 2.2 -1.62
12.82 2.83 -1.61
21.16 4.67 -1.9
6.08 1.32 -1.67
7.01 1.52 -1.66
8.25 1.79 -1.64
9.98 2.17 -1.62
12.82 2.78 -1.61
21.23 4.61 -1.9
6.1 1.3 -1.67
7.01 1.5 -1.66
8.25 1.76 -1.64
9.99 2.13 -1.62
12.83 2.74 -1.61
21.26 4.53 -1.9
6.09 1.28 -1.67
7.02 1.47 -1.66
8.26 1.73 -1.64
10 2.1 -1.62
12.83 2.69 -1.61
21.32 4.47 -1.91
6.1 1.26 -1.67
43.17 8.89 0.77
7.03 1.45 -1.66
8.26 1.7 -1.64
10.01 2.06 -1.62
12.83 2.64 -1.61
21.33 4.39 -1.91
6.1 1.23 -1.67
7.03 1.42 -1.66
8.26 1.67 -1.64
10.02 2.03 -1.62
12.84 2.6 -1.61
21.35 4.32 -1.91
6.1 1.21 -1.67
7.03 1.4 -1.66
8.27 1.64 -1.64
10.01 1.99 -1.62
12.86 2.56 -1.61
21.39 4.25 -1.91
6.11 1.19 -1.67
7.03 1.37 -1.65
8.28 1.62 -1.64
10.02 1.95 -1.62
12.86 2.51 -1.61
21.42 4.18 -1.91
6.12 1.17 -1.67
42.24 8.09 0.75
7.03 1.35 -1.65
8.28 1.59 -1.64
10.03 1.92 -1.62
12.85 2.46 -1.61
21.44 4.11 -1.91
6.12 1.15 -1.67
7.05 1.32 -1.66
8.28 1.56 -1.64
10.04 1.89 -1.62
12.86 2.42 -1.61
21.44 4.03 -1.91
6.11 1.13 -1.67
7.05 1.3 -1.65
8.29 1.53 -1.64
10.04 1.85 -1.62
12.87 2.37 -1.61
21.48 3.96 -1.91
6.12 1.11 -1.67
7.06 1.28 -1.66
8.3 1.5 -1.64
10.04 1.81 -1.62
12.87 2.33 -1.61
21.49 3.88 -1.91
6.13 1.09 -1.67
7.05 1.25 -1.65
8.31 1.47 -1.64
10.04 1.78 -1.62
12.88 2.28 -1.61
21.53 3.82 -1.91
6.13 1.06 -1.67
7.05 1.22 -1.65
8.31 1.44 -1.64
10.05 1.75 -1.62
12.88 2.24 -1.6
21.56 3.74 -1.91
6.13 1.04 -1.67
7.06 1.2 -1.65
8.31 1.41 -1.64
10.06 1.71 -1.62
12.88 2.19 -1.6
21.62 3.67 -1.92
6.13 1.02 -1.66
7.07 1.17 -1.65
8.31 1.38 -1.64
10.07 1.67 -1.62
12.9 2.14 -1.61
21.66 3.6 -1.92
6.14 1 -1.67
7.07 1.15 -1.65
8.32 1.35 -1.64
10.06 1.63 -1.61
12.91 2.1 -1.61
21.69 3.52 -1.92
6.14 0.98 -1.67
7.07 1.12 -1.65
8.33 1.32 -1.64
10.07 1.6 -1.61
12.9 2.05 -1.6
21.72 3.45 -1.92
41.63 6.62 -2.21
6.16 0.96 -1.67
7.07 1.1 -1.65
8.33 1.3 -1.64
10.07 1.57 -1.61
12.9 2.01 -1.6
21.76 3.39 -1.93
41.75 6.5 -2.21
6.15 0.94 -1.67
7.08 1.08 -1.65
8.32 1.27 -1.64
10.08 1.53 -1.62
12.92 1.97 -1.6
21.8 3.32 -1.93
41.73 6.35 -2.21
6.15 0.91 -1.67
7.09 1.05 -1.65
8.33 1.23 -1.64
10.08 1.49 -1.61
12.92 1.91 -1.6
21.83 3.23 -1.93
41.74 6.19 -2.21
6.15 0.89 -1.67
7.09 1.03 -1.65
8.34 1.21 -1.64
10.08 1.46 -1.61
12.94 1.87 -1.6
21.87 3.16 -1.93
41.79 6.04 -2.21
6.16 0.87 -1.67
7.08 1 -1.65
8.35 1.18 -1.64
10.08 1.42 -1.61
59.92 8.45 7.43
12.93 1.82 -1.6
21.91 3.09 -1.94
41.79 5.9 -2.21
6.17 0.85 -1.67
7.09 0.97 -1.65
8.35 1.15 -1.64
10.09 1.39 -1.61
12.93 1.78 -1.6
21.9 3.01 -1.93
41.76 5.74 -2.21
6.17 0.83 -1.67
7.09 0.95 -1.65
8.35 1.12 -1.64
10.09 1.35 -1.61
53.24 7.13 6.6
12.93 1.73 -1.6
21.93 2.94 -1.94
41.86 5.61 -2.21
6.16 0.8 -1.66
7.1 0.93 -1.65
8.34 1.09 -1.64
10.1 1.32 -1.61
12.93 1.69 -1.6
21.93 2.86 -1.93
41.77 5.45 -2.21
6.16 0.78 -1.66
7.1 0.9 -1.65
8.36 1.06 -1.64
10.09 1.28 -1.61
12.94 1.64 -1.6
21.95 2.79 -1.94
41.99 5.33 -2.22
6.17 0.76 -1.66
7.09 0.87 -1.65
8.36 1.03 -1.64
59.16 7.3 5.22
10.09 1.24 -1.61
12.94 1.6 -1.6
21.99 2.71 -1.94
6.18 0.74 -1.67
7.1 0.85 -1.65
8.36 1 -1.64
10.09 1.21 -1.61
12.94 1.55 -1.6
21.99 2.63 -1.94
6.18 0.72 -1.67
7.1 0.83 -1.65
8.36 0.97 -1.64
10.11 1.18 -1.61
12.94 1.5 -1.6
21.99 2.56 -1.94
6.17 0.7 -1.66
7.1 0.8 -1.65
8.36 0.94 -1.64
10.1 1.14 -1.61
12.94 1.46 -1.6
22.02 2.48 -1.94
6.18 0.67 -1.66
7.11 0.78 -1.65
8.36 0.91 -1.64
10.1 1.1 -1.61
12.95 1.41 -1.6
22.02 2.4 -1.94
6.18 0.65 -1.67
7.1 0.75 -1.65
8.37 0.88 -1.64
10.11 1.07 -1.61
12.95 1.37 -1.6
22.07 2.33 -1.94
6.18 0.63 -1.67
7.1 0.73 -1.65
8.38 0.86 -1.64
10.11 1.03 -1.61
12.94 1.32 -1.6
22.07 2.25 -1.94
6.18 0.61 -1.67
7.11 0.7 -1.65
8.37 0.82 -1.63
10.11 1 -1.61
12.96 1.28 -1.6
22.09 2.18 -1.94
45.3 4.47 -2.39
6.18 0.59 -1.66
49.38 4.69 0.87
7.11 0.68 -1.65
8.37 0.8 -1.64
10.12 0.96 -1.61
12.96 1.23 -1.6
22.1 2.1 -1.94
45.71 4.34 -2.41
6.18 0.57 -1.66
44.49 4.07 0.78
7.12 0.65 -1.65
8.38 0.77 -1.63
10.11 0.93 -1.61
12.97 1.19 -1.6
22.12 2.03 -1.94
6.19 0.54 -1.67
49.29 4.34 0.86
7.11 0.63 -1.65
8.38 0.74 -1.64
10.11 0.89 -1.61
12.98 1.14 -1.6
22.1 1.95 -1.94
6.19 0.52 -1.67
7.11 0.6 -1.65
8.38 0.71 -1.64
10.12 0.86 -1.61
12.97 1.1 -1.6
22.13 1.87 -1.94
41.97 3.55 -2.21
6.2 0.5 -1.67
7.12 0.58 -1.65
8.37 0.68 -1.63
10.12 0.82 -1.61
12.98 1.05 -1.6
22.15 1.79 -1.94
41.95 3.4 -2.21
6.19 0.48 -1.66
7.12 0.55 -1.65
8.38 0.65 -1.63
10.12 0.78 -1.61
12.99 1.01 -1.6
22.15 1.72 -1.94
42.01 3.25 -2.21
6.19 0.46 -1.66
7.12 0.53 -1.65
8.38 0.62 -1.63
10.11 0.75 -1.61
13 0.96 -1.6
22.17 1.64 -1.95
42.19 3.12 -2.22
6.19 0.44 -1.66
7.12 0.5 -1.65
8.39 0.59 -1.63
10.11 0.71 -1.61
13 0.92 -1.6
22.17 1.57 -1.94
42.42 3 -2.23
6.2 0.42 -1.67
7.11 0.48 -1.65
8.39 0.56 -1.63
10.12 0.68 -1.61
12.98 0.87 -1.6
22.19 1.49 -1.95
42.13 2.83 -2.21
6.2 0.39 -1.66
7.12 0.45 -1.65
8.38 0.53 -1.63
10.13 0.64 -1.61
12.99 0.83 -1.6
22.2 1.41 -1.95
41.92 2.67 -2.2
6.19 0.37 -1.66
7.13 0.43 -1.65
8.39 0.5 -1.63
10.12 0.61 -1.61
12.99 0.78 -1.6
22.2 1.33 -1.95
41.9 2.52 -2.2
6.2 0.35 -1.66
7.13 0.4 -1.65
8.39 0.47 -1.63
10.11 0.57 -1.6
13.01 0.73 -1.6
22.21 1.25 -1.95
42.14 2.37 -2.21
6.2 0.33 -1.66
7.12 0.38 -1.65
8.39 0.44 -1.63
10.12 0.53 -1.61
13 0.69 -1.6
22.2 1.17 -1.94
42.11 2.22 -2.21
6.21 0.31 -1.66
7.12 0.35 -1.65
8.4 0.42 -1.63
10.12 0.5 -1.61
12.99 0.64 -1.6
22.22 1.1 -1.95
42.03 2.09 -2.21
6.21 0.29 -1.67
7.13 0.33 -1.65
8.38 0.39 -1.63
57.09 2.62 5
10.13 0.47 -1.61
13 0.6 -1.6
22.21 1.02 -1.94
41.79 1.92 -2.19
6.2 0.26 -1.66
7.13 0.3 -1.65
8.39 0.35 -1.63
10.13 0.43 -1.61
13.01 0.55 -1.6
22.2 0.94 -1.94
41.74 1.76 -2.19
6.2 0.24 -1.66
7.14 0.28 -1.65
8.39 0.32 -1.63
10.12 0.39 -1.6
13 0.5 -1.6
22.2 0.86 -1.94
41.77 1.61 -2.19
6.21 0.22 -1.66
54.16 1.91 0.95
7.13 0.25 -1.65
8.4 0.3 -1.63
10.12 0.36 -1.6
13.01 0.46 -1.6
22.18 0.78 -1.94
41.63 1.47 -2.18
6.21 0.2 -1.66
7.12 0.23 -1.65
8.4 0.27 -1.63
10.12 0.32 -1.6
12.99 0.41 -1.6
22.21 0.7 -1.94
41.69 1.32 -2.19
6.2 0.18 -1.66
7.13 0.2 -1.65
8.39 0.24 -1.63
10.13 0.29 -1.61
13 0.37 -1.6
22.22 0.63 -1.94
41.98 1.19 -2.2
6.2 0.15 -1.66
7.14 0.18 -1.65
8.4 0.21 -1.63
10.14 0.25 -1.61
13 0.32 -1.6
22.19 0.55 -1.94
42.24 1.04 -2.21
6.2 0.13 -1.66
7.13 0.15 -1.65
8.39 0.18 -1.63
10.12 0.22 -1.6
13.02 0.28 -1.6
22.16 0.47 -1.94
41.57 0.89 -2.18
6.2 0.11 -1.66
7.12 0.13 -1.64
54.91 0.97 2.88
8.41 0.15 -1.63
55.03 0.97 4.81
10.13 0.18 -1.6
13 0.23 -1.6
22.16 0.39 -1.94
41.47 0.73 -2.17
6.21 0.09 -1.66
7.13 0.1 -1.65
8.4 0.12 -1.63
10.13 0.14 -1.6
12.99 0.19 -1.6
22.16 0.32 -1.94
41.52 0.59 -2.18
6.2 0.07 -1.66
7.13 0.08 -1.65
8.38 0.09 -1.63
10.13 0.11 -1.6
12.99 0.14 -1.59
22.15 0.24 -1.94
41.56 0.44 -2.18
6.2 0.05 -1.66
7.13 0.05 -1.65
8.39 0.06 -1.63
10.13 0.07 -1.6
12.99 0.1 -1.6
22.13 0.16 -1.94
41.72 0.31 -2.19
6.2 0.02 -1.66
7.13 0.03 -1.65
8.39 0.03 -1.63
10.12 0.04 -1.6
12.99 0.05 -1.6
22.13 0.08 -1.94
6.2 0 -1.66
7.12 0 -1.64
8.39 0 -1.63
10.12 0 -1.6
13 0 -1.6
22.11 0.01 -1.93
6.21 -0.02 -1.66
7.12 -0.02 -1.64
8.4 -0.03 -1.63
10.12 -0.03 -1.6
12.99 -0.04 -1.6
22.1 -0.07 -1.93
6.2 -0.04 -1.66
7.12 -0.05 -1.64
8.38 -0.06 -1.63
10.13 -0.07 -1.6
12.99 -0.09 -1.59
22.09 -0.15 -1.93
6.19 -0.06 -1.66
7.13 -0.07 -1.65
8.38 -0.09 -1.63
10.12 -0.1 -1.6
12.99 -0.13 -1.6
22.07 -0.23 -1.93
6.19 -0.08 -1.66
7.12 -0.1 -1.64
8.39 -0.11 -1.63
10.11 -0.14 -1.6
13 -0.18 -1.6
22.07 -0.3 -1.93
6.19 -0.11 -1.66
7.11 -0.12 -1.64
8.39 -0.14 -1.63
10.11 -0.17 -1.6
12.98 -0.22 -1.59
22.07 -0.38 -1.93
6.2 -0.13 -1.66
7.12 -0.15 -1.64
8.39 -0.17 -1.63
10.11 -0.21 -1.6
12.97 -0.27 -1.59
22.06 -0.45 -1.93
6.19 -0.15 -1.66
7.12 -0.17 -1.64
8.37 -0.2 -1.63
10.11 -0.25 -1.6
12.98 -0.31 -1.59
22.04 -0.53 -1.93
6.19 -0.17 -1.66
7.12 -0.2 -1.64
8.37 -0.23 -1.63
10.11 -0.28 -1.6
12.99 -0.36 -1.6
22.03 -0.61 -1.93
6.18 -0.19 -1.66
7.12 -0.22 -1.64
8.38 -0.26 -1.63
10.11 -0.32 -1.6
12.99 -0.41 -1.6
22.03 -0.69 -1.93
41.11 -1.28 -2.16
6.18 -0.21 -1.66
7.11 -0.25 -1.64
8.39 -0.29 -1.63
10.1 -0.35 -1.6
64.39 -2.23 7.91
12.97 -0.45 -1.59
22.04 -0.76 -1.93
41.12 -1.42 -2.16
6.19 -0.24 -1.66
7.11 -0.27 -1.64
8.38 -0.32 -1.63
10.1 -0.38 -1.6
12.97 -0.49 -1.59
22.03 -0.84 -1.93
6.18 -0.26 -1.66
7.11 -0.3 -1.64
8.37 -0.35 -1.63
10.11 -0.42 -1.6
64.57 -2.68 7.93
12.97 -0.54 -1.59
22.03 -0.92 -1.93
6.18 -0.28 -1.66
7.12 -0.32 -1.64
8.37 -0.38 -1.63
10.11 -0.46 -1.6
12.96 -0.58 -1.59
22 -0.99 -1.93
6.17 -0.3 -1.66
7.11 -0.35 -1.64
8.37 -0.41 -1.63
10.1 -0.49 -1.6
12.97 -0.63 -1.59
22.01 -1.07 -1.93
41.08 -1.99 -2.16
6.18 -0.32 -1.66
7.1 -0.37 -1.64
8.38 -0.44 -1.63
10.1 -0.53 -1.6
12.96 -0.67 -1.59
22 -1.15 -1.93
41.07 -2.14 -2.16
6.17 -0.34 -1.66
7.1 -0.39 -1.64
8.37 -0.46 -1.63
10.09 -0.56 -1.6
12.94 -0.72 -1.59
64.23 -3.57 10.19
22 -1.22 -1.93
41.8 -2.32 -2.19
6.18 -0.36 -1.66
7.1 -0.42 -1.64
8.36 -0.49 -1.63
10.09 -0.6 -1.6
12.93 -0.76 -1.59
21.97 -1.3 -1.93
41.89 -2.47 -2.2
6.16 -0.39 -1.65
7.1 -0.44 -1.64
8.36 -0.52 -1.63
10.09 -0.63 -1.6
12.94 -0.81 -1.59
21.95 -1.37 -1.92
42.04 -2.63 -2.21
6.16 -0.41 -1.66
7.1 -0.47 -1.64
8.36 -0.55 -1.63
10.07 -0.67 -1.6
12.93 -0.85 -1.59
21.94 -1.45 -1.92
42.23 -2.79 -2.22
6.17 -0.43 -1.66
7.09 -0.49 -1.64
8.36 -0.58 -1.63
10.07 -0.7 -1.6
12.93 -0.9 -1.59
21.94 -1.53 -1.92
6.18 -0.45 -1.66
7.09 -0.52 -1.64
8.35 -0.61 -1.63
10.07 -0.74 -1.6
12.93 -0.94 -1.59
21.94 -1.6 -1.92
42.21 -3.08 -2.22
6.17 -0.47 -1.66
7.09 -0.54 -1.64
8.34 -0.64 -1.63
10.07 -0.77 -1.6
12.92 -0.99 -1.59
21.91 -1.68 -1.92
41.4 -3.18 -2.18
6.16 -0.49 -1.65
7.1 -0.57 -1.64
8.34 -0.67 -1.63
