# .PCD v0.7 - Point Cloud Data file format
VERSION 0.7
FIELDS x y z
SIZE 4 4 4
TYPE F F F
COUNT 1 1 1
WIDTH 2727
HEIGHT 1
VIEWPOINT 0 0 0 1 0 0 0
POINTS 2727
DATA ascii
-28.7 19.77 8.05
-29.03 20 -0.62
-5.59 3.88 -1.82
-28.99 20.13 0.62
-6.66 4.62 -1.87
-28.94 20.09 1.85
-0.84 0.58 -0.2
-28.93 20.08 3.08
-0.84 0.58 -0.16
-27.76 19.27 4.15
-15.12 10.5 -2.26
-22.5 15.62 -2.4
-28.86 20.04 6.83
-28.69 19.92 -1.83
-28.95 20.1 -0.62
-5.57 3.9 -1.82
-28.95 20.25 0.62
-6.66 4.66 -1.88
-28.95 20.25 1.85
-0.83 0.58 -0.2
-28.83 20.16 3.08
-0.83 0.58 -0.16
-27.08 18.94 4.06
-15.11 10.56 -2.26
-28.78 20.13 5.56
-22.44 15.69 -2.4
-29.56 20.67 7.01
-30.39 21.25 -1.94
-29.18 20.41 -0.62
-5.55 3.91 -1.82
-29.5 20.78 0.63
-6.64 4.68 -1.88
-28.88 20.34 1.85
-0.82 0.58 -0.2
-29.22 20.58 3.13
-0.83 0.58 -0.16
-28.13 19.81 4.22
-15.09 10.63 -2.27
-22.36 15.75 -2.39
-28.57 20.13 6.79
-29.94 21.09 -1.92
-29.37 20.68 8.29
-5.54 3.93 -1.82
-29.45 20.9 0.63
-6.63 4.7 -1.88
-0.82 0.58 -0.19
-0.83 0.59 -0.16
-15.09 10.7 -2.27
-22.29 15.81 -2.39
-28.68 20.35 6.83
-29.88 21.2 -1.92
-28.02 19.88 7.93
-5.53 3.95 -1.82
-6.61 4.72 -1.88
-29.56 21.13 1.9
-0.82 0.58 -0.2
-0.81 0.58 -0.16
-29.73 21.24 4.49
-15.06 10.76 -2.27
-22.23 15.89 -2.39
-29.28 20.92 7
-28.11 20.09 7.98
-5.52 3.98 -1.82
-6.59 4.74 -1.87
-29.51 21.24 1.91
-0.81 0.58 -0.19
-28.66 20.63 3.09
-0.83 0.59 -0.16
-27.4 19.72 4.15
-15.05 10.83 -2.28
-22.16 15.95 -2.39
-29.53 21.26 -1.91
-5.52 4 -1.83
-6.59 4.78 -1.88
-28.83 20.92 1.87
-0.8 0.58 -0.19
-29.53 21.42 3.19
-0.87 0.63 -0.17
-27.43 19.9 4.16
-15.04 10.91 -2.28
-22.08 16.02 -2.39
-5.5 4.02 -1.82
-6.58 4.81 -1.88
-25.44 18.59 1.65
-0.86 0.63 -0.17
-15.02 10.98 -2.28
-22 16.08 -2.38
-29.4 21.48 -1.91
-28.48 20.81 8.14
-5.49 4.04 -1.83
-6.56 4.83 -1.88
-0.82 0.6 -0.16
-29.42 21.65 4.49
-15 11.04 -2.29
-28.45 20.94 5.59
-21.92 16.13 -2.38
-29.52 21.73 7.12
-29.37 21.61 -1.91
-5.48 4.06 -1.83
-6.54 4.85 -1.88
-0.81 0.6 -0.16
-14.98 11.11 -2.29
-28.27 20.95 5.57
-21.86 16.2 -2.38
-29.66 21.98 7.18
-29.15 21.61 -1.9
-5.47 4.09 -1.83
-6.53 4.88 -1.88
-29.64 22.13 1.94
-28.76 21.47 3.14
-0.82 0.61 -0.16
-28.6 21.36 4.38
-14.94 11.15 -2.29
-28.17 21.03 5.57
-21.78 16.26 -2.38
-29.12 21.74 -1.9
-23.98 17.9 6.91
-26.24 19.59 -0.57
-5.46 4.1 -1.83
-27.59 20.75 0.6
-6.52 4.9 -1.88
-28.51 21.44 1.87
-28.73 21.61 3.15
-0.82 0.62 -0.16
-28.57 21.48 4.39
-14.94 11.24 -2.3
-28.12 21.14 5.57
-21.7 16.32 -2.38
-28.8 21.66 7.01
-26.27 19.75 -1.72
-5.44 4.12 -1.83
-6.51 4.93 -1.89
-28.41 21.53 1.87
-28.7 21.75 3.15
-0.81 0.61 -0.16
-27.38 20.75 4.22
-14.93 11.31 -2.3
-29.38 22.26 5.84
-21.61 16.38 -2.37
-27.78 21.05 -1.83
-24.02 18.2 6.96
-29.07 22.02 -0.64
-5.43 4.14 -1.83
-6.49 4.95 -1.88
-0.79 0.61 -0.16
-14.91 11.38 -2.3
-29.34 22.39 5.85
-21.55 16.44 -2.37
-24.45 18.65 -1.61
-27.25 20.79 -0.6
-5.42 4.17 -1.83
-25.79 19.81 0.57
-6.49 4.98 -1.89
-0.79 0.61 -0.16
-28.31 21.76 4.38
-14.88 11.44 -2.3
-29.65 22.79 5.92
-21.49 16.51 -2.37
-26.19 20.12 -1.73
-5.41 4.19 -1.83
-25.76 19.93 0.57
-6.47 5.01 -1.89
-0.79 0.61 -0.16
-28.15 21.79 4.37
-14.85 11.49 -2.31
-29.76 23.03 5.96
-21.42 16.57 -2.37
-26.74 20.69 -1.77
-5.4 4.21 -1.83
-25.38 19.78 0.56
-6.45 5.03 -1.89
-29.72 23.16 3.3
-0.8 0.63 -0.16
-23.54 18.35 3.66
-14.9 11.61 -2.32
-27.97 21.8 5.62
-21.35 16.64 -2.37
-26.57 20.7 -1.77
-5.38 4.22 -1.83
-25.05 19.66 0.56
-6.45 5.06 -1.89
-25.02 19.63 1.67
-22.94 18 2.55
-10.32 8.1 -2.08
-14.91 11.7 -2.33
-29.25 22.95 5.89
-21.3 16.71 -2.37
-28.27 22.19 6.99
-26.51 20.81 -1.77
-5.36 4.24 -1.83
-25.19 19.92 0.56
-6.42 5.07 -1.89
-22.98 18.17 2.56
-10.27 8.13 -2.07
-28.92 22.87 4.53
-14.92 11.8 -2.34
-27.65 21.87 5.58
-21.23 16.79 -2.37
-26.64 21.07 -1.78
-26.88 21.26 -0.6
-5.35 4.26 -1.83
-26.83 21.37 0.6
-6.4 5.1 -1.89
-10.26 8.17 -2.08
-28.49 22.69 4.47
-14.89 11.86 -2.34
-28.28 22.52 5.73
-21.16 16.86 -2.37
-26.32 20.96 -1.76
-24.79 19.75 -0.55
-5.34 4.29 -1.84
-6.39 5.13 -1.89
-28.85 23.14 3.24
-10.24 8.21 -2.08
-22.73 18.23 3.58
-14.8 11.87 -2.33
-27.32 21.91 5.55
-21.12 16.94 -2.37
-28.98 23.24 7.22
-26.37 21.15 -1.77
-26.81 21.5 -0.6
-5.33 4.31 -1.84
-24.89 20.11 0.56
-6.37 5.15 -1.89
-24.7 19.95 1.66
-28.76 23.23 3.23
-10.21 8.25 -2.08
-22.12 17.86 3.49
-14.69 11.87 -2.32
-21.03 16.98 -2.37
-24.53 19.81 -1.65
-24.64 19.9 -0.55
-5.31 4.32 -1.83
-27.48 22.36 0.62
-6.36 5.17 -1.89
-28.66 23.32 3.23
-10.19 8.29 -2.08
-27.17 22.1 4.3
-14.6 11.88 -2.31
-20.95 17.04 -2.36
-23.51 19.12 5.89
-27.34 22.24 -1.85
-5.3 4.34 -1.84
-23.5 19.25 0.53
-6.34 5.19 -1.89
-10.17 8.33 -2.08
-23.91 19.59 3.8
-14.51 11.89 -2.3
-20.86 17.09 -2.36
-24.5 20.07 -1.66
-24.63 20.18 -0.56
-5.29 4.37 -1.84
-24.52 20.23 0.55
-6.32 5.21 -1.89
-22.01 18.15 2.5
-10.13 8.35 -2.08
-22.06 18.2 3.51
-14.4 11.88 -2.29
-27.25 22.48 5.59
-20.78 17.14 -2.36
-24.23 19.99 7.25
-24.53 20.23 -0.55
-5.28 4.39 -1.84
-24.56 20.4 0.56
-6.31 5.24 -1.89
-22.41 18.62 1.53
-24.77 20.57 2.82
-10.1 8.39 -2.08
-26.34 21.88 4.2
-14.3 11.88 -2.28
-20.71 17.21 -2.36
-23.46 19.49 5.93
-24.19 20.09 -1.65
-5.27 4.41 -1.84
-22.6 18.91 0.51
-6.29 5.27 -1.89
-22.1 18.49 1.51
-22.36 18.71 2.55
-10.09 8.45 -2.08
-22.32 18.67 3.57
-14.19 11.87 -2.27
-20.63 17.26 -2.35
-27.96 23.4 7.09
-24.13 20.19 -1.65
-26.47 22.15 -0.6
-5.25 4.42 -1.84
-26.68 22.49 0.61
-22.11 18.63 2.53
-10.05 8.47 -2.08
-22.09 18.62 3.55
-14.09 11.88 -2.26
-23.57 19.86 4.88
-20.55 17.32 -2.35
-21.94 18.49 -1.5
-23.89 20.13 7.21
-25.44 21.44 -0.58
-5.23 4.44 -1.84
-26.5 22.49 0.61
-6.31 5.36 -1.91
-22.13 18.78 1.52
-22.08 18.74 2.53
-10.04 8.52 -2.08
-27.84 23.63 4.48
-13.99 11.87 -2.25
-20.47 17.37 -2.35
-21.7 18.41 -1.49
-23.92 20.3 7.24
-5.22 4.46 -1.84
-22.06 18.85 0.51
-6.28 5.37 -1.91
-21.88 18.7 2.52
-10.03 8.57 -2.09
-21.87 18.69 3.53
-13.89 11.87 -2.24
-23.51 20.09 4.9
-20.39 17.43 -2.35
-21.71 18.55 -1.5
-22.06 18.85 -0.51
-23.7 20.25 8.35
-5.22 4.49 -1.84
-21.98 18.92 0.51
-6.3 5.42 -1.92
-22.33 19.22 1.54
-21.53 18.53 2.49
-10.01 8.62 -2.09
-27.6 23.76 4.47
-13.8 11.88 -2.24
-20.28 17.45 -2.34
-21.99 18.92 -1.52
-21.99 18.92 -0.51
-5.2 4.51 -1.84
-25.51 22.11 1.77
-9.99 8.66 -2.09
-27.61 23.94 4.49
-13.7 11.87 -2.23
-23.39 20.28 4.9
-20.16 17.47 -2.33
-21.92 19 -1.52
-5.18 4.53 -1.84
-22.66 19.78 1.58
-9.97 8.71 -2.1
-27.48 23.99 4.48
-13.6 11.87 -2.22
-23.3 20.34 4.9
-21.27 18.57 -2.47
-21.33 18.62 -1.48
-23.49 20.51 -0.54
-5.17 4.54 -1.84
-24.2 21.27 0.56
-6.26 5.5 -1.92
-23.28 20.47 1.62
-23.77 20.9 2.77
-9.94 8.74 -2.1
-27.31 24.01 4.47
-13.55 11.91 -2.22
-21.18 18.62 -2.47
-21.57 18.97 -1.51
-5.16 4.57 -1.85
-21.57 19.09 0.5
-21.56 19.08 1.51
-9.92 8.78 -2.1
-13.56 12 -2.22
-21.05 18.63 -2.46
-21.57 19.09 -1.51
-5.15 4.59 -1.85
-24.13 21.5 0.56
-23.7 21.13 2.78
-9.9 8.82 -2.1
-27.3 24.33 4.49
-15.33 13.67 -2.52
-21.43 19.1 -2.51
-21.84 19.47 -1.53
-5.13 4.61 -1.85
-23.4 21.01 0.55
-23.64 21.22 2.78
-9.88 8.87 -2.1
-13.31 11.95 -2.2
-21.26 19.08 -2.5
-22.41 20.12 -0.53
-5.11 4.62 -1.85
-23.91 21.62 0.56
-21.43 19.37 1.51
-9.86 8.91 -2.1
-26.69 24.12 4.42
-13.28 12 -2.2
-21.14 19.11 -2.49
-21.48 19.42 -1.52
-22.95 20.75 7.14
-22.33 20.19 -0.53
-5.1 4.64 -1.85
-23.38 21.28 0.55
-22.01 20.03 2.6
-9.83 8.95 -2.11
-21.19 19.29 3.52
-15.09 13.73 -2.5
-20.53 18.69 -2.43
-24.09 21.92 -0.57
-5.09 4.67 -1.85
-23.42 21.47 0.55
-22.65 20.77 1.61
-21.28 19.51 2.53
-9.8 8.98 -2.11
-15.01 13.76 -2.5
-21.01 19.26 -2.49
-21.42 19.63 -1.52
-23.12 21.2 7.24
-23.05 21.13 8.38
-5.07 4.68 -1.85
-23.36 21.57 0.55
-23.6 21.79 1.68
-21.54 19.88 2.56
-9.78 9.03 -2.11
-14.95 13.8 -2.5
-20.94 19.33 -2.49
-22.38 20.66 -1.6
-22.82 21.06 7.17
-23.15 21.37 -0.55
-5.06 4.7 -1.85
-9.76 9.07 -2.11
-14.77 13.73 -2.48
-22.27 20.71 4.82
-20.36 18.93 -2.43
-22.41 20.84 5.95
-21.56 20.04 -1.54
-22.42 20.84 7.07
-21.42 19.92 -0.51
-5.04 4.71 -1.85
-23.11 21.62 0.55
-22.08 20.65 2.65
-9.73 9.1 -2.11
-21.18 19.81 3.56
-14.74 13.79 -2.48
-22.19 20.76 4.81
-20.31 19 -2.43
-22.27 20.83 5.93
-21.27 19.9 -1.53
-22.37 20.93 7.07
-22.43 20.98 8.23
-5.03 4.74 -1.85
-22.97 21.64 0.55
-21.93 20.66 2.64
-9.7 9.14 -2.11
-22.03 20.75 3.72
-14.7 13.85 -2.48
-22.14 20.86 4.82
-20.17 19 -2.42
-22.25 20.96 5.94
-21.32 20.09 -1.54
-23.54 22.18 7.47
-21.57 20.32 -0.52
-22.33 21.03 8.22
-5.02 4.76 -1.85
-21.58 20.47 0.52
-21.71 20.6 1.57
-21.94 20.81 2.65
-9.68 9.19 -2.11
-21.97 20.84 3.72
-14.63 13.88 -2.48
-22.14 21.01 4.83
-19.82 18.8 -2.39
-22.21 21.07 5.95
-21.23 20.14 -1.53
-23.4 22.2 7.45
-21.45 20.35 -0.52
-22.27 21.13 8.23
-5 4.78 -1.85
-21.47 20.51 0.52
-21.61 20.64 1.57
-9.65 9.22 -2.11
-22.5 21.49 3.82
-14.57 13.92 -2.47
-22.16 21.16 4.85
-20.02 19.13 -2.42
-22.39 21.39 6.02
-23.29 22.25 -1.69
-23.31 22.26 7.44
-21.38 20.43 -0.52
-4.99 4.8 -1.86
-21.42 20.6 0.52
-21.51 20.7 1.56
-9.64 9.27 -2.12
-25.71 24.73 4.38
-14.54 13.99 -2.48
-20.58 19.8 -2.5
-22.43 21.58 6.05
-23.12 22.24 -1.68
-23.14 22.26 7.41
-21.36 20.55 -0.52
-22.2 21.35 8.25
-4.96 4.81 -1.85
-21.43 20.76 0.52
-21.41 20.74 1.56
-21.66 20.99 2.64
-9.61 9.31 -2.12
-25.07 24.29 4.29
-14.41 13.96 -2.46
-21.62 20.94 4.77
-19.86 19.23 -2.42
-22.52 21.82 6.1
-21.39 20.72 -1.56
-22.97 22.26 7.38
-21.24 20.58 -0.52
-4.95 4.83 -1.85
-21.88 21.34 0.53
-21.5 20.97 1.57
-9.58 9.35 -2.12
-25.57 24.95 4.39
-14.34 13.99 -2.46
-21.43 20.91 4.74
-20.28 19.79 -2.48
-22.74 22.19 6.18
-21.45 20.92 -1.57
-23.15 22.58 7.47
-21.43 20.9 -0.52
-4.94 4.86 -1.86
-21.92 21.53 0.54
-21.64 21.26 2.65
-9.56 9.39 -2.12
-25.59 25.14 4.4
-14.24 13.98 -2.45
-23.49 23.07 5.21
-19.87 19.52 -2.44
-22.87 22.47 6.23
-21.48 21.1 -1.58
-22.5 22.1 7.28
-21.51 21.14 -0.53
-4.93 4.88 -1.86
-22.01 21.76 0.54
-23.25 22.99 1.71
-21.59 21.35 2.66
-9.54 9.43 -2.12
-21.71 21.47 3.75
-14.14 13.98 -2.44
-21.77 21.53 4.85
-20.1 19.87 -2.47
-22.58 22.32 6.17
-21.21 20.97 -1.56
-21.48 21.24 -0.53
-4.92 4.9 -1.86
-21.33 21.24 0.53
-21.57 21.48 2.66
-9.51 9.47 -2.13
-21.66 21.57 3.75
-14.07 14.01 -2.44
-19.23 19.15 -2.37
-22.62 22.53 6.21
-21.05 20.96 -1.56
-22.74 22.64 7.41
-21.49 21.4 -0.53
-4.9 4.91 -1.86
-21.46 21.52 0.53
-21.49 21.55 2.66
-9.48 9.51 -2.13
-13.97 14.01 -2.43
-20.58 20.64 4.62
-19.28 19.33 -2.39
-21.71 21.77 5.98
-21.22 21.28 -1.58
-22.99 23.06 7.52
-22.98 23.05 8.72
-4.88 4.93 -1.86
-21.87 22.09 0.54
-21.46 21.67 2.67
-9.45 9.54 -2.13
-24.04 24.27 4.19
-13.91 14.04 -2.43
-21.62 21.83 4.87
-19.3 19.49 -2.4
-21.72 21.93 6
-21.22 21.43 -1.58
-20.82 21.02 -0.52
-22.93 23.15 8.73
-4.87 4.95 -1.86
-21.7 22.06 0.54
-21.09 21.44 1.58
-9.42 9.58 -2.13
-13.79 14.03 -2.42
-21.72 22.09 4.91
-18.93 19.25 -2.36
-21.65 22.02 6
-21.6 21.96 -1.61
-21.24 21.6 -0.53
-22.07 22.44 8.43
-4.85 4.97 -1.86
-21.86 22.39 0.55
-20.58 21.08 2.58
-9.4 9.62 -2.13
-13.75 14.08 -2.42
-21.68 22.2 4.91
-18.91 19.36 -2.37
-21.92 22.45 6.1
-21.69 22.21 -1.63
-19.46 19.93 6.43
-21.94 22.47 -0.55
-4.84 4.99 -1.86
-21.83 22.51 0.55
-9.37 9.66 -2.13
-13.76 14.19 -2.43
-20.98 21.63 4.77
-18.76 19.35 -2.36
-21.62 22.3 -1.63
-19.22 19.82 6.38
-21.85 22.53 -0.55
-21.73 22.41 8.36
-4.81 5 -1.86
-18.81 19.53 0.47
-21.09 21.9 1.59
-9.34 9.7 -2.13
-21.03 21.84 3.72
-13.65 14.18 -2.42
-21.03 21.83 4.8
-18.63 19.34 -2.35
-22.88 23.76 6.41
-20.78 21.58 -1.57
-21.01 21.82 6.99
-21.51 22.34 -0.54
-4.8 5.02 -1.86
-18.76 19.6 0.47
-9.32 9.73 -2.13
-13.63 14.24 -2.42
-20.82 21.75 4.77
-17.99 18.8 -2.28
-21.32 22.28 -1.62
-22.14 23.14 7.39
-21.39 22.35 -0.54
-22.67 23.69 8.79
-4.78 5.03 -1.86
-17.37 18.28 0.44
-9.29 9.78 -2.14
-21.36 22.48 3.81
-13.53 14.23 -2.41
-20.87 21.96 4.8
-17.71 18.64 -2.25
-20.95 22.04 5.91
-20.41 21.48 -1.55
-21.3 22.41 -0.54
-21.56 22.69 8.39
-4.77 5.05 -1.86
-21.46 22.75 0.55
-9.27 9.82 -2.14
-20.13 21.34 3.6
-13.45 14.26 -2.41
-18.87 20 4.36
-18.06 19.14 -2.3
-21.21 22.48 -1.62
-21.33 22.61 7.18
-18.37 19.47 -0.47
-21.37 22.65 8.34
-4.75 5.07 -1.86
-21.22 22.65 0.54
-21.26 22.69 1.63
-9.24 9.87 -2.14
-21.02 22.44 3.78
-13.32 14.22 -2.39
-18.68 19.94 4.33
-16.76 17.89 -2.14
-19.75 21.08 5.62
-20.75 22.15 -0.53
-21.17 22.6 8.3
-4.74 5.09 -1.86
-21.25 22.82 0.54
-9.22 9.9 -2.14
-13.29 14.28 -2.4
-18.5 19.87 4.3
-16.73 17.98 -2.15
-19.56 21.01 5.58
-17.96 19.3 -1.38
-21.62 23.22 7.33
-21.1 22.66 -0.54
-22.3 23.96 8.77
-4.73 5.11 -1.87
-21.09 22.81 0.54
-9.18 9.93 -2.14
-18.37 19.87 3.32
-13.21 14.29 -2.39
-17.73 19.18 -2.28
-18.31 19.8 -1.41
-21.87 23.65 7.44
-18.54 20.06 -0.48
-21.15 22.88 8.35
-4.7 5.13 -1.86
-18.05 19.68 0.47
-20.97 22.86 1.63
-9.15 9.98 -2.14
-18.27 19.92 3.32
-13.12 14.31 -2.38
-23.08 25.16 5.41
-17.45 19.02 -2.26
-19.27 21.01 5.54
-18.12 19.76 -1.41
-21.81 23.78 7.45
-20.98 22.87 -0.54
-4.69 5.15 -1.87
-18.75 20.58 0.49
-21.01 23.07 1.64
-9.12 10.02 -2.15
-18.4 20.2 3.35
-13.06 14.33 -2.38
-18.34 20.13 4.31
-17.38 19.08 -2.26
-20.44 22.44 -1.59
-20.6 22.62 8.2
-4.67 5.16 -1.87
-17.23 19.03 0.45
-17.59 19.44 1.37
-9.1 10.06 -2.15
-20.2 22.31 3.7
-12.87 14.22 -2.36
-22.65 25.02 5.34
-17.23 19.04 -2.25
-18.96 20.94 5.49
-20.24 22.36 -1.58
-18.47 20.41 -0.48
-4.65 5.18 -1.87
-17.21 19.15 0.45
-20.81 23.15 1.63
-9.08 10.1 -2.15
-19.97 22.22 3.67
-12.85 14.29 -2.36
-22.82 25.39 5.41
-17.29 19.23 -2.26
-19.26 21.43 5.6
-17.6 19.58 -1.38
-21.28 23.67 7.35
-18.03 20.06 -0.47
-4.63 5.19 -1.87
-20.39 22.85 0.53
-17.17 19.24 1.35
-9.04 10.13 -2.15
-17.93 20.09 3.31
-12.69 14.22 -2.34
-22.48 25.18 5.35
-17.2 19.27 -2.26
-17.95 20.12 5.24
-17.34 19.43 -1.36
-20.96 23.49 7.27
-18.64 20.89 -0.49
-20.54 23.01 8.27
-4.62 5.21 -1.87
-16.36 18.46 0.43
-9.02 10.17 -2.15
-19.98 22.54 3.7
-12.7 14.33 -2.35
-17.45 19.69 -2.3
-17.06 19.24 5
-17.22 19.43 -1.36
-18.86 21.27 -0.5
-20.3 22.9 8.2
-4.6 5.23 -1.87
-20.2 22.95 0.53
-17.98 20.43 1.43
-8.99 10.22 -2.16
-17.78 20.21 3.31
-12.61 14.33 -2.34
-22.25 25.28 5.33
-17.25 19.6 -2.28
-18.84 21.41 5.54
-17.58 19.98 -1.39
-16.84 19.13 -0.44
-20.18 22.94 8.19
-4.59 5.25 -1.87
-16.26 18.61 0.43
-20.53 23.5 1.64
-8.96 10.26 -2.16
-21.27 24.34 3.97
-12.57 14.38 -2.35
-17.24 19.73 4.15
-16.67 19.08 -2.22
-17.56 20.09 -1.4
-16.77 19.2 -0.44
-19.63 22.46 7.99
-4.55 5.25 -1.86
-17.58 20.26 0.47
-17.59 20.28 2.35
-8.93 10.29 -2.16
-20.16 23.23 3.78
-12.5 14.41 -2.34
-21.74 25.05 5.25
-16.6 19.13 -2.22
-19.82 22.84 5.88
-17.53 20.2 -0.47
-16.87 19.44 6.9
-4.55 5.28 -1.87
-17.44 20.24 0.47
-17.5 20.31 1.41
-17.53 20.34 2.35
-8.9 10.33 -2.16
-12.42 14.41 -2.34
-21.89 25.4 5.31
-16.47 19.12 -2.21
-19.85 23.04 5.91
-16.76 19.45 -1.35
-17.49 20.3 -0.47
-17.15 19.91 7.04
-4.54 5.3 -1.87
-16.55 19.35 0.44
-17.39 20.32 1.4
-17.35 20.27 2.33
-8.87 10.37 -2.16
-17.34 20.27 3.28
-12.3 14.38 -2.32
-17.56 20.52 4.28
-16.44 19.21 -2.21
-18.17 21.24 -1.46
-17.49 20.44 6.21
-17.45 20.39 7.19
-4.52 5.32 -1.87
-16.52 19.44 0.45
-17.31 20.38 1.4
-17.31 20.37 2.34
-8.84 10.4 -2.16
-17.28 20.33 3.28
-12.27 14.44 -2.33
-17.33 20.4 4.24
-16.14 19 -2.18
-16.96 19.96 5.09
-17.82 20.97 -1.44
-17.16 20.2 6.12
-16.93 19.92 7.01
-4.51 5.35 -1.87
-16.33 19.36 0.44
-17.09 20.25 2.32
-8.81 10.44 -2.16
-16.62 19.69 3.16
-12.2 14.46 -2.32
-17.19 20.37 4.22
-16.08 19.06 -2.18
-16.85 19.96 5.08
-16.46 19.51 -1.34
-17.07 20.22 6.11
-16.92 20.04 -0.46
-4.48 5.35 -1.87
-17.46 20.83 0.47
-8.78 10.47 -2.16
-17 20.28 3.25
-12.16 14.51 -2.32
-17.17 20.49 4.23
-16.08 19.18 -2.19
-17.17 20.49 5.2
-18.25 21.77 -1.49
-17.55 20.95 6.31
-18.01 21.49 -0.49
-16.4 19.57 6.84
-4.47 5.38 -1.87
-18.05 21.7 0.49
-16.62 19.97 2.27
-8.73 10.5 -2.16
-17.09 20.54 3.28
-12.04 14.47 -2.31
-16.81 20.2 4.16
-16.11 19.36 -2.2
-17.1 20.56 5.2
-17.15 20.61 -1.4
-16.39 19.7 5.92
-16.76 20.15 -0.46
-17.2 20.68 7.21
-4.45 5.39 -1.87
-18 21.78 0.49
-16.68 20.18 2.29
-8.71 10.54 -2.16
-17.64 21.36 3.4
-11.96 14.48 -2.31
-16.26 19.68 -2.23
-16.82 20.35 -1.38
-17.06 20.65 6.19
-17.65 21.37 -0.48
-16.26 19.68 6.84
-4.44 5.41 -1.87
-17.96 21.89 0.49
-20.55 25.05 2.84
-8.68 10.58 -2.17
-17.57 21.42 3.4
-11.91 14.51 -2.31
-16.37 19.96 4.09
-16.3 19.88 -2.25
-18.89 23.03 5.79
-16.79 20.47 -1.39
-16.63 20.28 6.05
-18.11 22.08 -0.5
-16.19 19.73 6.84
-4.42 5.43 -1.87
-16.27 19.97 0.45
-8.64 10.61 -2.17
-20.32 24.95 3.95
-11.84 14.54 -2.3
-16.24 19.94 4.07
-15.57 19.12 -2.16
-17.4 21.36 -1.44
-16.55 20.32 6.05
-17.63 21.64 -0.49
-16.94 20.8 7.19
-4.39 5.43 -1.87
-18.38 22.72 0.51
-17.23 21.31 1.44
-20.23 25.02 2.81
-8.61 10.64 -2.17
-17.33 21.43 3.38
-11.77 14.55 -2.3
-16.19 20.03 4.08
-15.49 19.15 -2.15
-18.14 22.43 5.61
-16.7 20.65 -1.39
-16.57 20.49 6.08
-17.02 21.05 -0.47
-16.88 20.88 7.19
-4.38 5.46 -1.87
-17.18 21.39 1.44
-16.14 20.1 2.26
-8.57 10.67 -2.17
-17.3 21.54 3.39
-11.68 14.54 -2.29
-16.17 20.14 4.09
-15.77 19.64 -2.2
-15.76 19.62 -1.32
-17.68 22.01 6.52
-16.69 20.78 7.14
-4.37 5.48 -1.88
-17.18 21.55 1.44
-16.07 20.15 2.25
-8.53 10.7 -2.17
-17.21 21.58 3.39
-11.61 14.56 -2.29
-16.15 20.26 4.1
-15.61 19.57 -2.19
-19.31 24.21 6.02
-16.44 20.61 -1.38
-16.24 20.36 6.01
-17.45 21.89 -0.49
-16.76 21.02 7.21
-4.35 5.49 -1.88
-17.43 22.01 0.49
-17.17 21.68 1.45
-18.25 23.05 2.57
-8.51 10.74 -2.17
-17.29 21.84 3.42
-11.53 14.56 -2.28
-16.14 20.38 4.12
-15.11 19.09 -2.13
-15.79 19.94 -1.33
-17.61 22.23 6.55
-16.23 20.5 7.01
-4.34 5.52 -1.88
-16.47 20.96 0.47
-17.14 21.8 1.45
-6.5 8.26 -2.04
-8.47 10.78 -2.17
-16.71 21.25 3.32
-11.45 14.57 -2.28
-15.88 20.2 4.07
-15.27 19.42 -2.16
-15.81 20.11 -1.34
-18.27 23.25 6.83
-16.5 20.99 -0.47
-15.68 19.94 6.8
-4.32 5.53 -1.88
-16.53 21.18 0.47
-17.12 21.93 1.46
-6.46 8.27 -2.04
-16.14 20.68 2.29
-8.44 10.81 -2.17
-17.3 22.17 3.45
-11.34 14.53 -2.26
-16.67 21.35 4.29
-15.33 19.63 -2.18
-17.28 22.13 -1.47
-17.44 22.34 6.54
-16.49 21.13 -0.47
-15.46 19.8 6.73
-17.85 23.03 0.51
-17.08 22.04 1.46
-6.44 8.32 -2.04
-8.4 10.84 -2.17
-16.03 20.69 3.21
-11.27 14.55 -2.26
-14.88 19.2 -2.13
-17.08 22.04 5.42
-15.78 20.37 -1.35
-15.38 19.84 5.8
-15.66 20.21 -0.45
-16.42 21.2 7.19
-6.41 8.33 -2.04
-19.36 25.16 2.78
-8.36 10.87 -2.17
-17.04 22.14 3.43
-11.23 14.6 -2.26
-16.36 21.26 4.25
-14.7 19.11 -2.11
-16.95 22.04 5.4
-15.56 20.22 -1.34
-15.71 20.41 -0.45
-15.33 19.93 6.74
-15.8 20.67 0.45
-6.38 8.35 -2.04
-18.21 23.82 2.62
-8.33 10.9 -2.17
-16.08 21.03 3.25
-11.15 14.59 -2.25
-16.33 21.37 4.26
-14.86 19.44 -2.14
-17.65 23.09 5.65
-16.61 21.74 -1.43
-16.28 21.3 6.19
-15.64 20.46 -0.45
-16.3 21.32 7.19
-16.36 21.56 0.47
-6.35 8.37 -2.04
-17.2 22.66 2.49
-8.3 10.94 -2.17
-11.11 14.63 -2.26
-16.13 21.26 4.23
-14.78 19.47 -2.14
-16.63 21.91 -1.44
-15.55 20.49 -0.45
-15.34 20.22 6.8
-15.69 20.83 0.46
-15.87 21.07 1.38
-6.33 8.4 -2.04
-18.9 25.08 2.75
-8.26 10.97 -2.18
-16.74 22.22 3.42
-11.07 14.69 -2.26
-17.64 23.41 4.64
-14.71 19.53 -2.14
-16.92 22.46 -1.47
-17.43 23.14 6.69
-16.59 22.03 -0.48
-16.15 21.43 7.19
-16.26 21.74 0.47
-6.3 8.42 -2.04
-18.84 25.19 2.75
-8.23 11 -2.18
-16.62 22.22 3.41
-11.03 14.74 -2.26
-14.73 19.7 -2.15
-15.3 20.45 -1.34
-16.41 21.94 6.33
-16.93 22.63 -0.49
-16.39 21.92 7.33
-16.8 22.63 0.49
-6.27 8.45 -2.05
-18.72 25.22 2.75
-8.19 11.03 -2.18
-10.93 14.72 -2.25
-14.45 19.47 -2.12
-16.81 22.64 5.48
-15 20.2 -1.32
-16.54 22.27 6.4
-15.33 20.65 -0.45
-15.63 21.05 7.02
-16.56 22.47 0.49
-15.64 21.22 1.38
-6.24 8.47 -2.04
-16.93 22.96 2.5
-8.15 11.05 -2.17
-17.43 23.65 3.61
-10.91 14.8 -2.26
-14.44 19.59 -2.13
-17.14 23.25 5.61
-15.82 21.46 -1.4
-16.35 22.19 6.36
-16.46 22.33 -0.48
-15.61 21.18 7.05
-15.53 21.21 1.38
-6.21 8.49 -2.04
-16.06 21.94 2.38
-8.12 11.09 -2.18
-16.07 21.96 3.34
-10.81 14.77 -2.25
-15.73 21.5 4.22
-14.6 19.95 -2.16
-17.13 23.4 5.64
-14.78 20.19 -1.31
-15.09 20.62 -0.45
-14.71 20.1 6.67
-15.82 21.77 0.47
-6.19 8.51 -2.05
-15.87 21.84 2.36
-8.09 11.13 -2.18
-17.28 23.78 3.61
-10.73 14.77 -2.24
-14.39 19.8 -2.14
-17.14 23.59 5.67
-16.53 22.74 -1.47
-16.43 22.61 7.49
-16.28 22.57 0.49
-16.66 23.1 1.49
-6.17 8.56 -2.05
-17.24 23.9 2.58
-8.05 11.16 -2.18
-16.03 22.23 3.37
-10.67 14.79 -2.24
-14.25 19.76 -2.13
-16.87 23.38 5.6
-14.36 19.91 -1.29
-16.42 22.77 6.48
-16.22 22.49 -0.48
-16.27 22.56 7.45
-16.53 23.09 1.49
-6.16 8.61 -2.06
-17.22 24.05 2.59
-8.01 11.18 -2.18
-10.61 14.82 -2.24
-12.76 17.82 -1.92
-16.72 23.36 5.58
-14.28 19.95 -1.29
-16.28 22.74 6.46
-14.37 20.07 -0.43
-14.34 20.18 0.43
-14.41 20.28 1.3
-6.14 8.64 -2.06
-14.47 20.37 2.19
-7.97 11.21 -2.18
-16.61 23.37 3.52
-10.51 14.79 -2.23
-12.72 17.9 -1.92
-13.98 19.68 -1.27
-16.16 22.74 6.44
-14.31 20.14 -0.43
-14.28 20.24 0.43
-14.32 20.29 1.3
-6.11 8.66 -2.06
-14.38 20.38 2.18
-7.93 11.24 -2.18
-15.65 22.18 3.33
-10.49 14.86 -2.23
-16.19 22.95 4.45
-13.47 19.1 -2.04
-15.24 21.6 -1.39
-16.3 23.11 6.53
-16.16 22.9 -0.49
-15.39 21.97 0.47
-14.27 20.37 1.3
-7.91 11.29 -2.18
-14.38 20.54 3.08
-10.4 14.85 -2.23
-13.21 18.87 -2.02
-14.42 20.59 -1.32
-14.19 20.27 5.71
-15.56 22.39 0.48
-16.23 23.35 1.49
-16.93 24.36 2.6
-7.86 11.3 -2.18
-14.31 20.59 3.08
-10.33 14.86 -2.22
-16.16 23.25 4.48
-13.39 19.26 -2.05
-15.07 21.68 -1.38
-16.27 23.4 6.58
-15.09 21.7 -0.46
-13.78 19.83 6.47
-15.5 22.47 0.48
-16.83 24.39 2.59
-7.82 11.33 -2.18
-14.77 21.4 3.19
-10.28 14.9 -2.22
-14.28 20.7 3.98
-13.79 19.99 -2.13
-15.51 22.48 5.31
-15 21.75 -1.38
-14.6 21.17 -0.45
-13.76 19.95 6.49
-14.84 21.67 0.46
-7.79 11.38 -2.18
-14.37 20.99 3.12
-10.2 14.9 -2.22
-13.57 19.81 -2.1
-14.22 20.77 4.89
-14.37 20.98 -1.33
-15.72 22.96 6.42
-14.38 21.01 -0.44
-7.79 11.46 -2.19
-14.28 21 3.12
-10.14 14.91 -2.21
-13.69 20.13 -2.13
-15.14 22.27 5.23
-14.16 20.83 -1.32
-14.21 20.9 5.84
-15.07 22.17 -0.47
-7.76 11.5 -2.2
-14.44 21.4 3.17
-10.08 14.94 -2.21
-13.65 20.23 -2.14
-15.08 22.35 5.24
-14.17 21 -1.33
-14.44 21.4 5.96
-14.88 22.05 -0.46
-14.06 20.84 6.74
-7.73 11.54 -2.2
-14.47 21.61 3.19
-10.01 14.94 -2.21
-15.88 23.71 4.52
-13.98 20.88 -2.2
-13.97 20.86 -1.32
-14.7 21.95 6.1
-7.7 11.59 -2.2
-9.95 14.97 -2.21
-15.71 23.64 4.5
-13.99 21.05 -2.21
-14.01 21.07 4.92
-13.3 20.01 -1.26
-14.78 22.23 6.16
-14.07 21.17 -0.44
-14.55 22.06 0.46
-7.66 11.62 -2.2
-9.89 15 -2.21
-15.71 23.82 4.52
-13.19 20 -2.1
-13.2 20.01 -1.26
-14.86 22.53 6.23
-14.09 21.36 -0.45
-7.63 11.66 -2.21
-13.95 21.32 3.13
-9.84 15.03 -2.21
-14.18 21.66 4.1
-13.12 20.04 -2.1
-13.16 20.1 -1.26
-14.8 22.61 6.24
-13.26 20.25 -0.42
-13.29 20.46 0.43
-14.49 22.3 1.39
-7.61 11.71 -2.21
-9.79 15.07 -2.21
-15.1 23.24 4.39
-13.06 20.1 -2.1
-13.67 21.04 -1.32
-13.92 21.43 5.9
-13.19 20.3 -0.42
-13.18 20.45 0.42
-13.2 20.47 1.28
-7.57 11.74 -2.21
-9.73 15.09 -2.2
-15.02 23.3 4.39
-13.65 21.17 -1.32
-14.86 23.05 6.33
-13.78 21.54 0.45
-13.18 20.61 1.28
-13.46 21.05 2.19
-7.52 11.75 -2.21
-9.66 15.11 -2.2
-14.94 23.35 4.39
-12.52 19.56 -2.03
-13.75 21.49 -1.34
-13.62 21.29 -0.44
-5.69 8.96 -2.06
-7.47 11.76 -2.21
-9.62 15.15 -2.2
-14.93 23.52 4.41
-12.75 20.08 -2.08
-13.59 21.4 -1.33
-13.49 21.25 -0.44
-5.66 8.98 -2.06
-13.14 20.86 2.16
-7.41 11.76 -2.2
-9.56 15.17 -2.2
-12.77 20.26 -2.09
-13.1 20.78 -1.29
-14.05 22.3 7.06
-5.65 9.04 -2.07
-13.09 20.93 2.16
-7.35 11.75 -2.2
-9.5 15.2 -2.2
-13.18 21.07 3.94
-12.67 20.25 -2.09
-13.42 21.46 -1.33
-13.6 21.74 5.92
-13.43 21.47 -0.44
-7.29 11.75 -2.19
-13.09 21.1 3.05
-9.45 15.23 -2.2
-12.46 20.08 -2.07
-13.22 21.3 -1.31
-13.35 21.51 -0.44
-13.31 21.62 2.22
-7.24 11.75 -2.19
-13.01 21.14 3.05
-9.39 15.25 -2.2
-12.35 20.07 -2.06
-13.21 21.46 -1.32
-13.52 21.95 -0.45
-13.83 22.63 2.32
-7.18 11.76 -2.18
-12.95 21.2 3.05
-9.33 15.27 -2.2
-12.25 20.06 -2.06
-12.28 20.1 -1.23
-13.18 21.57 -0.44
-13.85 22.68 7.12
-5.51 9.1 -2.07
-7.13 11.76 -2.18
-12.88 21.26 3.05
-9.27 15.29 -2.2
-13.84 22.83 4.23
-11.54 19.04 -1.95
-14.14 23.34 5.3
-13.06 21.55 -0.44
-5.46 9.08 -2.06
-7.07 11.75 -2.17
-12.83 21.33 3.06
-9.23 15.34 -2.2
-12.86 21.38 3.95
-11.57 19.24 -1.96
-13.58 22.57 -1.38
-13.19 21.92 -0.45
-5.44 9.11 -2.06
-7.01 11.75 -2.17
-9.16 15.36 -2.2
-13.81 23.14 4.27
-11.79 19.76 -2.01
-13.55 22.72 5.14
-13.05 21.87 -1.33
-12.49 20.93 6.53
-5.4 9.13 -2.06
-13.35 22.56 2.29
-6.95 11.75 -2.16
-13.41 22.65 3.23
-9.11 15.39 -2.2
-11.31 19.11 -1.94
-12.74 21.52 4.86
-12.88 21.76 -1.32
-13.18 22.27 -0.45
-12.47 21.07 6.56
-5.37 9.15 -2.06
-13.45 22.92 2.32
-6.9 11.76 -2.16
-9.04 15.4 -2.19
-13.66 23.26 4.27
-11.22 19.12 -1.94
-12.91 21.98 4.95
-12.65 21.55 -1.31
-11.82 20.14 6.26
-5.34 9.16 -2.06
-6.85 11.76 -2.16
-8.99 15.44 -2.19
-13.61 23.36 4.28
-11.04 18.94 -1.92
-12.49 21.44 -1.3
-12.62 21.65 5.79
-11.53 19.78 6.13
-5.3 9.17 -2.06
-6.8 11.76 -2.15
-8.94 15.47 -2.19
-11.13 19.25 -1.95
-12.05 20.85 -1.26
-12.27 21.23 5.66
-12.85 22.23 -0.45
-11.83 20.48 6.34
-5.27 9.2 -2.06
-6.74 11.75 -2.15
-8.88 15.5 -2.19
-10.94 19.07 -1.92
-13.68 23.85 5.34
-12.35 21.54 -1.3
-12.19 21.26 5.66
-12.45 21.7 6.7
-10.54 18.53 1.12
-5.25 9.22 -2.06
-10.24 18.01 1.81
-6.68 11.75 -2.14
-8.82 15.52 -2.19
-12.34 21.7 3.95
-10.93 19.21 -1.93
-13.55 23.83 5.33
-12.31 21.64 -1.3
-12.43 21.86 5.81
-5.22 9.25 -2.06
-10.17 18.02 1.81
-6.62 11.74 -2.14
-8.76 15.54 -2.19
-12.29 21.78 3.96
-11.29 20.01 -2.01
-13.6 24.11 5.38
-12.38 21.95 -1.32
-11.38 20.17 5.35
-12.27 21.75 6.69
-5.18 9.25 -2.06
-10.08 18.02 1.81
-6.57 11.75 -2.13
-9.54 17.05 2.4
-8.71 15.56 -2.19
-10.9 19.48 -1.95
-12.3 21.99 4.9
-12.39 22.15 -1.33
-12.19 21.78 6.69
-5.15 9.28 -2.06
-10 18.02 1.8
-6.52 11.75 -2.13
-9.44 17.02 2.39
-8.65 15.59 -2.19
-11.08 19.97 -2
-12.45 22.44 -1.35
-12.83 23.12 6.1
-5.12 9.3 -2.06
-6.47 11.75 -2.12
-9.36 17.01 2.38
-8.6 15.62 -2.19
-11.18 20.32 3.67
-10.95 19.9 -1.99
-12.75 23.18 5.14
-12.27 22.3 -1.33
-11.95 21.72 5.72
-12.48 22.67 -0.45
-11.02 20.02 6.12
-10.31 18.87 1.13
-5.09 9.32 -2.06
-9.89 18.11 1.8
-6.42 11.76 -2.12
-8.54 15.65 -2.19
-12.14 22.23 4.01
-10.77 19.71 -1.97
-11.4 20.88 4.63
-10.95 20.05 -1.2
-12.79 23.42 6.16
-5.06 9.34 -2.07
-9.9 18.28 1.82
-6.37 11.75 -2.12
-8.48 15.66 -2.19
-12.04 22.24 4.01
-10.28 18.98 -1.89
-10.87 20.08 -1.2
-12.75 23.54 6.18
-10.92 20.16 -0.4
-10.99 20.29 6.18
-10.89 20.26 0.4
-10.92 20.33 1.21
-5.02 9.35 -2.06
-9.74 18.12 1.8
-6.32 11.75 -2.11
-10.9 20.29 2.83
-8.43 15.69 -2.19
-12 22.34 4.02
-10.46 19.48 -1.93
-10.81 20.13 -1.2
-12.64 23.53 6.17
-10.84 20.18 -0.4
-10.8 20.28 0.4
-10.82 20.3 1.21
-4.99 9.37 -2.06
-9.85 18.5 1.83
-6.26 11.75 -2.11
-8.37 15.72 -2.19
-10.61 19.92 -1.97
-10.89 20.44 4.5
-11.99 22.5 -1.34
-11.42 21.43 5.61
-10.79 20.26 -0.4
-12.02 22.56 6.85
-10.74 20.33 0.4
-10.77 20.38 1.21
-4.96 9.39 -2.06
-9.59 18.15 1.8
-6.2 11.73 -2.1
-8.31 15.73 -2.18
-10.74 20.33 3.64
-10.21 19.32 -1.91
-11.99 22.7 -1.35
-12.55 23.75 6.2
-12.06 22.83 -0.45
-11.53 21.81 6.61
-9.71 18.53 0.37
-4.93 9.41 -2.06
-9.56 18.26 1.8
-6.15 11.73 -2.1
-10.65 20.34 2.82
-8.26 15.77 -2.19
-10.66 20.36 3.64
-10.38 19.81 -1.96
-10.71 20.45 4.49
-9.91 18.91 -1.12
-10.78 20.58 6.23
-4.9 9.43 -2.06
-9.34 17.99 1.77
-6.1 11.74 -2.1
-10.59 20.38 2.82
-8.2 15.78 -2.18
-10.63 20.46 -2.02
-10.65 20.5 4.49
-11.88 22.86 -1.35
-10.68 20.55 5.35
-10.69 20.58 6.21
-4.86 9.44 -2.06
-9.37 18.2 1.79
-6.05 11.76 -2.09
-10.92 21.2 2.93
-8.13 15.8 -2.18
-10.52 20.44 3.64
-11.16 21.68 -2.13
-11.51 22.35 -1.32
-10.68 20.75 5.39
-10.59 20.57 6.2
-4.83 9.46 -2.06
-11.06 21.65 2.13
-6 11.75 -2.09
-8.07 15.81 -2.18
-9.93 19.45 -1.91
-10.83 21.21 -1.25
-10.62 20.8 5.39
-11 21.54 6.48
-4.8 9.47 -2.06
-9.92 19.61 1.92
-5.95 11.75 -2.09
-8.02 15.84 -2.18
-9.8 19.37 -1.9
-9.9 19.55 -1.15
-4.77 9.5 -2.07
-10.05 20.01 1.96
-5.9 11.74 -2.08
-7.96 15.86 -2.18
-9.7 19.31 -1.89
-10.58 21.07 4.58
-9.75 19.42 -1.14
-10.88 21.66 5.6
-4.74 9.52 -2.07
-9.12 18.32 1.79
-5.84 11.74 -2.08
-7.89 15.86 -2.18
-9.53 19.16 -1.87
-10.32 20.75 -1.21
-4.7 9.52 -2.06
-10.09 20.44 1.99
-5.8 11.74 -2.07
-11.4 23.11 3.16
-7.83 15.87 -2.17
-8.77 17.76 -1.73
-10.28 20.83 -1.22
-4.67 9.54 -2.06
-9.06 18.51 1.8
-5.75 11.74 -2.07
-11.4 23.29 3.18
-7.78 15.89 -2.17
-8.7 17.78 -1.73
-10.5 21.45 4.64
-10.44 21.35 -1.25
-11.16 22.81 -0.44
-10.3 21.05 6.28
-9.49 19.58 1.14
-4.63 9.56 -2.06
-5.69 11.74 -2.07
-11.04 22.76 3.11
-7.72 15.91 -2.17
-9.37 19.33 -1.88
-10.2 21.04 -1.23
-11.04 22.76 -0.44
-10.19 21.01 6.26
-9.06 18.86 1.1
-4.6 9.58 -2.07
-5.64 11.74 -2.06
-7.66 15.93 -2.17
-10.84 22.55 3.96
-9.17 19.08 -1.85
-10.27 21.36 -1.24
-9.12 18.99 -0.37
-8.97 18.85 1.09
-4.57 9.59 -2.07
-9.41 19.77 1.92
-5.6 11.76 -2.06
-11.01 23.13 3.15
-7.59 15.94 -2.17
-11.07 23.25 4.08
-9 18.9 -1.83
-9.85 20.68 -1.2
-9.16 19.23 -0.37
-10.07 21.14 6.27
-8.91 18.88 0.36
-8.92 18.9 1.1
-4.53 9.6 -2.06
-5.55 11.76 -2.06
-10.95 23.21 3.15
-7.54 15.98 -2.17
-10.68 22.64 3.97
-8.96 18.98 -1.84
-9.87 20.91 -1.21
-9.05 19.18 -0.37
-8.83 18.88 0.36
-8.79 18.8 1.09
-4.5 9.62 -2.06
-9.41 20.11 1.94
-5.51 11.77 -2.06
-10.66 22.79 3.09
-7.48 16 -2.17
-10.6 22.66 3.96
-8.89 19 -1.83
-10.42 22.27 4.78
-8.95 19.14 -1.11
-8.9 19.02 -0.37
-8.73 18.83 0.36
-8.72 18.81 1.09
-4.47 9.64 -2.06
-8.68 18.72 1.81
-5.46 11.79 -2.06
-9.41 20.31 2.75
-7.43 16.02 -2.17
-10.63 22.94 4
-8.83 19.06 -1.84
-10.3 22.23 4.76
-8.88 19.16 -1.11
-8.84 19.07 -0.37
-8.67 18.88 0.36
-8.66 18.86 1.09
-4.43 9.65 -2.06
-8.61 18.75 1.81
-5.42 11.8 -2.06
-9.24 20.11 2.72
-7.37 16.04 -2.17
-10.65 23.19 4.04
-9.76 21.24 -1.22
-8.84 19.24 -0.37
-8.64 18.99 0.36
-9.33 20.5 1.18
-4.4 9.67 -2.06
-9.08 19.95 1.92
-5.37 11.81 -2.06
-9.15 20.11 2.71
-7.31 16.06 -2.17
-10.6 23.29 4.05
-8.78 19.29 -1.85
-10.04 22.06 4.71
-9.85 21.64 -1.25
-9.21 20.23 5.96
-8.87 19.64 0.38
-8.53 18.91 1.09
-4.37 9.67 -2.06
-8.44 18.71 1.8
-5.34 11.83 -2.06
-9.07 20.1 2.71
-7.25 16.07 -2.17
-10.63 23.56 4.09
-8.69 19.24 -1.85
-9.97 22.09 4.71
-9.38 20.78 -1.19
-9.08 20.11 5.91
-8.77 19.61 0.37
-8.57 19.17 1.1
-4.33 9.69 -2.06
-8.37 18.73 1.79
-5.3 11.85 -2.06
-9.06 20.25 2.72
-7.2 16.1 -2.17
-8.66 19.37 -1.86
-9.9 22.13 4.71
-9.19 20.56 -1.18
-8.68 19.6 0.37
-4.3 9.7 -2.06
-8.31 18.77 1.8
-5.24 11.84 -2.05
-7.13 16.11 -2.16
-8.78 19.83 -1.9
-9.8 22.13 4.7
-9.28 20.95 -1.2
-9.76 22.05 5.57
-9.65 21.79 6.38
-8.96 20.44 0.39
-8.49 19.35 1.11
-4.26 9.72 -2.06
-8.25 18.8 1.8
-5.2 11.85 -2.05
-7.07 16.13 -2.16
-8.47 19.3 -1.84
-9.9 22.57 4.79
-9.66 22.02 -1.26
-9.66 22.03 5.55
-9.56 21.8 6.38
-8.92 20.51 0.39
-4.23 9.73 -2.06
-8.21 18.89 1.8
-5.16 11.87 -2.05
-7.01 16.14 -2.16
-8.35 19.22 -1.83
-9.16 21.08 -1.2
-8.9 20.47 5.15
-8.83 20.51 0.39
-4.19 9.74 -2.06
-8.15 18.94 1.8
-5.12 11.9 -2.05
-6.95 16.15 -2.16
-8.28 19.24 -1.83
-8.71 20.24 -1.15
-8.93 20.76 6.05
-8.83 20.71 0.39
-8.32 19.53 1.11
-4.16 9.76 -2.06
-8.09 18.98 1.81
-5.08 11.93 -2.05
-6.9 16.19 -2.16
-8.48 19.91 -1.89
-8.62 20.22 -1.15
-9.22 21.64 5.43
-8.67 20.34 -0.39
-8.63 20.44 0.39
-8.22 19.47 1.11
-4.12 9.77 -2.06
-9.08 21.52 2.04
-5.74 13.61 -2.34
-6.84 16.21 -2.16
-8.13 19.26 -1.83
-8.56 20.28 -1.15
-9.12 21.62 5.42
-8.58 20.34 -0.39
-8.54 20.43 0.39
-8.14 19.48 1.11
-4.09 9.79 -2.06
-8.65 20.69 1.96
-6.78 16.22 -2.16
-7.98 19.09 -1.81
-8.61 20.61 4.34
-8.82 21.1 -1.2
-8.53 20.41 -0.39
-8.87 21.22 6.16
-8.48 20.49 0.39
-8.11 19.6 1.11
-4.06 9.8 -2.06
-8.54 20.64 1.95
-5.6 13.53 -2.32
-8.56 20.68 2.75
-6.71 16.21 -2.15
-7.85 18.97 -1.8
-9.06 21.89 -1.24
-9.27 22.41 -0.42
-8.43 20.55 0.39
-8.05 19.64 1.11
-4.02 9.81 -2.06
-5.53 13.49 -2.31
-8.48 20.69 2.75
-6.65 16.23 -2.15
-8.51 20.75 3.55
-7.89 19.26 -1.82
-9.31 22.71 4.77
-8.38 20.45 -1.16
-8.89 21.69 5.41
-9.13 22.28 -0.42
-8.34 20.35 5.89
-8.35 20.56 0.39
-8 19.71 1.11
-3.99 9.83 -2.06
-8.49 20.91 1.97
-5.5 13.56 -2.32
-8.34 20.54 2.72
-6.59 16.25 -2.15
-8.43 20.77 3.55
-7.8 19.21 -1.81
-8.43 20.77 4.36
-8.62 21.24 -1.2
-8.37 20.63 -0.39
-8.39 20.68 5.98
-8.27 20.58 0.39
-8.7 21.66 1.22
-3.96 9.84 -2.06
-8.34 20.75 1.96
-5.44 13.54 -2.31
-8.38 20.86 2.76
-6.53 16.26 -2.15
-8.49 21.12 3.6
-7.71 19.19 -1.81
-8.36 20.8 4.36
-8.78 21.85 -1.23
-8.39 20.87 5.19
-9.02 22.44 -0.42
-8.41 20.92 6.04
-8.23 20.7 0.39
-3.18 8 -1.99
-8.7 21.87 1.23
-3.92 9.86 -2.06
-5.37 13.5 -2.3
-8.31 20.88 2.76
-6.48 16.28 -2.15
-9.13 22.96 3.91
-7.67 19.28 -1.82
-8.87 22.3 4.66
-8.68 21.82 -1.23
-8.31 20.91 5.19
-8.9 22.36 -0.42
-8.31 20.9 6.03
-3.16 8.02 -1.99
-8.47 21.51 1.21
-3.89 9.87 -2.06
-5.35 13.6 -2.31
-6.42 16.3 -2.15
-8.24 20.94 3.56
-7.44 18.91 -1.78
-8.69 22.07 4.61
-8.27 21.01 -1.18
-8.82 22.41 -0.42
-8.16 20.73 5.97
-8.36 21.45 0.4
-3.13 8.02 -1.99
-8.06 20.68 1.16
-3.85 9.88 -2.06
-5.31 13.61 -2.31
-6.36 16.31 -2.15
-7.55 19.37 3.29
-7.96 20.41 -1.92
-8.22 21.07 -1.19
-8.7 22.32 -0.42
-8.33 21.37 6.14
-7.87 20.38 0.38
-3.82 9.89 -2.06
-8.7 22.55 2.11
-5.27 13.64 -2.32
-6.3 16.32 -2.15
-7.34 19.01 -1.78
-8.2 21.23 -1.19
-8.71 22.57 -0.42
-8.23 21.31 6.12
-7.8 20.42 0.38
-7.47 19.55 1.1
-3.79 9.9 -2.06
-8.62 22.54 2.11
-4.56 11.92 -2.02
-9.26 24.24 3.19
-6.25 16.34 -2.15
-7.32 19.14 -1.79
-8.06 21.08 -1.18
-8.62 22.55 -0.42
-8.09 21.16 6.07
-7.86 20.79 1.16
-3.75 9.92 -2.06
-4.52 11.95 -2.02
-6.18 16.35 -2.15
-7.26 19.22 -1.8
-8.08 21.39 5.28
-8 21.16 -0.39
-8.02 21.22 6.08
-7.62 20.37 0.38
-7.8 20.85 1.17
-3.71 9.93 -2.06
-5.12 13.67 -2.31
-6.13 16.38 -2.15
-7.32 19.56 3.31
-7.22 19.3 -1.8
-8.86 23.68 4.91
-8.24 22.04 -1.23
-8.02 21.44 5.29
-8.28 22.14 6.33
-7.76 20.96 0.39
-3.68 9.94 -2.06
-8.17 22.08 2.06
-4.43 11.96 -2.02
-6.06 16.38 -2.14
-7.25 19.6 3.31
-7.27 19.63 -1.83
-8.71 23.52 4.88
-7.45 20.12 -1.12
-7.98 21.55 5.31
-8.39 22.68 -0.42
-8.23 22.23 6.35
-7.4 20.2 0.38
-7.41 20.21 1.13
-3.65 9.95 -2.06
-4.37 11.94 -2.01
-8.28 22.61 2.96
-6.01 16.4 -2.14
-7.28 19.86 -1.85
-8.07 22.03 4.56
-7.37 20.12 -1.12
-7.93 21.64 5.32
-7.38 20.13 -0.37
-7.38 20.36 0.38
-7.51 20.74 1.16
-3.61 9.97 -2.06
-4.32 11.94 -2.01
-8.22 22.69 2.96
-5.94 16.41 -2.14
-7.13 19.69 3.32
-6.88 18.98 -1.77
-8.03 22.17 4.58
-7.29 20.12 -1.12
-8.09 22.34 5.49
-7.8 21.53 6.13
-7.53 21.01 0.39
-7.54 21.03 1.17
-3.58 9.98 -2.06
-4.93 13.76 -2.32
-5.89 16.43 -2.14
-7.28 20.32 -1.89
-7.97 22.23 4.59
-7.45 20.78 -1.16
-8.03 22.4 -0.42
-7.67 21.41 6.09
-7.27 20.53 0.38
-7.44 21 1.17
-3.54 9.99 -2.06
-4.84 13.67 -2.3
-5.83 16.44 -2.14
-8.03 22.67 3.81
-6.89 19.43 -1.8
-7.9 22.3 -1.24
-7.95 22.43 -0.42
-7.63 21.52 6.12
-7.12 20.32 0.38
-7.31 20.85 1.16
-3.51 10 -2.06
-4.18 11.92 -2
-5.77 16.46 -2.14
-7.01 20 -1.85
-7.7 21.98 -1.22
-7.43 21.2 5.19
-7.42 21.16 6.01
-7.01 20.23 0.37
-7.08 20.44 1.13
-3.47 10.02 -2.06
-4.72 13.61 -2.28
-5.71 16.47 -2.14
-6.76 19.51 -1.81
-7.2 20.77 -1.15
-7.37 21.28 5.2
-7.71 22.25 -0.41
-7.84 22.61 6.41
-3.44 10.02 -2.06
-4.7 13.71 -2.3
-5.65 16.49 -2.14
-6.76 19.72 3.3
-6.89 20.11 -1.86
-7.12 20.77 -1.15
-7.29 21.27 -0.39
-7.44 21.69 6.14
-6.8 20.06 1.11
-3.4 10.04 -2.06
-4.63 13.67 -2.29
-5.59 16.5 -2.14
-7.45 21.98 3.68
-6.68 19.72 -1.82
-7.05 20.81 -1.15
-7.71 22.75 -0.42
-7.71 22.74 6.43
-7.15 21.32 0.39
-3.37 10.05 -2.06
-4.59 13.69 -2.29
-5.53 16.51 -2.14
-7.34 21.9 3.66
-6.27 18.7 -1.73
-7.41 22.12 -1.22
-7.16 21.36 5.2
-7.24 21.59 -0.4
-7.26 21.66 6.12
-7.06 21.31 0.39
-6.86 20.72 1.14
-3.33 10.05 -2.06
-4.53 13.69 -2.28
-7.09 21.42 2.77
-5.47 16.52 -2.14
-7.28 21.98 3.67
-6.21 18.75 -1.73
-7.15 21.59 4.42
-6.91 20.86 -1.15
-6.59 19.91 5.62
-7.01 21.41 0.39
-3.29 10.06 -2.06
-4.49 13.72 -2.29
-5.41 16.53 -2.14
-6.35 19.39 3.23
-6.17 18.83 -1.73
-7.09 21.65 4.43
-7.43 22.68 -1.25
-7.04 21.49 5.22
-6.91 21.09 -0.39
-6.3 19.24 5.42
-6.57 20.31 1.12
-3.26 10.08 -2.06
-4.44 13.71 -2.28
-6.39 19.76 2.55
-5.35 16.54 -2.13
-6.77 20.93 -1.92
-7.01 21.68 4.43
-6.8 21.03 -1.16
-6.93 21.42 5.2
-6.86 21.2 -0.39
-6.7 20.95 0.38
-6.72 21.01 1.16
-3.23 10.1 -2.06
-4.41 13.79 -2.29
-6.35 19.85 2.56
-5.29 16.55 -2.13
-6.67 20.85 -1.15
-6.85 21.42 5.19
-6.56 20.77 0.38
-3.19 10.1 -2.06
-4.36 13.8 -2.29
-6.17 19.54 2.52
-5.23 16.56 -2.13
-7.06 22.36 3.71
-5.92 18.73 -1.72
-6.56 20.78 -1.14
-6.16 19.49 4.72
-6.64 21.02 -0.38
-6.23 19.74 5.55
-3.16 10.11 -2.06
-6.31 20.2 1.85
-4.31 13.8 -2.29
-6.05 19.37 2.49
-5.17 16.56 -2.13
-6.99 22.4 3.72
-6.19 19.82 -1.82
-6.2 19.87 4.05
-6.51 20.85 -1.14
-7.05 22.59 5.46
-6.51 20.85 -0.38
-3.12 10.12 -2.06
-6.28 20.35 1.86
-4.26 13.82 -2.29
-6.01 19.5 2.51
-5.11 16.58 -2.13
-6.95 22.54 3.74
-6.05 19.61 -1.8
-6.47 20.96 -1.15
-7 22.69 5.48
-6.52 21.14 -0.39
-6.39 20.72 5.81
-6.5 21.32 0.39
-6.27 20.57 1.13
-3.09 10.13 -2.06
-4.19 13.76 -2.28
-6.98 22.89 2.94
-5.05 16.58 -2.13
-6.89 22.62 3.74
-5.76 18.91 -1.73
-6.4 20.99 -1.15
-6.86 22.49 5.43
-6.44 21.13 -0.39
-3.05 10.14 -2.06
-4.15 13.81 -2.28
-6.87 22.84 2.93
-4.99 16.6 -2.13
-7 23.26 3.85
-5.71 18.98 -1.73
-6.59 21.9 4.45
-5.47 18.17 -0.99
-6.91 22.96 5.53
-5.76 19.15 -0.35
-6.34 21.35 0.39
-3.01 10.15 -2.06
-5.57 18.75 1.71
-4.1 13.79 -2.28
-6.13 20.63 2.64
-4.93 16.59 -2.12
-6.64 22.37 3.7
-5.61 18.9 -1.72
-5.91 19.92 4.04
-5.68 19.14 -1.05
-6.82 22.96 5.53
-5.69 19.17 -0.35
-6.15 20.71 5.79
-5.62 19.17 0.35
-5.63 19.21 1.05
-2.97 10.15 -2.06
-5.85 19.95 1.82
-4.04 13.78 -2.27
-6.04 20.6 2.64
-4.86 16.6 -2.12
-6.67 22.78 3.76
-5.5 18.79 -1.71
-6.16 21.01 -1.15
-6.66 22.74 5.47
-5.84 19.92 5.56
-5.55 19.18 0.35
-5.57 19.26 1.05
-2.94 10.17 -2.06
-5.58 19.3 1.76
-3.99 13.8 -2.27
-6.6 22.82 2.92
-4.81 16.62 -2.12
-6.56 22.69 3.74
-5.87 20.31 4.11
-5.91 20.43 -1.11
-5.81 20.09 4.83
-6.48 22.42 -0.41
-5.78 19.99 5.58
-5.47 19.15 1.04
-2.91 10.18 -2.06
-5.54 19.37 1.76
-3.94 13.78 -2.27
-5.62 19.67 2.51
-4.75 16.62 -2.12
-5.38 18.81 3.1
-5.35 18.71 -1.7
-6.27 21.94 4.44
-6.02 21.06 -1.15
-5.59 19.55 4.69
-5.81 20.31 -0.37
-5.65 19.76 5.51
-6.23 22.09 0.4
-5.36 19 1.03
-2.87 10.19 -2.06
-3.88 13.77 -2.27
-5.52 19.57 2.5
-4.69 16.63 -2.12
-6.28 22.29 3.67
-5.35 18.98 -1.73
-5.49 19.49 3.94
-5.26 18.67 -1.02
-5.79 20.52 -0.37
-5.16 18.31 5.1
-5.32 19.13 1.04
-2.84 10.2 -2.06
-5.36 19.26 1.75
-3.81 13.71 -2.25
-5.45 19.6 2.5
-4.62 16.63 -2.12
-5.4 19.43 3.19
-5.48 19.71 -1.79
-5.43 19.52 3.94
-5.77 20.75 -1.13
-6.24 22.45 5.38
-6.15 22.11 -0.4
-5.11 18.38 5.11
-2.8 10.2 -2.06
-5.24 19.1 1.73
-3.77 13.76 -2.26
-6.27 22.85 2.91
-4.57 16.65 -2.12
-5.16 18.83 3.09
-5.12 18.68 -1.69
-5.36 19.53 3.94
-5.12 18.69 -1.02
-6.12 22.33 5.35
-6.09 22.2 -0.4
-5.33 19.44 5.4
-5.58 20.59 1.12
-2.77 10.21 -2.06
-4.85 17.9 1.62
-3.73 13.76 -2.26
-6.17 22.78 2.9
-4.52 16.67 -2.12
-6.02 22.21 3.64
-4.79 17.69 -1.6
-5.26 19.4 3.91
-5.7 21.05 -1.14
-6.09 22.48 5.38
-5.52 20.37 -0.37
-4.96 18.31 5.08
-5.5 20.59 1.12
-2.73 10.22 -2.06
-3.66 13.72 -2.25
-5.51 20.63 2.62
-4.45 16.67 -2.12
-6.26 23.45 3.84
-4.73 17.69 -1.6
-5.85 21.89 -1.19
-5.19 19.45 4.65
-5.77 21.6 -0.39
-5.4 20.51 1.11
-2.7 10.23 -2.06
-5.12 19.44 1.76
-3.63 13.77 -2.26
-5.15 19.54 2.48
-4.39 16.68 -2.12
-5.66 21.49 3.52
-4.95 18.78 -1.7
-5.51 20.92 -1.13
-5.64 21.41 5.11
-5 18.97 5.26
-5.12 19.74 1.07
-2.66 10.25 -2.06
-5.04 19.42 1.75
-3.58 13.78 -2.25
-5.56 21.42 2.72
-4.33 16.68 -2.12
-5 19.24 3.15
-4.98 19.18 -1.73
-5.21 20.05 4.03
-5.4 20.8 -1.13
-5.77 22.22 5.3
-5.56 21.42 5.93
-5.84 22.82 0.41
-5.05 19.74 1.07
-2.62 10.24 -2.05
-4.97 19.42 1.75
-3.53 13.78 -2.25
-5.88 22.95 2.91
-4.27 16.69 -2.12
-4.92 19.22 3.14
-4.88 19.07 -1.72
-4.99 19.5 -1.05
-5.52 21.55 5.14
-5.47 21.37 5.91
-5 19.81 1.07
-2.59 10.25 -2.06
-4.9 19.42 1.75
-3.48 13.78 -2.25
-4.83 19.15 2.42
-4.21 16.71 -2.12
-4.71 18.67 3.05
-4.91 19.46 -1.76
-5.12 20.3 4.07
-5.12 20.3 -1.1
-5.58 22.13 5.27
-5.23 20.72 -0.37
-4.85 19.24 5.32
-4.93 19.84 1.07
-2.55 10.27 -2.06
-4.84 19.47 1.75
-3.42 13.79 -2.25
-5.27 21.23 2.69
-4.15 16.71 -2.11
-4.68 18.84 3.08
-4.85 19.52 -1.76
-5.44 21.9 -1.18
-5.47 22.02 5.24
-4.61 18.56 5.12
-4.86 19.85 1.07
-2.51 10.27 -2.06
-4.73 19.36 1.74
-3.38 13.8 -2.25
-5.05 20.63 2.61
-4.09 16.73 -2.11
-4.8 19.63 -1.77
-5.35 21.89 5.2
-4.83 19.74 5.45
-4.81 19.92 1.07
-2.48 10.28 -2.06
-4.44 18.39 1.65
-3.32 13.76 -2.24
-4.48 18.57 2.35
-4.04 16.73 -2.11
-4.63 19.21 3.13
-4.65 19.27 -1.73
-4.96 20.57 4.11
-5.04 20.91 -1.13
-5.25 21.76 5.17
-4.86 20.16 -0.36
-4.48 18.56 5.12
-2.44 10.27 -2.05
-4.86 20.47 1.84
-3.27 13.77 -2.24
-4.48 18.88 2.38
-3.97 16.74 -2.11
-4.56 19.21 -1.73
-4.59 19.35 -1.04
-5.18 21.82 5.18
-4.74 19.98 -0.36
-4.54 19.14 5.27
-4.55 19.46 0.35
-4.67 19.97 1.07
-2.41 10.28 -2.05
-4.8 20.53 1.84
-3.22 13.75 -2.24
-4.42 18.9 2.38
-3.92 16.76 -2.11
-4.65 19.85 3.23
-4.5 19.22 -1.73
-5.26 22.48 4.49
-4.52 19.33 -1.04
-5.12 21.88 5.19
-4.54 19.39 -0.35
-4.48 19.44 0.35
-4.5 19.56 1.05
-2.37 10.29 -2.05
-4.63 20.09 1.8
-3.17 13.75 -2.24
-3.86 16.76 -2.11
-4.57 19.85 3.23
-4.43 19.23 -1.73
-5.16 22.42 4.47
-4.45 19.32 -1.04
-4.64 20.17 4.78
-4.46 19.37 -0.35
-4.41 19.46 0.35
-4.43 19.55 1.05
-2.33 10.3 -2.05
-4.46 19.66 1.76
-3.11 13.73 -2.23
-4.3 18.96 2.39
-3.8 16.76 -2.11
-4.38 19.31 -1.73
-4.38 19.34 -1.04
-4.98 21.98 5.2
-4.4 19.4 -0.35
-4.35 19.51 0.35
-4.36 19.54 1.05
-2.3 10.31 -2.05
-4.38 19.64 1.76
-3.07 13.78 -2.24
-4.31 19.35 2.43
-3.73 16.75 -2.11
-4.32 19.38 -1.74
-4.56 20.46 4.07
-4.33 19.41 -1.04
-4.79 21.5 5.09
-4.34 19.48 -0.35
-4.31 19.63 0.35
-1.83 8.35 -1.97
-4.3 19.59 1.05
-2.26 10.3 -2.05
-4.31 19.65 1.76
-3.04 13.86 -2.25
-4.33 19.73 2.48
-3.68 16.77 -2.11
-4.36 19.86 3.22
-4.25 19.37 -1.73
-4.74 21.64 4.31
-4.73 21.56 5.1
-4.31 19.66 5.39
-4.91 22.79 0.41
-1.8 8.33 -1.97
-2.22 10.31 -2.05
-4.23 19.64 1.76
-2.99 13.86 -2.25
-4.26 19.75 2.48
-3.62 16.79 -2.11
-4.28 19.83 3.21
-4.18 19.4 -1.74
-4.47 20.73 -1.11
-4.37 20.27 4.79
-4.43 20.57 -0.37
-4.1 19 5.21
-1.77 8.33 -1.97
-2.19 10.32 -2.05
-4.08 19.25 1.72
-2.93 13.82 -2.24
-4.19 19.76 2.48
-3.56 16.8 -2.11
-4.21 19.86 3.22
-4.06 19.15 -1.71
-4.22 19.93 3.96
-4.42 20.86 -1.12
-4.56 21.51 5.08
-4.35 20.51 -0.37
-4.16 19.6 5.37
-1.74 8.34 -1.97
-2.15 10.33 -2.05
-4.27 20.48 1.83
-2.87 13.79 -2.23
-3.5 16.79 -2.11
-4.15 19.92 3.22
-4.07 19.53 -1.75
-4.16 19.94 3.96
-4.27 20.51 -1.1
-4.18 20.06 4.73
-4.3 20.63 -0.37
-3.96 19.02 5.21
-4.64 22.65 0.4
-1.7 8.33 -1.96
-4.31 21.07 1.13
-2.12 10.33 -2.05
-4.19 20.48 1.83
-2.85 13.9 -2.25
-3.99 19.49 2.44
-3.44 16.79 -2.1
-3.83 18.69 -1.67
-4.09 20 3.97
-4.12 20.13 -1.08
-4.11 20.06 4.73
-4.23 20.68 -0.37
-4.11 20.08 5.49
-4.56 22.67 0.4
-1.68 8.33 -1.96
-4.31 21.42 1.15
-2.08 10.33 -2.05
-3.85 19.13 1.71
-2.78 13.83 -2.23
-3.38 16.81 -2.11
-3.76 18.71 -1.67
-4.01 19.94 -1.07
-4.05 20.12 4.74
-4.14 20.6 -0.37
-4.05 20.13 5.5
-1.65 8.34 -1.96
-4.26 21.53 1.15
-2.04 10.33 -2.05
-4.08 20.62 1.84
-2.74 13.87 -2.24
-3.85 19.44 2.43
-3.33 16.81 -2.1
-3.7 18.68 -1.67
-3.95 19.95 -1.07
-4.53 22.89 6.25
-1.62 8.36 -1.97
-4.2 21.62 1.15
-2.01 10.34 -2.05
-2.69 13.86 -2.24
-3.27 16.82 -2.1
-3.61 18.61 -1.66
-3.92 20.2 -1.08
-4.03 20.75 -0.37
-4.45 22.93 6.26
-1.59 8.35 -1.96
-4.13 21.68 1.16
-1.97 10.35 -2.05
-2.64 13.83 -2.23
-3.2 16.81 -2.1
-3.54 18.59 -1.66
-4.09 21.46 4.25
-4.37 22.95 6.26
-1.56 8.36 -1.96
-4.05 21.64 1.15
-1.94 10.36 -2.05
-3.85 20.59 1.83
-2.58 13.79 -2.22
-3.14 16.8 -2.1
-3.73 19.97 -1.78
-4.3 23.01 4.55
-4.24 22.69 6.19
-1.53 8.36 -1.96
-3.99 21.76 1.16
-1.9 10.35 -2.05
-3.69 20.12 1.79
-2.54 13.87 -2.23
-3.08 16.82 -2.1
-3.51 19.14 -1.7
-3.94 21.49 4.25
-3.77 20.58 -1.1
-4.16 22.69 6.18
-1.5 8.37 -1.96
-3.85 21.43 1.14
-1.86 10.36 -2.05
-3.63 20.22 1.8
-2.49 13.87 -2.23
-3.02 16.82 -2.1
-3.37 18.74 -1.67
-4.21 23.4 4.62
-3.69 20.52 -1.09
-4.2 23.36 6.36
-1.48 8.38 -1.96
-3.77 21.38 1.14
-1.83 10.37 -2.05
-3.56 20.24 1.8
-2.45 13.92 -2.24
-2.96 16.83 -2.1
-3.35 19 -1.69
-4 22.7 4.48
-1.44 8.37 -1.96
-1.79 10.37 -2.05
-2.39 13.85 -2.23
-2.9 16.83 -2.1
-3.36 19.47 -1.73
-1.42 8.37 -1.96
-1.75 10.38 -2.05
-3.44 20.34 1.8
-2.34 13.86 -2.23
-2.85 16.83 -2.1
-3.29 19.44 -1.73
-1.39 8.38 -1.96
-1.72 10.37 -2.04
-2.29 13.8 -2.22
-2.79 16.84 -2.1
-4.56 27.56 -2.44
-3.63 21.94 4.32
-1.36 8.39 -1.96
-1.68 10.37 -2.04
-2.24 13.8 -2.21
-2.73 16.85 -2.1
-4.46 27.53 -2.44
-1.33 8.38 -1.96
-1.64 10.38 -2.04
-2.19 13.83 -2.22
-2.67 16.85 -2.09
-3.09 19.5 -1.73
-3.47 21.93 4.32
-1.3 8.38 -1.96
-1.61 10.39 -2.04
-2.16 13.93 -2.23
-2.61 16.85 -2.09
-4.26 27.5 -2.43
-3.45 22.27 4.38
-1.27 8.38 -1.96
-1.57 10.39 -2.04
-2.1 13.89 -2.23
-2.54 16.82 -2.09
-3.34 22.11 -1.96
-3.37 22.8 0.4
-1.24 8.39 -1.96
-3.38 22.87 1.21
-1.53 10.37 -2.04
-3.38 22.83 2.02
-2.06 13.92 -2.23
-3.37 22.81 2.83
-2.49 16.84 -2.09
-3.38 22.85 3.66
-2.74 18.51 -1.64
-3.38 22.86 4.49
-3.36 22.76 -1.21
-3.39 22.94 5.35
-3.37 22.77 -0.4
-3.4 22.97 6.22
-3.28 22.74 0.4
-1.21 8.4 -1.96
-3.28 22.76 1.21
-1.5 10.38 -2.04
-3.29 22.81 2.02
-2 13.9 -2.22
-3.29 22.84 2.83
-2.43 16.84 -2.09
-3.3 22.87 3.66
-2.69 18.61 -1.65
-3.27 22.7 -1.2
-3.28 22.71 -0.4
-1.18 8.39 -1.96
-3.22 22.86 1.21
-1.46 10.39 -2.04
-1.95 13.87 -2.22
-2.37 16.84 -2.09
-2.63 18.66 -1.65
-3.37 23.98 4.71
-1.15 8.39 -1.95
-1.43 10.39 -2.04
-1.9 13.84 -2.21
-2.31 16.85 -2.09
-2.57 18.7 -1.65
-3.07 22.42 4.4
-3.16 23.01 6.22
-1.12 8.39 -1.96
-1.39 10.39 -2.04
-1.86 13.92 -2.22
-2.25 16.83 -2.08
-2.47 18.52 -1.63
-3.24 24.26 4.76
-3.27 24.48 5.7
-3.06 22.91 6.19
-1.09 8.4 -1.96
-1.35 10.39 -2.04
-1.81 13.91 -2.22
-2.19 16.85 -2.09
-2.41 18.56 -1.64
-3.08 23.66 4.64
-3.19 24.56 5.72
-2.99 22.97 6.21
-1.06 8.41 -1.96
-1.31 10.39 -2.04
-1.76 13.91 -2.22
-2.13 16.83 -2.08
-3.45 27.3 -2.41
-2.99 23.64 4.63
-3.08 24.32 5.66
-2.89 22.81 6.16
-1.03 8.4 -1.95
-1.28 10.4 -2.04
-1.71 13.89 -2.22
-2.07 16.85 -2.08
-2.78 22.59 3.61
-3.35 27.28 -2.4
-2.66 21.62 4.23
-2.98 24.27 5.65
-2.8 22.81 6.16
-1 8.4 -1.95
-1.24 10.4 -2.04
-1.66 13.92 -2.22
-2.01 16.84 -2.08
-3.26 27.33 -2.41
-2.72 22.81 4.47
-2.92 24.49 5.69
-2.73 22.82 6.16
-0.97 8.4 -1.95
-1.21 10.41 -2.04
-1.61 13.91 -2.22
-1.95 16.84 -2.08
-2.62 22.58 3.6
-2.26 19.52 -1.72
-2.79 24.11 4.72
-2.84 24.51 5.7
-2.68 23.11 6.23
-2.53 22.49 0.39
-0.95 8.41 -1.95
-1.17 10.4 -2.03
-1.56 13.88 -2.21
-1.89 16.83 -2.08
-3.08 27.36 -2.41
-2.69 23.91 4.68
-2.77 24.59 5.71
-2.78 24.71 6.66
-0.92 8.41 -1.95
-1.13 10.4 -2.03
-1.51 13.86 -2.21
-1.84 16.84 -2.08
-2.17 19.92 -1.75
-2.63 24.15 4.72
-2.69 24.71 5.74
-2.3 21.11 5.69
-0.89 8.41 -1.95
-1.1 10.4 -2.03
-1.46 13.86 -2.21
-1.77 16.83 -2.08
-2.22 21.02 -1.85
-2.54 24.13 4.72
-2.4 22.71 6.12
-0.86 8.4 -1.95
-1.06 10.41 -2.03
-1.41 13.86 -2.21
-1.71 16.82 -2.08
-2.35 23.04 3.67
-1.91 18.73 -1.65
-2.2 21.55 -1.14
-2.1 20.57 5.54
-0.83 8.4 -1.95
-1.02 10.41 -2.03
-1.36 13.86 -2.21
-1.66 16.82 -2.08
-1.94 19.75 -1.74
-2.08 21.14 5.69
-2.12 22.33 0.39
-0.8 8.41 -1.95
-0.99 10.4 -2.03
-1.32 13.89 -2.21
-1.6 16.82 -2.07
-2.13 22.44 3.57
-2.04 21.54 -1.89
-2.1 22.16 -1.17
-2.31 24.36 5.65
-2.16 22.75 6.12
-0.77 8.41 -1.95
-0.95 10.4 -2.03
-1.28 13.91 -2.21
-1.54 16.81 -2.07
-1.81 19.74 -1.73
-2.03 22.12 -1.16
-2.24 24.4 5.66
-2.07 22.57 -0.4
-2.21 24.15 6.5
-1.97 22.29 0.39
-0.74 8.42 -1.95
-0.92 10.41 -2.03
-1.23 13.91 -2.21
-1.48 16.8 -2.07
-2.2 24.96 3.97
-1.9 21.56 -1.89
-1.77 20.11 4.66
-1.98 22.43 -0.39
-2.13 24.18 6.5
-0.71 8.4 -1.95
-0.88 10.42 -2.03
-1.18 13.89 -2.21
-1.42 16.8 -2.07
-2.11 24.87 3.95
-1.85 21.87 -1.92
-1.78 20.97 -1.1
-1.9 22.39 -0.39
-1.97 23.31 6.27
-0.68 8.41 -1.95
-0.84 10.41 -2.03
-1.12 13.85 -2.2
-1.36 16.78 -2.07
-2.03 24.95 3.96
-1.72 21.22 -1.86
-1.71 21.07 -1.11
-1.98 24.35 5.64
-1.82 22.38 -0.39
-1.82 22.48 6.04
-0.65 8.42 -1.95
-0.81 10.4 -2.03
-1.76 22.69 1.99
-1.07 13.86 -2.2
-1.76 22.78 2.81
-1.3 16.78 -2.07
-1.97 25.4 4.04
-1.61 20.79 -1.82
-1.72 22.2 -1.17
-1.46 18.84 4.36
-1.74 22.45 -0.39
-1.58 20.35 5.47
-0.62 8.42 -1.95
-0.77 10.4 -2.03
-1.67 22.57 1.98
-1.03 13.89 -2.21
-1.68 22.73 2.8
-1.24 16.79 -2.07
-1.7 22.96 3.65
-1.49 20.19 -1.77
-1.81 24.44 5.66
-1.66 22.51 -0.39
-1.81 24.45 6.57
-0.59 8.42 -1.95
-1.58 22.47 1.18
-0.73 10.4 -2.03
-1.59 22.56 1.98
-0.98 13.89 -2.21
-1.6 22.74 2.8
-1.18 16.78 -2.06
-1.53 21.76 3.46
-1.38 19.65 -1.72
-1.59 22.51 -1.18
-1.62 22.96 5.31
-1.65 23.42 6.29
-1.49 22.33 0.39
-0.56 8.4 -1.94
-1.5 22.39 1.18
-0.7 10.41 -2.03
-1.52 22.63 1.98
-0.93 13.82 -2.19
-1.53 22.79 2.8
-1.12 16.78 -2.06
-1.46 21.74 3.45
-1.28 19.11 -1.68
-1.54 22.94 4.47
-1.5 22.35 -1.17
-1.54 22.95 5.31
-1.49 22.23 -0.39
-1.51 22.6 6.07
-0.45 7.03 -1.89
-1.41 22.26 0.39
-0.53 8.41 -1.95
-1.42 22.37 1.17
-0.66 10.41 -2.03
-0.88 13.88 -2.2
-1.06 16.76 -2.06
-1.46 22.96 3.64
-1.21 19.12 -1.68
-1.46 22.96 4.47
-1.38 21.76 -1.14
-1.46 23.02 5.33
-1.4 22.06 -0.39
-1.59 25.05 6.72
-0.42 7 -1.88
-1.33 22.27 0.39
-0.5 8.42 -1.95
-1.35 22.44 1.18
-0.62 10.4 -2.02
-0.83 13.92 -2.21
-1 16.76 -2.06
-1.52 25.31 4.02
-1.13 18.86 -1.65
-1.38 23.08 4.49
-1.29 21.51 -1.13
-1.38 23.02 5.32
-1.32 22.03 -0.39
-1.17 19.5 5.23
-0.4 6.99 -1.88
-1.26 22.31 0.39
-0.48 8.42 -1.95
-0.59 10.4 -2.03
-0.78 13.85 -2.2
-0.95 16.77 -2.06
-1.44 25.43 4.03
-1.09 19.26 -1.69
-1.11 19.53 3.8
-1.23 21.72 -1.14
-1.31 23.08 5.34
-1.24 21.98 -0.38
-1.3 22.91 6.15
-0.37 7 -1.88
-0.45 8.42 -1.95
