# .PCD v0.7 - Point Cloud Data file format
VERSION 0.7
FIELDS x y z
SIZE 4 4 4
TYPE F F F
COUNT 1 1 1
WIDTH 2837
HEIGHT 1
VIEWPOINT 0 0 0 1 0 0 0
POINTS 2837
DATA ascii
5.75 2.07 -1.64
6.62 2.38 -1.63
7.75 2.79 -1.6
9.42 3.39 -1.59
12.02 4.33 -1.57
12.62 4.54 -1.17
12.79 4.6 -0.71
12.98 4.67 -0.24
5.76 2.05 -1.64
25.11 8.95 0.47
6.64 2.37 -1.63
7.76 2.76 -1.6
9.44 3.36 -1.59
12.04 4.29 -1.57
12.62 4.5 -1.17
12.8 4.56 -0.71
12.95 4.61 -0.24
5.76 2.03 -1.64
25.18 8.87 0.47
6.65 2.34 -1.63
7.77 2.74 -1.6
9.44 3.32 -1.58
12.06 4.25 -1.57
12.62 4.45 -1.17
12.77 4.5 -0.71
12.97 4.57 -0.24
5.76 2.01 -1.63
6.65 2.32 -1.63
7.79 2.71 -1.6
9.43 3.29 -1.58
12.09 4.21 -1.57
12.63 4.4 -1.17
12.75 4.44 -0.71
12.97 4.52 -0.24
5.78 1.99 -1.64
6.65 2.29 -1.62
7.81 2.69 -1.6
9.44 3.25 -1.58
12.1 4.17 -1.57
12.64 4.35 -1.17
12.74 4.39 -0.71
12.98 4.47 -0.24
5.79 1.97 -1.64
6.66 2.27 -1.62
7.82 2.66 -1.61
9.44 3.22 -1.58
12.12 4.13 -1.57
12.65 4.31 -1.17
12.74 4.34 -0.71
12.99 4.42 -0.24
5.8 1.95 -1.64
6.67 2.25 -1.62
7.82 2.63 -1.6
9.45 3.18 -1.58
12.12 4.08 -1.57
12.66 4.26 -1.17
12.77 4.3 -0.71
12.99 4.37 -0.24
5.79 1.93 -1.64
6.68 2.23 -1.63
7.83 2.61 -1.6
9.46 3.15 -1.58
12.14 4.04 -1.57
12.66 4.22 -1.17
12.77 4.25 -0.71
12.98 4.32 -0.24
5.8 1.91 -1.63
6.69 2.2 -1.63
7.84 2.58 -1.6
9.45 3.11 -1.58
12.16 4 -1.57
12.67 4.17 -1.17
12.79 4.21 -0.71
12.99 4.27 -0.24
5.81 1.89 -1.64
6.69 2.18 -1.62
7.85 2.55 -1.6
9.46 3.08 -1.57
12.17 3.96 -1.57
12.7 4.13 -1.17
12.84 4.18 -0.71
13 4.23 -0.24
5.82 1.87 -1.64
6.7 2.15 -1.62
7.86 2.53 -1.6
9.47 3.04 -1.58
12.17 3.91 -1.57
12.72 4.09 -1.17
13.02 4.18 -0.24
5.82 1.85 -1.64
6.71 2.13 -1.63
7.86 2.5 -1.6
9.48 3.01 -1.58
12.18 3.87 -1.57
12.73 4.04 -1.17
12.87 4.09 -0.71
13.02 4.13 -0.24
5.82 1.83 -1.64
6.72 2.11 -1.63
7.87 2.47 -1.6
9.48 2.97 -1.57
12.19 3.82 -1.57
12.74 4 -1.17
12.88 4.04 -0.71
13.1 4.11 -0.24
5.83 1.81 -1.64
6.72 2.08 -1.62
7.88 2.44 -1.6
9.47 2.94 -1.57
12.19 3.78 -1.57
12.77 3.96 -1.17
12.92 4 -0.71
13.21 4.1 -0.24
5.85 1.79 -1.64
6.72 2.06 -1.62
7.89 2.42 -1.6
9.47 2.9 -1.57
12.2 3.73 -1.57
12.81 3.92 -1.17
12.96 3.97 -0.71
5.85 1.77 -1.64
6.73 2.04 -1.62
7.9 2.39 -1.6
9.48 2.87 -1.57
12.19 3.69 -1.56
13.07 3.95 -0.72
5.86 1.75 -1.64
6.74 2.01 -1.62
7.89 2.36 -1.6
9.5 2.84 -1.57
12.21 3.64 -1.56
13.11 3.91 -1.2
13.19 3.94 -0.72
5.85 1.73 -1.64
6.75 1.99 -1.63
7.91 2.33 -1.6
9.52 2.81 -1.57
12.21 3.6 -1.56
13.35 3.94 -1.22
13.38 3.94 -0.73
5.86 1.7 -1.64
6.76 1.97 -1.63
7.92 2.3 -1.6
12.21 3.55 -1.56
13.58 3.95 -1.24
21.2 6.17 -1.16
5.87 1.69 -1.64
6.76 1.94 -1.62
7.93 2.28 -1.6
9.54 2.74 -1.57
12.23 3.51 -1.56
13.84 3.98 -1.26
21.21 6.09 -1.16
5.88 1.67 -1.64
6.76 1.92 -1.62
7.94 2.25 -1.6
9.56 2.71 -1.57
12.21 3.46 -1.56
14.05 3.98 -1.28
14.05 3.98 -0.77
14.82 4.2 -0.27
5.88 1.65 -1.64
6.77 1.89 -1.62
7.93 2.22 -1.6
9.57 2.68 -1.57
12.21 3.42 -1.56
14.36 4.02 -1.3
14.25 3.99 -0.78
5.88 1.62 -1.63
6.78 1.87 -1.62
7.95 2.19 -1.6
9.57 2.64 -1.57
12.23 3.37 -1.56
14.71 4.06 -1.33
14.53 4.01 -0.79
5.89 1.6 -1.63
6.79 1.85 -1.63
7.95 2.16 -1.6
9.57 2.6 -1.57
12.23 3.33 -1.56
15.38 4.18 -1.39
14.83 4.04 -0.81
5.9 1.58 -1.64
6.79 1.82 -1.62
7.97 2.14 -1.6
9.59 2.57 -1.57
12.23 3.28 -1.56
15.39 4.13 -1.39
15.16 4.07 -0.82
5.91 1.56 -1.64
6.8 1.8 -1.62
7.97 2.11 -1.6
9.6 2.54 -1.57
12.25 3.24 -1.56
15.57 4.12 -1.41
15.43 4.08 -0.84
5.91 1.54 -1.64
6.8 1.78 -1.62
7.97 2.08 -1.6
9.61 2.51 -1.57
12.26 3.2 -1.56
16.76 4.38 -1.52
5.91 1.52 -1.63
6.81 1.75 -1.62
7.98 2.05 -1.6
9.62 2.48 -1.57
12.27 3.16 -1.56
16.75 4.31 -1.51
5.92 1.5 -1.64
6.82 1.73 -1.62
7.99 2.03 -1.6
9.62 2.44 -1.57
12.28 3.11 -1.56
16.75 4.25 -1.51
5.92 1.48 -1.64
6.82 1.7 -1.62
8 2 -1.6
9.63 2.41 -1.57
12.29 3.07 -1.55
16.74 4.18 -1.51
5.93 1.46 -1.64
6.82 1.68 -1.62
8 1.97 -1.6
9.64 2.37 -1.57
12.26 3.02 -1.55
16.73 4.12 -1.51
5.93 1.44 -1.64
6.83 1.66 -1.62
8 1.94 -1.6
9.66 2.34 -1.57
12.28 2.98 -1.55
16.71 4.05 -1.5
5.93 1.42 -1.63
6.84 1.63 -1.62
8.01 1.91 -1.6
9.66 2.31 -1.57
12.29 2.93 -1.55
16.68 3.98 -1.5
5.93 1.39 -1.63
6.84 1.61 -1.62
8.01 1.88 -1.6
9.67 2.27 -1.57
12.33 2.9 -1.56
16.66 3.92 -1.5
5.94 1.38 -1.63
6.84 1.58 -1.62
8.03 1.86 -1.6
9.67 2.24 -1.57
12.27 2.84 -1.55
16.65 3.85 -1.5
5.95 1.36 -1.64
6.84 1.56 -1.62
8.04 1.83 -1.6
9.68 2.21 -1.57
12.3 2.8 -1.55
16.65 3.79 -1.49
5.96 1.34 -1.64
6.85 1.54 -1.62
8.03 1.8 -1.6
9.69 2.17 -1.57
12.3 2.76 -1.55
16.65 3.74 -1.49
5.94 1.31 -1.63
6.86 1.51 -1.62
8.04 1.77 -1.6
9.7 2.14 -1.57
12.32 2.72 -1.55
16.63 3.67 -1.49
5.96 1.29 -1.63
6.86 1.49 -1.62
8.05 1.75 -1.6
9.69 2.1 -1.57
12.37 2.69 -1.55
16.64 3.61 -1.49
5.97 1.27 -1.64
6.85 1.46 -1.62
8.06 1.72 -1.6
9.69 2.07 -1.57
12.36 2.64 -1.55
16.66 3.56 -1.49
5.98 1.25 -1.64
6.86 1.44 -1.62
8.06 1.69 -1.6
9.71 2.04 -1.57
12.35 2.59 -1.55
16.69 3.5 -1.49
5.99 1.23 -1.64
6.88 1.42 -1.62
8.06 1.66 -1.6
9.71 2 -1.57
12.36 2.55 -1.55
16.69 3.44 -1.49
5.98 1.21 -1.63
6.87 1.39 -1.62
8.06 1.63 -1.6
9.72 1.97 -1.57
12.39 2.51 -1.55
16.68 3.38 -1.49
5.97 1.19 -1.63
6.89 1.37 -1.62
8.08 1.61 -1.6
9.71 1.93 -1.57
12.38 2.46 -1.55
16.68 3.32 -1.49
5.98 1.17 -1.63
6.88 1.34 -1.62
8.07 1.58 -1.6
9.73 1.9 -1.57
12.4 2.42 -1.55
16.7 3.26 -1.49
26.07 5.09 -1.39
5.99 1.15 -1.63
6.89 1.32 -1.62
8.07 1.55 -1.6
9.74 1.86 -1.57
12.41 2.38 -1.55
16.71 3.2 -1.49
26.09 4.99 -1.39
6 1.13 -1.64
6.88 1.3 -1.62
8.08 1.52 -1.6
9.74 1.83 -1.57
12.41 2.34 -1.55
16.66 3.14 -1.48
26.03 4.9 -1.39
5.98 1.1 -1.63
6.9 1.27 -1.62
8.07 1.49 -1.6
9.75 1.8 -1.57
12.41 2.29 -1.55
16.67 3.08 -1.48
26 4.8 -1.39
6 1.09 -1.63
6.89 1.25 -1.62
8.08 1.46 -1.6
9.74 1.76 -1.57
12.42 2.25 -1.55
16.69 3.02 -1.48
25.99 4.71 -1.38
6.02 1.07 -1.64
6.9 1.22 -1.62
8.1 1.44 -1.6
9.74 1.73 -1.57
12.43 2.2 -1.55
25.96 4.61 -1.38
6.02 1.05 -1.64
6.9 1.2 -1.62
8.09 1.41 -1.6
9.75 1.69 -1.57
12.4 2.15 -1.55
16.71 2.9 -1.48
25.94 4.5 -1.38
6.03 1.03 -1.64
6.91 1.17 -1.62
8.09 1.38 -1.6
9.76 1.66 -1.57
12.41 2.11 -1.55
16.73 2.85 -1.49
25.94 4.41 -1.38
6.02 1 -1.63
6.91 1.15 -1.62
8.1 1.35 -1.6
9.76 1.63 -1.57
12.42 2.07 -1.55
16.72 2.79 -1.48
25.91 4.32 -1.38
6.02 0.98 -1.63
6.91 1.13 -1.62
8.1 1.32 -1.6
9.76 1.59 -1.57
12.43 2.03 -1.55
16.73 2.73 -1.48
25.92 4.23 -1.38
6.03 0.96 -1.64
6.9 1.1 -1.61
8.11 1.29 -1.6
9.76 1.55 -1.56
12.43 1.98 -1.55
16.72 2.66 -1.48
25.92 4.13 -1.38
6.04 0.94 -1.64
56.27 8.76 0.99
6.9 1.08 -1.61
8.1 1.26 -1.59
9.77 1.52 -1.57
12.42 1.93 -1.54
16.72 2.6 -1.48
25.88 4.03 -1.37
6.04 0.92 -1.64
56.27 8.58 0.99
6.91 1.05 -1.61
8.07 1.23 -1.59
9.78 1.49 -1.57
12.42 1.89 -1.54
16.73 2.55 -1.48
25.89 3.95 -1.37
6.03 0.9 -1.63
56.33 8.39 0.99
6.92 1.03 -1.62
8.08 1.2 -1.59
9.77 1.46 -1.56
12.43 1.85 -1.54
16.72 2.49 -1.48
25.88 3.85 -1.37
6.05 0.88 -1.64
56.39 8.19 0.99
8.09 1.18 -1.59
9.77 1.42 -1.56
12.44 1.81 -1.54
16.71 2.43 -1.48
6.05 0.86 -1.64
6.93 0.98 -1.62
8.1 1.15 -1.59
9.78 1.38 -1.56
12.44 1.76 -1.54
16.7 2.37 -1.48
25.91 3.67 -1.37
6.05 0.84 -1.64
56.46 7.8 0.99
6.93 0.96 -1.61
8.11 1.12 -1.59
9.78 1.35 -1.56
12.44 1.72 -1.54
16.65 2.3 -1.47
11.25 1.55 -0.6
6.05 0.82 -1.64
56.53 7.61 1
6.93 0.93 -1.61
8.1 1.09 -1.59
9.79 1.32 -1.56
12.44 1.67 -1.54
11.19 1.51 -0.99
11.28 1.52 -0.6
11.25 1.52 -0.2
6.05 0.79 -1.63
6.95 0.91 -1.62
8.11 1.06 -1.59
9.79 1.28 -1.56
21.38 2.8 2.65
12.44 1.63 -1.54
11.17 1.46 -0.99
11.28 1.48 -0.6
11.24 1.47 -0.2
6.05 0.77 -1.64
6.94 0.88 -1.62
8.12 1.03 -1.59
9.79 1.25 -1.56
21.41 2.73 2.65
12.45 1.59 -1.54
11.16 1.42 -0.98
11.16 1.42 -0.59
11.21 1.43 -0.2
6.07 0.75 -1.64
11.25 1.39 0.2
6.93 0.86 -1.61
8.11 1 -1.59
9.79 1.21 -1.56
12.13 1.5 -1.5
11.15 1.38 -0.98
11.15 1.38 -0.59
11.2 1.39 -0.2
6.06 0.73 -1.64
11.23 1.35 0.2
6.93 0.83 -1.61
8.12 0.98 -1.59
21.37 2.57 1.88
9.78 1.18 -1.56
11.88 1.43 -1.47
11.16 1.34 -0.98
11.14 1.34 -0.59
11.18 1.34 -0.2
6.07 0.71 -1.64
11.24 1.31 0.2
6.94 0.81 -1.61
8.12 0.95 -1.59
9.79 1.14 -1.56
11.87 1.39 -1.47
21.36 2.5 3.41
11.13 1.3 -0.98
11.13 1.3 -0.59
11.15 1.3 -0.2
6.07 0.69 -1.64
11.23 1.27 0.2
6.95 0.79 -1.62
8.12 0.92 -1.59
21.16 2.4 1.86
9.79 1.11 -1.56
21.32 2.42 2.63
11.87 1.35 -1.47
21.3 2.42 3.4
11.12 1.26 -0.98
11.12 1.26 -0.59
11.16 1.27 -0.2
6.07 0.67 -1.64
11.2 1.23 0.2
6.95 0.76 -1.61
8.14 0.89 -1.59
9.79 1.08 -1.56
21.29 2.34 2.63
11.89 1.31 -1.47
21.26 2.34 3.39
11.12 1.22 -0.98
11.12 1.22 -0.59
11.16 1.23 -0.2
6.07 0.65 -1.64
11.2 1.19 0.2
6.95 0.74 -1.61
21.23 2.26 1.12
8.14 0.87 -1.59
21.34 2.27 1.88
9.79 1.04 -1.56
21.27 2.26 2.63
11.97 1.27 -1.48
21.29 2.26 3.39
11.12 1.18 -0.98
11.1 1.18 -0.59
11.15 1.19 -0.2
6.08 0.62 -1.64
11.2 1.15 0.2
6.95 0.71 -1.61
21.37 2.2 1.13
8.15 0.84 -1.59
21.51 2.21 1.89
9.78 1.01 -1.56
21.25 2.19 2.62
12.11 1.24 -1.49
21.27 2.19 3.39
11.11 1.14 -0.98
11.1 1.14 -0.58
11.14 1.15 -0.2
6.08 0.6 -1.64
11.2 1.11 0.2
6.95 0.69 -1.61
21.33 2.12 1.12
8.13 0.81 -1.59
21.2 2.1 1.86
9.81 0.97 -1.56
21.24 2.11 2.62
12.45 1.24 -1.54
21.35 2.12 3.4
11.11 1.1 -0.98
11.1 1.1 -0.58
11.13 1.1 -0.2
6.07 0.58 -1.64
11.19 1.07 0.2
6.96 0.67 -1.62
21.27 2.04 1.12
8.14 0.78 -1.59
21.13 2.02 1.86
9.81 0.94 -1.56
21.23 2.03 2.62
12.46 1.19 -1.54
11.08 1.06 -0.97
11.1 1.06 -0.58
11.12 1.06 -0.2
6.08 0.56 -1.64
11.17 1.03 0.2
6.96 0.64 -1.61
21.23 1.96 1.12
8.15 0.75 -1.59
21.13 1.95 1.86
9.81 0.9 -1.56
12.45 1.15 -1.54
11.08 1.02 -0.97
11.11 1.03 -0.58
11.12 1.03 -0.19
6.09 0.54 -1.64
11.17 0.99 0.2
6.95 0.62 -1.61
8.15 0.72 -1.59
21.16 1.88 1.86
9.8 0.87 -1.56
12.46 1.11 -1.54
11.07 0.98 -0.97
11.11 0.99 -0.58
11.12 0.99 -0.19
6.08 0.52 -1.64
11.17 0.95 0.2
6.96 0.59 -1.61
8.16 0.7 -1.59
9.81 0.84 -1.56
12.45 1.06 -1.53
11.07 0.95 -0.97
11.1 0.95 -0.58
11.11 0.95 -0.19
6.1 0.5 -1.64
11.17 0.92 0.2
6.97 0.57 -1.61
8.14 0.67 -1.59
9.8 0.8 -1.56
21.36 1.75 2.63
12.45 1.02 -1.53
11.07 0.91 -0.97
11.06 0.91 -0.58
11.1 0.91 -0.19
6.08 0.48 -1.64
11.16 0.88 0.2
6.97 0.55 -1.62
8.15 0.64 -1.59
9.79 0.77 -1.56
12.44 0.98 -1.53
11.04 0.87 -0.97
11.06 0.87 -0.58
11.09 0.87 -0.19
6.09 0.46 -1.64
11.14 0.83 0.2
6.97 0.52 -1.61
8.16 0.61 -1.59
9.79 0.73 -1.55
12.45 0.93 -1.53
11.04 0.83 -0.97
11.08 0.83 -0.58
11.09 0.83 -0.19
6.09 0.43 -1.64
11.15 0.8 0.2
6.97 0.5 -1.61
8.16 0.58 -1.59
9.8 0.7 -1.56
12.44 0.89 -1.53
11.05 0.79 -0.97
11.06 0.79 -0.58
11.08 0.79 -0.19
6.1 0.41 -1.64
11.14 0.76 0.19
6.97 0.47 -1.61
8.16 0.55 -1.59
9.81 0.67 -1.56
12.44 0.84 -1.53
11.04 0.75 -0.97
11.05 0.75 -0.58
11.08 0.75 -0.19
6.1 0.39 -1.64
11.15 0.72 0.19
6.98 0.45 -1.61
8.16 0.52 -1.59
9.8 0.63 -1.55
12.44 0.8 -1.53
11.04 0.71 -0.97
11.06 0.71 -0.58
11.07 0.71 -0.19
6.09 0.37 -1.64
11.14 0.68 0.19
6.98 0.42 -1.62
8.15 0.5 -1.59
9.82 0.6 -1.56
12.45 0.76 -1.53
11.03 0.67 -0.97
11.05 0.67 -0.58
11.06 0.67 -0.19
6.09 0.35 -1.64
11.12 0.64 0.19
6.99 0.4 -1.62
8.17 0.47 -1.59
9.81 0.56 -1.56
12.45 0.71 -1.53
11.02 0.63 -0.97
11.05 0.63 -0.58
11.06 0.63 -0.19
6.1 0.33 -1.64
11.12 0.6 0.19
6.98 0.38 -1.61
8.17 0.44 -1.59
9.81 0.53 -1.56
12.44 0.67 -1.53
11.02 0.59 -0.97
11.04 0.59 -0.58
11.06 0.59 -0.19
6.12 0.31 -1.64
11.11 0.56 0.19
6.98 0.35 -1.61
8.16 0.41 -1.59
9.81 0.49 -1.55
12.44 0.63 -1.53
11.02 0.55 -0.97
11.04 0.56 -0.58
11.05 0.56 -0.19
6.1 0.29 -1.64
11.11 0.52 0.19
6.99 0.33 -1.61
8.15 0.38 -1.59
9.83 0.46 -1.56
12.45 0.58 -1.53
11.02 0.52 -0.96
11.03 0.52 -0.58
11.04 0.52 -0.19
6.09 0.26 -1.63
11.1 0.48 0.19
6.99 0.3 -1.62
8.16 0.35 -1.59
9.83 0.43 -1.56
12.44 0.54 -1.53
11 0.48 -0.96
11.03 0.48 -0.58
11.03 0.48 -0.19
6.1 0.24 -1.64
11.09 0.44 0.19
6.99 0.28 -1.62
8.17 0.33 -1.59
9.82 0.39 -1.56
12.45 0.5 -1.53
11.01 0.44 -0.96
11.01 0.44 -0.58
11.04 0.44 -0.19
6.1 0.22 -1.64
11.09 0.4 0.19
6.98 0.25 -1.61
8.16 0.3 -1.59
9.82 0.36 -1.56
12.44 0.45 -1.53
11.01 0.4 -0.96
11.04 0.4 -0.19
6.11 0.2 -1.64
11.09 0.37 0.19
6.98 0.23 -1.61
8.17 0.27 -1.59
9.82 0.33 -1.56
12.44 0.41 -1.53
11.01 0.37 -0.96
11.01 0.37 -0.58
11.03 0.37 -0.19
6.11 0.18 -1.64
11.08 0.33 0.19
6.99 0.21 -1.62
8.16 0.24 -1.59
9.83 0.29 -1.56
12.44 0.37 -1.53
11 0.33 -0.96
11 0.33 -0.58
11.02 0.33 -0.19
6.1 0.16 -1.64
11.09 0.29 0.19
7 0.18 -1.62
8.16 0.21 -1.59
9.83 0.26 -1.56
12.45 0.33 -1.53
10.99 0.29 -0.96
10.99 0.29 -0.58
11.02 0.29 -0.19
6.1 0.14 -1.64
11.07 0.25 0.19
7 0.16 -1.62
8.16 0.19 -1.59
9.82 0.22 -1.56
12.44 0.28 -1.53
10.99 0.25 -0.96
10.98 0.25 -0.58
11.02 0.25 -0.19
6.11 0.12 -1.64
11.06 0.21 0.19
6.99 0.14 -1.61
8.17 0.16 -1.59
9.81 0.19 -1.55
12.44 0.24 -1.53
11 0.21 -0.96
10.97 0.21 -0.58
11.02 0.21 -0.19
6.11 0.1 -1.64
11.08 0.17 0.19
6.99 0.11 -1.61
8.16 0.13 -1.59
9.82 0.16 -1.55
12.43 0.2 -1.53
11 0.17 -0.96
10.97 0.17 -0.57
11.02 0.17 -0.19
6.11 0.07 -1.64
11.07 0.14 0.19
7 0.09 -1.62
8.16 0.1 -1.59
9.82 0.12 -1.56
12.43 0.15 -1.53
11 0.13 -0.96
10.98 0.13 -0.58
11.01 0.13 -0.19
6.1 0.05 -1.63
11.07 0.1 0.19
7.01 0.06 -1.62
8.16 0.07 -1.59
9.82 0.08 -1.56
12.44 0.11 -1.53
10.98 0.09 -0.96
10.97 0.09 -0.58
11.02 0.1 -0.19
6.1 0.03 -1.64
11.05 0.06 0.19
7 0.04 -1.62
8.16 0.04 -1.59
9.81 0.05 -1.55
12.44 0.07 -1.53
10.98 0.06 -0.96
10.97 0.06 -0.57
11.01 0.06 -0.19
6.1 0.01 -1.64
11.06 0.02 0.19
7 0.01 -1.62
8.16 0.01 -1.59
9.81 0.02 -1.55
12.44 0.02 -1.53
10.99 0.02 -0.96
10.97 0.02 -0.57
11.02 0.02 -0.19
6.11 -0.01 -1.64
11.06 -0.02 0.19
7 -0.01 -1.62
8.16 -0.01 -1.59
9.81 -0.02 -1.55
12.42 -0.02 -1.53
10.98 -0.02 -0.96
10.96 -0.02 -0.57
11.01 -0.02 -0.19
6.11 -0.03 -1.64
11.08 -0.06 0.19
7 -0.04 -1.62
8.14 -0.04 -1.58
9.8 -0.05 -1.55
12.42 -0.06 -1.53
10.98 -0.06 -0.96
10.98 -0.06 -0.58
11.01 -0.06 -0.19
6.09 -0.05 -1.63
11.08 -0.09 0.19
7.01 -0.06 -1.62
8.15 -0.07 -1.58
9.81 -0.08 -1.55
12.43 -0.1 -1.53
10.98 -0.09 -0.96
10.97 -0.09 -0.57
11.01 -0.09 -0.19
6.1 -0.07 -1.63
11.22 -0.13 0.2
7.01 -0.08 -1.62
8.15 -0.1 -1.58
9.8 -0.12 -1.55
11.7 -0.14 -1.44
10.97 -0.13 -0.96
10.97 -0.13 -0.57
11.06 -0.13 -0.19
6.1 -0.09 -1.63
11.5 -0.18 0.2
7 -0.11 -1.62
8.15 -0.13 -1.58
9.79 -0.15 -1.55
11.66 -0.18 -1.43
10.98 -0.17 -0.96
11.04 -0.17 -0.19
6.1 -0.12 -1.64
11.93 -0.23 0.21
7 -0.13 -1.62
8.15 -0.15 -1.58
9.8 -0.19 -1.55
11.65 -0.22 -1.43
11 -0.21 -0.96
11.02 -0.21 -0.58
11.16 -0.21 -0.19
6.1 -0.14 -1.64
12.36 -0.28 0.22
7 -0.16 -1.62
8.13 -0.18 -1.58
9.79 -0.22 -1.55
11.65 -0.26 -1.43
11.15 -0.25 -0.98
11.15 -0.25 -0.58
11.58 -0.26 -0.2
6.09 -0.16 -1.63
12.78 -0.33 0.22
7.01 -0.18 -1.62
8.14 -0.21 -1.58
9.79 -0.25 -1.55
11.66 -0.3 -1.43
11.49 -0.3 -1.01
11.39 -0.3 -0.6
11.91 -0.31 -0.21
6.09 -0.18 -1.63
13.45 -0.39 0.23
7 -0.21 -1.62
8.14 -0.24 -1.58
9.78 -0.29 -1.55
11.78 -0.35 -1.45
12.02 -0.35 -1.05
11.71 -0.34 -0.61
12.34 -0.36 -0.22
6.09 -0.2 -1.63
6.98 -0.23 -1.61
8.14 -0.27 -1.58
9.78 -0.32 -1.55
12.38 -0.41 -1.52
12.32 -0.41 -1.08
12.05 -0.4 -0.63
12.74 -0.42 -0.22
6.1 -0.22 -1.64
6.99 -0.25 -1.61
8.13 -0.29 -1.58
9.77 -0.35 -1.55
12.37 -0.44 -1.52
13.04 -0.47 -1.14
12.43 -0.45 -0.65
13.44 -0.48 -0.23
6.09 -0.24 -1.63
6.99 -0.28 -1.62
8.12 -0.32 -1.58
9.77 -0.39 -1.55
12.38 -0.49 -1.52
13.47 -0.53 -1.18
12.96 -0.51 -0.68
13.5 -0.53 -0.24
6.08 -0.26 -1.63
7 -0.3 -1.62
8.12 -0.35 -1.58
9.76 -0.42 -1.55
12.37 -0.53 -1.52
14.78 -0.64 -1.29
13.56 -0.58 -0.71
14.51 -0.62 -0.25
6.08 -0.28 -1.63
6.99 -0.33 -1.62
8.13 -0.38 -1.58
9.75 -0.45 -1.55
12.37 -0.58 -1.52
14.97 -0.7 -1.31
14.32 -0.67 -0.75
6.09 -0.3 -1.63
6.97 -0.35 -1.61
8.13 -0.41 -1.58
9.75 -0.49 -1.55
12.36 -0.62 -1.52
15.19 -0.76 -1.33
14.8 -0.74 -0.78
6.09 -0.33 -1.63
6.98 -0.37 -1.61
8.12 -0.44 -1.58
9.72 -0.52 -1.54
12.34 -0.66 -1.52
16.58 -0.89 -1.45
25 -1.34 -1.31
6.09 -0.35 -1.63
6.98 -0.4 -1.61
8.11 -0.46 -1.58
9.73 -0.55 -1.54
12.34 -0.7 -1.52
16.56 -0.94 -1.45
24.87 -1.42 -1.31
6.07 -0.37 -1.63
6.98 -0.42 -1.61
8.09 -0.49 -1.58
9.73 -0.59 -1.54
12.33 -0.75 -1.52
16.53 -1 -1.45
24.84 -1.5 -1.3
6.08 -0.39 -1.63
6.98 -0.45 -1.61
8.1 -0.52 -1.58
9.72 -0.62 -1.54
12.35 -0.79 -1.52
16.53 -1.05 -1.45
24.82 -1.58 -1.3
6.08 -0.41 -1.63
6.96 -0.47 -1.61
8.11 -0.55 -1.58
9.72 -0.65 -1.54
12.32 -0.83 -1.52
16.52 -1.11 -1.45
24.81 -1.67 -1.3
6.07 -0.43 -1.63
6.96 -0.49 -1.61
8.1 -0.57 -1.58
9.72 -0.69 -1.54
12.31 -0.87 -1.52
16.51 -1.17 -1.45
24.92 -1.76 -1.31
6.07 -0.45 -1.63
6.97 -0.52 -1.61
8.09 -0.6 -1.58
9.74 -0.72 -1.55
12.32 -0.92 -1.52
16.49 -1.23 -1.45
24.91 -1.85 -1.31
6.06 -0.47 -1.63
6.97 -0.54 -1.62
8.08 -0.63 -1.57
9.73 -0.76 -1.55
12.32 -0.96 -1.52
16.47 -1.28 -1.45
24.79 -1.93 -1.3
6.06 -0.49 -1.63
6.96 -0.57 -1.61
8.09 -0.66 -1.58
9.71 -0.79 -1.54
12.31 -1 -1.52
16.45 -1.34 -1.44
24.77 -2.01 -1.3
6.07 -0.52 -1.63
6.95 -0.59 -1.61
8.1 -0.69 -1.58
9.71 -0.83 -1.54
12.3 -1.05 -1.52
16.44 -1.4 -1.44
24.75 -2.1 -1.3
6.07 -0.54 -1.63
6.94 -0.61 -1.61
8.1 -0.72 -1.58
9.71 -0.86 -1.54
12.29 -1.09 -1.52
16.43 -1.45 -1.44
24.74 -2.19 -1.3
6.08 -0.56 -1.64
6.94 -0.64 -1.61
8.09 -0.74 -1.58
9.72 -0.89 -1.55
45.44 -4.18 5.6
12.3 -1.13 -1.52
16.41 -1.51 -1.44
24.71 -2.27 -1.3
6.05 -0.58 -1.63
6.96 -0.66 -1.61
8.1 -0.77 -1.58
9.71 -0.93 -1.55
45.39 -4.33 5.6
12.3 -1.17 -1.52
16.38 -1.56 -1.44
24.73 -2.36 -1.3
6.05 -0.6 -1.63
6.96 -0.69 -1.61
8.1 -0.8 -1.58
9.7 -0.96 -1.54
12.29 -1.22 -1.52
16.37 -1.62 -1.44
6.05 -0.62 -1.63
6.94 -0.71 -1.61
8.09 -0.83 -1.58
9.7 -0.99 -1.54
12.28 -1.26 -1.52
16.34 -1.67 -1.44
6.05 -0.64 -1.63
6.93 -0.73 -1.61
8.09 -0.86 -1.58
9.69 -1.03 -1.54
12.27 -1.3 -1.52
16.34 -1.73 -1.44
24.69 -2.62 -1.3
6.05 -0.66 -1.63
6.94 -0.76 -1.61
8.08 -0.88 -1.58
9.7 -1.06 -1.55
12.27 -1.34 -1.52
16.33 -1.79 -1.44
24.65 -2.7 -1.3
6.04 -0.68 -1.63
6.94 -0.78 -1.61
8.08 -0.91 -1.58
9.69 -1.09 -1.54
12.26 -1.38 -1.52
16.33 -1.84 -1.44
24.63 -2.78 -1.3
6.04 -0.7 -1.63
6.94 -0.81 -1.61
8.09 -0.94 -1.58
9.68 -1.13 -1.54
12.26 -1.43 -1.52
16.31 -1.9 -1.44
24.63 -2.87 -1.3
6.04 -0.72 -1.63
6.93 -0.83 -1.61
8.09 -0.97 -1.58
9.68 -1.16 -1.54
12.26 -1.47 -1.52
16.3 -1.96 -1.44
24.58 -2.95 -1.3
6.04 -0.75 -1.63
35.26 -4.35 0.62
6.93 -0.86 -1.61
8.08 -1 -1.58
9.68 -1.2 -1.54
12.24 -1.51 -1.51
16.31 -2.01 -1.44
24.58 -3.04 -1.3
6.04 -0.77 -1.63
34.93 -4.44 0.61
6.93 -0.88 -1.61
8.07 -1.03 -1.58
9.67 -1.23 -1.54
12.24 -1.55 -1.51
16.29 -2.07 -1.44
24.67 -3.13 -1.3
6.03 -0.79 -1.63
6.92 -0.9 -1.61
8.07 -1.05 -1.58
9.67 -1.26 -1.55
39 -5.09 4.83
12.23 -1.6 -1.51
16.28 -2.13 -1.44
6.03 -0.81 -1.63
6.93 -0.93 -1.61
8.06 -1.08 -1.58
9.65 -1.29 -1.54
38.95 -5.22 4.83
12.24 -1.64 -1.52
16.27 -2.18 -1.44
24.56 -3.29 -1.3
6.03 -0.83 -1.63
6.91 -0.95 -1.61
8.07 -1.11 -1.58
9.66 -1.33 -1.54
38.89 -5.35 4.82
12.24 -1.68 -1.52
16.26 -2.24 -1.44
24.51 -3.37 -1.3
6.03 -0.85 -1.63
6.91 -0.98 -1.61
8.06 -1.14 -1.58
9.65 -1.36 -1.54
12.21 -1.73 -1.51
16.25 -2.3 -1.44
24.5 -3.46 -1.3
6.02 -0.87 -1.63
6.91 -1 -1.61
8.05 -1.17 -1.58
9.64 -1.4 -1.54
12.21 -1.77 -1.52
16.24 -2.35 -1.44
24.49 -3.55 -1.3
6.01 -0.89 -1.63
6.92 -1.03 -1.62
8.06 -1.19 -1.58
9.64 -1.43 -1.54
12.21 -1.81 -1.52
16.23 -2.4 -1.44
24.47 -3.63 -1.3
6.01 -0.91 -1.63
6.92 -1.05 -1.62
8.06 -1.22 -1.59
9.63 -1.46 -1.54
12.21 -1.85 -1.52
16.22 -2.46 -1.44
24.46 -3.71 -1.3
6.01 -0.93 -1.63
6.91 -1.07 -1.61
8.07 -1.25 -1.59
9.63 -1.5 -1.54
12.2 -1.89 -1.52
16.21 -2.52 -1.43
24.47 -3.8 -1.3
6.01 -0.96 -1.63
35.21 -5.6 0.62
6.91 -1.1 -1.61
35.18 -5.59 1.87
8.07 -1.28 -1.59
35.22 -5.6 3.12
9.63 -1.53 -1.54
12.18 -1.94 -1.51
16.21 -2.58 -1.44
24.5 -3.89 -1.3
6.01 -0.98 -1.63
6.91 -1.12 -1.62
35.33 -5.75 1.88
8.06 -1.31 -1.59
9.63 -1.57 -1.55
12.17 -1.98 -1.51
16.19 -2.63 -1.44
24.41 -3.97 -1.3
5.99 -1 -1.63
6.91 -1.15 -1.62
35.27 -5.86 1.87
8.06 -1.34 -1.59
9.62 -1.6 -1.55
12.18 -2.03 -1.52
16.18 -2.69 -1.44
19.61 -3.26 3.87
24.38 -4.05 -1.3
19.59 -3.26 4.59
5.99 -1.02 -1.63
6.92 -1.17 -1.62
8.06 -1.37 -1.59
9.61 -1.63 -1.54
12.18 -2.07 -1.52
16.18 -2.75 -1.44
19.58 -3.32 3.86
24.38 -4.14 -1.3
19.62 -3.33 4.6
5.99 -1.04 -1.63
6.89 -1.19 -1.62
8.06 -1.4 -1.59
9.61 -1.66 -1.54
12.17 -2.11 -1.52
16.17 -2.8 -1.44
19.56 -3.39 3.86
24.35 -4.22 -1.3
19.51 -3.38 4.57
5.99 -1.06 -1.63
6.89 -1.22 -1.62
8.06 -1.43 -1.59
9.61 -1.7 -1.55
12.15 -2.15 -1.52
16.16 -2.86 -1.44
19.56 -3.46 3.86
24.32 -4.3 -1.29
19.49 -3.45 4.57
5.98 -1.08 -1.63
6.89 -1.24 -1.62
8.04 -1.45 -1.59
9.62 -1.74 -1.55
12.15 -2.19 -1.52
16.15 -2.91 -1.44
19.55 -3.53 3.86
24.3 -4.38 -1.29
19.46 -3.51 4.57
5.97 -1.1 -1.63
6.89 -1.27 -1.62
8.04 -1.48 -1.59
9.61 -1.77 -1.55
12.15 -2.24 -1.52
16.12 -2.97 -1.43
19.54 -3.6 3.86
24.3 -4.47 -1.29
19.47 -3.58 4.57
5.96 -1.12 -1.62
6.87 -1.29 -1.61
8.04 -1.51 -1.59
9.6 -1.8 -1.55
12.14 -2.28 -1.52
16.12 -3.03 -1.43
19.51 -3.66 3.86
24.29 -4.56 -1.3
19.46 -3.65 4.57
5.97 -1.14 -1.63
6.86 -1.31 -1.61
8.04 -1.54 -1.59
9.6 -1.83 -1.55
12.14 -2.32 -1.52
16.11 -3.08 -1.43
19.5 -3.72 3.86
24.26 -4.63 -1.29
19.56 -3.74 4.6
5.96 -1.16 -1.63
6.85 -1.33 -1.61
8.04 -1.56 -1.59
9.61 -1.87 -1.55
12.12 -2.36 -1.52
16.11 -3.13 -1.44
19.49 -3.79 3.86
24.24 -4.72 -1.29
19.47 -3.79 4.58
5.96 -1.18 -1.63
6.85 -1.36 -1.61
8.02 -1.59 -1.59
9.61 -1.91 -1.55
12.11 -2.4 -1.52
16.09 -3.19 -1.44
24.22 -4.8 -1.29
5.95 -1.2 -1.63
6.85 -1.38 -1.61
8.02 -1.62 -1.59
9.61 -1.94 -1.55
12.11 -2.44 -1.52
16.07 -3.24 -1.43
24.21 -4.89 -1.29
40.64 -8.2 -0.72
5.95 -1.22 -1.63
6.84 -1.4 -1.61
8.02 -1.65 -1.59
9.59 -1.97 -1.55
12.1 -2.49 -1.52
16.06 -3.3 -1.43
24.19 -4.97 -1.29
40.51 -8.32 -0.72
5.95 -1.24 -1.63
6.82 -1.43 -1.61
8.01 -1.68 -1.59
9.59 -2.01 -1.55
12.08 -2.53 -1.52
16.05 -3.36 -1.43
24.17 -5.05 -1.29
40.5 -8.47 -0.72
5.94 -1.26 -1.63
6.82 -1.45 -1.61
8 -1.7 -1.59
9.58 -2.04 -1.55
12.07 -2.57 -1.52
16.04 -3.41 -1.43
24.14 -5.13 -1.29
40.5 -8.62 -0.72
5.95 -1.29 -1.63
6.82 -1.48 -1.61
8 -1.73 -1.59
9.58 -2.07 -1.55
12.06 -2.61 -1.52
16.03 -3.47 -1.44
24.11 -5.22 -1.29
5.93 -1.31 -1.63
6.82 -1.5 -1.61
8 -1.76 -1.59
9.57 -2.11 -1.55
12.06 -2.65 -1.52
16 -3.52 -1.43
24.11 -5.3 -1.29
5.92 -1.33 -1.63
6.82 -1.53 -1.61
8 -1.79 -1.59
9.54 -2.13 -1.55
12.05 -2.7 -1.52
15.98 -3.58 -1.43
24.09 -5.39 -1.29
5.93 -1.35 -1.63
6.81 -1.55 -1.61
7.99 -1.82 -1.59
9.54 -2.17 -1.55
12.04 -2.74 -1.52
14.11 -3.21 -1.27
5.93 -1.37 -1.63
42.39 -9.79 0.76
6.8 -1.57 -1.61
7.98 -1.84 -1.59
9.53 -2.2 -1.55
12.03 -2.78 -1.52
12.77 -2.95 -1.15
12.72 -2.94 -0.68
5.92 -1.39 -1.63
41.75 -9.79 0.75
6.8 -1.59 -1.61
7.97 -1.87 -1.59
9.52 -2.23 -1.55
12.04 -2.82 -1.52
12.15 -2.85 -1.09
12.4 -2.91 -0.67
5.91 -1.41 -1.63
6.8 -1.62 -1.61
7.96 -1.9 -1.59
9.51 -2.27 -1.55
12.03 -2.87 -1.52
12.14 -2.89 -1.09
12.32 -2.93 -0.66
5.9 -1.43 -1.63
40.9 -9.9 0.73
6.8 -1.64 -1.61
7.96 -1.93 -1.59
9.49 -2.3 -1.55
12.02 -2.91 -1.52
12.11 -2.93 -1.09
12.32 -2.98 -0.66
12.97 -3.14 -0.23
5.9 -1.45 -1.63
40.56 -9.96 0.73
6.78 -1.67 -1.61
7.96 -1.96 -1.59
9.46 -2.32 -1.54
12.02 -2.95 -1.52
12.12 -2.98 -1.09
12.3 -3.02 -0.66
12.61 -3.1 -0.23
5.9 -1.47 -1.63
40.32 -10.05 0.73
6.78 -1.69 -1.61
7.95 -1.98 -1.59
9.46 -2.36 -1.54
12 -2.99 -1.52
12.1 -3.02 -1.09
12.23 -3.05 -0.66
12.46 -3.11 -0.22
5.9 -1.49 -1.63
40.28 -10.19 0.73
6.78 -1.72 -1.61
7.94 -2.01 -1.59
9.46 -2.39 -1.55
12 -3.04 -1.52
12.09 -3.06 -1.09
12.21 -3.09 -0.66
5.88 -1.51 -1.63
40.28 -10.34 0.73
6.77 -1.74 -1.61
7.93 -2.03 -1.59
9.45 -2.43 -1.54
12 -3.08 -1.52
12.07 -3.1 -1.09
12.17 -3.13 -0.66
5.88 -1.53 -1.63
40.29 -10.49 0.73
6.77 -1.76 -1.62
7.92 -2.06 -1.59
9.42 -2.45 -1.54
11.99 -3.12 -1.52
12.06 -3.14 -1.09
12.15 -3.16 -0.66
5.88 -1.55 -1.63
40.31 -10.65 0.73
6.75 -1.78 -1.61
7.92 -2.09 -1.59
9.41 -2.49 -1.54
11.98 -3.17 -1.52
12.06 -3.19 -1.09
12.12 -3.2 -0.66
5.88 -1.58 -1.63
40.31 -10.8 0.73
6.75 -1.81 -1.61
7.91 -2.12 -1.59
9.4 -2.52 -1.54
11.96 -3.2 -1.52
12.06 -3.23 -1.09
12.11 -3.25 -0.66
5.88 -1.6 -1.63
40.34 -10.95 0.73
6.75 -1.83 -1.61
7.89 -2.14 -1.59
9.41 -2.55 -1.54
11.95 -3.25 -1.52
12.05 -3.27 -1.09
12.1 -3.29 -0.66
5.86 -1.61 -1.63
40.36 -11.11 0.73
6.75 -1.86 -1.62
7.88 -2.17 -1.59
9.4 -2.59 -1.54
11.96 -3.29 -1.52
12.04 -3.31 -1.09
12.12 -3.34 -0.66
5.86 -1.64 -1.63
6.74 -1.88 -1.62
7.87 -2.2 -1.59
9.39 -2.62 -1.54
11.96 -3.34 -1.52
12.04 -3.36 -1.09
5.86 -1.66 -1.63
6.73 -1.9 -1.61
42.75 -12.09 2.33
7.86 -2.22 -1.59
9.38 -2.65 -1.54
11.94 -3.38 -1.52
12.04 -3.4 -1.09
5.86 -1.68 -1.63
6.72 -1.93 -1.61
42.76 -12.25 2.33
7.82 -2.24 -1.58
9.37 -2.68 -1.54
11.93 -3.42 -1.52
12.02 -3.44 -1.09
12.08 -3.46 -0.66
5.85 -1.7 -1.63
41.49 -12.05 0.75
6.71 -1.95 -1.61
42.8 -12.43 2.34
7.8 -2.26 -1.58
9.37 -2.72 -1.55
11.92 -3.46 -1.52
12.01 -3.49 -1.09
12.06 -3.5 -0.66
5.84 -1.72 -1.63
41.07 -12.08 0.75
6.71 -1.97 -1.61
42.81 -12.59 2.34
7.81 -2.3 -1.58
9.36 -2.75 -1.55
11.92 -3.51 -1.53
11.99 -3.53 -1.09
12.05 -3.54 -0.66
5.84 -1.74 -1.63
40.67 -12.12 0.74
6.71 -2 -1.62
40.34 -12.02 2.21
7.8 -2.33 -1.58
9.34 -2.78 -1.54
11.92 -3.55 -1.53
11.99 -3.57 -1.09
12.04 -3.59 -0.66
5.84 -1.76 -1.63
40.43 -12.2 0.74
6.69 -2.02 -1.61
40.34 -12.17 2.21
7.8 -2.35 -1.58
9.34 -2.82 -1.55
11.92 -3.6 -1.53
11.99 -3.62 -1.1
12.02 -3.63 -0.66
5.84 -1.78 -1.64
40.45 -12.36 0.74
6.69 -2.04 -1.61
40.45 -12.36 2.22
7.79 -2.38 -1.58
9.34 -2.85 -1.55
11.9 -3.64 -1.53
11.97 -3.66 -1.09
12.01 -3.67 -0.66
5.83 -1.8 -1.64
40.46 -12.52 0.74
6.69 -2.07 -1.62
40.47 -12.52 2.22
7.76 -2.4 -1.58
9.34 -2.89 -1.55
11.89 -3.68 -1.53
11.97 -3.7 -1.1
12.01 -3.72 -0.66
5.81 -1.82 -1.63
40.48 -12.68 0.74
6.69 -2.09 -1.62
40.49 -12.68 2.22
7.77 -2.43 -1.58
9.33 -2.92 -1.55
11.88 -3.72 -1.53
11.95 -3.74 -1.1
12 -3.76 -0.66
5.81 -1.84 -1.63
40.52 -12.84 0.74
6.67 -2.11 -1.62
40.52 -12.84 2.23
7.75 -2.45 -1.58
9.31 -2.95 -1.55
11.89 -3.77 -1.53
11.94 -3.78 -1.1
12 -3.8 -0.66
5.8 -1.86 -1.63
40.6 -13.02 0.74
6.66 -2.14 -1.61
40.54 -13 2.23
7.75 -2.48 -1.58
9.3 -2.98 -1.55
11.87 -3.81 -1.53
11.94 -3.83 -1.1
11.99 -3.84 -0.66
5.81 -1.89 -1.64
40.64 -13.19 0.75
6.65 -2.16 -1.61
40.48 -13.14 2.23
7.75 -2.51 -1.58
9.3 -3.02 -1.55
11.85 -3.85 -1.53
11.94 -3.87 -1.1
5.8 -1.9 -1.64
40.66 -13.35 0.75
6.64 -2.18 -1.61
40.58 -13.33 2.24
7.73 -2.54 -1.58
9.3 -3.05 -1.55
11.84 -3.89 -1.53
11.93 -3.92 -1.1
11.98 -3.93 -0.66
5.79 -1.92 -1.63
40.69 -13.52 0.75
6.64 -2.21 -1.61
40.63 -13.5 2.24
7.73 -2.57 -1.58
9.3 -3.09 -1.55
11.83 -3.93 -1.53
11.91 -3.96 -1.1
11.97 -3.98 -0.66
5.78 -1.94 -1.63
40.61 -13.65 0.75
6.63 -2.23 -1.62
40.63 -13.66 2.25
7.72 -2.6 -1.58
9.27 -3.12 -1.55
11.82 -3.97 -1.53
11.9 -4 -1.1
11.96 -4.02 -0.66
5.77 -1.96 -1.63
40.77 -13.86 0.75
6.61 -2.25 -1.61
40.65 -13.82 2.25
7.72 -2.62 -1.58
9.27 -3.15 -1.55
11.8 -4.01 -1.53
11.91 -4.05 -1.1
11.95 -4.06 -0.66
5.77 -1.98 -1.63
38.59 -13.27 0.71
6.61 -2.27 -1.61
40.58 -13.96 2.25
7.71 -2.65 -1.58
9.26 -3.18 -1.55
11.78 -4.05 -1.53
11.91 -4.1 -1.1
11.96 -4.11 -0.66
5.76 -2 -1.63
38.39 -13.35 0.71
6.6 -2.3 -1.61
40.69 -14.15 2.26
7.69 -2.67 -1.58
9.26 -3.22 -1.55
11.78 -4.1 -1.53
11.9 -4.14 -1.1
11.98 -4.17 -0.66
12.25 -4.26 -0.23
5.74 -2.02 -1.63
38.12 -13.41 0.71
6.6 -2.32 -1.62
40.72 -14.32 2.26
7.68 -2.7 -1.58
9.25 -3.25 -1.55
11.76 -4.14 -1.53
11.87 -4.18 -1.1
12 -4.22 -0.67
5.73 -2.04 -1.63
6.59 -2.34 -1.61
40.76 -14.5 2.27
7.68 -2.73 -1.58
9.23 -3.28 -1.55
11.75 -4.18 -1.53
11.86 -4.22 -1.1
12.07 -4.29 -0.67
5.73 -2.06 -1.63
6.57 -2.36 -1.61
40.72 -14.64 2.27
7.67 -2.76 -1.59
9.22 -3.32 -1.55
11.73 -4.22 -1.53
11.85 -4.26 -1.1
12.06 -4.34 -0.67
5.73 -2.08 -1.63
6.57 -2.39 -1.61
40.72 -14.8 2.27
7.66 -2.78 -1.58
9.22 -3.35 -1.55
11.71 -4.25 -1.53
11.86 -4.31 -1.1
12.05 -4.38 -0.67
5.72 -2.1 -1.63
38.16 -14.02 0.71
6.56 -2.41 -1.61
40.8 -14.99 2.28
7.65 -2.81 -1.58
9.21 -3.38 -1.55
11.69 -4.29 -1.53
11.87 -4.36 -1.11
23.1 -8.48 -1.29
5.7 -2.12 -1.63
38.2 -14.18 0.71
6.56 -2.44 -1.62
40.83 -15.16 2.28
7.64 -2.84 -1.58
9.21 -3.42 -1.56
11.69 -4.34 -1.53
15.3 -5.68 -1.43
23.03 -8.55 -1.29
5.7 -2.14 -1.63
38.21 -14.34 0.71
6.55 -2.46 -1.62
40.88 -15.34 2.29
7.64 -2.87 -1.59
9.19 -3.45 -1.55
11.67 -4.38 -1.53
15.28 -5.74 -1.43
23 -8.63 -1.29
5.7 -2.16 -1.63
6.54 -2.48 -1.61
40.82 -15.48 2.29
7.65 -2.9 -1.59
9.18 -3.48 -1.55
11.65 -4.42 -1.53
15.27 -5.79 -1.43
22.97 -8.71 -1.29
5.69 -2.18 -1.63
38.29 -14.68 0.72
6.53 -2.5 -1.61
40.91 -15.68 2.3
7.63 -2.92 -1.59
9.17 -3.51 -1.55
11.63 -4.46 -1.53
15.3 -5.86 -1.43
22.94 -8.79 -1.29
5.68 -2.2 -1.63
6.52 -2.52 -1.61
40.92 -15.84 2.3
7.61 -2.94 -1.59
9.16 -3.55 -1.56
11.63 -4.5 -1.53
15.33 -5.93 -1.44
22.91 -8.87 -1.29
5.67 -2.22 -1.63
40.94 -16.01 0.77
6.52 -2.55 -1.62
40.95 -16.02 2.3
7.6 -2.97 -1.59
9.16 -3.58 -1.56
11.59 -4.53 -1.53
15.39 -6.02 -1.45
22.88 -8.95 -1.29
5.66 -2.24 -1.63
41.02 -16.21 0.77
6.51 -2.57 -1.62
40.89 -16.17 2.3
7.6 -3 -1.59
9.13 -3.61 -1.56
11.59 -4.58 -1.53
15.52 -6.13 -1.46
22.85 -9.03 -1.29
5.66 -2.26 -1.63
41.06 -16.4 0.77
6.49 -2.59 -1.61
41 -16.37 2.31
7.59 -3.03 -1.59
9.12 -3.64 -1.56
11.56 -4.62 -1.53
15.55 -6.21 -1.46
22.81 -9.11 -1.29
5.65 -2.28 -1.63
41.05 -16.56 0.77
6.48 -2.62 -1.61
41.02 -16.55 2.32
7.58 -3.06 -1.59
9.11 -3.68 -1.56
11.55 -4.66 -1.53
15.56 -6.28 -1.47
22.78 -9.19 -1.29
5.65 -2.3 -1.63
41.02 -16.71 0.77
6.48 -2.64 -1.61
40.99 -16.7 2.32
7.57 -3.08 -1.59
9.1 -3.71 -1.56
11.55 -4.71 -1.53
15.55 -6.34 -1.47
22.75 -9.27 -1.29
5.63 -2.32 -1.63
41.14 -16.93 0.78
6.48 -2.67 -1.62
41.03 -16.89 2.33
7.56 -3.11 -1.59
9.09 -3.74 -1.56
11.54 -4.75 -1.53
15.56 -6.4 -1.47
22.72 -9.35 -1.29
5.63 -2.34 -1.63
41.14 -17.1 0.78
6.47 -2.69 -1.62
41.01 -17.05 2.33
7.54 -3.14 -1.59
9.07 -3.77 -1.56
11.52 -4.79 -1.53
15.53 -6.46 -1.47
22.68 -9.43 -1.29
5.63 -2.36 -1.64
41.12 -17.26 0.78
6.45 -2.71 -1.61
41 -17.21 2.33
7.54 -3.16 -1.59
9.06 -3.8 -1.56
11.51 -4.83 -1.53
15.57 -6.53 -1.48
22.65 -9.51 -1.29
5.62 -2.38 -1.64
41.15 -17.44 0.78
6.44 -2.73 -1.61
41.02 -17.38 2.34
7.53 -3.19 -1.59
9.03 -3.83 -1.55
11.5 -4.87 -1.53
15.57 -6.6 -1.48
22.62 -9.58 -1.29
5.61 -2.4 -1.63
41.16 -17.61 0.78
6.44 -2.75 -1.62
41.06 -17.56 2.34
7.51 -3.21 -1.59
9.03 -3.86 -1.56
11.51 -4.93 -1.54
15.55 -6.65 -1.48
22.59 -9.66 -1.29
5.6 -2.42 -1.63
41.15 -17.77 0.78
6.43 -2.78 -1.62
41.08 -17.74 2.34
7.51 -3.24 -1.59
9.01 -3.89 -1.55
11.61 -5.01 -1.55
15.56 -6.72 -1.48
5.59 -2.44 -1.63
41.16 -17.95 0.78
6.43 -2.8 -1.62
41.1 -17.92 2.35
7.5 -3.27 -1.59
8.98 -3.92 -1.55
11.59 -5.05 -1.55
15.54 -6.78 -1.48
5.58 -2.46 -1.63
6.41 -2.82 -1.62
41.12 -18.1 2.35
7.5 -3.3 -1.59
8.97 -3.95 -1.55
11.59 -5.1 -1.55
15.54 -6.84 -1.49
22.48 -9.9 -1.29
5.58 -2.48 -1.64
41.31 -18.35 0.79
6.41 -2.85 -1.62
7.48 -3.32 -1.59
8.97 -3.98 -1.55
11.57 -5.14 -1.55
15.54 -6.9 -1.49
18.57 -8.25 3.95
5.57 -2.5 -1.64
41.25 -18.49 0.79
6.4 -2.87 -1.62
7.47 -3.35 -1.59
8.96 -4.02 -1.55
11.49 -5.15 -1.55
15.55 -6.97 -1.49
18.51 -8.3 3.94
5.55 -2.51 -1.63
6.39 -2.89 -1.62
7.46 -3.37 -1.59
8.94 -4.04 -1.55
11.47 -5.19 -1.55
15.54 -7.03 -1.49
18.48 -8.36 3.94
5.54 -2.53 -1.63
41.52 -18.95 0.8
6.38 -2.91 -1.62
41.35 -18.88 2.38
7.45 -3.4 -1.59
18.69 -8.53 1.8
8.92 -4.07 -1.55
18.56 -8.47 2.51
11.52 -5.26 -1.56
15.48 -7.07 -1.49
5.54 -2.55 -1.63
41.39 -19.08 0.8
6.36 -2.93 -1.62
41.35 -19.06 2.39
7.43 -3.43 -1.59
18.66 -8.6 1.8
8.91 -4.11 -1.55
18.47 -8.52 2.5
11.51 -5.3 -1.56
18.48 -8.52 3.22
15.52 -7.16 -1.5
5.54 -2.58 -1.64
41.42 -19.26 0.8
6.36 -2.96 -1.62
41.39 -19.25 2.39
7.43 -3.46 -1.59
18.62 -8.66 1.8
8.9 -4.14 -1.55
18.44 -8.58 2.5
11.45 -5.32 -1.55
18.41 -8.57 3.22
15.54 -7.23 -1.5
5.53 -2.59 -1.64
6.35 -2.98 -1.62
41.38 -19.43 2.4
7.41 -3.48 -1.59
18.64 -8.75 1.8
8.89 -4.17 -1.56
18.41 -8.64 2.5
11.43 -5.37 -1.55
18.39 -8.63 3.22
15.52 -7.29 -1.5
5.5 -2.61 -1.63
6.35 -3.01 -1.62
7.4 -3.51 -1.59
18.62 -8.82 1.8
8.84 -4.19 -1.55
18.36 -8.7 2.49
11.4 -5.4 -1.55
18.35 -8.69 3.22
15.5 -7.34 -1.5
22.09 -10.46 -1.28
5.5 -2.63 -1.63
18.46 -8.82 0.36
6.34 -3.03 -1.62
18.48 -8.83 1.07
7.39 -3.53 -1.59
18.34 -8.76 1.78
8.82 -4.21 -1.55
11.41 -5.45 -1.55
15.48 -7.4 -1.5
18.57 -8.87 -1.08
18.53 -8.86 -0.36
5.5 -2.65 -1.64
18.37 -8.86 0.36
6.31 -3.04 -1.62
18.39 -8.86 1.07
7.38 -3.56 -1.59
18.25 -8.8 1.77
8.82 -4.25 -1.55
11.4 -5.5 -1.55
15.5 -7.47 -1.51
18.42 -8.88 -1.07
18.41 -8.87 -0.36
5.49 -2.67 -1.64
18.34 -8.92 0.36
6.3 -3.07 -1.62
18.35 -8.93 1.07
7.37 -3.59 -1.59
18.19 -8.85 1.77
8.82 -4.29 -1.55
11.38 -5.53 -1.55
15.51 -7.54 -1.51
18.37 -8.94 -1.07
18.39 -8.95 -0.36
5.48 -2.69 -1.64
18.42 -9.04 0.36
6.3 -3.09 -1.62
18.31 -8.98 1.07
7.35 -3.61 -1.59
18.32 -8.99 1.79
8.79 -4.31 -1.55
18.29 -8.97 2.5
11.38 -5.58 -1.56
15.47 -7.59 -1.51
18.42 -9.04 -1.08
18.45 -9.05 -0.36
5.47 -2.71 -1.63
6.3 -3.12 -1.62
7.34 -3.63 -1.59
8.79 -4.35 -1.55
18.28 -9.05 2.5
11.34 -5.61 -1.55
18.26 -9.04 3.23
15.49 -7.67 -1.51
5.46 -2.73 -1.64
6.29 -3.14 -1.62
7.34 -3.66 -1.59
8.78 -4.38 -1.55
18.26 -9.12 2.51
11.36 -5.67 -1.56
18.26 -9.12 3.23
15.51 -7.74 -1.52
21.87 -10.92 -1.28
5.45 -2.75 -1.64
6.26 -3.16 -1.62
7.33 -3.69 -1.6
8.77 -4.42 -1.55
18.22 -9.18 2.5
11.34 -5.71 -1.56
18.21 -9.17 3.23
15.52 -7.82 -1.52
21.8 -10.98 -1.28
5.45 -2.77 -1.64
6.26 -3.18 -1.62
7.31 -3.72 -1.59
8.75 -4.45 -1.55
18.19 -9.24 2.5
11.32 -5.75 -1.56
18.18 -9.24 3.23
15.5 -7.88 -1.52
21.8 -11.08 -1.28
5.44 -2.79 -1.64
6.25 -3.2 -1.62
7.29 -3.74 -1.59
8.74 -4.48 -1.56
18.18 -9.31 2.51
11.31 -5.8 -1.56
18.15 -9.3 3.23
15.48 -7.93 -1.52
21.79 -11.16 -1.28
5.42 -2.8 -1.64
6.24 -3.23 -1.62
7.29 -3.77 -1.59
8.72 -4.51 -1.55
18.17 -9.39 2.51
11.32 -5.85 -1.56
18.14 -9.37 3.23
15.46 -7.99 -1.52
21.77 -11.25 -1.28
5.42 -2.82 -1.64
6.23 -3.25 -1.62
7.28 -3.79 -1.6
8.72 -4.55 -1.56
18.13 -9.45 2.51
11.3 -5.89 -1.56
18.11 -9.44 3.23
15.46 -8.06 -1.53
21.78 -11.35 -1.29
5.41 -2.84 -1.64
6.22 -3.27 -1.62
7.27 -3.82 -1.6
8.71 -4.58 -1.56
18.11 -9.52 2.51
11.29 -5.94 -1.57
15.47 -8.13 -1.53
21.78 -11.44 -1.29
15.34 -8.06 4
5.41 -2.87 -1.64
6.21 -3.29 -1.62
7.25 -3.84 -1.6
17.56 -9.31 1.74
8.7 -4.61 -1.56
11.27 -5.97 -1.57
15.44 -8.18 -1.53
21.78 -11.54 -1.29
15.25 -8.08 3.98
5.4 -2.89 -1.64
6.21 -3.32 -1.62
7.24 -3.87 -1.6
17.55 -9.38 1.74
8.69 -4.64 -1.56
11.26 -6.01 -1.57
15.43 -8.24 -1.53
21.79 -11.64 -1.29
15.18 -8.11 3.97
5.38 -2.9 -1.64
6.2 -3.34 -1.63
7.23 -3.9 -1.6
17.13 -9.23 1.7
8.67 -4.67 -1.56
11.23 -6.05 -1.57
15.37 -8.29 -1.53
18.28 -9.85 4.04
21.79 -11.74 -1.3
15.15 -8.17 3.97
5.37 -2.92 -1.64
6.19 -3.36 -1.63
7.22 -3.92 -1.6
17.43 -9.47 1.74
8.65 -4.7 -1.56
11.23 -6.1 -1.57
15.19 -8.25 -1.51
15.43 -8.38 3.41
21.78 -11.84 -1.3
15.24 -8.28 4.01
5.37 -2.94 -1.64
6.17 -3.38 -1.62
7.21 -3.95 -1.6
17.37 -9.52 1.73
8.64 -4.73 -1.56
15.21 -8.33 2.13
11.2 -6.13 -1.57
15.09 -8.27 -1.51
15.41 -8.44 3.41
21.75 -11.92 -1.3
5.36 -2.96 -1.64
6.16 -3.4 -1.62
7.19 -3.97 -1.6
17.01 -9.4 1.7
8.62 -4.76 -1.56
15.18 -8.39 2.13
11.18 -6.17 -1.57
15.31 -8.46 -1.53
15.47 -8.55 3.44
21.77 -12.03 -1.3
5.35 -2.98 -1.64
6.15 -3.43 -1.63
7.18 -4 -1.6
16.91 -9.42 1.69
8.61 -4.8 -1.56
15.15 -8.44 2.13
11.17 -6.22 -1.57
15.44 -8.6 -1.55
18.09 -10.08 4.03
21.81 -12.15 -1.31
16.98 -9.46 4.49
5.33 -2.99 -1.64
6.15 -3.45 -1.63
7.17 -4.02 -1.6
16.87 -9.47 1.69
8.6 -4.83 -1.56
15.26 -8.57 2.15
11.13 -6.25 -1.57
15.43 -8.66 -1.55
18.02 -10.12 4.02
21.78 -12.23 -1.31
17.78 -9.99 5.47
5.32 -3.01 -1.64
6.14 -3.47 -1.63
7.16 -4.05 -1.6
16.85 -9.54 1.69
8.59 -4.86 -1.56
11.1 -6.29 -1.57
15.44 -8.74 -1.55
15.34 -8.69 3.43
21.78 -12.33 -1.31
17.77 -10.06 5.47
5.32 -3.04 -1.64
6.12 -3.49 -1.63
7.15 -4.08 -1.6
17.18 -9.81 1.73
8.57 -4.89 -1.56
15.12 -8.63 2.14
11.13 -6.35 -1.57
15.42 -8.8 -1.55
15.32 -8.74 3.43
21.77 -12.42 -1.31
17.61 -10.05 5.43
5.32 -3.06 -1.64
6.11 -3.51 -1.63
7.13 -4.1 -1.6
17.33 -9.97 1.75
8.55 -4.92 -1.56
15.06 -8.67 2.13
11.12 -6.4 -1.58
15.34 -8.83 -1.55
15.29 -8.8 3.43
21.74 -12.51 -1.31
17.49 -10.07 5.41
5.31 -3.08 -1.64
6.1 -3.54 -1.63
7.11 -4.12 -1.6
17.14 -9.94 1.73
8.54 -4.96 -1.56
15.11 -8.76 2.14
11.14 -6.46 -1.58
15.24 -8.84 -1.54
15.22 -8.83 3.42
21.75 -12.62 -1.32
17.4 -10.09 5.39
5.29 -3.09 -1.64
6.09 -3.56 -1.63
7.08 -4.14 -1.6
17.08 -9.99 1.73
8.53 -4.98 -1.56
15.06 -8.8 2.14
11.11 -6.49 -1.58
15.23 -8.9 -1.54
15.12 -8.84 3.4
21.74 -12.71 -1.32
16.33 -9.55 4.37
5.28 -3.11 -1.64
6.08 -3.58 -1.63
7.08 -4.17 -1.6
17.25 -10.16 1.75
8.51 -5.01 -1.56
15.03 -8.86 2.14
11.07 -6.52 -1.58
17.88 -10.53 3.29
15.21 -8.96 -1.54
15.04 -8.86 3.39
21.7 -12.79 -1.32
16.39 -9.66 4.39
16.01 -9.43 4.98
5.27 -3.13 -1.64
6.05 -3.59 -1.63
7.07 -4.2 -1.6
17.27 -10.26 1.76
8.49 -5.04 -1.56
14.89 -8.84 2.13
10.98 -6.52 -1.57
17.72 -10.52 3.26
15.15 -8.99 -1.54
15.11 -8.97 3.42
21.7 -12.88 -1.32
16.27 -9.66 4.37
15.89 -9.44 4.95
5.26 -3.15 -1.64
6.05 -3.62 -1.63
7.05 -4.22 -1.6
17.26 -10.33 1.76
8.48 -5.07 -1.56
14.96 -8.95 2.14
10.86 -6.5 -1.55
17.25 -10.32 3.18
15.03 -8.99 -1.53
15.18 -9.08 3.44
21.63 -12.94 -1.32
16.17 -9.68 4.35
15.81 -9.46 4.94
5.26 -3.17 -1.65
6.04 -3.65 -1.63
7.02 -4.24 -1.59
16.53 -9.98 1.69
8.46 -5.11 -1.56
14.83 -8.95 2.13
10.9 -6.58 -1.56
15.39 -9.29 2.85
15.08 -9.1 -1.54
15.21 -9.18 3.45
21.61 -13.04 -1.32
15.96 -9.63 4.3
15.87 -9.58 4.97
5.24 -3.19 -1.64
6.03 -3.67 -1.63
7.01 -4.26 -1.59
16.46 -10.01 1.69
8.45 -5.14 -1.57
14.69 -8.94 2.11
10.86 -6.6 -1.56
15.39 -9.36 2.85
15.04 -9.15 -1.54
17.3 -10.52 3.94
21.57 -13.12 -1.32
16.05 -9.76 4.34
15.78 -9.6 4.95
5.23 -3.2 -1.64
6.03 -3.69 -1.63
7.02 -4.3 -1.6
15.53 -9.51 1.59
8.42 -5.16 -1.56
14.82 -9.08 2.13
10.76 -6.6 -1.55
17.41 -10.67 3.23
14.99 -9.19 -1.54
15.08 -9.24 3.44
21.59 -13.23 -1.33
15.89 -9.74 4.3
15.82 -9.7 4.97
5.22 -3.22 -1.64
6 -3.71 -1.63
7 -4.33 -1.6
15.52 -9.58 1.6
8.42 -5.2 -1.57
18.04 -11.14 2.6
10.82 -6.68 -1.56
14.71 -9.08 2.74
14.99 -9.26 -1.54
15.04 -9.29 3.44
21.54 -13.3 -1.33
15.96 -9.85 4.33
15.76 -9.73 4.96
5.21 -3.24 -1.64
5.99 -3.73 -1.63
18.35 -11.43 1.13
6.98 -4.35 -1.6
15.45 -9.62 1.59
8.4 -5.23 -1.57
14.63 -9.11 2.12
10.86 -6.76 -1.57
16.86 -10.5 3.15
14.95 -9.31 -1.54
15.06 -9.38 3.45
21.52 -13.4 -1.33
15.98 -9.95 4.34
15.74 -9.8 4.97
5.21 -3.27 -1.65
5.99 -3.76 -1.63
18.18 -11.41 1.13
6.96 -4.37 -1.6
15.32 -9.61 1.58
8.39 -5.27 -1.57
14.82 -9.3 2.15
10.83 -6.79 -1.57
14.6 -9.16 2.73
14.93 -9.36 -1.54
15.12 -9.48 3.47
21.5 -13.49 -1.33
16.05 -10.07 4.37
15.72 -9.86 4.97
5.18 -3.27 -1.64
5.98 -3.78 -1.63
18.11 -11.45 1.12
6.95 -4.4 -1.6
15.26 -9.65 1.58
8.37 -5.29 -1.57
14.57 -9.21 2.12
10.83 -6.85 -1.57
15.32 -9.68 2.87
14.88 -9.41 -1.54
15.12 -9.56 3.48
21.48 -13.58 -1.33
16.09 -10.17 4.39
15.66 -9.9 4.97
5.18 -3.3 -1.65
5.97 -3.8 -1.63
18.12 -11.54 1.13
6.95 -4.43 -1.6
15.19 -9.67 1.58
8.35 -5.32 -1.57
14.81 -9.44 2.16
10.85 -6.91 -1.58
15.33 -9.77 2.88
14.85 -9.46 -1.54
15.05 -9.59 3.47
21.44 -13.66 -1.33
16.07 -10.24 4.4
15.64 -9.96 4.97
5.17 -3.32 -1.65
5.94 -3.81 -1.63
14.89 -9.56 0.93
6.93 -4.45 -1.6
15.25 -9.79 1.59
8.35 -5.36 -1.57
14.76 -9.47 2.15
10.84 -6.96 -1.58
15.3 -9.82 2.88
14.81 -9.51 -1.54
15.12 -9.7 3.49
21.41 -13.74 -1.33
15.95 -10.24 4.38
15.62 -10.03 4.97
5.16 -3.34 -1.65
18.33 -11.86 0.38
5.93 -3.84 -1.63
14.95 -9.67 0.93
6.92 -4.48 -1.6
15.27 -9.88 1.59
8.33 -5.39 -1.57
14.77 -9.55 2.16
10.82 -7 -1.58
15.43 -9.99 2.91
14.79 -9.57 -1.54
14.96 -9.68 3.46
21.38 -13.83 -1.33
15.75 -10.19 4.33
15.58 -10.08 4.97
5.15 -3.36 -1.65
18.21 -11.87 0.38
5.92 -3.86 -1.63
14.92 -9.73 0.93
6.9 -4.5 -1.6
16.75 -10.92 1.75
8.32 -5.43 -1.57
14.71 -9.59 2.16
10.77 -7.02 -1.58
15.94 -10.39 3.01
14.77 -9.63 -1.54
14.94 -9.74 3.47
21.44 -13.98 -1.34
15.58 -10.15 4.29
15.88 -10.35 5.08
5.13 -3.37 -1.64
18.18 -11.94 0.38
5.91 -3.88 -1.63
6.88 -4.52 -1.6
16.16 -10.61 1.69
8.31 -5.46 -1.57
14.88 -9.77 2.19
10.8 -7.09 -1.59
13.88 -9.12 2.63
14.74 -9.69 -1.54
14.42 -9.47 3.35
19.68 -12.93 -1.23
15.83 -10.4 4.37
24.13 -15.85 -0.5
15.52 -10.19 4.97
5.12 -3.39 -1.65
18.11 -11.99 0.38
5.9 -3.91 -1.63
6.88 -4.55 -1.6
14.92 -9.88 1.57
8.29 -5.48 -1.57
14.86 -9.84 2.19
10.81 -7.15 -1.59
13.89 -9.2 2.64
14.71 -9.73 -1.54
14.25 -9.43 3.32
19.56 -12.94 -1.23
15.37 -10.17 4.25
15.48 -10.24 4.97
5.11 -3.41 -1.65
17.93 -11.96 0.38
5.88 -3.92 -1.63
6.86 -4.58 -1.6
14.88 -9.93 1.57
8.28 -5.52 -1.58
14.9 -9.94 2.2
10.79 -7.2 -1.59
13.92 -9.28 2.65
14.7 -9.8 -1.55
14.2 -9.47 3.32
19.47 -12.98 -1.23
15.52 -10.35 4.31
15.43 -10.29 4.97
5.11 -3.43 -1.65
17.92 -12.04 0.38
5.87 -3.94 -1.63
16.64 -11.18 1.05
6.85 -4.6 -1.6
16.34 -10.97 1.72
8.27 -5.56 -1.58
14.9 -10.01 2.2
10.8 -7.25 -1.6
13.89 -9.33 2.65
14.69 -9.87 -1.55
14.23 -9.56 3.33
21.39 -14.37 -1.35
15.33 -10.29 4.26
15.42 -10.36 4.98
5.09 -3.45 -1.65
17.93 -12.14 0.38
5.86 -3.97 -1.63
18.14 -12.28 1.15
6.84 -4.63 -1.6
15.19 -10.28 1.6
8.26 -5.59 -1.58
14.79 -10.01 2.19
10.79 -7.3 -1.6
13.88 -9.39 2.65
14.66 -9.92 -1.55
14.5 -9.81 3.4
19.59 -13.26 -1.24
16.01 -10.84 4.46
15.39 -10.42 4.98
5.08 -3.46 -1.65
13.64 -9.3 0.29
5.85 -3.99 -1.63
18 -12.28 1.14
6.82 -4.65 -1.61
16.39 -11.18 1.74
8.24 -5.62 -1.58
14.86 -10.13 2.21
10.77 -7.34 -1.6
13.72 -9.35 2.63
14.64 -9.98 -1.55
14.16 -9.66 3.33
17.85 -12.17 -1.13
15.91 -10.85 4.45
15.35 -10.47 4.98
5.06 -3.48 -1.65
13.64 -9.37 0.29
5.84 -4.01 -1.63
18.02 -12.38 1.15
6.81 -4.68 -1.61
8.22 -5.65 -1.58
14.82 -10.18 2.21
10.71 -7.36 -1.6
13.59 -9.34 2.61
14.61 -10.04 -1.55
14.04 -9.65 3.31
18.08 -12.42 -1.15
15.74 -10.81 4.41
15.34 -10.54 4.99
5.06 -3.5 -1.65
13.6 -9.41 0.29
5.82 -4.02 -1.63
17.1 -11.83 1.09
6.8 -4.71 -1.61
16.36 -11.32 1.74
8.2 -5.67 -1.58
14.82 -10.25 2.21
10.72 -7.42 -1.6
13.55 -9.38 2.61
14.59 -10.09 -1.55
12.94 -8.95 3.06
17.95 -12.42 -1.14
15.7 -10.87 4.41
17.25 -11.93 5.62
5.05 -3.52 -1.65
13.66 -9.52 0.29
5.8 -4.05 -1.63
17.23 -12.01 1.1
6.79 -4.73 -1.61
16.34 -11.39 1.74
8.19 -5.71 -1.58
14.98 -10.44 2.24
10.72 -7.47 -1.6
13.85 -9.66 2.67
14.57 -10.15 -1.55
12.95 -9.02 3.07
18.04 -12.57 -1.15
15.47 -10.78 4.35
17.15 -11.96 5.6
5.04 -3.54 -1.65
17.82 -12.52 0.38
5.8 -4.07 -1.64
17.95 -12.61 1.15
6.77 -4.75 -1.61
16.04 -11.26 1.71
8.18 -5.74 -1.58
15.02 -10.55 2.25
10.7 -7.52 -1.61
13.93 -9.79 2.7
14.54 -10.21 -1.55
13.97 -9.81 3.32
15.4 -10.82 -0.99
15.41 -10.82 4.35
17.12 -12.02 -0.37
15.25 -10.71 4.99
5.02 -3.55 -1.65
17.01 -12.03 0.36
5.78 -4.09 -1.64
17.9 -12.67 1.15
6.76 -4.78 -1.61
15.22 -10.77 1.63
8.16 -5.78 -1.58
15.02 -10.63 2.26
10.68 -7.56 -1.61
16.8 -11.89 3.26
14.5 -10.26 -1.55
13.23 -9.36 3.15
15.23 -10.78 -0.98
13.11 -9.28 3.71
17.09 -12.09 -0.37
17.46 -12.35 5.73
5.01 -3.57 -1.65
16.98 -12.11 0.36
5.77 -4.12 -1.64
13.53 -9.64 0.87
6.75 -4.81 -1.61
14 -9.98 1.5
8.14 -5.8 -1.58
14.91 -10.62 2.25
10.65 -7.59 -1.61
13.73 -9.78 2.67
14.51 -10.34 -1.56
13.61 -9.7 3.25
15.87 -11.31 -1.02
13.03 -9.29 3.69
17.01 -12.12 -0.36
14.05 -10.02 4.62
5 -3.59 -1.65
16.98 -12.19 0.36
5.75 -4.13 -1.63
13.64 -9.79 0.88
6.74 -4.84 -1.61
13.93 -10 1.5
8.12 -5.83 -1.58
14.39 -10.33 2.18
10.64 -7.64 -1.61
13.89 -9.97 2.71
14.46 -10.38 -1.56
13.41 -9.63 3.21
15.87 -11.39 -1.02
13.04 -9.36 3.71
17.01 -12.21 -0.37
13.99 -10.04 4.61
5 -3.62 -1.65
5.74 -4.15 -1.64
13.5 -9.77 0.87
6.73 -4.87 -1.61
13.78 -9.97 1.49
8.11 -5.86 -1.58
14.35 -10.38 2.17
10.62 -7.68 -1.61
14.12 -10.22 2.76
14.41 -10.43 -1.56
13.34 -9.65 3.2
15.75 -11.39 -1.02
13.09 -9.47 3.73
16.99 -12.29 -0.37
13.55 -9.8 4.48
4.98 -3.63 -1.65
5.72 -4.17 -1.64
13.56 -9.88 0.88
6.7 -4.88 -1.61
13.68 -9.97 1.48
8.09 -5.9 -1.59
14.42 -10.51 2.19
10.59 -7.72 -1.61
14.21 -10.35 2.78
14.25 -10.39 -1.54
13.96 -10.17 3.36
15.8 -11.51 -1.02
13.66 -9.95 3.9
16.97 -12.37 -0.37
13.51 -9.85 4.48
4.96 -3.64 -1.65
12.91 -9.48 0.28
5.71 -4.19 -1.64
17.87 -13.12 1.16
6.69 -4.91 -1.61
13.6 -9.98 1.48
8.08 -5.93 -1.59
14.4 -10.57 2.19
10.54 -7.74 -1.61
14.19 -10.42 2.79
14.03 -10.3 -1.52
14.08 -10.33 3.39
17.29 -12.69 -1.12
13.64 -10.01 3.91
16.99 -12.47 -0.37
13.37 -9.81 4.44
4.96 -3.67 -1.65
12.88 -9.53 0.28
5.7 -4.21 -1.64
16.55 -12.24 1.08
6.69 -4.95 -1.62
13.4 -9.91 1.46
8.05 -5.95 -1.59
14.27 -10.55 2.18
10.51 -7.77 -1.6
16.71 -12.36 3.29
13.94 -10.3 -1.52
14.01 -10.36 3.39
17.16 -12.69 -1.12
13.69 -10.12 3.93
17.04 -12.6 -0.37
13.32 -9.85 4.44
4.95 -3.68 -1.65
18.53 -13.79 0.4
5.67 -4.22 -1.63
16.44 -12.24 1.07
6.68 -4.97 -1.62
13.39 -9.96 1.46
8.04 -5.99 -1.59
14.16 -10.54 2.17
10.47 -7.79 -1.6
15.05 -11.2 2.97
13.95 -10.38 -1.52
14.45 -10.75 3.5
14.23 -10.59 -0.93
13.24 -9.86 3.81
16.92 -12.59 -0.37
13.34 -9.93 4.46
4.94 -3.71 -1.66
18.21 -13.66 0.4
5.66 -4.24 -1.63
13.05 -9.78 0.85
6.66 -5 -1.62
13.2 -9.9 1.44
8.03 -6.02 -1.59
14.15 -10.61 2.17
10.42 -7.82 -1.6
14.53 -10.9 2.88
13.9 -10.42 -1.52
14.61 -10.95 3.55
15.21 -11.4 -1
13.56 -10.16 3.91
16.7 -12.52 -0.36
13.59 -10.19 4.55
4.93 -3.72 -1.66
18.31 -13.83 0.4
5.64 -4.26 -1.63
13.01 -9.83 0.85
6.65 -5.02 -1.62
13.05 -9.86 1.43
8 -6.05 -1.59
15.2 -11.48 2.34
10.37 -7.84 -1.6
14.48 -10.94 2.87
13.76 -10.39 -1.51
17.66 -13.34 4.3
15.2 -11.48 -1
13.12 -9.91 3.8
16.67 -12.59 -0.36
13.63 -10.3 4.58
4.91 -3.74 -1.65
16.72 -12.72 0.37
5.63 -4.28 -1.63
13.39 -10.19 0.88
6.63 -5.04 -1.62
13.01 -9.9 1.43
8 -6.09 -1.59
17.69 -13.46 2.73
10.34 -7.87 -1.6
13.66 -10.39 -1.5
17.57 -13.37 4.29
17.54 -13.35 -1.16
13.1 -9.97 3.8
16.43 -12.5 -0.36
13.75 -10.46 4.63
4.9 -3.75 -1.65
16.71 -12.8 0.37
5.62 -4.31 -1.64
12.98 -9.95 0.86
6.62 -5.07 -1.62
12.97 -9.94 1.43
7.98 -6.11 -1.59
17.68 -13.55 2.73
10.31 -7.9 -1.59
16.11 -12.34 3.21
13.51 -10.35 -1.49
16.3 -12.49 3.99
16.32 -12.5 -1.08
12.61 -9.67 3.67
16.4 -12.56 -0.36
13.04 -9.99 4.4
4.89 -3.78 -1.66
16.72 -12.9 0.37
5.61 -4.33 -1.64
18.04 -13.92 1.19
6.61 -5.1 -1.62
12.92 -9.97 1.43
8 -6.17 -1.6
18.07 -13.94 2.8
10.27 -7.93 -1.59
15.48 -11.95 3.1
13.36 -10.31 -1.48
16.49 -12.73 4.05
13.96 -10.77 -0.92
12.49 -9.64 3.64
16.09 -12.42 -0.35
12.3 -9.49 4.16
4.88 -3.79 -1.66
16.59 -12.89 0.37
5.59 -4.35 -1.64
17.86 -13.88 1.19
6.6 -5.13 -1.62
12.91 -10.04 1.43
7.99 -6.21 -1.6
18.04 -14.03 2.81
10.23 -7.96 -1.59
15.42 -11.99 3.09
13.35 -10.37 -1.48
16.75 -13.02 4.12
16.19 -12.59 -1.07
13.52 -10.51 3.95
13.29 -10.33 -0.29
13.67 -10.63 4.64
4.87 -3.81 -1.66
16.81 -13.16 0.37
5.58 -4.37 -1.64
17.85 -13.97 1.19
6.58 -5.15 -1.62
13.48 -10.56 1.5
8.06 -6.31 -1.62
17.28 -13.52 2.69
10.2 -7.99 -1.59
15.28 -11.96 3.07
13.33 -10.44 -1.48
14.27 -11.17 3.52
13.77 -10.78 -0.92
13.1 -10.25 3.84
15.96 -12.5 -0.35
13.52 -10.58 4.6
4.85 -3.83 -1.66
16.78 -13.24 0.37
5.57 -4.39 -1.64
17.32 -13.67 1.16
6.56 -5.18 -1.62
13.21 -10.43 1.47
8.06 -6.36 -1.63
17.23 -13.59 2.69
10.17 -8.02 -1.59
15.25 -12.03 3.08
13.11 -10.34 -1.46
13.71 -10.81 3.39
14.34 -11.31 -0.96
12.39 -9.78 3.64
13.19 -10.4 -0.29
13.92 -10.98 4.75
4.84 -3.84 -1.66
16.72 -13.28 0.37
5.55 -4.41 -1.64
18.09 -14.37 1.21
6.54 -5.2 -1.62
12.77 -10.15 1.43
8.06 -6.4 -1.63
15.1 -12 2.37
10.14 -8.05 -1.59
16.05 -12.75 3.25
12.99 -10.32 -1.45
13.32 -10.59 3.31
12.35 -9.81 3.64
13.14 -10.44 -0.29
14.08 -11.19 4.82
4.83 -3.86 -1.66
16.89 -13.51 0.38
5.53 -4.42 -1.63
17.5 -14 1.17
6.53 -5.23 -1.63
12.85 -10.28 1.44
8.03 -6.42 -1.63
15.07 -12.05 2.37
10.1 -8.08 -1.59
16.91 -13.53 3.43
12.96 -10.37 -1.45
13.17 -10.54 3.28
13.2 -10.55 -0.89
12.3 -9.84 3.64
17.05 -13.64 -0.38
13.43 -10.74 4.61
4.81 -3.88 -1.66
16.86 -13.58 0.38
5.52 -4.44 -1.64
13.01 -10.48 0.88
6.52 -5.25 -1.63
12.61 -10.16 1.42
8.1 -6.52 -1.65
15.03 -12.11 2.37
10.06 -8.1 -1.59
16.73 -13.48 3.4
12.88 -10.37 -1.45
14.42 -11.61 3.6
13.2 -10.63 -0.89
12.42 -10 3.68
13.05 -10.51 -0.29
14.85 -11.96 5.11
4.8 -3.89 -1.66
16.75 -13.59 0.38
5.5 -4.47 -1.64
12.94 -10.49 0.87
6.5 -5.27 -1.63
12.69 -10.29 1.43
8.04 -6.52 -1.64
12.7 -10.3 2.01
10.02 -8.13 -1.58
16.78 -13.61 3.42
12.81 -10.39 -1.44
14.48 -11.75 3.62
13.51 -10.96 -0.91
13.12 -10.65 3.9
12.98 -10.53 -0.29
15.55 -12.62 5.37
4.78 -3.91 -1.65
16.81 -13.73 0.38
5.49 -4.49 -1.64
15.63 -12.77 1.06
6.48 -5.3 -1.63
14.57 -11.9 1.65
7.99 -6.52 -1.63
13.36 -10.92 2.12
10 -8.17 -1.59
16.77 -13.7 3.43
12.43 -10.16 -1.4
14.52 -11.86 3.64
13.1 -10.7 -0.89
14.15 -11.56 4.22
13.15 -10.74 -0.3
15.42 -12.6 5.34
4.78 -3.93 -1.66
16.84 -13.86 0.38
5.48 -4.51 -1.64
14.22 -11.7 0.96
6.47 -5.32 -1.63
12.48 -10.27 1.41
7.96 -6.55 -1.63
12.46 -10.25 1.98
9.97 -8.2 -1.59
13.8 -11.36 2.83
12.32 -10.14 -1.4
14.55 -11.98 3.66
13.05 -10.74 -0.89
13.83 -11.38 4.13
13.15 -10.82 -0.3
13.67 -11.25 4.74
4.76 -3.95 -1.66
16.83 -13.95 0.38
5.46 -4.52 -1.64
17.45 -14.46 1.19
6.46 -5.35 -1.63
12.52 -10.37 1.42
7.94 -6.58 -1.63
12.38 -10.26 1.97
9.94 -8.23 -1.58
14.96 -12.39 3.08
12.23 -10.14 -1.39
14.58 -12.08 3.68
17.88 -14.81 -1.22
13.76 -11.4 4.13
12.98 -10.75 -0.29
14.78 -12.25 5.14
4.75 -3.97 -1.66
16.84 -14.06 0.38
5.43 -4.53 -1.63
17.88 -14.93 1.22
6.45 -5.38 -1.63
12.55 -10.48 1.43
7.96 -6.64 -1.64
12.28 -10.25 1.96
9.89 -8.25 -1.58
12.47 -10.41 2.57
12.17 -10.16 -1.39
14.6 -12.19 3.7
13 -10.85 -0.89
13.64 -11.39 4.1
14.49 -12.1 -0.33
14.7 -12.28 5.13
4.74 -3.99 -1.66
16.87 -14.18 0.38
5.43 -4.57 -1.64
17.59 -14.79 1.2
6.43 -5.4 -1.63
12.49 -10.5 1.43
7.2 -6.05 -1.49
12.4 -10.42 1.99
9.85 -8.28 -1.58
12.44 -10.46 2.57
12.16 -10.22 -1.39
14.63 -12.3 3.71
13.04 -10.96 -0.89
13.47 -11.32 4.06
13.07 -10.99 -0.3
14.65 -12.32 5.13
