# .PCD v0.7 - Point Cloud Data file format
VERSION 0.7
FIELDS x y z
SIZE 4 4 4
TYPE F F F
COUNT 1 1 1
WIDTH 2938
HEIGHT 1
VIEWPOINT 0 0 0 1 0 0 0
POINTS 2938
DATA ascii
0.88 20.92 4.83
1.33 31.65 -0.55
1.14 27.15 7.28
0.31 6.86 -1.84
1.43 31.57 0.55
0.37 8.11 -1.87
1.27 28.05 1.47
0.44 9.73 -1.89
1.52 33.45 2.93
0.55 12.09 -1.92
1.51 33.34 4.1
0.76 16.78 -2.06
1.06 23.28 3.69
1 22.06 -1.93
1.03 22.71 4.42
1.11 24.51 -1.29
0.96 21.19 4.9
1.29 28.38 -0.5
1.23 27.15 7.28
0.33 6.84 -1.84
1.54 31.54 0.55
0.39 8.1 -1.87
1.54 31.59 1.66
0.47 9.72 -1.89
1.54 31.61 2.77
0.59 12.1 -1.92
1.54 31.55 3.88
0.75 15.31 -1.88
1.13 23.27 3.69
1.08 22.2 -1.94
1.34 27.57 5.37
1.39 28.46 -1.49
1.07 21.92 5.07
1.63 33.39 -0.58
1.32 27.09 7.27
0.36 6.83 -1.83
1.25 23.89 0.42
0.42 8.1 -1.87
1.65 31.6 1.66
0.51 9.71 -1.89
1.65 31.65 2.77
0.63 12.1 -1.92
1.65 31.56 3.88
0.81 15.42 -1.9
1.21 23.24 3.69
1.16 22.18 -1.94
1.25 23.99 -1.26
1.35 25.89 5.99
1.76 33.66 -0.59
1.41 27.04 7.26
0.38 6.86 -1.84
1.33 23.9 0.42
0.45 8.1 -1.87
1.33 23.82 1.25
0.54 9.71 -1.89
1.32 23.72 2.08
0.67 12.09 -1.92
1.22 21.97 2.7
0.86 15.42 -1.9
1.3 23.27 3.69
1.25 22.46 -1.97
1.77 31.69 6.17
1.29 23.19 -1.22
1.76 31.65 7.32
1.33 23.94 -0.42
1.76 31.62 8.49
0.41 6.86 -1.84
1.41 23.89 0.42
0.48 8.09 -1.87
1.41 23.76 1.25
0.58 9.72 -1.89
1.4 23.71 2.08
0.72 12.08 -1.92
1.4 23.67 2.91
0.97 16.38 -2.01
1.38 23.32 3.7
1.34 22.7 -1.99
1.63 27.58 5.37
1.74 29.37 -1.54
1.35 22.79 -0.4
0.43 6.82 -1.83
2.1 33.45 0.58
0.51 8.08 -1.87
2.1 33.42 1.76
0.61 9.72 -1.89
2.1 33.47 2.93
0.76 12.08 -1.92
1.37 21.9 2.69
1.48 23.55 3.74
1.41 22.46 -1.97
1.59 25.39 -1.33
1.68 26.74 6.18
1.42 22.71 -0.4
0.45 6.86 -1.84
1.94 29.22 0.51
0.54 8.08 -1.87
0.64 9.71 -1.89
1.93 29.15 2.56
0.8 12.08 -1.92
1.45 21.85 2.69
1.03 15.5 -1.91
1.55 23.46 3.72
1.49 22.51 -1.97
1.54 23.23 4.52
2.28 34.47 -1.81
1.49 22.54 5.22
1.54 23.25 -0.41
2.02 30.53 8.2
0.48 6.84 -1.84
1.81 25.9 0.45
0.56 8.09 -1.87
2.03 29.16 1.53
0.68 9.69 -1.89
2.03 29.12 2.55
0.84 12.08 -1.92
2.02 29.03 3.57
1.08 15.55 -1.91
1.46 20.87 3.31
1.57 22.51 -1.97
1.54 22.07 4.3
1.61 23.12 -1.21
1.56 22.42 5.19
2.42 34.67 -0.61
0.5 6.81 -1.83
1.82 24.87 0.44
0.59 8.08 -1.87
1.66 22.69 1.19
0.71 9.7 -1.89
1.7 23.14 2.03
0.88 12.07 -1.92
1.88 25.68 3.16
1.13 15.44 -1.9
2.13 29.01 4.61
1.65 22.52 -1.98
2.12 28.96 5.64
1.93 26.29 -1.38
1.6 21.9 5.07
1.66 22.65 -0.4
1.6 21.9 5.88
0.53 6.85 -1.84
2.67 34.73 0.61
0.62 8.08 -1.87
1.75 22.74 1.2
0.74 9.7 -1.89
1.8 23.4 2.05
0.93 12.06 -1.92
1.79 23.27 2.87
1.19 15.52 -1.91
1.73 22.48 -1.97
1.77 23.02 -1.21
1.64 21.34 4.94
1.96 25.59 -0.45
2.6 33.83 9.09
0.55 6.88 -1.85
1.99 24.74 0.43
0.65 8.07 -1.87
0.78 9.69 -1.89
0.97 12.05 -1.92
1.24 15.46 -1.9
1.69 21.06 3.35
1.8 22.47 -1.97
2.09 26.09 -1.37
1.71 21.3 4.93
1.84 22.93 -0.4
2.23 27.76 7.46
0.58 6.86 -1.85
1.94 23.21 0.41
0.68 8.06 -1.87
0.81 9.68 -1.89
2.94 35.03 3.08
1.01 12.06 -1.92
1.28 15.28 -1.88
2.01 24.04 3.82
1.88 22.4 -1.97
3.06 36.55 -1.92
1.93 23.03 5.34
1.9 22.69 -0.4
0.6 6.85 -1.84
2.15 24.66 0.43
0.7 8.07 -1.87
2.16 24.69 1.3
0.84 9.66 -1.89
3.05 34.98 3.07
1.05 12.06 -1.92
3.08 35.28 4.35
1.35 15.51 -1.91
2.02 23.08 3.67
1.98 22.64 -1.99
2.34 26.85 5.24
2.21 25.28 -1.33
2.09 23.98 -0.42
1.98 22.64 6.09
0.62 6.81 -1.83
2.26 24.83 0.44
0.73 8.07 -1.87
2.24 24.68 1.3
0.88 9.66 -1.89
2.2 24.22 2.13
1.09 12.05 -1.92
2.14 23.52 2.9
1.42 15.61 -1.92
3.23 35.6 5.66
2.03 22.34 -1.96
3.26 35.84 6.99
2.34 25.79 -1.36
2.1 23.12 5.36
2.28 25.07 -0.44
2.27 24.95 6.71
0.64 6.81 -1.83
2.56 27.13 0.48
0.76 8.06 -1.87
2.23 23.65 1.25
0.91 9.67 -1.89
2.27 24.08 2.12
1.14 12.04 -1.92
2.22 23.53 2.9
1.45 15.39 -1.9
3.36 35.62 5.67
2.1 22.29 -1.96
2.53 26.86 5.24
2.46 26.04 -1.37
2.01 21.3 4.94
2.23 23.62 -0.41
0.67 6.81 -1.83
2.23 22.79 0.4
0.79 8.05 -1.87
3.02 30.82 1.62
0.95 9.67 -1.89
1.18 12.04 -1.92
2.6 26.55 3.28
1.52 15.51 -1.91
3.49 35.64 5.67
2.18 22.29 -1.96
2.51 25.7 -1.35
2.22 22.64 5.25
3.73 38.11 -0.67
2.02 20.59 5.54
0.69 6.78 -1.83
2.58 25.47 0.45
0.82 8.05 -1.87
2.66 26.21 1.38
0.98 9.66 -1.89
2.53 24.92 2.19
1.22 12.04 -1.92
2.71 26.73 3.3
1.57 15.5 -1.91
2.34 23.03 3.67
2.26 22.27 -1.96
3.4 33.57 -1.77
2.29 22.63 5.25
2.59 25.53 -0.45
2.23 21.99 5.92
0.71 6.79 -1.83
2.67 25.48 0.45
0.84 8.05 -1.87
2.65 25.21 1.33
1.01 9.64 -1.88
2.61 24.88 2.19
1.26 12.03 -1.92
2.33 22.23 2.74
1.61 15.36 -1.9
2.37 22.56 3.59
2.33 22.21 -1.95
2.57 24.53 -1.29
2.44 23.23 5.39
2.62 24.97 -0.44
2.62 24.98 6.73
0.74 6.79 -1.83
2.76 25.47 0.45
0.87 8.05 -1.87
2.85 26.24 1.38
1.05 9.64 -1.89
2.69 24.83 2.19
1.3 12.03 -1.92
2.39 22.03 2.72
1.68 15.53 -1.92
2.47 22.79 3.63
2.41 22.22 -1.96
3.13 28.83 -1.52
3.31 30.48 7.08
2.7 24.91 -0.44
2.34 21.56 5.81
0.76 6.78 -1.83
0.9 8.04 -1.87
3.13 27.92 1.47
1.08 9.64 -1.88
2.68 23.91 2.1
1.34 12.01 -1.91
2.55 22.78 2.81
1.74 15.54 -1.92
2.94 26.28 4.19
2.49 22.24 -1.96
2.73 24.34 -1.28
4.11 36.66 8.52
2.59 23.13 -0.41
2.81 25.13 6.78
0.79 6.8 -1.83
3.01 26.05 0.46
0.93 8.03 -1.87
3.24 28.02 1.48
1.11 9.64 -1.89
2.89 25.01 2.2
1.39 12.01 -1.91
2.63 22.75 2.81
1.79 15.46 -1.91
2.6 22.54 3.59
2.58 22.3 -1.96
2.56 22.16 4.34
2.99 25.89 -1.37
2.96 25.66 5.96
2.91 25.18 -0.44
0.81 6.81 -1.84
3.1 26.08 0.46
0.95 8.02 -1.87
2.95 24.84 1.31
1.14 9.63 -1.88
1.43 12 -1.91
1.97 16.59 -2.05
2.64 22.24 -1.96
3.08 25.92 -1.37
2.92 24.53 5.7
3 25.19 -0.44
0.83 6.81 -1.84
3.38 27.61 0.49
0.98 8.03 -1.87
2.72 22.22 1.17
1.18 9.62 -1.88
3.32 27.1 2.39
1.47 12.01 -1.92
3.3 26.95 3.33
1.91 15.64 -1.93
3.3 26.94 4.3
2.72 22.25 -1.96
2.72 22.24 4.36
3.38 27.63 -1.46
3.06 25.01 -0.44
0.86 6.8 -1.84
3.05 24.18 0.43
1.01 8.03 -1.87
2.8 22.22 1.17
1.21 9.61 -1.88
3.41 27.09 2.39
1.51 11.99 -1.91
3.39 26.94 3.33
1.95 15.46 -1.91
3.38 26.85 4.29
2.8 22.22 -1.96
3.31 26.28 5.15
3.48 27.59 -1.46
2.77 22.01 5.12
3.49 27.73 -0.49
2.75 21.85 5.9
0.88 6.78 -1.83
3.55 27.45 0.48
1.04 8.02 -1.87
3.53 27.26 1.44
1.24 9.61 -1.88
3.03 23.43 2.07
1.55 11.98 -1.91
1.99 15.33 -1.9
3.05 23.56 3.76
2.86 22.12 -1.95
3.46 26.68 5.23
3.09 23.89 -1.26
3.44 26.57 -0.47
0.9 6.77 -1.83
4.96 37.28 0.66
1.06 8 -1.86
3.22 24.16 1.28
1.28 9.61 -1.88
2.9 21.78 1.92
1.59 11.98 -1.91
2.06 15.47 -1.92
3.05 22.93 3.66
2.95 22.14 -1.95
3.57 26.81 5.26
2.94 22.06 -1.17
2.92 21.95 5.11
2.94 22.1 -0.39
3.16 23.75 6.42
0.92 6.75 -1.83
1.09 8 -1.86
3.13 22.92 1.21
1.31 9.6 -1.88
3.35 24.55 2.17
1.64 11.97 -1.91
3.07 22.46 2.78
2.11 15.47 -1.92
3.12 22.87 3.66
3.05 22.36 -1.97
3.03 22.2 4.36
3.23 23.66 -1.25
3.02 22.13 5.16
3.52 25.75 -0.45
3.59 26.25 7.1
0.94 6.73 -1.82
3.83 27.34 0.48
1.12 8.01 -1.87
3.22 22.96 1.22
1.34 9.58 -1.88
1.68 11.97 -1.91
4.64 33.09 4.1
2.14 15.29 -1.9
3.35 23.89 3.82
3.16 22.51 -1.99
4.94 35.24 -1.86
3.59 25.6 5.97
3.92 27.95 -0.49
0.96 6.71 -1.82
3.91 27.22 0.48
1.15 8 -1.87
3.29 22.87 1.21
1.38 9.57 -1.88
1.72 11.96 -1.91
3.19 22.22 2.76
2.21 15.36 -1.9
3.35 23.28 3.72
3.21 22.37 -1.98
3.44 23.92 -1.27
3.72 25.86 6.03
3.5 24.37 -0.43
3.74 26.02 7.04
0.99 6.71 -1.82
3.55 24.07 0.42
1.18 7.99 -1.86
3.39 22.99 1.22
1.41 9.58 -1.88
3.21 21.76 1.92
1.76 11.94 -1.91
2.28 15.47 -1.92
3.38 22.96 3.68
3.29 22.34 -1.98
6.15 41.71 8.2
3.82 25.92 -1.37
3.81 25.86 -0.46
3.76 25.53 6.91
1.02 6.73 -1.82
3.59 23.82 0.42
1.2 7.98 -1.86
4.03 26.7 1.42
1.45 9.58 -1.88
3.28 21.77 1.93
1.8 11.94 -1.91
3.35 22.23 2.76
2.34 15.52 -1.93
4.83 31.99 5.12
3.38 22.38 -1.98
3.4 22.51 4.42
3.61 23.95 -1.27
3.59 23.8 -0.42
3.72 24.65 6.68
1.04 6.74 -1.83
4.37 28.28 0.5
1.23 7.97 -1.86
4.17 26.98 1.43
1.48 9.57 -1.88
3.37 21.81 1.93
1.84 11.93 -1.91
2.38 15.41 -1.91
3.47 22.45 -1.99
3.95 25.58 5.03
3.86 25.01 -1.33
3.41 22.08 5.16
1.07 6.74 -1.83
5.18 32.8 0.58
1.26 7.97 -1.86
1.51 9.55 -1.88
3.42 21.63 1.92
1.88 11.93 -1.91
4.17 26.37 3.28
2.36 14.93 -1.86
3.76 23.77 3.81
3.55 22.48 -1.99
3.99 25.22 4.96
3.8 24.03 -1.27
3.5 22.14 5.17
3.73 23.58 -0.42
3.75 23.75 6.44
1.09 6.76 -1.84
4.56 28.23 0.5
1.29 7.97 -1.86
1.54 9.55 -1.88
3.47 21.49 1.9
1.93 11.92 -1.91
4.02 24.87 3.09
2.47 15.27 -1.9
6.65 41.13 6.6
3.61 22.33 -1.98
4.43 27.42 -1.46
6.8 42.08 9.84
3.97 24.59 6.68
1.12 6.77 -1.84
3.81 23.09 0.41
1.31 7.96 -1.86
3.81 23.07 1.23
1.58 9.55 -1.88
3.8 22.99 2.04
1.97 11.9 -1.91
3.78 22.86 2.85
2.53 15.34 -1.91
3.76 22.76 3.65
3.67 22.24 -1.97
4.29 25.97 5.12
3.85 23.31 -1.24
3.68 22.3 5.22
3.84 23.22 -0.41
1.15 6.79 -1.85
3.89 23.05 0.41
1.34 7.95 -1.86
6.8 40.28 2.14
1.61 9.54 -1.88
3.6 21.35 1.89
2.01 11.9 -1.91
4.43 26.24 3.27
2.55 15.09 -1.88
6.75 39.97 6.42
3.75 22.21 -1.97
5.76 34.13 6.73
4.66 27.61 -1.47
3.97 23.51 5.5
4.66 27.62 -0.49
1.17 6.78 -1.84
4.75 27.56 0.49
1.37 7.94 -1.86
5.4 31.35 1.67
1.64 9.53 -1.88
3.77 21.85 1.94
2.05 11.89 -1.91
4.71 27.32 3.4
2.61 15.12 -1.88
4.7 27.25 4.38
3.85 22.31 -1.98
4 23.22 -1.23
4.42 25.66 6.01
4.77 27.65 -0.49
4.56 26.47 7.2
1.18 6.75 -1.84
4.84 27.57 0.49
1.39 7.94 -1.86
4.83 27.5 1.46
1.67 9.52 -1.88
6.88 39.2 3.48
2.09 11.89 -1.91
3.96 22.57 2.81
2.66 15.17 -1.89
4.59 26.13 4.2
3.92 22.33 -1.98
4.21 23.98 -1.28
4.74 27.01 6.33
4.14 23.6 -0.42
4.72 26.86 7.31
1.2 6.69 -1.82
4.26 23.77 0.42
1.42 7.93 -1.86
4.93 27.51 1.46
1.7 9.51 -1.88
4.91 27.4 2.43
2.13 11.88 -1.91
7.01 39.12 4.88
2.72 15.2 -1.9
4 22.35 3.6
4.01 22.36 -1.99
4.85 27.06 5.34
4.45 24.81 -1.32
4.85 27.05 6.34
4.18 23.3 -0.41
1.23 6.74 -1.84
4.16 22.74 0.4
1.45 7.93 -1.86
1.74 9.51 -1.88
3.94 21.51 1.91
2.17 11.86 -1.91
4.27 23.31 2.91
2.79 15.24 -1.9
4.41 24.12 3.88
4.1 22.39 -1.99
4.95 27.08 5.35
4.4 24.06 -1.28
3.91 21.36 5.01
4.25 23.25 -0.41
1.25 6.68 -1.82
6.53 35 0.62
1.48 7.91 -1.86
1.77 9.51 -1.88
3.98 21.35 1.9
2.21 11.86 -1.91
7.5 40.22 5.02
2.83 15.19 -1.9
4.31 23.08 3.72
4.18 22.39 -1.99
5.96 31.93 6.31
6.1 32.66 -1.74
4.52 24.23 5.69
4.3 23.06 -0.41
5.44 29.18 7.95
1.28 6.75 -1.84
4.36 22.95 0.41
1.5 7.91 -1.86
6.68 35.16 1.88
1.81 9.5 -1.88
4.03 21.21 1.89
2.25 11.85 -1.91
5.21 27.41 3.43
2.87 15.12 -1.89
4.25 22.37 3.61
4.25 22.36 -1.99
5.19 27.33 5.41
4.49 23.61 -1.26
6.1 32.1 7.54
4.38 23.06 -0.41
1.3 6.73 -1.84
4.49 23.21 0.41
1.53 7.91 -1.86
1.84 9.48 -1.88
4.09 21.13 1.88
2.29 11.85 -1.91
2.92 15.06 -1.88
4.44 22.95 3.7
4.33 22.38 -1.99
6.22 32.12 6.36
6.14 31.68 -1.69
6.22 32.11 7.55
4.45 22.97 -0.41
1.33 6.73 -1.84
4.57 23.14 0.41
1.56 7.89 -1.86
6.36 32.2 1.72
1.87 9.46 -1.88
6.33 32.04 2.86
2.34 11.84 -1.91
6.32 32.02 4.01
3 15.21 -1.9
6.33 32.05 5.17
4.41 22.33 -1.99
6.24 31.61 -1.69
6.57 33.27 7.83
6.29 31.87 -0.57
1.35 6.72 -1.84
6.44 32.03 0.57
1.57 7.79 -1.83
6.47 32.15 1.72
1.9 9.47 -1.88
6.46 32.1 2.86
2.38 11.82 -1.91
6.43 31.96 4
3.1 15.4 -1.93
6.44 32 5.17
4.5 22.37 -2
4.41 21.92 -1.17
6.18 30.72 7.23
6.4 31.82 -0.57
6.83 33.98 9.29
1.37 6.72 -1.84
4.93 24.1 0.43
1.51 7.39 -1.74
4.67 22.84 1.22
1.94 9.47 -1.88
6.63 32.42 2.9
2.42 11.81 -1.91
4.74 23.15 2.9
3.06 14.96 -1.88
6.73 32.88 5.32
4.57 22.33 -1.99
6.75 32.99 6.55
6.84 33.42 7.88
6.46 31.59 -0.56
5.83 28.51 7.8
1.4 6.72 -1.84
6.59 31.64 0.56
1.53 7.37 -1.74
6.55 31.48 1.68
1.97 9.45 -1.88
5.45 26.18 2.34
2.46 11.8 -1.91
5.49 26.36 3.31
3.1 14.91 -1.87
4.69 22.52 3.64
4.62 22.21 -1.99
5.27 25.29 -1.35
4.81 23.09 -0.41
5.03 24.15 6.61
1.43 6.76 -1.85
6.69 31.57 0.56
1.57 7.43 -1.75
2 9.44 -1.87
2.5 11.8 -1.91
5.01 23.66 2.97
3.14 14.82 -1.86
4.87 23 3.72
4.71 22.25 -1.99
4.71 22.23 -1.19
6.35 30 -0.54
1.45 6.73 -1.85
5.39 25.03 0.45
1.59 7.36 -1.74
6.79 31.53 1.69
2.03 9.43 -1.87
2.54 11.79 -1.91
4.96 23.02 2.89
3.19 14.81 -1.86
5.87 27.22 4.41
4.79 22.21 -1.99
6.04 28.01 -1.5
4.86 22.55 5.32
5.07 23.53 -0.42
1.48 6.74 -1.85
1.61 7.34 -1.74
7.54 34.36 1.84
2.07 9.42 -1.87
6.93 31.6 2.83
2.58 11.76 -1.91
6.95 31.71 3.99
3.25 14.83 -1.86
6.99 31.85 5.16
4.85 22.12 -1.98
5.59 25.51 5.08
4.8 21.89 -1.17
4.95 22.58 5.34
5.23 23.86 6.54
1.51 6.76 -1.86
5.12 22.97 0.41
1.64 7.34 -1.74
7.65 34.3 1.84
2.1 9.42 -1.88
4.79 21.46 1.92
2.62 11.76 -1.91
5.21 23.37 2.94
3.31 14.86 -1.87
6.02 27.01 4.38
4.93 22.12 -1.98
7.1 31.86 6.34
4.9 21.99 -1.18
5.04 22.61 5.35
6.17 27.68 7.6
1.53 6.74 -1.85
5.2 22.94 0.41
1.66 7.34 -1.74
5.72 25.22 1.36
2.13 9.41 -1.87
4.83 21.3 1.91
2.66 11.75 -1.91
7.32 32.29 4.06
3.37 14.87 -1.87
5.01 22.09 -1.98
5.47 24.15 -1.3
5.13 22.64 5.36
5.76 25.43 -0.46
5.41 23.89 6.56
1.54 6.7 -1.84
5.28 22.94 0.41
1.69 7.33 -1.74
2.16 9.39 -1.87
5.02 21.82 1.96
2.7 11.74 -1.91
5.49 23.86 3.01
3.43 14.9 -1.88
6.43 27.91 4.54
5.07 21.99 -1.97
5.58 24.21 4.83
5.05 21.91 -1.18
5.22 22.68 5.37
5.82 25.28 -0.45
7.39 32.07 8.82
1.56 6.66 -1.83
5.72 24.46 0.44
1.72 7.34 -1.74
5.86 25.03 1.35
2.19 9.38 -1.87
8.16 34.88 3.13
2.74 11.73 -1.91
6.09 26.01 3.28
3.49 14.9 -1.88
8.25 35.24 5.73
5.15 22 -1.98
6.66 28.45 5.68
5.91 25.25 -1.36
5.32 22.73 5.39
1.59 6.68 -1.84
5.82 24.5 0.44
1.74 7.33 -1.74
5.92 24.91 1.34
2.23 9.37 -1.87
2.78 11.71 -1.91
6.17 25.94 3.27
3.52 14.8 -1.87
6.78 28.51 4.64
5.23 22 -1.98
6.75 28.4 5.68
5.34 22.48 -1.21
5.4 22.71 5.39
6.57 27.66 7.62
1.62 6.71 -1.85
5.84 24.18 0.43
1.76 7.31 -1.74
6 24.85 1.34
2.26 9.37 -1.87
5.43 22.49 2.02
2.82 11.7 -1.91
6.9 28.58 3.61
3.59 14.86 -1.88
6.88 28.51 4.64
5.3 21.98 -1.98
7.19 29.78 -1.61
6.11 25.32 6.01
6.12 25.37 -0.46
1.63 6.66 -1.84
5.82 23.75 0.43
1.79 7.3 -1.74
6.06 24.73 1.33
2.29 9.36 -1.87
5.13 20.94 1.89
2.86 11.69 -1.91
7 28.58 3.61
3.67 14.98 -1.89
5.38 21.97 -1.98
5.52 22.53 -1.22
5.42 22.13 5.26
7.44 30.4 -0.55
1.65 6.65 -1.84
7.17 28.88 0.52
1.81 7.31 -1.74
7.15 28.79 1.55
2.32 9.34 -1.87
7.13 28.71 2.59
2.9 11.69 -1.91
3.65 14.68 -1.86
5.45 21.93 -1.98
8.79 35.38 7.09
5.59 22.49 -1.21
5.53 22.25 5.29
7.21 29.02 -0.52
1.69 6.69 -1.85
7.26 28.83 0.52
1.84 7.3 -1.74
6.2 24.62 1.33
2.35 9.33 -1.87
9.03 35.85 3.23
2.94 11.68 -1.91
3.77 14.95 -1.89
5.52 21.9 -1.98
7.31 29.02 -1.57
5.49 21.81 5.19
7.3 28.98 -0.52
1.71 6.67 -1.85
1.87 7.3 -1.74
7.68 29.99 1.62
2.39 9.32 -1.87
7.69 30 2.71
2.99 11.65 -1.91
7.71 30.09 3.81
3.83 14.97 -1.9
6.8 26.53 4.34
5.6 21.86 -1.97
5.75 22.44 -1.21
6.34 24.76 5.9
5.51 21.51 5.95
1.74 6.7 -1.85
1.89 7.28 -1.74
2.42 9.32 -1.87
7.78 29.95 2.71
3.02 11.64 -1.91
7.75 29.82 3.78
3.88 14.93 -1.89
7.69 29.6 4.84
5.67 21.85 -1.97
6.89 26.52 5.33
6.43 24.75 5.9
6.34 24.4 -0.44
9.33 35.91 9.94
1.77 6.72 -1.86
1.92 7.28 -1.74
2.46 9.31 -1.87
3.07 11.63 -1.91
7.88 29.88 3.79
3.92 14.86 -1.89
7.86 29.81 4.88
5.76 21.86 -1.98
6.99 26.52 5.33
6.49 24.63 -1.34
7.84 29.74 7.1
1.8 6.74 -1.87
1.94 7.26 -1.73
2.48 9.29 -1.87
3.11 11.63 -1.91
5.57 20.84 2.65
3.98 14.9 -1.89
7.73 28.91 4.74
5.84 21.86 -1.98
7.08 26.48 5.33
5.94 22.22 -1.21
7.96 29.79 7.12
9.15 34.25 -0.62
1.82 6.71 -1.86
7.12 26.3 0.48
1.97 7.27 -1.74
2.51 9.28 -1.87
7.88 29.1 2.64
3.14 11.61 -1.91
5.61 20.73 2.64
4.04 14.92 -1.9
5.91 21.82 -1.98
8.06 29.75 5.99
6.08 22.45 -1.22
6.75 24.93 5.96
6.3 23.27 -0.42
1.84 6.71 -1.86
1.99 7.26 -1.74
2.54 9.28 -1.87
5.78 21.07 1.91
3.18 11.59 -1.9
5.68 20.7 2.64
4.08 14.89 -1.9
8.65 31.54 5.18
5.98 21.81 -1.98
8.16 29.73 5.99
6.23 22.72 -1.23
8.17 29.77 7.13
7.53 27.43 -0.5
8.1 29.54 8.21
1.87 6.72 -1.87
7.32 26.3 0.48
2.02 7.26 -1.74
5.93 21.29 1.16
2.58 9.27 -1.87
3.22 11.58 -1.9
5.91 21.23 2.71
4.12 14.8 -1.89
8.31 29.84 4.91
6.07 21.79 -1.98
7.3 26.21 -1.43
7.22 25.92 -0.47
1.89 6.71 -1.87
7.4 26.22 0.48
2.05 7.25 -1.74
2.61 9.26 -1.87
3.26 11.57 -1.9
5.84 20.7 2.64
4.18 14.83 -1.89
6.18 21.91 -1.99
7.51 26.64 -1.45
7.33 25.99 6.24
7.33 25.98 -0.47
8.22 29.14 8.11
1.93 6.76 -1.88
6.84 23.89 0.43
2.07 7.25 -1.74
6.04 21.1 1.15
2.65 9.24 -1.87
5.91 20.64 1.88
3.31 11.56 -1.9
6.02 21.02 2.68
4.24 14.81 -1.89
6.26 21.86 -1.99
7.78 27.2 -1.48
7.41 25.89 6.22
7.8 27.27 -0.5
7.15 24.98 6.96
1.96 6.75 -1.88
7.43 25.65 0.47
2.1 7.24 -1.74
6.06 20.92 1.14
2.67 9.23 -1.87
8.23 28.4 2.59
3.35 11.55 -1.9
6.07 20.94 2.68
4.29 14.81 -1.89
6.31 21.79 -1.99
7.46 25.74 5.21
7.89 27.22 -1.49
7.36 25.4 6.1
7.89 27.23 -0.49
7.22 24.93 6.95
1.99 6.79 -1.9
7.92 26.99 0.49
2.13 7.25 -1.74
7.62 25.97 1.42
2.71 9.22 -1.87
8.27 28.18 2.57
3.38 11.53 -1.9
6.86 23.38 2.99
4.34 14.77 -1.89
6.32 21.51 -1.96
7.52 25.62 5.19
7.43 25.32 6.09
8 27.24 -0.5
7.21 24.56 6.86
2.01 6.77 -1.89
7.61 25.61 0.47
2.15 7.23 -1.74
7.95 26.75 1.46
2.74 9.21 -1.87
7.51 25.28 2.31
3.42 11.51 -1.9
7.81 26.29 3.37
4.38 14.72 -1.89
7.7 25.9 4.28
6.38 21.47 -1.96
7.61 25.61 5.19
6.86 23.09 -1.26
7.53 25.34 6.1
8.12 27.32 -0.5
7.25 24.39 6.82
2.03 6.76 -1.89
8.03 26.67 0.49
2.18 7.23 -1.74
6.92 23 1.26
2.77 9.21 -1.87
7.97 26.49 2.42
3.46 11.51 -1.9
7.89 26.22 3.36
4.42 14.7 -1.89
7.76 25.78 4.26
6.15 20.44 -1.87
7.46 24.79 5.03
6.13 20.38 -1.12
8.54 28.36 6.84
2.06 6.77 -1.9
2.2 7.23 -1.75
8.06 26.45 1.45
2.8 9.18 -1.87
8.07 26.48 2.42
3.5 11.5 -1.9
8 26.26 3.37
4.47 14.68 -1.88
7.84 25.75 4.26
6.16 20.22 -1.85
7.96 26.15 5.31
6.14 20.17 -1.1
8.61 28.26 6.82
2.08 6.73 -1.89
2.23 7.24 -1.75
2.83 9.18 -1.87
6.19 20.05 1.84
3.54 11.47 -1.9
8.07 26.14 3.36
4.54 14.71 -1.89
7.95 25.75 4.27
6.2 20.08 -1.84
10.04 32.5 6.61
6.2 20.08 -1.1
7.17 23.22 -0.42
12.74 41.27 11.57
2.1 6.73 -1.89
10.05 32.18 0.59
2.26 7.24 -1.75
2.87 9.17 -1.87
3.58 11.45 -1.9
8.14 26.06 3.35
4.59 14.68 -1.89
6.27 20.07 -1.84
7.8 24.96 5.08
6.27 20.08 -1.1
6.65 21.29 5.15
7.25 23.2 -0.42
2.14 6.75 -1.9
7.55 23.85 0.44
2.29 7.23 -1.75
7.91 24.99 1.37
2.9 9.16 -1.87
8.09 25.58 2.35
3.62 11.44 -1.9
8.24 26.05 3.35
4.64 14.65 -1.89
12.83 40.55 6.74
6.35 20.08 -1.84
7.89 24.92 5.08
6.35 20.08 -1.1
6.65 21 5.09
7.35 23.24 -0.43
6.55 20.7 5.82
2.17 6.78 -1.91
12.88 40.25 0.74
2.31 7.21 -1.75
2.93 9.15 -1.87
7.99 24.95 2.29
3.66 11.42 -1.9
7.79 24.34 3.14
4.68 14.63 -1.89
6.43 20.1 -1.85
6.73 21.01 4.29
6.43 20.09 -1.11
7.74 24.17 5.86
7.22 22.57 6.35
2.19 6.76 -1.9
13.02 40.2 0.74
2.33 7.2 -1.75
13.07 40.36 2.22
2.96 9.13 -1.86
8.48 26.21 2.41
3.7 11.42 -1.9
13.12 40.53 5.23
4.74 14.63 -1.89
8.25 25.47 4.24
6.51 20.11 -1.85
13.17 40.68 8.31
6.51 20.1 -1.11
7.78 24.02 5.83
7.25 22.38 6.3
2.2 6.73 -1.9
2.37 7.23 -1.76
7.51 22.93 1.26
2.99 9.12 -1.87
7.15 21.83 2.01
3.73 11.39 -1.9
13.26 40.49 5.23
4.8 14.67 -1.9
8.35 25.52 4.25
6.58 20.1 -1.85
6.58 20.1 -1.11
6.57 20.07 4.88
8 24.43 -0.45
7.34 22.42 6.32
2.23 6.72 -1.9
8.09 24.39 0.45
2.4 7.23 -1.76
3.02 9.11 -1.87
8.22 24.79 2.28
3.77 11.36 -1.9
7.83 23.6 3.05
4.88 14.71 -1.9
8.47 25.54 4.26
6.67 20.1 -1.85
6.67 20.1 -1.11
8.1 24.41 -0.45
2.26 6.74 -1.91
10.79 32.15 0.59
2.41 7.18 -1.75
3.05 9.1 -1.87
8.24 24.56 2.27
3.81 11.34 -1.89
4.94 14.71 -1.91
6.75 20.11 -1.86
6.74 20.09 -1.11
2.27 6.69 -1.89
10.92 32.17 0.59
2.45 7.21 -1.76
3.08 9.09 -1.86
9.78 28.81 2.66
3.84 11.32 -1.89
7.85 23.12 3
4.98 14.68 -1.9
6.83 20.12 -1.86
6.82 20.1 -1.11
7.89 23.24 5.67
8.48 24.98 -0.46
7.9 23.28 6.59
2.29 6.66 -1.89
8.49 24.72 0.46
2.48 7.22 -1.76
7.88 22.94 1.27
3.11 9.07 -1.86
3.88 11.31 -1.89
7.93 23.1 3
5.03 14.64 -1.9
10.93 31.84 5.33
6.91 20.13 -1.86
8.65 25.19 5.18
6.91 20.12 -1.11
7.95 23.15 5.65
2.32 6.69 -1.9
10.38 29.88 0.55
2.51 7.22 -1.76
3.14 9.06 -1.86
3.92 11.29 -1.89
8.82 25.39 3.3
5.08 14.63 -1.9
6.99 20.13 -1.86
8.74 25.18 5.18
6.99 20.14 -1.12
8.02 23.11 5.65
2.35 6.71 -1.9
2.52 7.19 -1.76
10.1 28.75 1.6
3.18 9.04 -1.86
3.95 11.25 -1.89
8.93 25.42 3.31
5.14 14.65 -1.91
8.16 23.22 3.9
7.07 20.14 -1.87
7.07 20.13 -1.12
14.16 40.31 9.86
8.44 24.03 -0.44
2.37 6.69 -1.9
8.64 24.33 0.45
2.55 7.19 -1.76
3.21 9.04 -1.86
3.99 11.23 -1.89
8.45 23.81 3.1
5.2 14.65 -1.91
7.15 20.15 -1.87
7.14 20.12 -1.12
8.73 24.6 6.03
11.52 32.47 -0.6
2.39 6.66 -1.9
8.76 24.41 0.45
2.58 7.19 -1.76
10.07 28.05 1.56
3.24 9.03 -1.86
7.76 21.63 2.01
4.02 11.21 -1.89
8.54 23.79 3.1
5.26 14.65 -1.91
7.23 20.15 -1.87
8.88 24.74 5.11
7.22 20.13 -1.12
8.15 22.72 5.57
2.41 6.64 -1.89
2.61 7.19 -1.76
3.27 9.01 -1.86
7.86 21.66 2.02
4.06 11.2 -1.89
9.14 25.18 3.29
5.3 14.61 -1.91
11.08 30.55 5.15
7.77 21.41 -1.99
8.22 22.66 5.57
9.87 27.21 -0.51
10.29 28.36 8.08
2.43 6.62 -1.89
9.54 26.01 0.48
2.63 7.18 -1.76
3.3 8.99 -1.86
4.1 11.18 -1.89
5.35 14.59 -1.91
8.57 23.37 3.94
7.88 21.49 -2
9.22 25.15 -1.4
9.94 27.1 -0.5
2.45 6.62 -1.89
9.62 25.96 0.48
2.65 7.15 -1.76
3.33 8.98 -1.86
9.72 26.22 2.45
4.13 11.14 -1.88
9.71 26.19 3.43
5.41 14.6 -1.91
7.98 21.53 -2.01
9.23 24.9 -1.39
10.59 28.56 7.03
10.03 27.06 -0.5
2.47 6.6 -1.89
9.72 25.93 0.48
2.68 7.16 -1.77
9.69 25.86 1.45
3.36 8.97 -1.86
9.71 25.91 2.42
4.17 11.13 -1.88
9.79 26.14 3.43
5.48 14.62 -1.92
8.04 21.46 -2.01
8.17 21.81 -1.22
10.15 27.09 -0.5
8.97 23.94 6.85
2.51 6.62 -1.9
9.79 25.84 0.48
2.72 7.18 -1.77
3.39 8.96 -1.86
9.72 25.67 2.4
4.21 11.11 -1.88
8.42 22.23 2.92
5.53 14.61 -1.92
8.12 21.45 -2.01
8.2 21.66 -1.21
9.05 23.91 6.85
2.54 6.63 -1.9
9.9 25.88 0.48
2.74 7.17 -1.77
10.26 26.82 1.51
3.42 8.94 -1.86
9.92 25.91 2.43
4.25 11.1 -1.88
5.59 14.6 -1.92
16.83 43.98 7.46
8.23 21.5 -2.01
8.29 21.65 -1.22
9.7 25.36 6.27
11.53 30.13 -0.56
2.57 6.64 -1.91
10.41 26.92 0.5
2.77 7.16 -1.77
10.35 26.76 1.5
3.45 8.92 -1.86
9.97 25.79 2.42
4.29 11.08 -1.88
9.69 25.07 3.3
5.65 14.6 -1.92
8.28 21.4 -2.01
8.37 21.65 -1.22
10.28 26.58 6.58
11.59 29.98 -0.56
2.6 6.65 -1.91
10.53 26.94 0.5
2.8 7.16 -1.78
10.45 26.75 1.5
3.48 8.91 -1.86
10.33 26.44 2.48
4.32 11.05 -1.88
5.69 14.57 -1.92
8.35 21.38 -2.01
8.66 22.16 -1.25
11.66 29.85 -0.56
12.14 31.06 8.94
2.63 6.67 -1.92
9.54 24.16 0.45
2.82 7.15 -1.77
10.59 26.84 1.51
3.52 8.91 -1.86
8.6 21.78 2.05
4.36 11.04 -1.88
10.56 26.76 3.53
5.75 14.56 -1.92
8.45 21.42 -2.01
8.82 22.34 -1.26
2.65 6.65 -1.92
9.66 24.22 0.46
2.84 7.13 -1.77
8.32 20.86 1.18
3.55 8.89 -1.86
10.35 25.95 2.44
4.4 11.03 -1.88
9.95 24.96 3.3
5.81 14.57 -1.93
10.69 26.8 4.57
8.52 21.37 -2.01
8.9 22.33 -1.26
11.81 29.62 -0.56
2.64 6.55 -1.89
9.7 24.1 0.45
2.87 7.13 -1.77
3.57 8.87 -1.86
10.56 26.22 2.47
4.44 11.02 -1.88
10.02 24.9 3.3
5.88 14.6 -1.93
9.18 22.8 3.89
8.57 21.28 -2.01
10.22 25.37 -1.43
10.05 24.97 6.21
7.81 19.4 5.6
2.67 6.56 -1.9
9.86 24.24 0.46
2.9 7.13 -1.78
8.52 20.95 1.19
3.6 8.85 -1.86
8.81 21.66 2.05
4.47 11 -1.88
9.4 23.12 3.06
5.93 14.58 -1.93
9.25 22.73 3.89
8.64 21.24 -2.01
8.82 21.7 -1.23
7.8 19.18 5.55
2.69 6.56 -1.9
9.85 23.97 0.45
2.94 7.15 -1.79
8.53 20.77 1.18
3.64 8.85 -1.86
8.87 21.59 2.04
4.51 10.98 -1.88
9.38 22.81 3.03
5.99 14.57 -1.93
9.64 23.46 4.02
10.7 26.05 5.47
10.33 25.14 -1.42
10.13 24.65 6.15
10.13 24.65 7.14
2.75 6.62 -1.92
10.26 24.72 0.47
2.96 7.13 -1.78
3.67 8.83 -1.86
9 21.68 2.05
4.55 10.96 -1.88
9.48 22.84 3.04
6.04 14.56 -1.94
9.34 22.5 3.86
8.84 21.29 -2.02
11 26.51 5.58
10 24.1 -1.37
10.56 25.45 6.36
12.55 30.24 -0.57
10.23 24.64 7.15
2.76 6.58 -1.91
10.36 24.73 0.47
2.98 7.11 -1.78
3.69 8.82 -1.86
4.59 10.95 -1.88
10.8 25.77 3.43
6.1 14.56 -1.94
9.41 22.47 3.86
8.9 21.25 -2.02
10.09 24.08 5.07
9.06 21.62 -1.23
12.62 30.12 -0.57
10.33 24.65 7.16
2.78 6.56 -1.91
10.37 24.51 0.46
3.01 7.12 -1.78
3.72 8.8 -1.86
11.44 27.04 2.57
4.62 10.93 -1.88
10.88 25.73 3.43
6.16 14.57 -1.94
11.08 26.2 4.51
8.94 21.13 -2.01
9.13 21.58 -1.23
2.81 6.57 -1.91
10.09 23.61 0.45
3.04 7.12 -1.79
3.75 8.79 -1.86
4.66 10.92 -1.88
10.98 25.72 3.43
6.21 14.55 -1.94
10.9 25.52 4.39
9.09 21.27 -2.02
10.87 25.44 5.38
10.49 24.56 -1.4
11.18 26.17 6.57
10.73 25.12 -0.48
10.48 24.53 7.15
2.83 6.56 -1.91
10.14 23.52 0.45
3.07 7.11 -1.79
3.79 8.79 -1.86
18.81 43.62 4.16
4.7 10.89 -1.88
11.1 25.74 3.44
6.27 14.54 -1.94
10.98 25.45 4.39
9.17 21.26 -2.03
10.85 25.16 5.33
9.43 21.86 -1.25
11.24 26.05 6.55
10.8 25.04 -0.48
10.52 24.38 7.11
2.87 6.59 -1.92
10.14 23.29 0.44
3.09 7.11 -1.79
3.82 8.77 -1.86
4.73 10.87 -1.88
11.75 26.99 3.61
6.33 14.53 -1.95
11.08 25.45 4.4
9.26 21.28 -2.03
10.94 25.12 5.33
10.3 23.65 -1.35
11.36 26.09 6.57
10.83 24.87 -0.47
2.88 6.56 -1.92
10.14 23.06 0.44
3.12 7.1 -1.79
3.85 8.75 -1.86
11.44 26.02 2.49
4.77 10.85 -1.88
11.91 27.08 3.63
6.38 14.52 -1.95
9.33 21.23 -2.03
11.12 25.29 5.37
10.35 23.54 -1.35
14.13 32.15 8.11
10.83 24.63 -0.47
14.11 32.09 9.39
2.92 6.57 -1.93
10.3 23.22 0.44
3.15 7.1 -1.79
3.87 8.73 -1.86
4.81 10.84 -1.88
14.47 32.6 4.38
6.44 14.51 -1.95
11.14 25.1 4.35
9.42 21.23 -2.03
10.55 23.78 -1.36
2.93 6.53 -1.92
10.49 23.42 0.45
3.18 7.1 -1.8
3.9 8.71 -1.86
4.85 10.82 -1.88
11.36 25.36 3.41
6.5 14.5 -1.95
11.19 24.98 4.33
9.54 21.29 -2.04
11.77 26.29 5.6
9.72 21.7 -1.25
11.09 24.75 6.26
9.88 22.06 -0.42
9.31 20.78 6.1
2.95 6.53 -1.92
10.61 23.47 0.45
3.21 7.09 -1.8
13.51 29.88 1.72
3.93 8.7 -1.86
4.88 10.79 -1.88
12.6 27.88 3.76
6.55 14.49 -1.95
11 24.33 4.23
9.65 21.34 -2.05
9.7 21.47 -1.23
11.18 24.75 6.27
2.98 6.54 -1.93
10.81 23.71 0.45
3.23 7.09 -1.8
3.97 8.7 -1.86
14.62 32.05 3.08
4.91 10.77 -1.87
14.57 31.95 4.31
6.61 14.49 -1.96
11.46 25.13 4.38
9.68 21.22 -2.04
10.44 22.89 -1.32
18.69 40.97 10.39
11.31 24.79 -0.48
11.18 24.51 7.22
3.01 6.53 -1.93
10.87 23.61 0.45
3.26 7.08 -1.8
14.71 31.95 1.84
3.99 8.67 -1.86
4.95 10.76 -1.88
12.61 27.4 3.7
6.64 14.43 -1.95
18.28 39.71 6.92
9.79 21.27 -2.05
10.5 22.81 -1.32
11.37 24.71 6.28
11.37 24.7 -0.47
11.26 24.46 7.22
3.03 6.53 -1.93
11.05 23.78 0.46
3.29 7.07 -1.8
14.81 31.88 1.84
4.02 8.65 -1.85
12.51 26.93 2.6
4.99 10.73 -1.87
6.68 14.38 -1.95
14.42 31.04 5.42
9.88 21.26 -2.05
14.36 30.91 6.62
10.47 22.55 -1.3
11.48 24.71 6.29
11.43 24.61 -0.47
14.26 30.69 9.07
3.06 6.52 -1.93
11.29 24.08 0.46
3.31 7.07 -1.8
14.69 31.33 1.81
4.05 8.64 -1.85
9.79 20.89 2.02
5.02 10.71 -1.87
14.59 31.12 4.22
6.73 14.36 -1.95
14.52 30.97 5.42
9.97 21.26 -2.05
11.33 24.17 5.19
10.55 22.51 -1.3
11.6 24.74 6.31
11.55 24.63 -0.47
11.09 23.64 7
3.06 6.47 -1.92
14.89 31.47 0.61
3.35 7.08 -1.81
14.8 31.29 1.81
4.08 8.62 -1.85
12.75 26.94 2.61
5.05 10.68 -1.87
14.7 31.08 4.22
6.78 14.33 -1.95
10.07 21.28 -2.06
11.38 24.06 5.17
10.98 23.2 -1.35
14.96 31.63 -0.61
10.98 23.2 6.88
3.01 6.31 -1.87
11.06 23.17 0.45
3.37 7.06 -1.81
4.11 8.61 -1.86
12.81 26.83 2.6
5.09 10.66 -1.87
11.61 24.33 3.31
6.82 14.29 -1.94
11.26 23.58 4.14
10.13 21.23 -2.06
11.13 23.32 -1.35
12.3 25.76 6.59
10.63 22.27 -0.43
3.03 6.3 -1.87
11.37 23.6 0.46
3.4 7.07 -1.81
15.53 32.23 1.87
4.14 8.6 -1.86
15.61 32.4 3.15
5.13 10.65 -1.87
11.68 24.25 3.31
6.88 14.28 -1.95
15.63 32.44 5.7
10.12 21.02 -2.04
14.92 30.97 6.68
11.11 23.06 -1.34
11.46 23.78 6.09
10.39 21.57 -0.42
11.43 23.74 7.06
3.09 6.37 -1.9
11.63 23.94 0.46
3.43 7.06 -1.81
15.65 32.21 1.88
4.16 8.57 -1.85
15.68 32.28 3.14
5.17 10.63 -1.87
15.7 32.31 4.41
6.93 14.26 -1.95
15.69 32.31 5.69
10.2 21 -2.04
11.18 23.02 4.98
10.49 21.59 -1.26
11.53 23.73 6.09
10.79 22.21 -0.43
11.49 23.65 7.04
3.08 6.29 -1.88
15.12 30.86 0.6
3.46 7.07 -1.82
15.31 31.24 1.82
4.2 8.56 -1.85
5.2 10.61 -1.87
10.82 22.07 3.02
6.99 14.25 -1.95
10.31 21.03 -2.05
9.59 19.57 4.24
12.47 25.44 -1.48
15.84 32.33 8.31
10.78 21.99 -0.43
11.53 23.53 7.02
3.09 6.26 -1.87
11.39 23.03 0.45
3.49 7.06 -1.82
4.23 8.55 -1.85
5.24 10.58 -1.87
7.04 14.24 -1.95
10.38 20.98 -2.05
10.73 21.69 -1.27
20.17 40.78 10.5
10.99 22.21 -0.43
3.05 6.11 -1.83
11.01 22.07 0.43
3.51 7.03 -1.81
4.26 8.53 -1.85
13.08 26.22 2.56
5.27 10.57 -1.87
12.15 24.35 3.34
7.08 14.19 -1.95
11.17 22.38 3.96
10.45 20.94 -2.05
9.76 19.56 4.25
12.63 25.31 -1.48
19.8 39.68 10.24
10.76 21.56 -0.42
10.39 20.82 6.24
3.19 6.34 -1.9
15.66 31.12 0.61
3.5 6.95 -1.8
4.28 8.51 -1.85
13.17 26.17 2.56
5.31 10.55 -1.87
11.12 22.08 3.04
7.13 14.16 -1.95
11.33 22.51 3.99
10.54 20.95 -2.05
9.7 19.26 4.19
11.13 22.12 -1.3
20.28 40.29 10.41
10.64 21.14 -0.41
12.65 25.13 7.54
3.19 6.28 -1.89
3.57 7.03 -1.82
15.58 30.68 1.8
4.31 8.49 -1.85
5.35 10.53 -1.87
11.23 22.11 3.05
7.18 14.14 -1.95
10.68 21.04 -2.06
9.73 19.17 4.18
12.81 25.22 -1.48
11.48 22.61 5.85
10.97 21.61 -0.42
12.77 25.16 7.56
3.24 6.33 -1.91
3.6 7.03 -1.82
15.77 30.81 1.81
4.34 8.48 -1.85
15.76 30.78 3.03
5.38 10.51 -1.87
11.07 21.62 2.98
7.23 14.12 -1.95
10.8 21.1 -2.07
11.68 22.82 -1.34
11.52 22.5 5.84
10.96 21.41 -0.42
12.96 25.31 7.62
3.26 6.31 -1.9
11.61 22.48 0.44
3.64 7.04 -1.83
4.37 8.46 -1.85
15.88 30.76 3.03
5.41 10.48 -1.87
15.82 30.64 4.23
7.28 14.09 -1.95
15.84 30.68 5.47
10.88 21.07 -2.07
10.04 19.45 4.25
11.78 22.81 -1.35
11.57 22.41 5.82
13.08 25.33 7.64
3.24 6.21 -1.88
11.23 21.55 0.42
3.64 6.99 -1.82
4.4 8.45 -1.85
23.43 44.97 4.44
5.45 10.46 -1.87
15.93 30.58 4.23
7.32 14.06 -1.95
15.92 30.56 5.46
11.03 21.17 -2.09
15.86 30.44 6.67
11.51 22.1 -1.31
13.18 25.3 6.59
11.24 21.56 -0.42
13.38 25.67 7.76
3.22 6.13 -1.85
11.73 22.33 0.44
3.69 7.03 -1.83
4.43 8.43 -1.85
5.49 10.44 -1.87
20.63 39.26 5.45
7.36 14.01 -1.94
15.83 30.13 5.39
10.65 20.27 -2
11.57 22.02 -1.3
13.26 25.23 6.58
15.96 30.38 9.19
3.32 6.27 -1.9
11.8 22.27 0.44
3.71 6.99 -1.83
4.45 8.4 -1.85
12.52 23.63 2.34
5.52 10.43 -1.87
20.81 39.27 5.46
7.41 13.98 -1.94
21.21 40.02 7.17
11.1 20.95 -2.07
11.84 22.35 -1.33
13.41 25.3 -0.5
16.06 30.3 9.19
3.34 6.25 -1.9
11.87 22.21 0.44
3.75 7.02 -1.84
4.48 8.38 -1.85
12.58 23.55 2.34
5.56 10.4 -1.87
20.94 39.19 5.46
7.46 13.96 -1.94
14.71 27.53 4.94
11.18 20.92 -2.08
10.62 19.88 4.38
10.4 19.47 5.1
11.56 21.64 -0.43
10.78 20.17 6.13
3.37 6.25 -1.9
11.99 22.25 0.44
3.78 7.01 -1.84
4.51 8.37 -1.85
12.74 23.65 2.35
5.59 10.37 -1.87
21.71 40.31 5.62
7.51 13.94 -1.94
21.17 39.29 7.07
10.93 20.29 -2.02
12.42 23.06 5.09
12.39 23.01 -1.37
16.14 29.96 7.86
13.45 24.97 -0.5
3.38 6.22 -1.9
11.62 21.4 0.43
3.78 6.96 -1.83
4.54 8.35 -1.85
12.81 23.59 2.35
5.62 10.34 -1.86
16.66 30.69 4.29
7.55 13.9 -1.94
16.47 30.34 5.47
11.29 20.79 -2.07
12.43 22.88 5.06
12.52 23.05 -1.37
10.63 19.58 5.14
13.35 24.58 7.5
3.38 6.16 -1.88
12.05 22 0.44
3.81 6.95 -1.83
4.56 8.33 -1.85
5.66 10.33 -1.87
22.07 40.29 5.64
7.58 13.85 -1.94
21.25 38.8 7.01
11.41 20.82 -2.08
12.52 22.85 5.07
12.43 22.69 -1.36
11.02 20.13 5.3
11.01 20.11 6.14
3.38 6.12 -1.87
11.9 21.56 0.43
3.83 6.93 -1.83
4.59 8.3 -1.84
12.42 22.49 2.25
5.69 10.31 -1.87
22.21 40.22 5.64
7.63 13.82 -1.94
16.88 30.57 5.53
11.47 20.77 -2.08
10.45 18.93 4.2
12.61 22.84 -1.37
11.15 20.19 5.32
13.77 24.94 -0.5
13.27 24.04 7.36
3.39 6.1 -1.87
16.35 29.37 0.59
3.87 6.96 -1.84
4.61 8.28 -1.84
12.5 22.44 2.25
5.73 10.28 -1.86
22.28 40.02 5.62
7.68 13.79 -1.94
11.49 20.63 -2.07
12.62 22.66 5.04
12.89 23.15 -1.39
14.09 25.31 6.69
13.41 24.08 7.38
3.37 6 -1.84
3.89 6.93 -1.83
21.76 38.77 2.33
4.64 8.27 -1.84
21.82 38.88 3.9
5.76 10.26 -1.86
21.7 38.67 5.44
7.72 13.75 -1.94
11.15 19.87 3.61
11.57 20.61 -2.07
12.86 22.9 -1.38
11.38 20.28 5.37
12.6 22.45 -0.45
11.43 20.36 6.26
3.46 6.1 -1.88
14.6 25.78 0.52
3.93 6.94 -1.84
14.53 25.66 1.55
4.67 8.25 -1.84
12.55 22.16 2.23
5.79 10.23 -1.86
16.5 29.14 4.11
7.76 13.71 -1.93
11.6 20.48 -2.06
12.82 22.64 5.06
12.79 22.59 -1.36
14.1 24.9 6.61
14.6 25.78 -0.52
11.74 20.74 6.39
3.48 6.1 -1.88
14.66 25.68 0.52
3.95 6.93 -1.84
14.65 25.67 1.55
4.7 8.23 -1.84
14.9 26.11 2.63
5.82 10.2 -1.86
7.8 13.67 -1.93
12.5 21.91 4
11.65 20.41 -2.06
12.93 22.65 5.07
12.97 22.72 -1.37
21.47 37.62 10
14.68 25.72 -0.52
20.29 35.55 10.97
3.48 6.06 -1.87
14.37 25 0.5
3.94 6.86 -1.83
13.37 23.24 1.41
4.27 7.43 -1.67
14.76 25.67 2.59
5.86 10.19 -1.86
11.55 20.09 2.85
7.84 13.63 -1.93
12.54 21.81 3.98
11.75 20.44 -2.06
13 22.61 5.07
13.32 23.16 -1.4
14.71 25.58 -0.52
3.46 5.98 -1.85
15.03 25.93 0.52
4.04 6.97 -1.86
14.97 25.83 1.56
4.29 7.4 -1.66
12.15 20.97 2.12
5.89 10.17 -1.86
11.56 19.95 2.83
7.88 13.59 -1.93
13.87 23.93 4.38
11.87 20.48 -2.07
13.07 22.55 5.07
12.9 22.27 -1.35
21.74 37.51 10.01
13.42 23.16 -0.47
11.97 20.65 6.4
3.41 5.84 -1.81
14.09 24.1 0.49
4.06 6.95 -1.86
4.77 8.17 -1.84
12.27 20.99 2.13
5.92 10.13 -1.86
11.55 19.76 2.81
7.93 13.56 -1.93
25.19 43.1 7.91
11.95 20.45 -2.07
13.15 22.5 5.07
13.05 22.33 -1.36
15.2 26.01 -0.53
12.02 20.56 6.38
3.48 5.91 -1.84
12.54 21.28 0.43
4.07 6.91 -1.85
12.24 20.78 1.26
4.8 8.14 -1.84
12.86 21.83 2.22
5.95 10.1 -1.86
12.34 20.94 2.98
7.97 13.53 -1.93
14.89 25.27 4.65
12.01 20.39 -2.07
14.84 25.19 5.68
13.02 22.1 -1.34
14.81 25.14 6.74
15.11 25.65 -0.52
14.71 24.97 7.76
3.5 5.9 -1.84
4.11 6.92 -1.86
12.31 20.73 1.26
14.91 25.11 2.55
5.99 10.09 -1.86
15.29 25.75 3.68
8.01 13.49 -1.93
14.95 25.17 4.64
12.09 20.35 -2.07
14.93 25.13 5.68
13.74 23.13 -1.41
14.88 25.06 6.73
15.06 25.35 -0.51
14.86 25.02 7.8
3.39 5.66 -1.77
4.14 6.92 -1.86
11.94 19.95 1.22
4.85 8.09 -1.83
15.01 25.08 2.56
6.02 10.06 -1.86
15.01 25.07 3.59
8.06 13.46 -1.93
12.82 21.42 3.95
12.17 20.33 -2.07
13.05 21.8 -1.33
15.21 25.41 -0.52
3.37 5.59 -1.75
14.89 24.67 0.5
4.18 6.93 -1.87
15.4 25.53 1.56
4.87 8.07 -1.83
13.55 22.45 2.29
6.06 10.03 -1.86
15.1 25.03 3.59
8.1 13.43 -1.93
12.88 21.35 3.95
12.24 20.28 -2.07
19.86 32.91 7.47
13.49 22.35 -1.37
15.58 25.82 6.96
15.24 25.26 -0.52
14.6 24.2 7.57
3.39 5.58 -1.75
14.99 24.65 0.5
4.21 6.92 -1.87
12.54 20.62 1.26
4.86 7.98 -1.82
12.63 20.78 2.13
6.08 10 -1.85
20.13 33.1 4.76
8.14 13.39 -1.92
19.93 32.78 6.08
12.32 20.26 -2.08
12.58 20.68 4.71
13.64 22.42 -1.38
15.39 25.31 6.84
15.19 24.98 -0.51
15.13 24.88 7.8
3.42 5.58 -1.76
15.1 24.64 0.5
4.22 6.88 -1.86
4.6 7.5 -1.71
12.67 20.66 2.12
6.11 9.97 -1.85
12.21 19.92 2.87
8.18 13.35 -1.92
20.12 32.82 6.1
12.43 20.28 -2.08
13.67 22.3 5.08
13.65 22.27 -1.37
13.17 21.48 5.82
15.4 25.12 -0.51
14.53 23.69 7.45
3.45 5.59 -1.76
15.38 24.9 0.51
4.22 6.83 -1.85
14.09 22.8 1.4
4.59 7.43 -1.7
12.74 20.63 2.12
6.14 9.95 -1.85
15.62 25.28 3.65
8.22 13.31 -1.92
12.54 20.31 -2.09
12.93 20.93 4.78
13.69 22.17 -1.37
15.23 24.65 6.69
14.5 23.48 7.39
3.45 5.55 -1.75
15.16 24.34 0.5
4.24 6.81 -1.85
15.58 25.02 1.54
4.64 7.44 -1.7
12.9 20.72 2.14
6.18 9.93 -1.85
11.88 19.08 2.76
8.27 13.28 -1.92
19.39 31.13 5.81
12.68 20.36 -2.1
12.24 19.66 4.5
14.3 22.96 -1.42
13.13 21.08 5.73
15.4 24.73 -0.51
14.8 23.77 7.5
3.47 5.53 -1.75
15.41 24.56 0.51
4.25 6.77 -1.85
15.55 24.79 1.53
4.66 7.43 -1.71
12.8 20.4 2.11
6.21 9.9 -1.85
20.71 33.01 4.78
8.31 13.24 -1.92
19.53 31.12 5.82
12.77 20.35 -2.1
12.32 19.63 4.51
14.03 22.37 -1.38
15.43 24.59 6.7
15.37 24.5 -0.5
13 20.72 6.55
3.49 5.52 -1.75
15.94 25.2 0.52
4.3 6.8 -1.86
4.7 7.43 -1.71
12.96 20.49 2.12
6.24 9.87 -1.85
16.02 25.34 3.68
8.35 13.2 -1.92
12.96 20.49 3.84
12.85 20.32 -2.1
12.68 20.04 4.61
14.23 22.5 -1.4
18.8 29.73 8.12
15.48 24.47 -0.51
12 18.97 6.01
3.5 5.5 -1.75
15.59 24.46 0.51
4.34 6.81 -1.86
15.63 24.52 1.52
4.71 7.39 -1.7
12.76 20.03 2.08
6.27 9.85 -1.85
11.95 18.75 2.73
8.39 13.16 -1.92
14.42 22.63 4.25
12.95 20.33 -2.11
12.42 19.49 4.49
14.1 22.12 -1.37
18.88 29.63 8.11
15.46 24.26 -0.5
12.08 18.96 6.03
3.53 5.5 -1.75
15.87 24.71 0.51
4.36 6.79 -1.86
16.03 24.96 1.55
4.75 7.39 -1.71
12.97 20.19 2.1
6.31 9.82 -1.85
12.95 20.16 2.94
8.42 13.11 -1.91
13.33 20.76 3.91
13.06 20.33 -2.11
13.17 20.5 4.74
14.14 22.01 -1.37
15.71 24.46 -0.51
12.17 18.95 6.03
3.55 5.48 -1.75
16.56 25.6 0.53
4.38 6.77 -1.86
20.77 32.09 2
4.77 7.38 -1.71
12.85 19.87 2.07
6.34 9.8 -1.85
15.99 24.71 3.61
8.46 13.08 -1.91
14.82 22.91 4.32
13.17 20.36 -2.12
13.3 20.55 4.76
14.32 22.13 -1.38
19.12 29.54 8.12
16.02 24.75 -0.51
13.4 20.71 6.61
3.56 5.46 -1.75
16.75 25.7 0.54
4.41 6.76 -1.86
4.8 7.37 -1.71
16.13 24.75 2.58
6.37 9.78 -1.85
16.53 25.35 3.72
8.51 13.05 -1.91
12.8 19.63 3.71
13.26 20.34 -2.12
13.34 20.46 4.75
15.58 23.9 -1.5
16.27 24.95 -0.52
3.55 5.41 -1.74
16.86 25.67 0.54
4.45 6.77 -1.87
16.07 24.47 1.53
4.83 7.36 -1.71
20.81 31.69 3.32
6.4 9.74 -1.85
16.63 25.32 3.72
8.55 13.02 -1.91
14.93 22.73 4.31
16.35 24.9 5.79
14.22 21.65 -1.36
15.96 24.29 -0.51
12.48 19 6.09
3.58 5.42 -1.74
21.13 31.93 0.67
4.47 6.75 -1.87
16.12 24.36 1.53
4.85 7.33 -1.71
13.39 20.22 2.12
6.43 9.72 -1.85
16.74 25.3 3.72
8.59 12.97 -1.91
8.91 13.46 -1.41
13.52 20.42 4.76
15.87 23.97 -1.51
16.09 24.31 -0.51
3.63 5.44 -1.75
16.23 24.33 0.51
4.48 6.73 -1.87
16.22 24.32 1.53
4.9 7.36 -1.72
13.36 20.04 2.11
6.47 9.7 -1.85
16.68 25.02 3.69
8.62 12.92 -1.91
15.57 23.35 4.45
8.92 13.38 -1.41
14.07 21.1 4.93
15.45 23.17 -1.46
16.23 24.34 -0.51
22.65 33.97 10.94
3.62 5.39 -1.74
16.32 24.29 0.51
4.51 6.71 -1.87
14.17 21.09 1.33
4.93 7.34 -1.72
13.64 20.31 2.14
6.5 9.67 -1.85
13.09 19.49 2.88
8.66 12.89 -1.91
8.94 13.32 -1.4
22.35 33.27 9.25
16.26 24.2 -0.51
3.62 5.35 -1.73
4.53 6.69 -1.86
16.76 24.77 1.57
4.95 7.32 -1.72
13.62 20.12 2.13
6.53 9.65 -1.85
13.21 19.52 2.89
8.7 12.86 -1.91
15.2 22.46 4.29
9 13.3 -1.4
13.19 19.5 4.58
15.51 22.92 7.42
3.62 5.31 -1.72
4.55 6.67 -1.86
21.57 31.63 2.01
4.99 7.32 -1.72
21.47 31.49 3.33
6.55 9.61 -1.84
16.93 24.83 3.69
8.74 12.82 -1.91
16.31 23.92 -1.52
16.49 24.18 -0.51
3.67 5.35 -1.74
21.03 30.61 0.65
4.58 6.67 -1.87
5.02 7.31 -1.72
21.59 31.43 3.34
6.59 9.59 -1.84
16.66 24.25 3.61
8.78 12.78 -1.9
15.38 22.39 4.3
16.6 24.17 -0.51
3.7 5.35 -1.74
25.84 37.33 0.79
4.6 6.65 -1.87
5.05 7.3 -1.73
16.37 23.65 2.52
6.62 9.57 -1.84
16.3 23.55 3.52
8.82 12.74 -1.9
15.43 22.29 4.29
15.49 22.37 -1.43
3.71 5.32 -1.74
16.64 23.87 0.51
4.68 6.72 -1.89
5.07 7.28 -1.72
6.65 9.54 -1.84
13.66 19.59 2.93
8.85 12.7 -1.9
22 31.56 6.09
16.17 23.2 -1.48
25.88 37.12 -0.79
3.75 5.35 -1.75
4.7 6.69 -1.89
5.11 7.28 -1.73
6.68 9.51 -1.84
16.29 23.19 3.48
8.89 12.66 -1.9
14.05 20.01 3.87
22.1 31.47 -0.67
3.81 5.38 -1.77
25.87 36.57 0.78
4.73 6.68 -1.89
5.15 7.28 -1.73
6.71 9.48 -1.84
16.42 23.21 3.49
8.93 12.63 -1.9
14.02 19.83 3.85
16.37 23.15 -1.49
22.18 31.35 8.87
25.9 36.61 -0.78
3.84 5.38 -1.77
21.97 30.81 0.66
4.72 6.62 -1.88
5.18 7.27 -1.73
16.99 23.82 2.56
6.74 9.45 -1.84
16.19 22.71 3.42
8.98 12.59 -1.9
22.23 31.18 6.07
9.09 12.75 -1.37
22.61 31.71 7.57
16.15 22.65 -1.46
22.21 31.15 8.83
26.15 36.68 -0.79
22.18 31.11 10.24
3.85 5.36 -1.77
22.05 30.71 0.66
4.74 6.6 -1.88
5.21 7.26 -1.74
16.66 23.2 2.5
6.77 9.43 -1.84
16.38 22.81 3.45
9.01 12.55 -1.9
14.34 19.97 3.89
16.42 22.87 -1.48
25.83 35.97 10.22
22.11 30.78 -0.66
21.59 30.07 9.92
3.87 5.35 -1.77
26.44 36.55 0.79
4.76 6.58 -1.87
5.24 7.24 -1.74
16.8 23.22 2.51
6.8 9.4 -1.84
16.46 22.75 3.45
9.04 12.5 -1.89
9.18 12.69 -1.37
19.42 26.85 7.65
3.89 5.33 -1.77
4.78 6.56 -1.88
5.27 7.23 -1.74
17.16 23.55 2.55
6.83 9.37 -1.84
19.25 26.42 4.01
9.09 12.48 -1.9
30.85 42.34 8.3
9.13 12.53 -1.36
22.38 30.72 10.19
3.91 5.33 -1.77
11.63 15.83 0.34
4.79 6.52 -1.87
11.64 15.85 1.03
5.31 7.23 -1.74
20.22 27.54 2.99
6.86 9.35 -1.84
16.98 23.13 3.52
9.14 12.45 -1.9
9.18 12.51 -1.36
11.65 15.87 -0.34
22.48 30.61 10.18
3.92 5.31 -1.77
11.7 15.82 0.34
4.82 6.52 -1.87
11.64 15.74 1.03
5.34 7.22 -1.75
20.93 28.3 3.08
6.88 9.31 -1.83
17.08 23.09 3.53
9.17 12.4 -1.89
22.27 30.12 5.93
9.25 12.5 -1.36
19.97 27.01 6.53
20.53 27.76 -0.6
3.94 5.29 -1.77
20.56 27.59 0.6
4.88 6.55 -1.89
5.37 7.21 -1.75
20.95 28.11 3.07
6.92 9.29 -1.83
20.95 28.11 4.3
9.22 12.37 -1.89
20.96 28.13 5.56
9.31 12.49 -1.36
20.68 27.75 -0.6
3.97 5.29 -1.77
4.91 6.55 -1.89
11.68 15.56 1.02
5.4 7.19 -1.75
20.75 27.65 3.02
6.95 9.26 -1.83
21.06 28.07 4.31
9.25 12.33 -1.89
21.02 28.01 5.55
9.37 12.49 -1.37
21.01 28 6.81
20.58 27.43 7.92
21.4 28.52 -0.62
20.9 27.85 9.33
3.98 5.27 -1.77
4.95 6.55 -1.9
5.43 7.18 -1.75
27.66 36.6 4.01
6.98 9.24 -1.83
9.29 12.29 -1.89
9.4 12.44 -1.36
21.11 27.93 6.8
20.12 26.62 7.7
20.65 27.32 9.18
4 5.25 -1.77
4.95 6.51 -1.89
5.46 7.18 -1.75
7 9.2 -1.83
20.84 27.38 4.22
9.34 12.27 -1.89
20.23 26.58 5.29
9.44 12.41 -1.36
23.17 30.44 10.25
4.03 5.26 -1.78
5.02 6.55 -1.9
27.16 35.42 2.34
5.49 7.16 -1.75
7.04 9.18 -1.83
20.92 27.28 4.22
9.37 12.22 -1.89
9.53 12.43 -1.37
19.55 25.5 6.25
4.05 5.24 -1.78
5.03 6.51 -1.9
20.78 26.9 1.78
5.53 7.16 -1.76
7.07 9.15 -1.83
21.01 27.21 4.22
9.41 12.18 -1.89
26.29 34.04 6.81
9.6 12.43 -1.37
4.07 5.24 -1.78
5.05 6.49 -1.9
21.08 27.1 1.8
5.56 7.14 -1.76
7.1 9.13 -1.83
9.44 12.14 -1.89
9.67 12.43 -1.38
4.08 5.21 -1.77
21.47 27.4 0.61
5 6.38 -1.87
5.59 7.14 -1.76
19.33 24.67 2.74
7.12 9.09 -1.83
9.48 12.1 -1.89
9.71 12.39 -1.38
22.81 29.11 7.19
4.11 5.2 -1.78
5.03 6.37 -1.87
5.63 7.14 -1.77
7.16 9.07 -1.83
9.53 12.08 -1.89
9.79 12.4 -1.38
22.9 29.02 7.18
4.14 5.21 -1.78
5.05 6.35 -1.87
5.67 7.13 -1.77
7.18 9.03 -1.83
27.01 33.97 5.33
9.57 12.04 -1.89
22.01 27.69 5.6
9.88 12.43 -1.39
4.15 5.19 -1.78
5.7 7.12 -1.77
7.21 9.01 -1.83
9.59 11.98 -1.88
9.95 12.44 -1.39
21.47 26.82 7.93
4.18 5.18 -1.78
5.12 6.35 -1.88
5.74 7.12 -1.78
7.24 8.98 -1.83
9.64 11.96 -1.89
10.03 12.44 -1.4
4.19 5.16 -1.78
5.17 6.37 -1.89
5.76 7.1 -1.78
7.28 8.96 -1.83
9.68 11.91 -1.88
10.16 12.51 -1.41
22.32 27.48 6.88
4.21 5.15 -1.78
21.87 26.74 0.6
5.21 6.37 -1.9
5.79 7.08 -1.78
7.3 8.93 -1.83
9.71 11.87 -1.88
10.16 12.43 -1.4
4.24 5.15 -1.79
5.18 6.28 -1.88
5.82 7.07 -1.78
7.33 8.9 -1.83
9.74 11.83 -1.88
10.3 12.5 -1.42
23.48 28.5 8.53
4.27 5.15 -1.79
5.19 6.26 -1.88
5.87 7.07 -1.79
7.36 8.87 -1.83
9.76 11.77 -1.88
26.08 31.44 6.47
10.38 12.51 -1.42
23.55 28.39 8.52
4.29 5.13 -1.79
5.21 6.24 -1.88
5.89 7.05 -1.79
7.39 8.85 -1.83
9.8 11.73 -1.88
20.74 24.83 5.12
20.86 24.98 7.51
4.3 5.11 -1.79
5.24 6.23 -1.88
5.91 7.03 -1.79
7.42 8.82 -1.83
9.84 11.69 -1.88
22.13 26.31 5.44
10.46 12.44 -1.42
4.3 5.08 -1.78
5.26 6.21 -1.88
5.95 7.03 -1.79
7.43 8.78 -1.82
9.86 11.64 -1.87
22.47 26.53 5.51
10.57 12.48 -1.43
23.08 27.26 8.25
23.8 28.1 9.87
4.33 5.07 -1.79
5.27 6.17 -1.87
25.29 29.66 2.04
6 7.04 -1.8
7.47 8.75 -1.82
9.89 11.6 -1.87
23.71 27.8 9.79
4.34 5.06 -1.79
25.86 30.1 0.69
5.21 6.07 -1.85
26.18 30.48 2.11
6.03 7.02 -1.8
26.13 30.42 3.51
7.51 8.74 -1.82
9.92 11.55 -1.87
10.72 12.48 -1.44
11.06 12.88 -0.89
23.72 27.61 9.75
4.33 5 -1.77
5.24 6.06 -1.85
6.04 6.99 -1.8
22.85 26.42 3.06
7.53 8.71 -1.82
9.94 11.49 -1.87
4.33 4.97 -1.77
5.1 5.85 -1.79
6.09 6.99 -1.8
7.56 8.67 -1.82
9.98 11.45 -1.87
31.63 36.3 7.63
4.35 4.96 -1.77
25.76 29.36 0.68
4.77 5.43 -1.67
25.01 28.5 1.99
6.12 6.98 -1.8
7.57 8.63 -1.82
10.02 11.42 -1.87
4.37 4.94 -1.77
20.59 23.3 0.54
4.93 5.58 -1.72
6.17 6.98 -1.81
7.61 8.61 -1.82
33.42 37.82 6.2
10.05 11.38 -1.86
31.75 35.93 7.59
25.73 29.12 -0.68
4.39 4.93 -1.77
25.64 28.82 0.67
4.93 5.54 -1.71
6.18 6.95 -1.81
7.64 8.58 -1.82
10.08 11.32 -1.86
20.61 23.17 -0.54
22.89 25.72 9.23
4.41 4.92 -1.77
20.52 22.89 0.54
4.91 5.48 -1.7
25.67 28.64 2.02
6.17 6.88 -1.8
7.66 8.55 -1.82
10.11 11.28 -1.86
20.47 22.83 -0.54
4.41 4.88 -1.76
20.85 23.09 0.54
4.94 5.47 -1.7
26.38 29.23 2.06
6.25 6.93 -1.81
7.69 8.52 -1.82
22.64 25.08 4.15
10.14 11.23 -1.86
9.53 10.56 -1.24
20.88 23.13 -0.54
4.43 4.87 -1.76
20.93 23.04 0.54
4.98 5.48 -1.71
23.26 25.6 1.81
6.3 6.93 -1.82
7.71 8.49 -1.82
10.19 11.22 -1.86
24.54 27.02 5.78
4.44 4.86 -1.76
4.96 5.42 -1.7
6.29 6.87 -1.81
25.75 28.14 3.34
7.73 8.45 -1.81
10.23 11.18 -1.86
20.66 22.58 -0.53
4.46 4.84 -1.76
4.97 5.39 -1.69
6.39 6.94 -1.83
7.76 8.42 -1.81
10.24 11.11 -1.86
20.78 22.55 -0.54
4.48 4.82 -1.76
26.88 28.95 0.69
4.96 5.34 -1.68
6.38 6.87 -1.82
7.79 8.39 -1.81
10.28 11.07 -1.85
9.48 10.21 -1.22
4.49 4.8 -1.76
26.08 27.92 0.67
4.97 5.32 -1.68
6.42 6.87 -1.83
7.81 8.36 -1.81
10.16 10.87 -1.83
9.51 10.18 -1.22
21.53 23.04 -0.55
4.5 4.78 -1.76
4.99 5.3 -1.68
20.83 22.13 1.59
6.46 6.86 -1.83
7.83 8.32 -1.81
10 10.63 -1.79
9.43 10.02 -1.2
26.21 27.85 8.83
21.22 22.55 -0.54
4.52 4.77 -1.76
25.94 27.38 0.66
4.99 5.26 -1.67
6.47 6.83 -1.83
7.84 8.28 -1.81
25.79 27.22 4.6
10.02 10.58 -1.79
34.31 36.22 7.9
9.38 9.9 -1.19
4.53 4.75 -1.76
5 5.24 -1.67
6.48 6.79 -1.83
7.21 7.55 -1.65
26.27 27.53 4.67
10.09 10.58 -1.79
9.39 9.84 -1.19
34.34 35.98 11.48
24.2 25.36 -0.61
4.54 4.73 -1.76
21.98 22.88 0.55
5.02 5.23 -1.67
20.96 21.82 1.59
6.51 6.78 -1.83
7.33 7.63 -1.68
10.15 10.56 -1.8
9.52 9.91 -1.2
21.82 22.72 -0.55
4.55 4.7 -1.75
21.92 22.65 0.55
5.06 5.23 -1.68
6.59 6.81 -1.84
7.36 7.61 -1.68
10.25 10.6 -1.81
9.53 9.84 -1.2
32.15 33.22 10.67
22.02 22.75 -0.55
4.56 4.68 -1.75
22.04 22.62 0.55
5.08 5.22 -1.68
6.62 6.8 -1.84
7.4 7.6 -1.68
10.41 10.69 -1.83
34.01 34.91 7.72
9.52 9.77 -1.19
22.09 22.68 -0.55
4.58 4.67 -1.75
26.29 26.79 0.66
5.12 5.22 -1.69
6.63 6.76 -1.84
7.44 7.58 -1.68
9.53 9.71 -1.19
22.11 22.53 -0.55
4.6 4.65 -1.75
5.16 5.22 -1.7
6.71 6.79 -1.86
26.14 26.46 3.25
7.46 7.55 -1.68
9.54 9.66 -1.67
9.54 9.65 -1.19
21.11 21.37 -0.52
4.62 4.64 -1.76
21.17 21.28 0.52
5.2 5.23 -1.7
6.72 6.75 -1.85
26.32 26.45 3.26
7.48 7.52 -1.68
9.48 9.53 -1.18
10.57 10.62 -0.79
4.63 4.62 -1.75
21.25 21.2 0.52
5.25 5.24 -1.71
6.7 6.68 -1.84
26.32 26.27 3.25
7.52 7.5 -1.68
37.32 37.24 6.47
9.52 9.5 -1.65
9.48 9.46 -1.17
4.65 4.6 -1.75
5.29 5.24 -1.72
6.7 6.63 -1.83
7.56 7.49 -1.69
9.6 9.51 -1.66
26.14 25.9 5.83
9.5 9.41 -1.17
4.67 4.6 -1.76
5.32 5.23 -1.72
24.72 24.33 1.82
6.74 6.64 -1.84
7.59 7.47 -1.69
9.58 9.43 -1.65
24.26 23.88 5.39
9.54 9.39 -1.17
4.69 4.58 -1.76
5.35 5.23 -1.73
6.76 6.61 -1.84
7.63 7.46 -1.69
9.59 9.37 -1.65
24.18 23.63 5.36
9.6 9.38 -1.17
25.37 24.79 6.9
4.7 4.57 -1.76
5.39 5.24 -1.74
6.7 6.51 -1.82
25.11 24.38 3.06
7.67 7.45 -1.69
9.59 9.31 -1.64
25.02 24.29 5.52
9.63 9.36 -1.17
25.45 24.71 6.9
4.72 4.55 -1.76
25.35 24.43 0.61
5.44 5.24 -1.74
6.83 6.58 -1.84
7.71 7.44 -1.7
25.25 24.34 4.31
9.6 9.26 -1.64
24.54 23.66 5.4
9.58 9.24 -1.16
25.63 24.71 6.92
4.73 4.53 -1.76
5.48 5.25 -1.75
6.78 6.49 -1.83
7.74 7.41 -1.7
25.4 24.32 4.32
9.63 9.23 -1.64
24.52 23.48 5.38
9.58 9.17 -1.16
25.83 24.74 6.95
4.75 4.52 -1.76
25.6 24.34 0.62
5.52 5.25 -1.76
6.91 6.57 -1.85
24.87 23.64 3
7.75 7.37 -1.69
25.53 24.27 4.33
9.66 9.18 -1.64
24.58 23.36 5.37
9.61 9.13 -1.16
25.74 24.47 6.9
23.96 22.78 -0.58
4.78 4.52 -1.76
5.56 5.25 -1.77
6.89 6.51 -1.84
24.94 23.54 3
7.81 7.38 -1.7
9.69 9.15 -1.64
25.11 23.71 5.47
9.68 9.14 -1.16
25.9 24.45 6.92
27.53 25.99 8.74
23.9 22.56 -0.57
4.8 4.49 -1.76
5.6 5.24 -1.77
6.85 6.42 -1.82
24.99 23.42 3
7.87 7.37 -1.71
23.84 22.34 4.01
9.73 9.12 -1.64
25.11 23.53 5.45
9.74 9.13 -1.17
27.62 25.89 8.74
24.02 22.51 -0.57
4.81 4.47 -1.76
5.63 5.24 -1.77
6.87 6.4 -1.83
25.02 23.29 2.99
7.91 7.36 -1.71
9.79 9.12 -1.64
25.14 23.4 5.44
9.74 9.07 -1.16
26.81 24.95 8.46
26.68 24.84 -0.64
4.83 4.47 -1.76
26.74 24.73 0.64
5.63 5.21 -1.77
24.1 22.28 1.72
6.89 6.37 -1.82
25.12 23.22 2.99
7.92 7.32 -1.71
25 23.11 4.18
25.69 23.75 5.54
9.79 9.06 -1.17
26.16 24.19 6.93
26.84 24.81 8.44
24.48 22.63 -0.58
4.85 4.45 -1.76
26.83 24.63 0.64
5.64 5.18 -1.77
26.92 24.72 1.92
6.93 6.36 -1.83
25.31 23.24 3.01
7.97 7.32 -1.71
9.94 9.12 -1.66
9.85 9.04 -1.17
26.22 24.08 6.92
24.52 22.52 -0.58
24.93 22.89 9.07
4.86 4.44 -1.76
5.66 5.16 -1.77
26.38 24.06 1.87
6.97 6.35 -1.83
26.64 24.3 3.15
8.03 7.32 -1.72
24.35 22.2 4.05
9.96 9.08 -1.65
26.54 24.2 5.69
9.91 9.04 -1.17
24.92 22.73 9.04
4.88 4.42 -1.76
5.68 5.14 -1.77
6.99 6.33 -1.83
26.71 24.19 3.15
8.08 7.31 -1.73
26.61 24.1 4.41
9.98 9.04 -1.65
26.59 24.08 5.68
9.96 9.02 -1.18
27.29 24.71 8.5
24.9 22.55 -0.59
24.93 22.57 9.01
4.89 4.4 -1.76
5.71 5.13 -1.77
24.56 22.09 1.73
7.07 6.36 -1.85
8.12 7.3 -1.73
26.7 24.01 4.41
10.04 9.03 -1.66
26.65 23.97 5.68
10.02 9.01 -1.18
27.05 24.33 7.07
26.23 23.58 8.14
25.07 22.54 -0.59
24.94 22.43 8.99
4.91 4.38 -1.76
25.74 22.98 0.6
5.72 5.1 -1.77
7.07 6.31 -1.84
8.14 7.26 -1.73
10.13 9.04 -1.67
10.18 9.09 -1.19
26.83 23.95 6.99
26.21 23.4 8.11
37.93 33.86 -0.89
25.24 22.53 9.06
4.93 4.37 -1.76
5.69 5.05 -1.76
24.76 21.96 1.73
7.05 6.25 -1.83
8.21 7.28 -1.74
25.41 22.54 4.17
10.19 9.03 -1.67
10.24 9.08 -1.2
27.47 24.36 7.14
24.72 21.92 7.63
38.19 33.86 -0.89
25.35 22.48 9.08
4.94 4.35 -1.77
5.7 5.02 -1.75
24.91 21.93 1.74
7.1 6.25 -1.84
8.24 7.25 -1.74
10.25 9.02 -1.68
25.2 22.18 5.32
10.37 9.13 -1.21
24.78 21.82 7.62
25.43 22.39 9.08
4.96 4.33 -1.76
5.73 5.01 -1.76
24.85 21.72 1.73
7.12 6.22 -1.84
8.29 7.25 -1.74
24.99 21.85 4.08
10.33 9.03 -1.69
25.21 22.04 5.3
10.54 9.22 -1.23
24.78 21.67 7.6
4.97 4.31 -1.76
5.75 4.99 -1.76
7.19 6.24 -1.85
8.31 7.21 -1.74
25.62 22.23 4.17
10.43 9.05 -1.69
25.2 21.87 5.28
10.54 9.14 -1.22
10.65 9.25 -0.74
24.89 21.6 7.61
25.54 22.16 9.06
4.98 4.3 -1.76
5.76 4.97 -1.76
24.93 21.49 1.72
7 6.03 -1.8
25.83 22.26 2.98
8.34 7.19 -1.74
11.23 9.68 -1.82
27.64 23.82 5.78
10.53 9.08 -1.22
27.91 24.05 7.16
10.67 9.19 -0.74
25.11 21.64 7.65
25.51 21.99 9.02
5 4.28 -1.76
5.76 4.93 -1.75
7.05 6.03 -1.8
8.4 7.19 -1.75
11.28 9.65 -1.82
10.56 9.04 -1.22
10.78 9.22 -0.74
25.27 21.62 7.68
25.84 22.11 9.11
5.01 4.26 -1.76
30.18 25.64 0.69
5.78 4.91 -1.75
7.03 5.98 -1.79
25.88 21.99 2.97
8.44 7.17 -1.75
25.48 21.65 4.11
11.3 9.6 -1.82
25.68 21.82 5.34
10.64 9.04 -1.22
24.96 21.21 7.56
25.82 21.94 9.08
5.03 4.24 -1.76
5.8 4.9 -1.75
25.09 21.17 1.72
6.75 5.7 -1.72
25.89 21.84 2.96
8.46 7.14 -1.75
11.32 9.55 -1.82
25.94 21.89 5.38
10.72 9.04 -1.23
24.89 21 7.52
5.03 4.22 -1.76
5.81 4.87 -1.75
25.19 21.11 1.72
6.68 5.6 -1.69
25.75 21.58 2.94
