# .PCD v0.7 - Point Cloud Data file format
VERSION 0.7
FIELDS x y z
SIZE 4 4 4
TYPE F F F
COUNT 1 1 1
WIDTH 2895
HEIGHT 1
VIEWPOINT 0 0 0 1 0 0 0
POINTS 2895
DATA ascii
15.93 20.85 3.22
9.52 12.46 -1.92
13.12 17.16 -1.89
15.63 20.45 -1.35
14.01 18.34 5.33
3.9 5.07 -1.71
4.63 6.01 -1.75
5.63 7.31 -1.79
14.97 19.44 2.15
7.16 9.3 -1.86
16 20.78 3.22
9.59 12.46 -1.93
15.89 20.64 4.13
13.16 17.09 -1.89
15.7 20.39 -1.35
14.11 18.32 5.34
16.69 21.68 -0.48
15.95 20.72 7.01
3.92 5.05 -1.71
17.05 21.99 0.49
4.64 5.98 -1.75
5.65 7.29 -1.79
7.19 9.27 -1.86
16 20.63 3.21
9.67 12.48 -1.94
13.22 17.04 -1.89
15.97 20.6 -1.37
14.13 18.23 5.33
16.84 21.71 -0.48
15.83 20.41 6.92
3.94 5.05 -1.72
18.16 23.25 0.51
4.65 5.96 -1.75
15.87 20.32 1.35
5.67 7.26 -1.79
7.21 9.23 -1.86
14.63 18.74 2.92
9.75 12.48 -1.94
13.27 16.99 -1.89
16.32 20.89 -1.39
17.1 21.89 -0.48
3.95 5.02 -1.71
4.67 5.94 -1.74
5.68 7.23 -1.79
15.11 19.21 2.14
7.24 9.21 -1.86
9.81 12.48 -1.95
18.54 23.58 4.75
13.32 16.94 -1.89
16.41 20.86 -1.39
14.32 18.21 5.35
3.96 5 -1.71
18.45 23.3 0.52
4.69 5.92 -1.74
5.71 7.21 -1.79
15.12 19.1 2.13
7.26 9.17 -1.85
14.8 18.68 2.93
9.89 12.49 -1.96
13.37 16.89 -1.88
16.99 21.45 -1.43
14.48 18.28 5.38
3.98 4.98 -1.71
4.71 5.9 -1.74
5.73 7.18 -1.79
7.28 9.13 -1.85
9.97 12.5 -1.96
16.13 20.22 4.1
13.44 16.85 -1.89
16.46 20.63 5.13
14.52 18.2 5.37
17.07 21.4 -0.48
3.99 4.97 -1.71
4.72 5.88 -1.74
5.75 7.16 -1.78
7.31 9.09 -1.85
18.31 22.79 3.59
10.05 12.51 -1.97
18.42 22.92 4.66
13.49 16.79 -1.88
15.26 19 -1.28
4.01 4.95 -1.71
4.74 5.86 -1.74
5.77 7.13 -1.78
7.34 9.06 -1.85
18.33 22.66 3.58
10.12 12.5 -1.98
18.43 22.77 4.64
13.55 16.74 -1.88
15.35 18.97 -1.28
4.03 4.94 -1.71
18.84 23.12 0.52
4.76 5.84 -1.74
5.78 7.09 -1.78
16.16 19.82 2.24
7.36 9.03 -1.84
15.84 19.43 3.08
10.16 12.47 -1.97
13.6 16.68 -1.88
15.47 18.99 -1.28
16.18 19.85 5.91
4.03 4.91 -1.7
4.78 5.82 -1.74
5.8 7.07 -1.78
18.45 22.47 2.54
7.37 8.98 -1.84
10.17 12.39 -1.97
13.64 16.62 -1.88
15.59 18.99 -1.29
16.71 20.35 6.08
4.05 4.9 -1.7
4.79 5.8 -1.74
18.41 22.27 1.51
5.82 7.04 -1.78
7.39 8.94 -1.84
19.4 23.46 3.74
10.19 12.33 -1.96
13.71 16.59 -1.88
15.7 18.99 -1.29
16.81 20.33 6.09
18.16 21.96 -0.5
4.06 4.88 -1.7
18.37 22.06 0.5
4.8 5.77 -1.73
18.55 22.28 1.52
5.84 7.01 -1.77
7.42 8.91 -1.84
16.26 19.53 3.12
10.2 12.25 -1.96
13.76 16.53 -1.88
15.82 19 -1.3
16.93 20.34 6.11
16.09 19.33 -0.44
4.08 4.87 -1.7
18.5 22.06 0.5
4.82 5.75 -1.73
5.85 6.98 -1.77
7.45 8.88 -1.84
10.19 12.15 -1.95
13.82 16.48 -1.88
16.56 19.75 5.01
15.93 18.99 -1.3
4.09 4.84 -1.7
4.84 5.73 -1.73
5.87 6.95 -1.77
7.47 8.85 -1.83
10.19 12.08 -1.94
13.86 16.41 -1.88
16.05 19.01 -1.3
16.64 19.71 5.96
18.52 21.93 -0.5
4.1 4.82 -1.7
18.47 21.72 0.5
4.85 5.71 -1.73
19.05 22.41 1.54
5.88 6.92 -1.76
7.48 8.8 -1.83
10.22 12.03 -1.94
13.91 16.37 -1.88
16.16 19.01 -1.31
4.12 4.81 -1.7
4.87 5.69 -1.73
5.9 6.9 -1.76
7.49 8.76 -1.83
10.24 11.96 -1.93
13.94 16.29 -1.88
18.05 21.09 -1.45
17.12 20 6.08
4.13 4.79 -1.7
4.88 5.66 -1.72
5.92 6.86 -1.76
7.52 8.73 -1.82
19.96 23.15 3.75
10.27 11.91 -1.93
19.65 22.8 4.77
13.98 16.22 -1.87
16.64 19.3 5.88
20.27 23.51 8.32
4.15 4.78 -1.69
18.53 21.34 0.49
4.89 5.64 -1.72
5.94 6.84 -1.76
7.54 8.69 -1.82
23.26 26.79 4.36
10.28 11.84 -1.93
19.77 22.77 4.78
13.93 16.04 -1.86
18.17 20.92 -1.45
4.16 4.76 -1.69
18.62 21.29 0.49
4.9 5.61 -1.72
5.95 6.81 -1.76
7.57 8.66 -1.82
20.4 23.32 3.8
10.31 11.79 -1.92
19.92 22.78 4.79
14.01 16.02 -1.86
22.9 26.19 6.76
18.22 20.84 -1.45
4.17 4.73 -1.69
4.91 5.58 -1.72
5.97 6.78 -1.76
7.58 8.61 -1.82
10.32 11.71 -1.92
14.03 15.93 -1.86
19.74 22.42 5.81
19.35 21.97 -0.51
4.18 4.71 -1.69
4.94 5.57 -1.72
19.74 22.26 1.56
5.99 6.76 -1.76
7.59 8.56 -1.81
20.64 23.28 3.82
10.36 11.68 -1.92
20.04 22.59 4.78
14.05 15.84 -1.85
21 23.68 6.15
18.22 20.54 -1.44
17.12 19.3 5.96
4.19 4.7 -1.69
4.94 5.54 -1.71
19.87 22.25 1.56
6.01 6.73 -1.75
7.61 8.53 -1.81
18.79 21.05 3.46
10.39 11.63 -1.92
17.49 19.59 4.16
14.12 15.82 -1.86
19.84 22.22 5.79
18.5 20.72 6.41
53.33 59.73 -1.4
4.21 4.68 -1.69
4.96 5.52 -1.71
19.94 22.17 1.56
6.03 6.71 -1.75
18.91 21.03 2.47
7.64 8.5 -1.81
10.39 11.55 -1.91
21.24 23.62 5.03
14.19 15.78 -1.86
18.69 20.79 -1.47
16.99 18.9 5.87
53.54 59.54 -1.4
4.22 4.67 -1.69
4.98 5.5 -1.71
6.04 6.67 -1.75
7.66 8.46 -1.81
22.02 24.31 4.03
10.4 11.49 -1.9
14.29 15.78 -1.86
21.41 23.65 6.2
18.96 20.94 -1.48
22.48 24.82 7.73
21.39 23.63 -0.56
4.23 4.64 -1.68
5 5.49 -1.71
6.06 6.65 -1.75
7.68 8.42 -1.8
10.44 11.45 -1.9
14.4 15.8 -1.87
19.11 20.96 -1.49
18.56 20.36 6.36
4.24 4.62 -1.68
6.08 6.63 -1.75
7.69 8.38 -1.8
10.46 11.4 -1.9
21.41 23.34 5.02
14.51 15.82 -1.88
22.78 24.82 7.78
4.26 4.61 -1.68
5.03 5.44 -1.71
6.1 6.6 -1.75
7.71 8.34 -1.8
10.49 11.35 -1.9
20.62 22.32 4.81
14.51 15.71 -1.87
18.48 20 -1.43
20.8 22.51 8.21
4.27 4.59 -1.68
21.13 22.71 0.54
5.04 5.41 -1.71
6.12 6.58 -1.75
7.73 8.3 -1.8
19.98 21.47 3.6
10.5 11.28 -1.89
23.55 25.3 5.47
14.57 15.66 -1.87
20.39 21.91 6.91
20.67 22.21 8.13
4.28 4.57 -1.68
20.19 21.55 0.52
5.06 5.4 -1.71
6.13 6.54 -1.74
7.75 8.27 -1.8
19.72 21.05 3.54
10.51 11.22 -1.89
18.89 20.16 4.38
14.63 15.62 -1.87
19.7 21.02 5.6
19.07 20.36 6.44
20.02 21.36 -0.51
4.3 4.55 -1.68
5.07 5.37 -1.71
6.14 6.51 -1.74
7.76 8.22 -1.79
22.75 24.11 4.07
10.54 11.16 -1.88
19.33 20.49 4.46
14.72 15.6 -1.88
18.97 20.1 5.37
18.64 19.75 -1.42
20.3 21.51 6.83
4.3 4.53 -1.67
5.08 5.35 -1.7
6.16 6.49 -1.74
7.77 8.18 -1.79
22.87 24.06 4.08
10.56 11.11 -1.88
14.81 15.59 -1.88
19.45 20.47 5.49
19.54 20.56 -1.49
21.58 22.71 7.23
4.32 4.52 -1.68
5.09 5.32 -1.7
6.18 6.46 -1.74
7.79 8.14 -1.78
10.58 11.05 -1.88
21.9 22.88 5.02
14.93 15.61 -1.89
21.54 22.51 7.19
19.86 20.75 7.7
4.34 4.5 -1.67
5.11 5.3 -1.7
6.2 6.43 -1.74
7.81 8.11 -1.78
10.59 10.99 -1.87
21.75 22.57 4.96
15.04 15.61 -1.9
19.68 20.42 -1.49
19.18 19.9 6.38
22.05 22.88 8.51
4.35 4.48 -1.67
20.67 21.3 0.52
5.12 5.28 -1.7
6.2 6.39 -1.73
7.84 8.07 -1.78
23.21 23.92 4.09
10.61 10.94 -1.87
23.36 24.08 5.31
15.13 15.59 -1.9
19.19 19.78 -1.44
4.36 4.46 -1.67
20.9 21.39 0.52
5.14 5.26 -1.7
6.22 6.36 -1.73
21.59 22.09 2.7
7.85 8.03 -1.78
23.17 23.71 4.07
10.63 10.88 -1.87
20.01 20.47 4.53
15.12 15.47 -1.89
20.01 20.48 -1.5
20.6 21.08 -0.51
19.6 20.06 7.52
4.37 4.45 -1.67
20.85 21.2 0.52
5.15 5.24 -1.7
6.23 6.33 -1.73
21.66 22.02 2.7
7.86 7.99 -1.78
20.28 20.61 3.55
10.66 10.84 -1.87
15.3 15.55 -1.91
20.45 20.79 -1.53
19.93 20.26 6.56
20.25 20.58 -0.5
4.38 4.43 -1.67
20.86 21.06 0.52
5.17 5.22 -1.7
20.01 20.2 1.49
6.25 6.31 -1.73
23.61 23.84 2.94
7.87 7.95 -1.77
20.35 20.54 3.55
10.67 10.77 -1.86
20.73 20.92 4.66
15.43 15.58 -1.92
19.03 19.21 5.26
19.72 19.9 6.47
20.01 20.2 7.62
4.4 4.41 -1.67
5.18 5.19 -1.69
23.53 23.59 1.75
6.27 6.29 -1.73
7.89 7.91 -1.77
18.52 18.56 3.22
10.68 10.71 -1.86
23.6 23.66 5.29
15.53 15.57 -1.92
20.13 20.18 -1.49
23.32 23.38 -0.58
19.67 19.72 7.46
4.41 4.39 -1.67
23.41 23.3 0.58
5.19 5.17 -1.69
6.27 6.24 -1.72
20.23 20.13 2.5
7.91 7.87 -1.77
10.7 10.65 -1.85
19.49 19.4 4.36
15.6 15.53 -1.93
20.11 20.02 6.55
19.81 19.72 7.49
4.41 4.37 -1.66
5.21 5.15 -1.69
6.29 6.22 -1.72
20.29 20.08 2.5
7.92 7.84 -1.76
21.63 21.4 3.74
10.71 10.6 -1.85
20.3 20.08 4.52
15.68 15.51 -1.93
20.26 20.05 5.54
19.91 19.69 -1.47
21.06 20.83 6.84
23.39 23.13 -0.57
19.87 19.66 7.49
4.43 4.35 -1.66
5.22 5.13 -1.69
6.31 6.19 -1.72
25.04 24.59 3.07
7.93 7.79 -1.76
20.43 20.07 3.52
10.74 10.55 -1.85
23.47 23.06 5.21
15.77 15.49 -1.93
20.3 19.94 -1.49
20.28 19.92 6.56
4.45 4.34 -1.66
23.3 22.72 0.57
5.23 5.1 -1.69
6.33 6.17 -1.72
23.44 22.86 2.86
7.95 7.75 -1.76
20.33 19.83 3.49
10.76 10.49 -1.85
23.72 23.13 5.25
15.89 15.5 -1.94
20.16 19.66 5.47
20.5 19.99 -1.5
19.72 19.23 6.36
4.46 4.32 -1.67
20.9 20.24 0.51
5.24 5.08 -1.68
6.34 6.14 -1.71
20.79 20.13 2.53
7.96 7.71 -1.75
10.77 10.43 -1.84
23.7 22.95 5.23
16.01 15.5 -1.95
20.77 20.12 -1.52
22.03 21.33 7.08
4.47 4.3 -1.66
20.85 20.05 0.5
5.26 5.06 -1.69
20.85 20.05 1.52
6.35 6.1 -1.71
20.85 20.05 2.53
7.98 7.67 -1.75
23.63 22.72 4.03
10.79 10.38 -1.84
20.2 19.42 4.44
16.12 15.5 -1.96
24.01 23.09 6.47
20.12 19.35 -1.46
20.84 20.04 -0.5
4.48 4.28 -1.66
20.88 19.94 0.5
5.28 5.04 -1.69
20.32 19.4 1.47
6.36 6.07 -1.71
19.64 18.75 2.38
7.99 7.63 -1.75
18.8 17.96 3.19
10.81 10.32 -1.84
16.16 15.43 -1.95
22.49 21.47 6.04
20.74 19.81 -1.5
20.1 19.2 6.42
20.85 19.91 -0.5
4.49 4.26 -1.66
21 19.93 0.51
5.3 5.02 -1.69
6.37 6.04 -1.71
22.35 21.21 2.7
8 7.6 -1.75
18.7 17.74 3.16
10.83 10.28 -1.83
20.01 18.99 4.37
16.2 15.37 -1.95
22.4 21.26 6
20.84 19.77 -1.51
20.31 19.27 6.46
20.95 19.88 -0.5
4.5 4.24 -1.66
21.32 20.09 0.51
5.29 4.98 -1.68
22.29 21 1.6
6.38 6.02 -1.71
22.36 21.07 2.69
8.01 7.55 -1.74
22.6 21.29 3.81
10.85 10.22 -1.83
19.57 18.45 4.26
16.35 15.4 -1.97
21.15 19.93 -1.52
4.52 4.22 -1.66
21.49 20.1 0.51
5.31 4.96 -1.68
22.38 20.94 1.61
6.4 5.99 -1.7
8.03 7.52 -1.74
19.06 17.83 3.2
10.87 10.16 -1.83
16.26 15.21 -1.95
20.2 18.9 6.39
4.52 4.2 -1.65
23.4 21.74 0.56
5.33 4.95 -1.68
23.52 21.85 1.68
6.41 5.95 -1.7
23.7 22.02 2.83
8.05 7.48 -1.74
24.25 22.53 4.06
10.88 10.11 -1.82
20.34 18.9 4.4
16.49 15.32 -1.97
21.56 20.03 -1.54
25.01 23.24 7.88
22.51 20.91 8.23
4.53 4.18 -1.65
23.45 21.63 0.56
5.34 4.92 -1.68
21.73 20.05 1.55
6.42 5.92 -1.7
23.93 22.07 2.85
8.06 7.44 -1.74
19.11 17.63 3.19
10.9 10.06 -1.82
19.32 17.82 4.16
16.63 15.34 -1.98
22.09 20.38 6.94
4.54 4.16 -1.65
5.35 4.9 -1.68
21.58 19.76 1.53
6.44 5.9 -1.7
8.07 7.4 -1.73
10.92 10 -1.82
22.77 20.86 4.89
16.74 15.33 -1.99
21.57 19.76 -1.53
23.35 21.38 -0.55
4.56 4.15 -1.65
5.35 4.87 -1.67
21.58 19.64 1.53
6.46 5.87 -1.7
8.09 7.36 -1.73
24.71 22.49 4.1
10.93 9.95 -1.81
18.5 16.84 3.96
16.76 15.25 -1.98
22.38 20.36 -1.59
22.18 20.19 6.92
23.42 21.32 -0.55
4.57 4.13 -1.65
5.37 4.85 -1.67
6.47 5.85 -1.69
22.94 20.73 2.7
8.11 7.32 -1.73
20.91 18.89 3.46
10.94 9.88 -1.81
21.25 19.2 4.54
16.83 15.21 -1.98
21.86 19.75 -1.54
4.58 4.11 -1.65
5.38 4.83 -1.67
6.47 5.81 -1.69
22.09 19.82 2.6
8.11 7.28 -1.73
10.95 9.83 -1.81
22.25 19.97 4.74
16.93 15.19 -1.99
22.06 19.8 -1.55
23.32 20.92 7.23
4.58 4.08 -1.65
5.39 4.8 -1.67
6.48 5.78 -1.69
8.13 7.24 -1.72
10.97 9.78 -1.8
16.96 15.11 -1.99
21.68 19.31 5.64
22.46 20.01 -1.58
21.59 19.24 7.75
4.6 4.07 -1.65
5.41 4.78 -1.67
6.48 5.73 -1.68
8.13 7.19 -1.72
10.99 9.72 -1.8
20.19 17.87 4.27
14.85 13.13 -1.73
23.45 20.75 -1.64
21.54 19.06 6.64
4.61 4.05 -1.64
24.63 21.63 0.57
5.42 4.76 -1.66
6.5 5.71 -1.68
22.15 19.46 2.58
8.15 7.16 -1.72
22.07 19.39 3.61
11.01 9.67 -1.8
17.17 15.08 -2
23.25 20.43 -1.62
4.63 4.04 -1.65
5.43 4.74 -1.66
6.52 5.69 -1.68
8.17 7.13 -1.72
20.79 18.14 3.39
11.02 9.61 -1.8
15.08 13.16 -1.75
23.1 20.16 7.08
4.64 4.02 -1.65
5.44 4.71 -1.66
6.53 5.66 -1.68
8.19 7.09 -1.72
11.04 9.56 -1.79
15.23 13.2 -1.76
22.07 19.12 5.68
4.65 4 -1.64
5.45 4.69 -1.66
6.54 5.63 -1.68
8.2 7.05 -1.71
23.65 20.35 3.83
11.05 9.51 -1.79
15.26 13.13 -1.76
23.84 20.51 -1.65
21.33 18.35 6.5
22.21 19.11 7.85
4.66 3.98 -1.64
5.46 4.67 -1.66
24.79 21.18 1.71
6.56 5.61 -1.68
21.96 18.76 2.53
8.2 7.01 -1.71
20.59 17.59 3.32
11.06 9.45 -1.79
15.28 13.05 -1.76
21.83 18.66 6.63
24.74 21.14 -0.57
4.67 3.97 -1.64
25.03 21.24 0.57
5.46 4.64 -1.65
24.66 20.93 1.7
22.04 18.7 2.53
8.22 6.97 -1.71
22.87 19.41 3.68
11.07 9.39 -1.78
21.93 18.61 4.56
15.33 13.01 -1.76
4.69 3.95 -1.64
5.48 4.61 -1.65
24.86 20.94 1.7
6.58 5.55 -1.67
22.1 18.62 2.53
8.23 6.94 -1.71
11.05 9.31 -1.77
15.4 12.98 -1.76
4.7 3.94 -1.64
5.49 4.6 -1.65
6.59 5.52 -1.67
22.22 18.59 2.53
8.25 6.9 -1.7
24.67 20.64 3.95
11.05 9.24 -1.77
21.87 18.3 4.52
15.52 12.99 -1.77
22.44 18.77 5.69
24.57 20.56 -1.68
22.53 18.85 6.78
4.71 3.91 -1.64
25.59 21.26 0.58
5.52 4.58 -1.66
25 20.77 1.7
6.6 5.49 -1.67
8.26 6.86 -1.7
29.64 24.62 4.73
11.09 9.21 -1.77
21.63 17.97 4.45
15.64 12.99 -1.78
24.53 20.38 -1.67
4.72 3.9 -1.64
24.6 20.29 0.56
5.53 4.56 -1.65
25.07 20.68 1.7
6.62 5.46 -1.67
25.88 21.35 2.93
8.26 6.82 -1.7
22.66 18.69 3.61
11.12 9.17 -1.77
15.75 12.99 -1.79
24.99 20.62 -1.7
4.74 3.88 -1.64
25.74 21.08 0.58
5.53 4.53 -1.65
25.06 20.52 1.7
6.63 5.43 -1.67
8.28 6.78 -1.7
21.7 17.78 3.44
11.17 9.15 -1.77
15.88 13.01 -1.8
26.07 21.35 -0.59
4.76 3.87 -1.64
5.54 4.51 -1.65
25.19 20.48 1.7
6.64 5.4 -1.66
8.3 6.75 -1.69
26.12 21.24 4.13
11.13 9.05 -1.76
22.01 17.9 4.49
16.12 13.11 -1.82
22.6 18.38 6.73
25.61 20.83 -0.58
4.76 3.84 -1.64
25.82 20.85 0.58
5.56 4.49 -1.65
25.47 20.56 1.72
6.64 5.37 -1.66
8.31 6.71 -1.69
22.66 18.3 3.58
11.15 9 -1.76
16.14 13.04 -1.82
25.45 20.55 -1.71
25.55 20.63 -0.57
4.77 3.83 -1.64
25.35 20.33 0.57
5.56 4.46 -1.65
25.49 20.45 1.71
6.66 5.34 -1.66
26.91 21.59 3.02
8.32 6.68 -1.69
26.9 21.58 4.23
11.17 8.96 -1.76
21.93 17.59 4.45
16.24 13.03 -1.82
26.36 21.15 -1.77
25.83 20.72 -0.58
4.78 3.81 -1.64
25.56 20.36 0.57
5.58 4.44 -1.65
25.53 20.33 1.71
6.68 5.32 -1.66
26.05 20.75 2.91
8.33 6.64 -1.69
11.18 8.9 -1.75
16.37 13.04 -1.83
25.89 20.62 -1.73
25.82 20.57 -0.58
4.8 3.8 -1.64
25.98 20.54 0.58
5.58 4.41 -1.64
25.53 20.19 1.71
6.69 5.29 -1.66
8.34 6.59 -1.68
30.31 23.97 4.75
11.19 8.85 -1.75
24.64 19.49 4.98
16.49 13.05 -1.84
25.87 20.46 -1.73
25.93 20.51 -0.58
4.82 3.78 -1.64
26 20.41 0.58
5.59 4.39 -1.64
26.11 20.51 1.74
6.7 5.26 -1.66
26.15 20.53 2.91
8.35 6.56 -1.68
30.36 23.84 4.74
11.2 8.79 -1.75
16.57 13.01 -1.84
26.05 20.45 -1.74
26.44 20.76 -0.59
4.82 3.76 -1.64
26.26 20.48 0.58
5.61 4.37 -1.64
6.7 5.23 -1.65
8.36 6.52 -1.68
11.2 8.74 -1.74
22.3 17.39 4.48
16.6 12.94 -1.84
26.12 20.37 -1.74
26.42 20.61 -0.58
4.83 3.74 -1.64
26.28 20.35 0.58
5.62 4.35 -1.64
6.72 5.2 -1.65
8.38 6.49 -1.68
11.21 8.68 -1.74
16.58 12.84 -1.83
24.64 19.08 6.06
26.25 20.32 -1.74
4.85 3.73 -1.64
5.63 4.33 -1.64
6.73 5.17 -1.65
8.37 6.44 -1.67
30.93 23.78 4.79
11.21 8.62 -1.74
16.55 12.72 -1.83
4.86 3.71 -1.64
5.63 4.3 -1.63
6.74 5.15 -1.65
8.39 6.4 -1.67
30.7 23.43 4.74
11.22 8.56 -1.73
21.65 16.52 4.31
16.54 12.62 -1.82
4.88 3.69 -1.64
5.64 4.28 -1.63
6.75 5.11 -1.65
22.66 17.17 2.49
8.4 6.36 -1.67
26.3 19.93 4.05
11.23 8.51 -1.73
16.55 12.54 -1.82
25.47 19.29 -1.67
4.89 3.68 -1.64
32.56 24.49 0.71
5.65 4.25 -1.63
6.75 5.08 -1.64
8.41 6.33 -1.67
11.24 8.45 -1.73
16.49 12.41 -1.81
4.89 3.65 -1.64
5.67 4.23 -1.63
30.97 23.13 2.03
6.77 5.05 -1.64
8.42 6.29 -1.67
11.25 8.4 -1.72
16.54 12.35 -1.81
4.9 3.63 -1.64
5.68 4.21 -1.63
6.79 5.03 -1.64
8.42 6.24 -1.66
11.27 8.35 -1.72
24.89 18.45 4.91
16.58 12.29 -1.81
4.93 3.63 -1.64
5.68 4.18 -1.63
6.8 5 -1.64
8.43 6.21 -1.66
11.27 8.3 -1.72
16.5 12.15 -1.79
4.94 3.61 -1.64
31.18 22.78 0.67
5.7 4.16 -1.63
6.8 4.97 -1.64
8.44 6.16 -1.66
11.27 8.23 -1.71
16.5 12.06 -1.79
4.95 3.59 -1.64
29.52 21.41 0.64
5.71 4.14 -1.63
6.8 4.93 -1.63
8.46 6.13 -1.65
29.12 21.12 4.42
11.27 8.18 -1.71
16.5 11.97 -1.78
31.75 23.04 9.06
4.95 3.57 -1.64
5.72 4.12 -1.63
6.81 4.91 -1.63
27.12 19.53 2.92
8.47 6.1 -1.65
11.29 8.13 -1.71
16.49 11.88 -1.78
4.97 3.55 -1.64
5.73 4.1 -1.63
31.55 22.56 2.03
6.82 4.88 -1.63
29.39 21.02 3.16
8.47 6.06 -1.65
11.3 8.08 -1.71
16.51 11.81 -1.78
4.98 3.54 -1.64
29.72 21.1 0.64
5.74 4.08 -1.63
29.56 20.98 1.9
6.84 4.86 -1.63
29.44 20.9 3.16
8.48 6.02 -1.65
11.3 8.02 -1.7
16.5 11.72 -1.77
29.79 21.15 -0.64
5 3.52 -1.64
5.76 4.05 -1.63
6.85 4.83 -1.63
8.49 5.98 -1.65
31.76 22.37 4.77
11.31 7.96 -1.7
31.8 22.4 6.16
16.5 11.62 -1.77
31.49 22.18 -0.67
5 3.5 -1.64
5.77 4.03 -1.63
6.85 4.79 -1.62
8.5 5.94 -1.64
11.31 7.91 -1.69
16.5 11.53 -1.76
31.56 22.06 -0.67
5.01 3.47 -1.63
5.79 4.02 -1.63
6.86 4.76 -1.62
8.5 5.9 -1.64
11.32 7.86 -1.69
16.48 11.44 -1.76
5.02 3.46 -1.63
5.8 4 -1.63
31.78 21.9 2.02
6.87 4.73 -1.62
8.5 5.86 -1.64
11.33 7.81 -1.69
16.49 11.36 -1.75
5.04 3.44 -1.63
5.81 3.97 -1.62
23.62 16.15 1.5
6.88 4.71 -1.62
31.93 21.84 3.38
8.52 5.83 -1.64
11.33 7.75 -1.68
16.47 11.27 -1.75
5.05 3.43 -1.64
5.82 3.95 -1.62
6.89 4.68 -1.62
8.53 5.79 -1.63
31.89 21.65 4.73
11.32 7.69 -1.68
16.49 11.2 -1.74
5.06 3.41 -1.64
5.83 3.93 -1.62
6.9 4.65 -1.62
31.88 21.49 4.72
11.34 7.64 -1.68
16.48 11.11 -1.74
5.07 3.39 -1.63
5.85 3.91 -1.62
6.91 4.63 -1.62
8.56 5.73 -1.63
11.35 7.59 -1.68
16.47 11.02 -1.73
5.07 3.37 -1.63
36.66 24.35 0.77
5.86 3.89 -1.62
6.91 4.59 -1.61
23.96 15.91 2.52
8.56 5.69 -1.63
11.36 7.54 -1.67
16.47 10.94 -1.73
23.66 15.72 -0.5
5.09 3.35 -1.63
5.87 3.87 -1.62
6.93 4.57 -1.61
8.56 5.64 -1.62
11.36 7.48 -1.67
16.48 10.86 -1.73
23.7 15.62 -1.49
5.1 3.34 -1.63
5.88 3.85 -1.62
6.94 4.54 -1.61
8.57 5.61 -1.62
23.71 15.51 3.48
11.35 7.42 -1.66
38.58 25.23 7.3
16.47 10.77 -1.72
5.11 3.32 -1.63
37.83 24.56 0.79
5.89 3.83 -1.62
6.94 4.5 -1.61
23.78 15.44 2.48
8.58 5.57 -1.62
23.99 15.57 3.51
11.34 7.36 -1.66
16.46 10.68 -1.72
5.11 3.29 -1.63
5.91 3.81 -1.62
23.75 15.3 1.48
6.95 4.47 -1.61
8.59 5.53 -1.62
23.83 15.35 3.48
11.35 7.31 -1.66
16.44 10.59 -1.71
23.54 15.16 -1.47
23.42 15.09 -0.49
5.13 3.28 -1.63
23.79 15.21 0.49
5.93 3.79 -1.62
6.95 4.45 -1.6
23.7 15.15 2.46
8.59 5.49 -1.62
23.71 15.16 3.46
11.36 7.27 -1.66
16.44 10.51 -1.71
23.73 15.17 -1.48
23.79 15.21 -0.49
5.15 3.27 -1.63
5.92 3.76 -1.62
23.72 15.05 1.47
6.96 4.42 -1.6
38.64 24.52 4
8.61 5.46 -1.61
11.37 7.22 -1.65
24.06 15.27 4.51
16.45 10.44 -1.7
26.52 16.83 -1.65
5.16 3.25 -1.63
5.94 3.74 -1.62
6.96 4.39 -1.6
24 15.12 2.48
8.61 5.42 -1.61
23.92 15.06 3.47
11.37 7.16 -1.65
24 15.12 4.49
16.46 10.37 -1.7
27.06 17.04 -1.68
5.17 3.23 -1.63
35.82 22.38 0.74
5.95 3.72 -1.62
6.97 4.35 -1.6
8.63 5.39 -1.61
38.19 23.87 5.53
11.39 7.11 -1.65
38.16 23.84 7.13
16.44 10.27 -1.7
24.09 15.05 -1.49
24.1 15.06 -0.5
5.17 3.2 -1.63
5.97 3.7 -1.62
6.99 4.33 -1.6
8.63 5.35 -1.61
11.39 7.06 -1.65
16.43 10.19 -1.69
27.34 16.95 -1.69
5.18 3.19 -1.63
5.98 3.68 -1.62
38.82 23.88 2.39
7 4.31 -1.6
8.63 5.31 -1.61
11.39 7.01 -1.64
16.43 10.11 -1.69
27.47 16.9 -1.69
5.19 3.17 -1.63
5.98 3.65 -1.62
24.42 14.91 1.5
7.02 4.28 -1.6
23.93 14.61 2.45
8.64 5.28 -1.6
11.38 6.95 -1.64
16.42 10.02 -1.68
27.61 16.85 -1.69
5.21 3.16 -1.63
38.86 23.54 0.79
6 3.63 -1.62
7.02 4.25 -1.6
8.66 5.24 -1.6
11.39 6.9 -1.63
16.41 9.94 -1.68
27.79 16.84 -1.7
5.22 3.14 -1.63
38.96 23.42 0.79
6.02 3.62 -1.62
7.02 4.22 -1.59
8.65 5.2 -1.6
11.39 6.84 -1.63
16.41 9.86 -1.67
27.89 16.76 -1.71
5.22 3.11 -1.63
6.03 3.59 -1.62
7.03 4.19 -1.59
8.67 5.17 -1.6
11.4 6.8 -1.63
16.34 9.74 -1.66
28.16 16.79 -1.72
5.23 3.09 -1.63
6.04 3.57 -1.62
7.06 4.17 -1.59
8.66 5.12 -1.59
11.41 6.75 -1.63
16.35 9.67 -1.66
28.28 16.73 -1.72
5.24 3.08 -1.63
6.04 3.55 -1.62
7.07 4.15 -1.59
8.67 5.09 -1.59
11.41 6.7 -1.63
16.39 9.62 -1.66
28.53 16.74 -1.73
5.26 3.06 -1.63
6.06 3.53 -1.62
7.08 4.12 -1.59
8.67 5.05 -1.59
11.4 6.64 -1.62
16.43 9.57 -1.66
28.72 16.72 -1.74
5.27 3.04 -1.63
6.06 3.5 -1.62
7.09 4.09 -1.59
8.69 5.02 -1.59
11.41 6.59 -1.62
16.4 9.47 -1.66
28.67 16.56 -1.74
5.27 3.02 -1.63
6.08 3.49 -1.62
7.1 4.07 -1.59
8.69 4.98 -1.59
11.4 6.53 -1.61
16.38 9.39 -1.65
29.11 16.68 -1.76
38.57 22.1 -0.78
5.28 3 -1.63
6.09 3.46 -1.62
7.12 4.05 -1.59
8.69 4.94 -1.58
11.41 6.49 -1.61
16.38 9.31 -1.65
29.24 16.62 -1.76
5.3 2.99 -1.63
6.1 3.44 -1.62
7.13 4.02 -1.59
8.7 4.91 -1.58
11.42 6.44 -1.61
16.37 9.24 -1.64
29.37 16.57 -1.77
5.31 2.97 -1.63
6.1 3.41 -1.61
7.14 4 -1.59
8.71 4.87 -1.58
11.42 6.39 -1.61
43.49 24.33 7.89
16.36 9.15 -1.64
29.65 16.59 -1.78
5.32 2.95 -1.63
6.12 3.4 -1.62
7.14 3.96 -1.59
43.25 24 4.33
8.72 4.84 -1.58
11.42 6.33 -1.6
16.35 9.07 -1.64
29.72 16.49 -1.78
5.32 2.93 -1.63
6.13 3.38 -1.62
7.16 3.94 -1.59
8.72 4.8 -1.58
11.42 6.29 -1.6
16.35 8.99 -1.63
29.74 16.36 -1.78
5.33 2.91 -1.63
6.15 3.36 -1.62
7.18 3.92 -1.59
8.73 4.76 -1.57
11.43 6.24 -1.6
16.33 8.91 -1.63
30.1 16.43 -1.8
5.34 2.89 -1.63
6.14 3.33 -1.61
7.19 3.9 -1.59
8.73 4.73 -1.57
11.37 6.16 -1.59
16.33 8.84 -1.62
5.36 2.88 -1.63
6.16 3.31 -1.61
7.2 3.87 -1.59
8.74 4.69 -1.57
11.39 6.12 -1.59
16.33 8.77 -1.62
26.35 14.16 -1.57
5.36 2.85 -1.63
6.18 3.29 -1.62
7.21 3.84 -1.59
8.74 4.65 -1.57
11.41 6.07 -1.59
16.32 8.69 -1.62
26.48 14.1 -1.57
5.37 2.83 -1.63
6.2 3.27 -1.62
7.23 3.82 -1.59
8.74 4.62 -1.57
11.44 6.04 -1.59
16.27 8.59 -1.61
26.6 14.05 -1.58
5.38 2.82 -1.63
6.2 3.25 -1.62
7.24 3.79 -1.59
8.74 4.57 -1.56
16.26 8.52 -1.61
5.39 2.8 -1.63
46.15 23.97 0.91
6.2 3.22 -1.61
7.26 3.77 -1.59
8.74 4.54 -1.56
11.44 5.94 -1.58
16.27 8.45 -1.6
26.94 13.99 -1.59
5.41 2.78 -1.63
6.21 3.19 -1.61
7.27 3.74 -1.59
8.74 4.5 -1.56
11.43 5.88 -1.58
16.27 8.37 -1.6
27.17 13.98 -1.6
5.41 2.76 -1.63
6.23 3.18 -1.61
7.27 3.71 -1.59
8.75 4.47 -1.56
11.44 5.84 -1.58
16.26 8.3 -1.6
5.41 2.74 -1.62
6.24 3.15 -1.61
7.29 3.69 -1.59
8.76 4.43 -1.55
11.44 5.79 -1.57
16.23 8.21 -1.59
5.42 2.72 -1.62
6.25 3.14 -1.62
7.3 3.66 -1.59
8.77 4.4 -1.55
11.44 5.74 -1.57
16.23 8.14 -1.59
5.44 2.7 -1.63
6.25 3.11 -1.61
7.33 3.64 -1.59
30.75 15.29 3
8.77 4.36 -1.55
30.75 15.29 4.22
11.44 5.69 -1.57
16.21 8.06 -1.58
5.45 2.69 -1.63
30.75 15.16 0.6
6.26 3.09 -1.61
30.85 15.21 1.8
7.34 3.62 -1.59
8.79 4.33 -1.55
11.44 5.64 -1.57
16.2 7.99 -1.58
30.8 15.19 -0.6
5.46 2.67 -1.63
6.28 3.07 -1.61
7.35 3.59 -1.59
8.81 4.3 -1.55
11.43 5.58 -1.56
16.18 7.9 -1.58
5.46 2.65 -1.63
6.29 3.05 -1.61
7.34 3.55 -1.58
8.82 4.27 -1.55
11.43 5.54 -1.56
16.16 7.83 -1.57
5.47 2.62 -1.63
6.3 3.02 -1.61
7.35 3.53 -1.58
8.82 4.23 -1.55
11.44 5.49 -1.56
16.16 7.76 -1.57
5.48 2.61 -1.62
6.3 3 -1.61
7.37 3.51 -1.59
8.84 4.21 -1.55
11.45 5.45 -1.56
16.15 7.68 -1.56
5.49 2.59 -1.63
6.31 2.97 -1.61
7.38 3.48 -1.59
8.86 4.18 -1.55
11.44 5.39 -1.55
16.13 7.6 -1.56
35.58 16.77 -0.69
5.5 2.57 -1.63
6.32 2.96 -1.61
7.38 3.45 -1.58
8.87 4.15 -1.55
11.43 5.34 -1.55
16.12 7.53 -1.56
5.49 2.55 -1.62
6.34 2.94 -1.61
7.4 3.43 -1.58
8.88 4.12 -1.55
11.44 5.3 -1.55
54.07 25.05 9.44
16.1 7.46 -1.55
5.51 2.53 -1.62
35.54 16.33 0.68
6.34 2.91 -1.61
35.56 16.33 2.05
7.42 3.41 -1.59
8.9 4.09 -1.55
11.43 5.25 -1.54
16.1 7.4 -1.55
35.53 16.32 -0.68
5.52 2.51 -1.62
6.34 2.89 -1.61
35.67 16.23 2.05
7.43 3.38 -1.59
8.92 4.06 -1.55
11.43 5.2 -1.54
16.09 7.32 -1.55
5.53 2.49 -1.63
35.86 16.17 0.69
6.36 2.87 -1.61
7.43 3.35 -1.58
8.92 4.02 -1.55
11.43 5.15 -1.54
16.06 7.24 -1.54
5.54 2.47 -1.62
6.37 2.85 -1.61
7.43 3.32 -1.58
8.94 3.99 -1.55
11.43 5.1 -1.54
16.05 7.17 -1.54
5.54 2.45 -1.62
6.38 2.82 -1.61
7.46 3.3 -1.59
8.95 3.96 -1.55
11.41 5.05 -1.53
16.03 7.1 -1.53
5.55 2.43 -1.62
6.39 2.8 -1.61
7.46 3.27 -1.58
8.95 3.92 -1.55
11.44 5.01 -1.53
16.04 7.03 -1.53
5.56 2.41 -1.62
6.39 2.78 -1.61
7.46 3.24 -1.58
8.97 3.89 -1.55
11.42 4.96 -1.53
16.02 6.96 -1.53
5.59 2.4 -1.63
6.4 2.75 -1.61
7.48 3.22 -1.58
8.99 3.86 -1.55
11.42 4.91 -1.53
16 6.88 -1.52
5.59 2.38 -1.63
6.42 2.73 -1.61
7.5 3.19 -1.58
9 3.83 -1.55
11.42 4.86 -1.52
15.99 6.81 -1.52
5.57 2.35 -1.62
6.43 2.71 -1.61
7.5 3.16 -1.58
9.01 3.8 -1.55
11.44 4.83 -1.53
15.97 6.74 -1.52
5.58 2.33 -1.62
6.44 2.69 -1.61
7.52 3.14 -1.58
9.02 3.77 -1.55
11.43 4.78 -1.52
15.97 6.67 -1.51
5.59 2.31 -1.62
6.44 2.66 -1.61
7.52 3.11 -1.58
9.03 3.74 -1.55
11.44 4.73 -1.52
15.91 6.58 -1.51
5.6 2.29 -1.62
6.45 2.64 -1.61
7.54 3.09 -1.58
9.04 3.71 -1.55
11.38 4.66 -1.51
15.89 6.52 -1.5
5.61 2.27 -1.62
6.46 2.62 -1.61
7.54 3.06 -1.58
9.05 3.67 -1.55
11.4 4.62 -1.51
15.91 6.45 -1.5
6.47 2.6 -1.61
7.55 3.03 -1.58
9.07 3.64 -1.55
11.43 4.59 -1.51
15.94 6.4 -1.5
5.63 2.24 -1.62
6.48 2.58 -1.61
7.56 3 -1.58
9.07 3.6 -1.55
11.45 4.55 -1.51
15.9 6.32 -1.5
5.64 2.22 -1.62
6.48 2.55 -1.61
7.58 2.98 -1.58
9.09 3.58 -1.55
11.47 4.51 -1.51
15.87 6.25 -1.49
26.85 10.57 -1.51
5.65 2.2 -1.62
6.5 2.53 -1.61
7.59 2.96 -1.58
9.1 3.55 -1.55
15.87 6.18 -1.49
26.91 10.49 -1.51
5.65 2.18 -1.62
6.5 2.51 -1.61
7.58 2.93 -1.58
9.11 3.52 -1.55
11.49 4.43 -1.51
15.86 6.12 -1.49
5.65 2.16 -1.62
6.51 2.49 -1.61
7.59 2.9 -1.58
9.12 3.48 -1.55
11.51 4.39 -1.51
15.82 6.04 -1.48
5.66 2.14 -1.62
6.51 2.46 -1.61
7.61 2.88 -1.58
9.12 3.45 -1.54
11.53 4.36 -1.51
15.83 5.98 -1.48
5.68 2.12 -1.62
6.52 2.44 -1.61
7.62 2.85 -1.58
9.14 3.41 -1.55
11.55 4.31 -1.51
15.81 5.91 -1.48
5.68 2.1 -1.62
6.53 2.41 -1.61
7.63 2.82 -1.58
9.15 3.38 -1.55
11.55 4.27 -1.51
15.82 5.85 -1.48
5.69 2.08 -1.62
6.53 2.39 -1.61
7.64 2.79 -1.58
9.17 3.35 -1.55
11.56 4.23 -1.51
15.78 5.77 -1.47
5.69 2.06 -1.62
6.54 2.37 -1.61
7.64 2.77 -1.58
9.17 3.32 -1.54
11.57 4.19 -1.51
15.76 5.7 -1.47
5.7 2.04 -1.62
7.65 2.74 -1.58
9.17 3.28 -1.54
11.6 4.15 -1.51
15.74 5.63 -1.46
5.71 2.02 -1.62
6.56 2.32 -1.61
7.66 2.71 -1.58
9.19 3.25 -1.54
11.61 4.11 -1.51
15.76 5.58 -1.46
5.71 2 -1.62
6.57 2.3 -1.61
7.67 2.69 -1.58
9.2 3.22 -1.54
11.61 4.06 -1.51
15.74 5.51 -1.46
5.73 1.98 -1.62
6.58 2.28 -1.61
7.67 2.66 -1.58
9.22 3.19 -1.54
11.63 4.03 -1.51
15.72 5.45 -1.46
5.72 1.96 -1.62
6.59 2.25 -1.61
7.67 2.63 -1.58
9.22 3.16 -1.54
11.64 3.98 -1.51
15.69 5.37 -1.45
5.73 1.94 -1.62
6.6 2.23 -1.61
7.68 2.6 -1.58
9.22 3.12 -1.54
11.67 3.95 -1.51
15.68 5.31 -1.45
5.74 1.92 -1.62
6.58 2.2 -1.6
7.69 2.57 -1.58
9.24 3.09 -1.54
11.68 3.91 -1.51
15.66 5.24 -1.44
5.75 1.9 -1.62
89.92 29.75 1.65
6.59 2.18 -1.6
7.68 2.54 -1.57
9.26 3.06 -1.54
11.69 3.87 -1.51
15.66 5.18 -1.44
5.75 1.88 -1.62
6.61 2.16 -1.61
7.69 2.52 -1.57
9.26 3.03 -1.54
11.68 3.82 -1.51
15.64 5.12 -1.44
5.75 1.86 -1.62
90.25 29.18 1.66
6.62 2.14 -1.61
7.7 2.49 -1.57
9.27 3 -1.54
11.71 3.78 -1.51
15.64 5.06 -1.44
5.77 1.84 -1.62
6.63 2.12 -1.61
7.72 2.47 -1.58
9.28 2.96 -1.54
11.72 3.74 -1.51
15.65 5 -1.44
25.68 8.2 -1.41
5.77 1.82 -1.62
6.63 2.09 -1.6
9.28 2.93 -1.54
11.73 3.7 -1.51
15.65 4.94 -1.44
5.79 1.8 -1.62
6.63 2.07 -1.6
7.75 2.42 -1.58
9.3 2.9 -1.54
11.73 3.66 -1.51
15.68 4.89 -1.44
25.55 7.97 -1.4
5.79 1.78 -1.62
6.65 2.05 -1.61
7.75 2.39 -1.58
9.31 2.87 -1.54
11.75 3.62 -1.51
15.7 4.84 -1.44
5.78 1.76 -1.62
6.66 2.03 -1.61
7.76 2.36 -1.58
9.32 2.83 -1.54
11.76 3.58 -1.51
15.7 4.78 -1.44
25.41 7.73 -1.39
5.8 1.74 -1.62
6.66 2 -1.61
7.77 2.34 -1.58
9.32 2.8 -1.54
11.77 3.54 -1.51
15.73 4.73 -1.44
5.8 1.72 -1.62
6.66 1.98 -1.6
7.79 2.31 -1.58
9.33 2.77 -1.54
11.79 3.5 -1.51
15.73 4.67 -1.44
5.81 1.7 -1.62
6.67 1.96 -1.6
7.79 2.28 -1.58
9.33 2.73 -1.54
11.79 3.46 -1.51
15.75 4.62 -1.44
25.05 7.34 -1.37
5.81 1.68 -1.62
6.68 1.93 -1.61
7.79 2.25 -1.58
9.33 2.7 -1.54
11.81 3.42 -1.51
15.77 4.56 -1.44
25.06 7.25 -1.37
5.81 1.66 -1.62
6.69 1.91 -1.61
7.8 2.23 -1.58
9.35 2.67 -1.54
11.82 3.38 -1.51
15.77 4.51 -1.44
25.2 7.2 -1.37
5.82 1.64 -1.62
6.7 1.89 -1.61
7.81 2.2 -1.58
9.35 2.63 -1.54
11.84 3.33 -1.51
15.8 4.45 -1.44
5.83 1.62 -1.62
101.81 28.31 1.84
6.7 1.86 -1.6
7.82 2.18 -1.58
9.36 2.6 -1.54
11.84 3.29 -1.51
15.81 4.4 -1.44
5.84 1.6 -1.62
6.7 1.84 -1.6
7.82 2.15 -1.58
11.85 3.25 -1.51
15.83 4.34 -1.44
5.84 1.58 -1.62
6.71 1.82 -1.6
7.82 2.12 -1.58
9.41 2.55 -1.54
11.86 3.21 -1.51
15.84 4.29 -1.44
5.85 1.56 -1.62
6.72 1.79 -1.61
7.84 2.09 -1.58
9.41 2.51 -1.54
11.87 3.17 -1.51
15.85 4.23 -1.44
5.85 1.54 -1.62
6.73 1.77 -1.61
7.85 2.07 -1.58
9.41 2.48 -1.54
11.89 3.13 -1.51
15.86 4.18 -1.43
5.86 1.52 -1.62
6.72 1.74 -1.6
7.85 2.04 -1.58
9.41 2.44 -1.54
11.9 3.09 -1.51
15.88 4.12 -1.44
5.87 1.5 -1.62
6.74 1.72 -1.61
7.87 2.01 -1.58
9.42 2.41 -1.54
11.91 3.05 -1.51
15.89 4.06 -1.43
5.87 1.48 -1.62
6.74 1.7 -1.61
7.87 1.98 -1.58
9.44 2.38 -1.54
11.91 3 -1.51
15.89 4.01 -1.43
5.87 1.46 -1.62
6.76 1.68 -1.61
7.86 1.96 -1.58
9.45 2.35 -1.54
11.89 2.95 -1.5
15.91 3.96 -1.43
5.87 1.44 -1.62
6.76 1.65 -1.61
7.89 1.93 -1.58
9.44 2.31 -1.54
11.91 2.91 -1.51
15.92 3.9 -1.43
5.88 1.42 -1.62
6.75 1.63 -1.6
7.9 1.9 -1.58
9.45 2.28 -1.54
11.92 2.88 -1.51
15.94 3.85 -1.43
5.89 1.4 -1.62
6.76 1.6 -1.6
7.89 1.87 -1.58
9.46 2.25 -1.54
11.94 2.83 -1.51
15.96 3.79 -1.44
5.9 1.38 -1.62
6.77 1.58 -1.6
7.89 1.85 -1.58
9.48 2.22 -1.54
15.96 3.73 -1.43
5.89 1.36 -1.62
6.78 1.56 -1.61
7.9 1.82 -1.58
9.48 2.18 -1.54
11.98 2.76 -1.51
15.98 3.68 -1.43
5.9 1.34 -1.62
6.78 1.54 -1.61
7.91 1.79 -1.58
9.48 2.15 -1.54
11.98 2.72 -1.51
15.99 3.62 -1.43
5.9 1.32 -1.62
6.78 1.51 -1.6
7.92 1.76 -1.58
9.49 2.11 -1.54
12 2.67 -1.51
16 3.56 -1.43
5.91 1.3 -1.62
6.78 1.49 -1.6
7.93 1.74 -1.58
9.5 2.08 -1.54
12 2.63 -1.51
16.04 3.52 -1.44
5.91 1.27 -1.62
6.79 1.46 -1.6
7.92 1.71 -1.58
9.51 2.05 -1.54
12 2.59 -1.51
16.04 3.46 -1.44
24.31 5.24 -1.3
5.91 1.25 -1.62
6.8 1.44 -1.61
7.93 1.68 -1.58
9.52 2.02 -1.54
12.01 2.55 -1.51
16.04 3.4 -1.43
5.92 1.23 -1.62
6.81 1.42 -1.6
7.93 1.65 -1.57
9.52 1.98 -1.54
12.03 2.51 -1.51
16.03 3.34 -1.43
5.93 1.21 -1.62
6.8 1.39 -1.6
7.95 1.63 -1.58
9.53 1.95 -1.54
12.03 2.47 -1.51
16.04 3.29 -1.43
5.94 1.19 -1.62
6.81 1.37 -1.6
7.96 1.6 -1.58
9.54 1.92 -1.54
12.04 2.42 -1.51
16.06 3.23 -1.43
5.94 1.17 -1.62
6.82 1.35 -1.6
7.94 1.57 -1.57
9.54 1.89 -1.54
12.05 2.38 -1.51
16.1 3.18 -1.44
5.93 1.15 -1.62
6.83 1.33 -1.61
7.96 1.55 -1.58
9.55 1.86 -1.54
12.06 2.34 -1.51
16.09 3.12 -1.43
5.95 1.13 -1.62
6.83 1.3 -1.61
7.97 1.52 -1.58
9.55 1.82 -1.54
12.08 2.3 -1.51
16.11 3.07 -1.43
5.95 1.11 -1.62
6.83 1.28 -1.6
7.98 1.49 -1.58
9.56 1.79 -1.54
12.08 2.26 -1.51
16.13 3.02 -1.44
24.41 4.56 -1.3
5.95 1.09 -1.62
6.83 1.25 -1.6
7.98 1.46 -1.58
9.57 1.75 -1.54
12.08 2.22 -1.51
16.14 2.96 -1.44
24.36 4.47 -1.3
5.96 1.07 -1.62
6.84 1.23 -1.61
7.97 1.43 -1.57
9.58 1.72 -1.54
12.09 2.17 -1.51
16.16 2.9 -1.44
24.38 4.38 -1.3
5.95 1.05 -1.62
6.85 1.21 -1.6
7.99 1.41 -1.58
9.58 1.69 -1.54
12.11 2.13 -1.51
16.16 2.85 -1.44
24.49 4.31 -1.3
5.96 1.03 -1.62
6.85 1.18 -1.6
7.99 1.38 -1.58
9.58 1.65 -1.54
12.12 2.09 -1.51
16.18 2.79 -1.44
24.51 4.23 -1.3
5.96 1.01 -1.62
6.84 1.16 -1.6
8 1.35 -1.58
9.58 1.62 -1.54
12.12 2.05 -1.51
16.19 2.73 -1.44
24.42 4.13 -1.3
5.97 0.99 -1.62
6.85 1.13 -1.6
8 1.32 -1.58
9.6 1.59 -1.54
12.12 2.01 -1.51
16.2 2.68 -1.44
24.44 4.05 -1.3
5.97 0.97 -1.62
6.86 1.11 -1.6
8 1.3 -1.58
9.6 1.56 -1.54
12.14 1.97 -1.51
16.22 2.63 -1.44
24.5 3.97 -1.3
5.97 0.95 -1.62
6.87 1.09 -1.6
8.01 1.27 -1.58
9.61 1.52 -1.54
12.14 1.92 -1.51
16.21 2.57 -1.44
24.52 3.88 -1.3
5.97 0.92 -1.62
6.87 1.06 -1.6
8.01 1.24 -1.58
9.6 1.49 -1.54
12.15 1.88 -1.51
16.22 2.51 -1.44
24.51 3.79 -1.3
5.98 0.9 -1.62
82.99 12.55 1.46
6.87 1.04 -1.6
8.02 1.21 -1.58
9.61 1.45 -1.54
12.15 1.84 -1.51
16.25 2.46 -1.44
24.49 3.7 -1.3
5.99 0.88 -1.62
83.01 12.26 1.46
6.87 1.01 -1.6
8.03 1.19 -1.58
9.63 1.42 -1.54
12.15 1.79 -1.51
16.26 2.4 -1.44
24.53 3.62 -1.3
5.99 0.86 -1.62
83.08 11.97 1.47
6.88 0.99 -1.6
8.02 1.16 -1.58
9.64 1.39 -1.54
12.16 1.75 -1.51
16.27 2.34 -1.44
24.55 3.54 -1.3
5.98 0.84 -1.62
83.2 11.69 1.47
6.89 0.97 -1.61
8.03 1.13 -1.58
9.63 1.35 -1.54
12.18 1.71 -1.51
16.26 2.29 -1.44
24.56 3.45 -1.3
5.99 0.82 -1.62
83.19 11.4 1.47
6.89 0.94 -1.61
8.03 1.1 -1.58
9.63 1.32 -1.54
12.18 1.67 -1.51
16.28 2.23 -1.44
24.58 3.37 -1.3
6 0.8 -1.62
6.89 0.92 -1.61
8.05 1.07 -1.58
9.64 1.29 -1.54
12.19 1.63 -1.51
16.29 2.17 -1.44
24.58 3.28 -1.3
6 0.78 -1.62
6.89 0.9 -1.6
8.04 1.05 -1.58
9.65 1.25 -1.54
12.19 1.59 -1.51
16.32 2.12 -1.44
24.58 3.2 -1.3
6.01 0.76 -1.62
6.9 0.87 -1.61
8.03 1.02 -1.57
9.66 1.22 -1.54
12.19 1.54 -1.51
16.32 2.06 -1.44
24.62 3.11 -1.3
6 0.74 -1.62
6.9 0.85 -1.61
8.04 0.99 -1.57
9.66 1.19 -1.54
12.21 1.5 -1.51
16.33 2.01 -1.44
24.62 3.03 -1.3
6 0.72 -1.62
6.9 0.82 -1.61
8.05 0.96 -1.58
9.64 1.15 -1.54
12.22 1.46 -1.51
16.33 1.95 -1.44
24.63 2.94 -1.3
6.01 0.7 -1.62
6.9 0.8 -1.6
8.06 0.93 -1.58
9.66 1.12 -1.54
12.22 1.42 -1.51
16.35 1.89 -1.44
24.64 2.85 -1.3
6.01 0.68 -1.62
6.9 0.78 -1.6
8.06 0.91 -1.58
9.67 1.09 -1.54
12.21 1.37 -1.51
16.36 1.84 -1.44
24.61 2.77 -1.3
6.02 0.65 -1.62
6.91 0.75 -1.6
8.06 0.88 -1.58
9.68 1.05 -1.54
12.22 1.33 -1.51
16.37 1.78 -1.44
24.65 2.68 -1.3
6.01 0.63 -1.62
6.92 0.73 -1.61
8.06 0.85 -1.58
9.67 1.02 -1.54
12.23 1.29 -1.51
16.37 1.72 -1.44
24.68 2.6 -1.3
6.02 0.61 -1.62
6.92 0.7 -1.61
8.07 0.82 -1.58
9.67 0.98 -1.54
12.25 1.25 -1.51
16.39 1.67 -1.44
24.66 2.51 -1.3
6.02 0.59 -1.62
6.92 0.68 -1.6
8.08 0.79 -1.58
9.68 0.95 -1.54
12.25 1.2 -1.51
16.4 1.61 -1.44
24.68 2.42 -1.3
6.03 0.57 -1.62
6.91 0.66 -1.6
8.08 0.77 -1.58
9.69 0.92 -1.54
12.25 1.16 -1.51
16.42 1.56 -1.44
24.66 2.34 -1.3
6.02 0.55 -1.62
6.92 0.63 -1.6
8.07 0.74 -1.58
9.69 0.89 -1.54
12.25 1.12 -1.51
16.41 1.5 -1.44
24.71 2.26 -1.3
6.02 0.53 -1.62
6.93 0.61 -1.61
8.08 0.71 -1.58
9.7 0.85 -1.54
12.26 1.08 -1.51
16.42 1.44 -1.44
24.71 2.17 -1.3
6.03 0.51 -1.62
6.93 0.58 -1.61
8.09 0.68 -1.58
9.69 0.82 -1.54
12.27 1.03 -1.51
16.44 1.39 -1.44
24.71 2.08 -1.3
6.03 0.49 -1.62
6.93 0.56 -1.6
8.09 0.65 -1.58
9.7 0.78 -1.54
12.27 0.99 -1.51
16.46 1.33 -1.44
24.73 2 -1.3
6.04 0.47 -1.62
6.92 0.54 -1.6
8.1 0.63 -1.58
9.7 0.75 -1.54
12.27 0.95 -1.51
16.46 1.27 -1.44
24.72 1.91 -1.3
6.04 0.45 -1.62
6.94 0.51 -1.61
8.09 0.6 -1.58
9.71 0.72 -1.54
12.28 0.91 -1.51
16.47 1.22 -1.45
24.72 1.83 -1.3
6.04 0.43 -1.62
6.94 0.49 -1.61
8.09 0.57 -1.58
9.71 0.69 -1.54
12.29 0.87 -1.51
16.46 1.16 -1.44
24.77 1.75 -1.3
6.04 0.41 -1.62
6.95 0.47 -1.61
8.1 0.54 -1.58
9.7 0.65 -1.54
12.3 0.83 -1.51
16.47 1.11 -1.44
24.74 1.66 -1.3
6.04 0.38 -1.62
6.94 0.44 -1.61
8.1 0.52 -1.58
9.71 0.62 -1.54
12.29 0.78 -1.51
16.49 1.05 -1.45
6.05 0.36 -1.62
6.94 0.42 -1.61
8.11 0.49 -1.58
9.72 0.58 -1.54
12.29 0.74 -1.51
16.51 0.99 -1.45
6.05 0.34 -1.62
6.94 0.39 -1.61
8.1 0.46 -1.58
9.72 0.55 -1.54
12.3 0.7 -1.51
16.51 0.93 -1.45
24.85 1.41 -1.3
6.04 0.32 -1.62
6.95 0.37 -1.61
8.1 0.43 -1.58
9.72 0.51 -1.54
12.31 0.65 -1.51
16.52 0.87 -1.45
24.79 1.31 -1.3
6.04 0.3 -1.62
6.95 0.34 -1.61
8.11 0.4 -1.58
9.71 0.48 -1.54
12.32 0.61 -1.51
16.51 0.82 -1.45
24.86 1.23 -1.3
6.05 0.28 -1.62
6.94 0.32 -1.6
8.12 0.38 -1.58
9.72 0.45 -1.54
12.32 0.57 -1.51
16.52 0.76 -1.45
24.83 1.15 -1.3
6.05 0.26 -1.62
6.95 0.3 -1.61
8.12 0.35 -1.58
9.73 0.42 -1.54
12.32 0.53 -1.51
16.53 0.71 -1.45
24.85 1.06 -1.3
6.05 0.24 -1.62
6.95 0.27 -1.61
8.11 0.32 -1.58
9.74 0.38 -1.54
12.32 0.48 -1.51
16.53 0.64 -1.45
24.85 0.97 -1.3
6.05 0.21 -1.62
6.96 0.25 -1.61
8.12 0.29 -1.58
9.74 0.35 -1.54
12.33 0.44 -1.51
16.51 0.59 -1.45
24.8 0.88 -1.3
6.04 0.19 -1.62
6.96 0.22 -1.61
8.13 0.26 -1.58
9.74 0.31 -1.54
12.35 0.4 -1.52
16.52 0.53 -1.45
24.8 0.8 -1.3
6.05 0.17 -1.62
6.95 0.2 -1.61
8.13 0.23 -1.58
9.75 0.28 -1.54
12.35 0.35 -1.52
16.52 0.47 -1.45
24.86 0.71 -1.3
6.06 0.15 -1.62
6.95 0.18 -1.61
8.13 0.21 -1.58
9.75 0.25 -1.54
12.33 0.31 -1.51
16.53 0.42 -1.45
24.86 0.63 -1.3
6.05 0.13 -1.62
6.96 0.15 -1.61
8.13 0.18 -1.58
9.75 0.21 -1.54
12.33 0.27 -1.51
16.51 0.36 -1.45
24.88 0.55 -1.3
6.05 0.11 -1.62
6.97 0.13 -1.61
8.13 0.15 -1.58
9.75 0.18 -1.55
12.35 0.23 -1.52
16.5 0.31 -1.44
24.88 0.46 -1.3
6.05 0.09 -1.62
6.97 0.1 -1.61
8.14 0.12 -1.58
9.75 0.15 -1.54
12.35 0.19 -1.52
16.51 0.25 -1.44
24.85 0.37 -1.3
6.06 0.07 -1.62
6.96 0.08 -1.61
8.14 0.09 -1.58
9.75 0.11 -1.54
12.34 0.14 -1.52
16.5 0.19 -1.44
24.87 0.29 -1.3
6.06 0.05 -1.62
6.98 0.06 -1.61
8.15 0.07 -1.58
9.76 0.08 -1.55
12.33 0.1 -1.51
16.51 0.13 -1.44
24.87 0.2 -1.3
6.07 0.03 -1.63
6.98 0.03 -1.61
8.14 0.04 -1.58
9.77 0.04 -1.55
12.34 0.05 -1.51
16.51 0.07 -1.44
24.82 0.11 -1.3
6.06 0.01 -1.62
6.97 0.01 -1.61
8.14 0.01 -1.58
9.76 0.01 -1.55
12.34 0.01 -1.51
16.49 0.01 -1.44
24.87 0.02 -1.3
6.06 -0.01 -1.62
6.98 -0.02 -1.61
8.15 -0.02 -1.58
9.76 -0.02 -1.55
12.35 -0.03 -1.52
16.5 -0.04 -1.44
24.85 -0.06 -1.3
6.07 -0.04 -1.63
6.97 -0.04 -1.61
8.15 -0.05 -1.58
9.75 -0.06 -1.54
12.34 -0.07 -1.52
16.51 -0.1 -1.44
6.07 -0.06 -1.63
6.97 -0.07 -1.61
8.15 -0.08 -1.58
9.76 -0.09 -1.55
12.33 -0.12 -1.51
16.5 -0.16 -1.44
19.38 -0.18 -1.02
6.07 -0.08 -1.63
6.97 -0.09 -1.61
8.13 -0.11 -1.58
9.76 -0.13 -1.55
12.33 -0.16 -1.51
16.5 -0.21 -1.44
6.05 -0.1 -1.62
55.99 -0.91 0.98
6.98 -0.11 -1.61
8.14 -0.13 -1.58
9.76 -0.16 -1.55
12.33 -0.2 -1.51
16.49 -0.27 -1.44
18.16 -0.29 -0.95
6.06 -0.12 -1.62
6.98 -0.14 -1.61
8.14 -0.16 -1.58
9.76 -0.19 -1.55
12.33 -0.24 -1.51
16.49 -0.33 -1.44
17.7 -0.35 -0.93
18.29 -0.36 -0.32
6.07 -0.14 -1.63
6.97 -0.16 -1.61
8.14 -0.19 -1.58
9.75 -0.23 -1.54
12.33 -0.29 -1.51
16.49 -0.38 -1.44
17.67 -0.41 -0.93
18.1 -0.42 -0.32
6.07 -0.16 -1.63
6.97 -0.19 -1.61
8.14 -0.22 -1.58
9.75 -0.26 -1.55
12.32 -0.33 -1.51
16.48 -0.44 -1.44
17.68 -0.47 -0.93
17.96 -0.48 -0.31
6.07 -0.18 -1.63
55.7 -1.68 0.97
6.97 -0.21 -1.61
8.13 -0.25 -1.58
9.77 -0.29 -1.55
12.32 -0.37 -1.51
16.46 -0.5 -1.44
17.69 -0.53 -0.93
6.06 -0.2 -1.62
6.97 -0.23 -1.61
8.14 -0.27 -1.58
9.76 -0.33 -1.55
12.33 -0.42 -1.51
16.46 -0.55 -1.44
17.71 -0.6 -0.93
6.06 -0.22 -1.62
6.97 -0.26 -1.61
8.15 -0.3 -1.58
9.74 -0.36 -1.54
12.33 -0.46 -1.52
16.45 -0.61 -1.44
17.72 -0.66 -0.93
6.06 -0.25 -1.63
6.96 -0.28 -1.61
8.14 -0.33 -1.58
9.74 -0.39 -1.54
12.33 -0.5 -1.52
16.44 -0.67 -1.44
17.71 -0.72 -0.93
6.07 -0.27 -1.63
6.97 -0.31 -1.61
8.14 -0.36 -1.58
9.72 -0.43 -1.54
12.32 -0.54 -1.51
16.44 -0.72 -1.44
17.7 -0.78 -0.93
6.06 -0.29 -1.63
6.96 -0.33 -1.61
8.13 -0.39 -1.58
9.73 -0.46 -1.54
12.32 -0.59 -1.51
16.43 -0.78 -1.44
17.71 -0.84 -0.93
6.06 -0.31 -1.63
6.97 -0.35 -1.61
8.13 -0.41 -1.58
9.73 -0.49 -1.54
12.32 -0.62 -1.51
16.39 -0.83 -1.44
17.71 -0.9 -0.93
6.06 -0.33 -1.62
6.97 -0.38 -1.61
8.14 -0.44 -1.58
9.72 -0.53 -1.54
12.32 -0.67 -1.52
16.4 -0.89 -1.44
17.71 -0.96 -0.93
6.06 -0.35 -1.63
6.96 -0.4 -1.61
8.14 -0.47 -1.59
9.73 -0.56 -1.54
12.32 -0.71 -1.52
16.4 -0.95 -1.44
17.7 -1.02 -0.93
6.06 -0.37 -1.63
6.96 -0.43 -1.61
8.13 -0.5 -1.58
9.74 -0.6 -1.54
12.3 -0.75 -1.51
16.39 -1.01 -1.44
17.71 -1.09 -0.93
17.86 -1.1 -0.31
6.06 -0.39 -1.63
38.66 -2.51 0.68
6.97 -0.45 -1.61
8.11 -0.53 -1.58
9.74 -0.63 -1.55
12.3 -0.8 -1.51
16.38 -1.06 -1.44
17.71 -1.15 -0.93
6.05 -0.41 -1.62
6.96 -0.48 -1.61
8.1 -0.55 -1.58
9.74 -0.67 -1.55
12.3 -0.84 -1.51
16.37 -1.12 -1.44
17.73 -1.21 -0.93
6.05 -0.43 -1.63
6.96 -0.5 -1.61
8.1 -0.58 -1.58
9.73 -0.7 -1.55
12.3 -0.88 -1.51
16.37 -1.18 -1.44
17.73 -1.27 -0.93
6.05 -0.46 -1.62
38.65 -2.91 0.68
6.95 -0.52 -1.61
38.68 -2.91 2.03
8.09 -0.61 -1.58
9.73 -0.73 -1.55
12.28 -0.93 -1.51
16.36 -1.23 -1.44
17.73 -1.34 -0.93
6.05 -0.48 -1.63
6.95 -0.55 -1.61
8.1 -0.64 -1.58
9.74 -0.77 -1.55
12.27 -0.97 -1.51
16.36 -1.29 -1.44
17.74 -1.4 -0.93
6.06 -0.5 -1.63
6.95 -0.57 -1.61
8.09 -0.67 -1.58
9.74 -0.8 -1.55
12.27 -1.01 -1.51
16.35 -1.35 -1.44
17.76 -1.46 -0.93
6.04 -0.52 -1.63
38.47 -3.3 0.67
6.95 -0.6 -1.61
8.1 -0.69 -1.58
9.74 -0.83 -1.55
12.27 -1.05 -1.51
16.34 -1.4 -1.43
17.77 -1.52 -0.93
6.05 -0.54 -1.63
6.95 -0.62 -1.61
8.11 -0.72 -1.58
9.72 -0.87 -1.55
12.26 -1.09 -1.51
16.33 -1.46 -1.43
17.77 -1.59 -0.93
6.05 -0.56 -1.63
6.94 -0.64 -1.61
8.12 -0.75 -1.58
9.72 -0.9 -1.55
12.26 -1.14 -1.51
16.33 -1.52 -1.43
17.78 -1.65 -0.94
6.05 -0.58 -1.63
6.95 -0.67 -1.61
8.12 -0.78 -1.59
9.72 -0.94 -1.55
12.24 -1.18 -1.51
16.32 -1.57 -1.43
17.78 -1.71 -0.94
18.13 -1.75 -0.32
6.04 -0.6 -1.63
6.95 -0.69 -1.61
8.11 -0.81 -1.58
9.72 -0.97 -1.55
12.24 -1.22 -1.51
16.32 -1.63 -1.43
17.78 -1.77 -0.94
6.03 -0.62 -1.62
6.95 -0.72 -1.61
8.1 -0.84 -1.58
9.71 -1 -1.55
12.23 -1.26 -1.51
16.3 -1.68 -1.43
17.79 -1.84 -0.94
6.03 -0.64 -1.63
6.94 -0.74 -1.61
8.11 -0.87 -1.58
9.71 -1.04 -1.55
12.23 -1.31 -1.51
16.3 -1.74 -1.43
17.83 -1.91 -0.94
6.04 -0.67 -1.63
6.92 -0.76 -1.61
8.11 -0.89 -1.59
9.7 -1.07 -1.55
12.23 -1.35 -1.51
16.29 -1.8 -1.43
24.88 -2.75 -1.31
6.04 -0.69 -1.63
6.95 -0.79 -1.61
8.11 -0.92 -1.59
9.7 -1.1 -1.55
12.22 -1.39 -1.51
16.29 -1.85 -1.43
24.87 -2.83 -1.31
6.03 -0.71 -1.63
6.93 -0.81 -1.61
8.08 -0.95 -1.58
9.7 -1.14 -1.55
12.21 -1.43 -1.51
16.28 -1.91 -1.43
24.71 -2.9 -1.3
6.03 -0.73 -1.63
6.93 -0.84 -1.61
8.09 -0.98 -1.58
9.7 -1.17 -1.55
12.2 -1.47 -1.51
16.25 -1.96 -1.43
24.49 -2.96 -1.29
6.03 -0.75 -1.63
6.93 -0.86 -1.61
8.1 -1.01 -1.59
24.47 -3.04 2.16
9.68 -1.2 -1.55
12.21 -1.52 -1.51
16.25 -2.02 -1.43
24.4 -3.03 -1.29
6.02 -0.77 -1.63
6.92 -0.88 -1.61
8.09 -1.03 -1.59
9.68 -1.24 -1.54
25.43 -3.25 3.15
12.2 -1.56 -1.51
16.26 -2.08 -1.43
24.27 -3.1 -1.28
6.02 -0.79 -1.63
55.22 -7.25 0.97
6.92 -0.91 -1.61
8.09 -1.06 -1.59
9.68 -1.27 -1.55
25.33 -3.33 3.14
12.19 -1.6 -1.51
16.25 -2.13 -1.43
24.12 -3.17 -1.27
6.02 -0.81 -1.63
6.92 -0.93 -1.61
8.07 -1.09 -1.58
9.67 -1.3 -1.55
12.18 -1.64 -1.51
24.55 -3.31 3.92
16.24 -2.19 -1.43
24.05 -3.24 -1.27
6.02 -0.83 -1.63
6.92 -0.96 -1.61
8.07 -1.12 -1.58
9.67 -1.34 -1.55
12.18 -1.69 -1.51
16.22 -2.25 -1.43
24.14 -3.34 -1.28
6.02 -0.85 -1.63
25.16 -3.56 0.44
6.92 -0.98 -1.61
8.07 -1.14 -1.58
9.65 -1.37 -1.54
24.56 -3.48 3.05
12.18 -1.72 -1.51
16.22 -2.3 -1.43
24.24 -3.43 -1.28
25.23 -3.57 -0.44
6 -0.87 -1.63
6.91 -1 -1.61
25.26 -3.67 1.34
8.07 -1.17 -1.58
9.65 -1.4 -1.54
12.17 -1.77 -1.51
16.22 -2.35 -1.43
24.25 -3.52 -1.28
25.22 -3.66 -0.44
6.02 -0.89 -1.63
6.9 -1.03 -1.61
8.06 -1.2 -1.58
25.11 -3.74 2.22
9.65 -1.44 -1.55
26.01 -3.87 3.23
12.15 -1.81 -1.51
16.2 -2.41 -1.43
24.25 -3.61 -1.28
6.01 -0.92 -1.63
114.9 -17.5 2.03
6.91 -1.05 -1.61
8.05 -1.23 -1.58
25.28 -3.85 2.24
9.65 -1.47 -1.55
25.14 -3.83 3.12
12.15 -1.85 -1.51
25.15 -3.83 4.03
16.18 -2.47 -1.43
24.23 -3.69 -1.28
6 -0.93 -1.63
25.34 -3.95 0.45
6.91 -1.08 -1.61
8.05 -1.25 -1.58
25.35 -3.95 2.24
9.65 -1.5 -1.55
25.28 -3.94 3.14
12.14 -1.89 -1.51
25.19 -3.93 4.04
16.17 -2.52 -1.43
25.17 -3.92 4.95
24.03 -3.75 -1.27
40.71 -6.35 -0.72
5.99 -0.96 -1.63
25.24 -4.03 0.45
6.9 -1.1 -1.61
25.23 -4.02 1.34
8.04 -1.28 -1.58
25.3 -4.03 2.24
9.63 -1.54 -1.54
24.77 -3.95 3.08
12.15 -1.94 -1.51
25.53 -4.07 4.09
16.15 -2.58 -1.43
23.97 -3.82 -1.27
25.27 -4.03 -0.45
6 -0.98 -1.63
25.5 -4.16 0.45
6.89 -1.12 -1.61
25.38 -4.14 1.35
8.04 -1.31 -1.58
9.63 -1.57 -1.55
25.31 -4.13 3.15
12.14 -1.98 -1.51
16.14 -2.63 -1.43
23.94 -3.91 -1.27
25.27 -4.13 -0.45
5.99 -1 -1.63
6.88 -1.15 -1.61
25.4 -4.24 1.35
8.04 -1.34 -1.58
9.62 -1.61 -1.55
12.12 -2.02 -1.51
16.13 -2.69 -1.43
23.97 -4 -1.27
5.99 -1.02 -1.63
25.04 -4.26 0.44
6.89 -1.17 -1.61
8.02 -1.36 -1.58
25.91 -4.41 2.3
9.62 -1.64 -1.55
12.12 -2.06 -1.51
16.12 -2.74 -1.43
24.09 -4.1 -1.28
25.01 -4.25 -0.44
5.98 -1.04 -1.63
24.98 -4.34 0.44
6.88 -1.2 -1.61
8.01 -1.39 -1.58
24.41 -4.24 2.17
9.61 -1.67 -1.55
25.49 -4.43 3.18
12.11 -2.1 -1.51
16.1 -2.8 -1.43
24.08 -4.18 -1.28
24.99 -4.34 -0.44
5.98 -1.06 -1.63
6.88 -1.22 -1.61
8.02 -1.42 -1.58
9.61 -1.7 -1.55
12.11 -2.15 -1.51
16.09 -2.86 -1.43
24.08 -4.27 -1.28
5.98 -1.08 -1.63
6.87 -1.24 -1.61
8.02 -1.45 -1.59
9.6 -1.74 -1.54
12.1 -2.19 -1.51
16.08 -2.91 -1.43
24.07 -4.36 -1.28
40.01 -7.24 -0.71
5.97 -1.1 -1.63
6.86 -1.27 -1.61
8.02 -1.48 -1.59
9.6 -1.77 -1.55
12.09 -2.23 -1.51
16.07 -2.97 -1.43
24.09 -4.45 -1.28
39.79 -7.35 -0.71
5.97 -1.12 -1.63
6.87 -1.29 -1.61
8 -1.51 -1.58
9.59 -1.81 -1.55
12.08 -2.27 -1.51
16.06 -3.02 -1.43
24.07 -4.53 -1.28
5.96 -1.14 -1.63
6.86 -1.31 -1.61
7.99 -1.53 -1.58
9.59 -1.84 -1.55
12.09 -2.32 -1.51
16.03 -3.07 -1.43
23.99 -4.59 -1.28
5.96 -1.16 -1.63
6.85 -1.34 -1.61
8 -1.56 -1.58
9.57 -1.87 -1.54
12.07 -2.36 -1.51
16.03 -3.13 -1.43
23.93 -4.67 -1.28
5.96 -1.19 -1.63
34.93 -6.94 0.62
6.84 -1.36 -1.61
8 -1.59 -1.58
9.57 -1.9 -1.55
12.07 -2.4 -1.51
15.98 -3.18 -1.43
23.92 -4.75 -1.28
5.96 -1.21 -1.63
34.99 -7.08 0.62
6.83 -1.38 -1.61
7.99 -1.62 -1.58
9.57 -1.94 -1.55
12.06 -2.44 -1.51
15.95 -3.23 -1.42
23.94 -4.84 -1.28
40.64 -8.22 -0.72
5.95 -1.23 -1.63
6.84 -1.41 -1.61
7.97 -1.64 -1.58
9.56 -1.97 -1.55
12.05 -2.49 -1.51
15.93 -3.29 -1.42
23.65 -4.88 -1.27
5.93 -1.25 -1.62
6.83 -1.43 -1.61
7.96 -1.67 -1.58
9.56 -2.01 -1.55
12.05 -2.53 -1.51
15.98 -3.35 -1.43
23.51 -4.93 -1.26
5.94 -1.27 -1.63
6.83 -1.46 -1.61
7.96 -1.7 -1.58
9.54 -2.03 -1.54
12.04 -2.57 -1.51
15.96 -3.4 -1.43
23.44 -5 -1.26
5.93 -1.29 -1.63
6.81 -1.48 -1.61
7.96 -1.73 -1.58
9.53 -2.07 -1.54
12.03 -2.61 -1.51
16.11 -3.5 -1.44
23.37 -5.07 -1.25
35.2 -7.64 -0.63
5.94 -1.31 -1.63
6.81 -1.5 -1.61
7.95 -1.75 -1.58
9.54 -2.1 -1.55
12.01 -2.65 -1.51
16.08 -3.54 -1.44
23.28 -5.13 -1.25
35.22 -7.76 -0.63
5.94 -1.33 -1.63
6.81 -1.53 -1.61
7.94 -1.78 -1.58
9.53 -2.14 -1.55
12.01 -2.69 -1.51
16.09 -3.6 -1.44
23.19 -5.2 -1.25
33.93 -7.6 -0.61
5.91 -1.35 -1.63
34.02 -7.75 0.61
6.8 -1.55 -1.61
7.93 -1.81 -1.58
9.53 -2.17 -1.55
12 -2.73 -1.51
16.01 -3.65 -1.44
22.9 -5.21 -1.23
5.92 -1.37 -1.63
6.81 -1.58 -1.61
7.93 -1.83 -1.58
9.51 -2.2 -1.55
12 -2.78 -1.51
15.98 -3.7 -1.43
22.81 -5.28 -1.23
33.89 -7.84 -0.61
5.91 -1.39 -1.63
6.79 -1.6 -1.61
7.93 -1.86 -1.58
38.89 -9.14 3.5
9.5 -2.23 -1.55
38.83 -9.13 4.9
11.99 -2.82 -1.51
38.84 -9.13 6.32
15.94 -3.75 -1.43
22.74 -5.35 -1.22
5.91 -1.41 -1.63
38.84 -9.27 0.7
6.79 -1.62 -1.61
38.81 -9.27 2.09
7.92 -1.89 -1.58
9.5 -2.27 -1.55
11.97 -2.86 -1.51
15.8 -3.77 -1.42
22.61 -5.4 -1.22
5.9 -1.43 -1.63
6.78 -1.64 -1.61
7.91 -1.92 -1.58
9.5 -2.3 -1.55
11.96 -2.9 -1.51
15.74 -3.82 -1.42
22.43 -5.44 -1.21
5.89 -1.45 -1.63
30.9 -7.61 0.56
6.79 -1.67 -1.61
7.9 -1.94 -1.58
9.49 -2.34 -1.55
11.95 -2.94 -1.51
15.83 -3.9 -1.43
22.33 -5.5 -1.21
5.89 -1.47 -1.63
6.78 -1.69 -1.61
7.9 -1.97 -1.58
9.47 -2.36 -1.55
11.95 -2.98 -1.51
15.87 -3.96 -1.43
22.18 -5.53 -1.2
5.89 -1.49 -1.63
6.76 -1.71 -1.61
7.91 -2 -1.59
9.47 -2.4 -1.55
11.95 -3.03 -1.51
15.8 -4 -1.43
22.24 -5.63 -1.2
41.16 -10.42 -0.74
5.89 -1.51 -1.63
30.82 -7.92 0.56
6.76 -1.74 -1.61
7.89 -2.03 -1.58
9.46 -2.43 -1.55
11.92 -3.06 -1.51
15.85 -4.07 -1.43
22.21 -5.71 -1.2
30.87 -7.93 -0.56
5.88 -1.53 -1.63
30.67 -7.99 0.55
6.75 -1.76 -1.61
7.87 -2.05 -1.58
9.46 -2.47 -1.55
11.91 -3.11 -1.51
15.8 -4.12 -1.43
22.15 -5.77 -1.2
30.86 -8.04 -0.56
5.86 -1.55 -1.62
29.7 -7.85 0.54
6.75 -1.78 -1.61
7.87 -2.08 -1.58
9.45 -2.5 -1.55
11.91 -3.15 -1.51
15.72 -4.16 -1.42
22.11 -5.85 -1.2
5.86 -1.57 -1.62
30.93 -8.29 0.56
6.74 -1.81 -1.61
7.87 -2.11 -1.58
9.43 -2.53 -1.55
11.9 -3.19 -1.51
15.82 -4.24 -1.43
22.05 -5.91 -1.2
5.87 -1.59 -1.63
29.38 -7.98 0.53
6.73 -1.83 -1.61
7.87 -2.14 -1.59
35.06 -9.53 3.18
9.42 -2.56 -1.55
34.9 -9.48 4.44
11.88 -3.23 -1.51
34.92 -9.49 5.73
15.84 -4.3 -1.44
21.97 -5.97 -1.19
5.86 -1.61 -1.63
29.37 -8.09 0.53
6.73 -1.85 -1.61
34.92 -9.62 1.9
7.86 -2.17 -1.59
9.42 -2.6 -1.55
11.87 -3.27 -1.51
15.8 -4.35 -1.43
21.91 -6.04 -1.19
29.42 -8.1 -0.53
5.85 -1.63 -1.63
29.12 -8.14 0.53
6.72 -1.88 -1.61
7.84 -2.19 -1.58
9.42 -2.63 -1.55
11.86 -3.31 -1.51
15.81 -4.42 -1.44
21.9 -6.12 -1.19
29.34 -8.2 -0.53
5.84 -1.65 -1.63
29.33 -8.31 0.53
6.72 -1.9 -1.61
7.83 -2.22 -1.58
9.41 -2.66 -1.55
11.86 -3.36 -1.51
15.73 -4.46 -1.43
21.82 -6.18 -1.19
5.83 -1.67 -1.62
6.72 -1.93 -1.61
7.83 -2.25 -1.58
9.38 -2.69 -1.55
11.84 -3.39 -1.51
15.83 -4.54 -1.44
21.77 -6.24 -1.19
31.79 -9.12 -0.58
5.83 -1.69 -1.63
6.7 -1.95 -1.61
7.83 -2.27 -1.58
9.39 -2.73 -1.55
11.83 -3.44 -1.51
15.84 -4.6 -1.44
21.71 -6.31 -1.18
31.76 -9.23 -0.58
5.83 -1.72 -1.63
6.69 -1.97 -1.61
7.83 -2.3 -1.59
9.38 -2.76 -1.55
11.81 -3.48 -1.51
15.95 -4.7 -1.45
21.65 -6.37 -1.18
31.73 -9.34 -0.58
5.83 -1.74 -1.63
6.69 -1.99 -1.61
7.81 -2.33 -1.58
9.37 -2.79 -1.55
11.79 -3.51 -1.51
69.22 -20.63 11.44
16.06 -4.79 -1.47
21.58 -6.43 -1.18
5.81 -1.76 -1.63
6.69 -2.02 -1.61
7.8 -2.36 -1.58
9.36 -2.83 -1.55
11.78 -3.56 -1.51
16.06 -4.85 -1.47
21.54 -6.5 -1.18
5.81 -1.78 -1.63
6.68 -2.04 -1.61
7.8 -2.38 -1.59
9.35 -2.86 -1.55
11.77 -3.6 -1.51
15.91 -4.86 -1.46
21.45 -6.56 -1.18
28.95 -8.85 -0.53
5.81 -1.8 -1.63
6.66 -2.06 -1.61
7.8 -2.41 -1.59
9.34 -2.89 -1.55
11.75 -3.63 -1.51
68.25 -21.11 11.31
15.91 -4.92 -1.46
21.39 -6.62 -1.17
28.83 -8.92 -0.53
5.8 -1.82 -1.63
6.66 -2.09 -1.61
7.78 -2.44 -1.59
9.33 -2.92 -1.55
11.76 -3.68 -1.51
16.01 -5.01 -1.47
21.35 -6.69 -1.17
28.77 -9.01 -0.53
5.8 -1.84 -1.63
28.5 -9.04 0.52
6.66 -2.11 -1.61
7.78 -2.47 -1.59
9.32 -2.96 -1.55
11.73 -3.72 -1.51
15.95 -5.06 -1.46
31.02 -9.83 6.32
21.3 -6.75 -1.17
26.23 -8.31 -0.48
5.78 -1.85 -1.63
26.43 -8.48 0.48
6.65 -2.13 -1.61
26.22 -8.41 1.44
7.77 -2.49 -1.59
31 -9.95 2.85
9.31 -2.99 -1.55
30.97 -9.94 3.99
11.74 -3.77 -1.51
30.98 -9.94 5.15
15.97 -5.12 -1.47
21.24 -6.81 -1.17
26.34 -8.45 -0.48
5.78 -1.88 -1.63
30.97 -10.06 0.57
6.64 -2.16 -1.61
31.01 -10.07 1.71
7.77 -2.52 -1.59
9.29 -3.02 -1.55
11.75 -3.81 -1.52
15.86 -5.15 -1.46
21.17 -6.87 -1.17
26.26 -8.53 -0.48
5.77 -1.9 -1.63
37.32 -12.26 0.69
6.63 -2.18 -1.61
7.76 -2.55 -1.59
9.29 -3.05 -1.55
11.74 -3.86 -1.52
15.8 -5.19 -1.45
21.11 -6.94 -1.16
64.64 -21.24 15.71
5.77 -1.92 -1.63
26.36 -8.76 0.48
6.62 -2.2 -1.61
7.75 -2.58 -1.59
56.57 -18.81 5.22
9.28 -3.08 -1.55
11.74 -3.9 -1.52
15.79 -5.25 -1.46
21.06 -7 -1.16
24.81 -8.25 -0.46
5.77 -1.94 -1.63
26.49 -8.91 0.49
6.62 -2.23 -1.61
7.73 -2.6 -1.59
9.27 -3.12 -1.55
11.75 -3.95 -1.52
15.65 -5.26 -1.44
21.02 -7.07 -1.16
24.62 -8.28 -0.45
5.75 -1.96 -1.63
56.32 -19.16 1.04
6.62 -2.25 -1.61
26.39 -8.98 1.46
7.73 -2.63 -1.59
9.26 -3.15 -1.55
65.74 -22.37 8.53
11.68 -3.97 -1.51
15.57 -5.3 -1.44
20.98 -7.14 -1.16
24.71 -8.41 -0.46
5.75 -1.98 -1.63
56.16 -19.33 1.04
6.61 -2.27 -1.61
56.11 -19.31 3.11
