# .PCD v0.7 - Point Cloud Data file format
VERSION 0.7
FIELDS x y z
SIZE 4 4 4
TYPE F F F
COUNT 1 1 1
WIDTH 2928
HEIGHT 1
VIEWPOINT 0 0 0 1 0 0 0
POINTS 2928
DATA ascii
2.74 22.8 -0.4
0.89 7.23 -1.95
2.81 22.7 0.4
1.07 8.65 -2.01
1.32 10.69 -2.09
2.88 23.26 2.05
1.71 13.85 -2.21
3.3 26.72 3.31
2.65 21.43 -2.65
3.81 30.78 4.91
2.79 22.57 -1.99
3.74 30.26 5.93
2.8 22.61 -1.19
2.74 22.13 5.15
2.79 22.52 -0.4
3.74 30.28 8.17
0.92 7.22 -1.95
2.84 22.3 0.39
1.1 8.64 -2.01
3.01 23.6 1.25
1.36 10.69 -2.09
4.73 37.15 3.28
1.76 13.84 -2.21
3.4 26.67 3.3
2.73 21.43 -2.65
4.74 37.27 5.95
2.86 22.43 -1.98
4.75 37.33 7.32
2.84 22.34 -1.18
2.83 22.24 5.18
2.89 22.69 -0.4
3.86 30.34 8.19
0.94 7.22 -1.95
2.96 22.64 0.4
1.13 8.63 -2.01
3.02 23.1 1.22
1.4 10.68 -2.09
4.85 37.13 3.28
1.81 13.82 -2.21
4.85 37.09 4.59
2.81 21.45 -2.66
4.87 37.26 5.95
2.93 22.44 -1.98
3.21 24.51 4.8
2.92 22.33 -1.18
3.05 23.33 -0.41
3.97 30.4 8.21
0.97 7.22 -1.95
3.02 22.44 0.4
1.16 8.62 -2.01
2.97 22.11 1.17
1.44 10.68 -2.09
3.46 25.74 2.27
1.86 13.81 -2.21
5.46 40.62 5.03
2.89 21.51 -2.66
4.02 29.94 4.78
3 22.34 -1.97
5.01 37.3 7.32
2.97 22.09 -1.17
3.05 22.72 5.29
0.99 7.21 -1.95
3.17 23 0.41
1.19 8.62 -2.01
3.1 22.49 1.19
1.47 10.66 -2.09
4.76 34.53 3.05
1.9 13.81 -2.21
4.74 34.4 4.26
2.96 21.49 -2.66
4.74 34.39 5.5
3.08 22.31 -1.97
4.75 34.46 6.76
3.09 22.39 -1.18
4.77 34.58 8.06
3.06 22.19 -0.39
3.46 25.11 6.79
1.02 7.2 -1.95
3.15 22.26 0.39
1.22 8.62 -2.01
3.17 22.41 1.19
1.51 10.66 -2.09
3.54 25.04 2.21
1.95 13.8 -2.21
3.99 28.23 3.5
3.03 21.44 -2.66
3.64 25.7 4.11
3.14 22.15 -1.96
3.11 21.96 -1.16
3.1 21.87 5.1
3.18 22.48 -0.4
1.04 7.19 -1.95
3.36 23.19 0.41
1.25 8.62 -2.01
3.22 22.23 1.18
1.54 10.65 -2.09
3.81 26.3 2.33
2 13.78 -2.21
4.59 31.71 3.93
3.1 21.4 -2.66
3.73 25.76 4.12
3.21 22.17 -1.96
3.09 21.36 4.2
3.25 22.46 -1.19
3.17 21.86 5.1
3.59 24.77 -0.44
1.07 7.2 -1.95
3.36 22.66 0.4
1.28 8.6 -2.01
3.31 22.29 1.18
1.58 10.65 -2.09
3.94 26.54 2.35
2.04 13.77 -2.2
4.71 31.75 3.94
3.17 21.37 -2.65
6.1 41.05 6.57
3.32 22.39 -1.98
3.24 21.79 -1.15
3.26 21.97 5.13
3.39 22.81 -0.4
1.09 7.2 -1.95
3.49 22.96 0.41
1.31 8.59 -2.01
3.42 22.49 1.19
1.62 10.64 -2.09
4.78 31.47 2.78
2.09 13.76 -2.21
4.76 31.34 3.89
3.25 21.36 -2.65
4.73 31.13 4.99
3.43 22.58 -2
3.24 21.31 4.19
3.43 22.58 -1.2
4.82 31.75 7.41
3.59 23.63 -0.42
1.12 7.18 -1.95
3.46 22.24 0.39
1.34 8.59 -2.01
3.57 22.95 1.22
1.65 10.62 -2.09
4.86 31.22 2.76
2.14 13.75 -2.2
4.86 31.24 3.88
3.32 21.35 -2.65
4.04 25.97 4.16
3.52 22.59 -2
4.95 31.82 6.26
3.54 22.75 -1.21
3.6 23.12 5.4
3.54 22.77 -0.4
4.87 31.3 8.49
1.14 7.17 -1.94
3.62 22.7 0.4
1.37 8.59 -2.01
3.61 22.65 1.2
1.69 10.61 -2.09
4.16 26.11 2.31
2.19 13.74 -2.2
3.4 21.31 -2.65
6.1 38.25 6.13
3.58 22.47 -1.99
3.87 24.24 4.77
3.62 22.73 -1.21
3.44 21.58 5.05
3.63 22.78 -0.4
1.17 7.16 -1.94
3.64 22.34 0.4
1.4 8.58 -2.01
4.38 26.84 1.43
1.73 10.61 -2.09
4.47 27.37 2.43
2.24 13.72 -2.2
4.35 26.64 3.31
3.48 21.31 -2.65
4.25 26.04 4.18
3.7 22.66 -2.01
3.97 24.37 4.8
3.65 22.37 -1.19
3.68 22.59 5.28
3.68 22.54 -0.4
3.94 24.16 6.56
1.19 7.16 -1.95
3.83 23.04 0.41
1.42 8.56 -2
4.62 27.77 1.48
1.76 10.59 -2.09
4.09 24.62 2.18
2.28 13.71 -2.2
4.43 26.62 3.31
3.54 21.31 -2.65
4.34 26.08 4.19
3.74 22.52 -2
3.72 22.37 -1.19
4.36 26.21 6.13
3.87 23.3 -0.41
4.04 24.3 6.6
1.22 7.16 -1.95
3.86 22.75 0.4
1.45 8.55 -2
3.98 23.44 1.25
1.8 10.59 -2.09
4.16 24.5 2.17
2.33 13.7 -2.2
4.53 26.7 3.32
3.62 21.31 -2.65
4.38 25.76 4.14
3.81 22.45 -1.99
3.87 22.79 -1.21
3.81 22.46 5.26
3.96 23.31 -0.41
5.18 30.5 8.29
1.24 7.15 -1.94
3.94 22.72 0.4
1.48 8.55 -2
3.91 22.54 1.2
1.83 10.57 -2.09
5.02 28.96 2.57
2.37 13.68 -2.2
3.7 21.32 -2.66
4.46 25.74 4.14
3.9 22.47 -1.99
3.67 21.14 4.17
3.88 22.35 -1.19
4.42 25.46 5.96
4.25 24.48 -0.43
5.49 31.63 8.6
1.26 7.14 -1.94
4.07 22.96 0.41
1.51 8.55 -2
3.99 22.52 1.2
1.87 10.57 -2.09
4.15 23.42 2.08
2.42 13.67 -2.2
3.77 21.32 -2.66
4.8 27.09 4.36
3.93 22.22 -1.97
4.01 22.63 -1.2
3.86 21.81 5.11
3.97 22.42 -0.4
4.52 25.52 6.95
1.29 7.13 -1.94
4.92 27.22 0.48
1.54 8.54 -2
4.08 22.61 1.2
1.91 10.56 -2.09
4.26 23.6 2.1
2.47 13.65 -2.2
4.98 27.57 3.44
3.85 21.29 -2.66
4.04 22.38 -1.99
4.11 22.77 4.5
4.01 22.19 -1.18
4.03 22.31 5.24
4.3 23.78 -0.42
1.31 7.13 -1.94
4.39 23.84 0.42
1.57 8.52 -2
4.15 22.52 1.2
1.94 10.56 -2.09
5.1 27.67 2.46
2.51 13.64 -2.2
4.88 26.47 3.3
3.92 21.27 -2.66
4.21 22.85 3.68
4.12 22.38 -1.99
4.05 22 4.35
4.04 21.9 -1.17
4.8 26.07 6.12
4.3 23.35 -0.41
6.37 34.59 9.43
1.34 7.13 -1.94
4.28 22.75 0.4
1.6 8.51 -2
4.22 22.42 1.2
1.98 10.54 -2.08
5.22 27.78 2.47
2.56 13.62 -2.19
6.91 36.75 4.59
4 21.26 -2.66
5.05 26.84 4.33
4.21 22.39 -1.99
4.24 22.52 -1.2
4.78 25.41 5.97
4.28 22.74 -0.4
5.31 28.23 7.7
1.36 7.11 -1.94
4.51 23.54 0.42
1.63 8.51 -2
4.39 22.9 1.22
2.02 10.52 -2.08
4.42 23.07 2.05
2.61 13.61 -2.19
5.28 27.53 3.44
4.07 21.26 -2.66
5.17 26.98 4.35
4.3 22.43 -2
4.16 21.71 4.3
4.3 22.41 -1.2
4.11 21.42 5.04
4.38 22.83 -0.41
1.39 7.1 -1.94
4.52 23.15 0.41
1.66 8.5 -2
4.4 22.56 1.2
2.05 10.51 -2.08
7.16 36.7 3.27
2.65 13.59 -2.19
4.68 24.01 3
4.15 21.26 -2.66
4.37 22.39 3.61
4.46 22.88 -2.04
6.86 35.18 6.97
4.39 22.48 -1.2
6.83 34.99 8.23
4.44 22.78 -0.41
4.79 24.58 6.71
1.41 7.1 -1.94
4.44 22.34 0.4
1.69 8.49 -2
4.48 22.56 1.21
2.09 10.51 -2.08
4.54 22.83 2.04
2.7 13.57 -2.19
7.52 37.82 4.73
4.22 21.25 -2.66
5.37 27 4.36
4.48 22.54 -2.01
4.91 24.71 4.9
4.45 22.41 -1.2
4.64 23.37 5.5
4.52 22.74 -0.4
5.45 27.4 7.49
1.44 7.1 -1.94
4.73 23.38 0.42
1.72 8.48 -2
4.5 22.25 1.19
2.12 10.49 -2.08
4.64 22.94 2.05
2.74 13.55 -2.19
7.47 36.94 4.63
4.29 21.22 -2.66
7.15 35.34 5.71
4.57 22.59 -2.02
4.99 24.65 4.89
4.55 22.51 -1.2
5.83 28.81 6.79
4.57 22.59 -0.4
5.7 28.15 7.7
1.46 7.09 -1.94
4.62 22.44 0.4
1.74 8.47 -2
4.63 22.48 1.2
2.16 10.49 -2.08
4.7 22.81 2.04
2.79 13.54 -2.19
4.37 21.21 -2.66
7.6 36.92 5.97
4.64 22.51 -2.01
7.6 36.87 7.32
4.7 22.81 -1.22
5.68 27.58 6.5
4.69 22.78 -0.41
1.49 7.08 -1.94
4.66 22.24 0.4
1.77 8.46 -2
4.7 22.43 1.2
2.19 10.47 -2.08
7.36 35.13 3.14
2.84 13.53 -2.19
7.38 35.18 4.41
4.45 21.24 -2.66
7.72 36.83 5.96
4.68 22.31 -1.99
4.46 21.28 4.23
4.69 22.37 -1.2
8.69 41.47 9.78
4.83 23.02 -0.41
5.42 25.86 7.08
1.51 7.07 -1.94
4.86 22.78 0.41
1.8 8.46 -2
4.8 22.52 1.21
2.23 10.45 -2.08
2.88 13.51 -2.19
4.54 21.29 -2.67
7.56 35.44 5.74
4.75 22.27 -1.99
4.52 21.17 4.21
4.77 22.37 -1.2
4.91 23.03 5.44
4.83 22.65 -0.4
8.31 38.94 10.67
1.53 7.07 -1.94
5.02 23.12 0.41
1.83 8.44 -1.99
4.88 22.47 1.21
2.27 10.44 -2.08
4.92 22.69 2.03
2.92 13.48 -2.18
4.62 21.28 -2.67
4.84 22.31 -2
6.07 27.97 5.56
4.87 22.43 -1.2
7.15 32.94 7.78
4.86 22.4 -0.4
5.55 25.56 7.01
1.56 7.06 -1.94
7.28 33.01 0.59
1.86 8.42 -1.99
4.92 22.32 1.2
2.3 10.44 -2.08
7.3 33.1 2.97
2.97 13.46 -2.18
7.28 33.01 4.15
4.69 21.26 -2.67
7.28 33.02 5.36
4.95 22.45 -2.01
7.27 32.96 6.56
4.91 22.27 -1.19
4.9 22.2 5.25
4.98 22.6 -0.4
7.2 32.64 8.96
1.58 7.06 -1.94
5.11 22.8 0.41
1.89 8.41 -1.99
5.04 22.48 1.21
2.33 10.41 -2.07
5.11 22.78 2.04
3.02 13.45 -2.18
9.23 41.15 5.18
4.77 21.25 -2.67
6.01 26.8 4.35
5.07 22.6 -2.03
7.39 32.93 6.56
5.04 22.46 -1.21
4.93 21.97 5.2
5.06 22.56 -0.4
6.6 29.43 8.08
1.61 7.05 -1.94
5.22 22.91 0.41
1.92 8.41 -1.99
5.2 22.82 1.23
2.37 10.38 -2.07
9.34 40.99 3.68
3.06 13.43 -2.18
4.84 21.25 -2.68
6.41 28.11 4.57
5.15 22.61 -2.03
6.29 27.6 5.5
5.16 22.66 -1.22
6.71 29.46 6.98
5.18 22.71 -0.41
5.12 22.46 6.17
1.63 7.03 -1.93
5.39 23.3 0.42
1.94 8.4 -1.99
5.31 22.94 1.23
2.4 10.39 -2.07
6.9 29.81 2.68
3.1 13.41 -2.18
6.82 29.49 3.72
4.91 21.22 -2.67
6.84 29.54 4.8
5.18 22.39 -2.01
5.42 23.44 4.68
5.15 22.25 -1.2
6.24 26.98 6.39
5.28 22.81 -0.41
5.22 22.55 6.2
1.65 7.02 -1.93
5.31 22.59 0.41
1.97 8.39 -1.99
5.39 22.92 1.23
2.44 10.38 -2.07
6.95 29.57 2.66
3.15 13.38 -2.18
6.42 27.29 3.44
4.99 21.2 -2.67
10.97 46.68 7.59
5.33 22.69 -2.04
5.99 25.49 5.09
5.28 22.48 -1.21
5.28 22.45 5.33
5.36 22.8 -0.41
5.32 22.65 6.23
1.68 7.02 -1.93
5.43 22.72 0.41
2 8.36 -1.99
5.41 22.67 1.22
2.47 10.36 -2.07
6.72 28.15 2.53
3.19 13.35 -2.17
5.51 23.08 2.91
5.05 21.16 -2.67
5.72 23.94 3.9
5.4 22.62 -2.03
6.02 25.19 5.03
5.4 22.6 -1.22
7.37 30.88 7.33
5.41 22.66 -0.41
5.47 22.91 6.31
1.7 7.02 -1.93
7.16 29.52 0.53
2.03 8.36 -1.98
6.94 28.61 1.54
2.51 10.34 -2.07
6.91 28.48 2.56
3.24 13.34 -2.17
5.62 23.17 2.93
5.13 21.15 -2.67
9.3 38.33 6.25
5.39 22.24 -2
5.5 22.69 -1.22
5.49 22.64 -0.41
5.31 21.91 6.04
1.73 7.01 -1.93
5.55 22.52 0.4
2.06 8.35 -1.98
7.04 28.58 1.54
2.54 10.32 -2.07
3.28 13.32 -2.17
6.93 28.15 3.56
5.2 21.13 -2.67
7.69 31.21 5.09
5.47 22.18 -2
7.66 31.1 6.23
5.57 22.6 -1.22
5.67 23.01 -0.41
5.33 21.64 5.97
1.75 6.99 -1.93
5.64 22.57 0.41
2.09 8.34 -1.98
6.87 27.46 1.48
2.58 10.31 -2.07
8.18 32.69 2.95
3.33 13.3 -2.17
7.8 31.18 3.95
5.29 21.14 -2.68
5.74 22.94 3.75
5.6 22.38 -2.02
7.76 31.02 6.22
5.62 22.46 -1.21
9.16 36.64 8.72
5.76 23.04 -0.41
6.32 25.29 6.98
1.77 6.98 -1.93
2.11 8.33 -1.98
7.92 31.24 1.69
2.61 10.3 -2.07
7.92 31.24 2.82
3.37 13.27 -2.17
6.51 25.66 3.25
5.36 21.12 -2.68
5.88 23.19 3.79
5.66 22.33 -2.02
5.61 22.11 4.43
5.67 22.37 -1.21
7.87 31.04 7.39
5.8 22.88 -0.41
5.83 22.97 6.35
1.8 6.98 -1.93
8.03 31.23 0.56
2.14 8.31 -1.98
2.65 10.29 -2.06
6.81 26.48 2.39
3.41 13.25 -2.17
8.41 32.69 4.14
5.43 21.09 -2.67
11.46 44.56 7.29
5.74 22.31 -2.02
5.8 22.55 -1.22
6.42 24.95 5.95
5.95 23.11 -0.42
1.82 6.97 -1.93
2.17 8.31 -1.98
2.68 10.27 -2.06
3.45 13.22 -2.16
6.16 23.58 2.99
5.49 21.05 -2.67
8.53 32.7 5.35
5.85 22.41 -2.03
5.84 22.37 -1.21
5.96 22.84 -0.41
5.89 22.56 6.25
1.84 6.97 -1.93
2.2 8.3 -1.98
2.71 10.25 -2.06
3.5 13.2 -2.16
6.09 22.99 2.92
5.56 21.01 -2.67
6.3 23.78 3.9
5.95 22.48 -2.03
5.9 22.3 4.48
5.99 22.64 -1.23
6.02 22.73 -0.41
8.15 30.78 8.53
1.86 6.94 -1.93
2.23 8.29 -1.98
2.75 10.24 -2.06
12.15 45.27 4.1
3.54 13.18 -2.16
8.58 31.96 4.06
5.63 20.98 -2.67
6.37 23.72 3.89
6.01 22.39 -2.03
6.15 22.89 -1.24
6.08 22.64 -0.41
6.13 22.84 6.34
1.89 6.94 -1.93
6.31 23.18 0.42
2.25 8.27 -1.98
6.7 24.59 1.34
2.78 10.22 -2.06
10.59 38.89 3.53
3.58 13.15 -2.16
5.71 20.96 -2.67
6.45 23.71 3.89
6.1 22.42 -2.03
7.2 26.44 5.33
6.17 22.67 -1.23
8.88 32.61 7.8
6.16 22.63 -0.41
5.77 21.21 5.89
1.91 6.93 -1.93
2.28 8.25 -1.98
6.29 22.8 1.24
2.82 10.21 -2.06
3.62 13.13 -2.16
6.39 23.16 2.95
5.78 20.94 -2.67
6.53 23.66 3.89
6.24 22.6 -2.05
7.26 26.31 5.3
6.26 22.69 -1.23
8.96 32.46 7.78
6.27 22.72 -0.41
6 21.72 6.04
1.94 6.93 -1.93
2.3 8.24 -1.97
6.47 23.13 1.26
2.85 10.2 -2.06
3.67 13.11 -2.16
8.81 31.48 4.01
5.83 20.84 -2.66
7.48 26.72 4.4
6.3 22.53 -2.05
6.32 22.6 -1.23
6.27 22.4 5.37
6.36 22.73 -0.41
7.51 26.86 7.47
1.96 6.92 -1.93
7.28 25.69 0.47
2.33 8.22 -1.97
6.54 23.06 1.26
2.88 10.17 -2.06
3.71 13.09 -2.15
8.93 31.5 4.02
5.89 20.78 -2.65
7.57 26.7 4.4
6.33 22.33 -2.03
6.33 22.33 -1.22
7.64 26.94 6.46
6.35 22.41 -0.41
7.6 26.79 7.46
1.98 6.9 -1.92
7.08 24.65 0.45
2.36 8.21 -1.97
7.07 24.61 1.34
2.92 10.16 -2.05
3.75 13.06 -2.15
5.96 20.73 -2.65
6.19 21.54 3.55
6.44 22.42 -2.04
6.46 22.48 -1.23
7.78 27.07 6.5
6.47 22.5 -0.41
10.8 37.59 10.48
2.01 6.89 -1.92
7.34 25.2 0.46
2.39 8.2 -1.97
6.68 22.95 1.25
2.95 10.14 -2.05
3.79 13.02 -2.15
7.86 27 3.45
6.02 20.7 -2.65
6.33 21.75 3.59
6.5 22.33 -2.03
10.98 37.73 7.64
6.5 22.33 -1.22
7.88 27.06 6.51
8.18 28.1 -0.51
2.03 6.89 -1.92
8.22 27.87 0.51
2.41 8.18 -1.97
8.16 27.67 1.51
2.99 10.13 -2.05
12.75 43.25 3.94
3.83 12.99 -2.15
6.74 22.84 2.92
6.08 20.63 -2.64
7.89 26.75 4.42
6.6 22.39 -2.04
8.02 27.18 5.51
6.62 22.45 -1.23
7.38 25.04 6.03
6.67 22.61 -0.41
2.06 6.88 -1.92
6.7 22.43 0.41
2.44 8.17 -1.97
7.32 24.51 1.34
3.02 10.11 -2.05
8.15 27.3 2.49
3.87 12.97 -2.14
6.81 22.81 2.92
6.16 20.61 -2.64
8.18 27.4 4.53
6.6 22.08 -2.02
7.38 24.7 5.01
6.77 22.66 -1.24
7.96 26.64 6.42
6.75 22.58 -0.41
2.08 6.87 -1.92
7.09 23.42 0.43
2.47 8.15 -1.97
8.34 27.57 1.51
3.05 10.08 -2.05
7.52 24.86 2.27
3.92 12.96 -2.14
8.35 27.59 3.54
6.21 20.53 -2.63
8.06 26.63 4.41
6.78 22.41 -2.05
6.88 22.73 -1.24
8.05 26.61 6.42
6.82 22.54 -0.41
6.61 21.86 6.12
2.1 6.85 -1.92
6.9 22.55 0.41
2.49 8.15 -1.97
8.64 28.25 1.55
3.08 10.07 -2.05
8.51 27.82 2.55
3.96 12.94 -2.14
8.15 26.66 3.42
6.27 20.49 -2.63
8.2 26.8 4.44
6.97 22.77 -2.08
6.95 22.71 -1.24
7.57 24.75 5.98
8.94 29.23 -0.53
7.79 25.46 7.13
2.12 6.85 -1.92
8.96 28.94 0.53
2.52 8.14 -1.97
7.44 24.01 1.32
3.11 10.05 -2.05
8.6 27.78 2.54
4 12.9 -2.14
8.2 26.46 3.4
6.33 20.45 -2.63
11.54 37.27 6.18
6.98 22.53 -2.06
12.47 40.26 8.19
7.05 22.75 -1.25
6.85 22.1 5.34
9.04 29.19 -0.53
6.8 21.94 6.16
2.14 6.84 -1.92
7.16 22.84 0.42
2.54 8.11 -1.96
12.26 39.08 2.15
3.15 10.04 -2.04
7.32 23.34 2.14
4.04 12.87 -2.14
7.62 24.32 3.13
6.4 20.42 -2.63
14.43 46.01 7.64
7.22 23.03 -2.11
7.11 22.67 -1.24
7.11 22.68 5.49
9.15 29.19 -0.53
6.74 21.51 6.04
2.17 6.83 -1.92
9.28 29.24 0.54
2.57 8.1 -1.96
3.18 10.01 -2.04
7.45 23.47 2.15
4.08 12.85 -2.14
8.08 25.45 3.28
6.45 20.32 -2.62
12.59 39.67 6.59
7.31 23.03 -2.11
7.21 22.71 -1.25
7.04 22.17 5.37
9.31 29.33 -0.54
6.81 21.46 6.03
2.19 6.82 -1.92
9.38 29.19 0.54
2.6 8.09 -1.96
8.38 26.09 1.44
3.21 9.98 -2.04
7.55 23.49 2.16
4.12 12.83 -2.14
8.78 27.32 3.52
6.51 20.27 -2.61
7.93 24.67 4.1
7.28 22.65 -2.08
7.25 22.58 -1.24
7.56 23.54 5.71
2.21 6.8 -1.92
8.9 27.36 0.5
2.63 8.08 -1.96
9.47 29.12 1.6
3.24 9.97 -2.04
9.41 28.95 2.66
4.16 12.81 -2.13
7.98 24.54 3.17
6.57 20.21 -2.61
7.97 24.53 4.08
7.36 22.64 -2.08
9.29 28.58 5.84
7.36 22.65 -1.25
7.69 23.65 5.74
7.38 22.71 -0.42
7.47 22.98 6.48
2.23 6.79 -1.92
8.94 27.18 0.5
2.66 8.07 -1.96
9.56 29.07 1.6
3.27 9.95 -2.04
9.5 28.88 2.66
4.2 12.78 -2.13
8.33 25.31 3.27
6.64 20.17 -2.61
7.43 22.58 -2.08
7.67 23.3 4.77
7.8 23.72 5.77
7.42 22.55 -0.41
7.1 21.57 6.08
2.26 6.78 -1.91
13.55 40.69 0.75
2.68 8.06 -1.96
3.31 9.93 -2.03
9.6 28.83 2.66
4.25 12.76 -2.13
9.5 28.56 3.7
6.17 18.53 -2.4
8.95 26.88 4.49
7.51 22.58 -2.08
7.75 23.27 4.77
7.5 22.52 -1.24
7.37 22.13 5.39
7.71 23.16 6.54
2.28 6.78 -1.92
9.81 29.13 0.54
2.71 8.04 -1.96
3.34 9.91 -2.03
9.72 28.86 2.66
4.3 12.76 -2.13
9.57 28.43 3.68
6.24 18.53 -2.4
9 26.73 4.47
7.6 22.56 -2.08
9.49 28.17 5.78
7.67 22.76 -1.26
7.3 21.67 5.28
8.31 24.68 -0.45
7.81 23.2 6.56
2.31 6.77 -1.92
9.89 29.02 0.54
2.74 8.04 -1.96
11.37 33.38 1.85
3.37 9.88 -2.03
11.4 33.47 3.09
4.34 12.74 -2.13
7.59 22.28 2.89
6.33 18.59 -2.41
9.03 26.51 4.44
9.25 27.15 5.58
7.94 23.32 -1.29
7.34 21.56 5.26
7.64 22.42 -0.41
7.72 22.67 6.42
2.33 6.76 -1.92
9.93 28.83 0.53
2.76 8.02 -1.96
8.42 24.43 1.35
3.4 9.87 -2.03
7.76 22.51 2.08
4.38 12.72 -2.13
7.76 22.51 2.92
5.82 16.89 -2.19
8.74 25.37 4.25
7.77 22.55 -2.09
7.83 22.74 -1.26
7.4 21.48 5.24
11.47 33.3 -0.61
7.83 22.72 6.44
2.35 6.75 -1.92
9.09 26.1 0.48
2.79 8.01 -1.96
3.43 9.86 -2.03
4.42 12.69 -2.13
8.24 23.65 3.08
5.87 16.86 -2.19
8.59 24.66 4.14
7.81 22.42 -2.08
9.69 27.8 5.72
7.86 22.55 -1.25
7.59 21.77 5.32
8.02 23.02 6.53
2.37 6.74 -1.91
9.13 25.93 0.48
2.81 7.98 -1.95
10.25 29.08 1.62
3.47 9.84 -2.03
7.85 22.27 2.07
4.46 12.66 -2.13
11.09 31.47 4.1
6.52 18.51 -2.41
8.72 24.73 4.15
7.97 22.63 -2.1
7.73 21.93 4.52
9.99 28.35 -1.58
9.35 26.52 6.49
10.06 28.54 8.11
2.4 6.73 -1.91
9.18 25.76 0.48
2.84 7.97 -1.95
10.32 28.95 1.61
3.5 9.82 -2.03
10.01 28.1 2.61
4.51 12.65 -2.13
9.99 28.05 3.66
6.61 18.54 -2.42
8.01 22.48 -2.09
8.09 22.7 -1.26
7.61 21.36 5.24
8.05 22.59 -0.42
2.42 6.71 -1.91
9.21 25.58 0.47
2.87 7.96 -1.95
11.7 32.51 1.81
3.53 9.8 -2.02
11.77 32.7 3.04
4.55 12.63 -2.13
10.07 27.97 3.65
6.68 18.54 -2.42
9.27 25.75 4.34
8.06 22.38 -2.08
9.57 26.57 5.49
10.28 28.54 -1.59
9.63 26.76 6.57
8.18 22.71 -0.42
7.77 21.57 6.14
2.44 6.69 -1.91
10.26 28.18 0.52
2.89 7.95 -1.95
8.77 24.09 1.34
3.56 9.79 -2.02
10.5 28.85 2.69
4.59 12.6 -2.12
16.02 44.01 5.75
6.75 18.55 -2.42
9.33 25.63 4.32
8.45 23.22 -2.16
9.99 27.44 5.68
8.36 22.98 -1.28
9.26 25.44 6.25
8.23 22.62 -0.42
7.87 21.61 6.16
2.46 6.68 -1.91
10.31 28.03 0.52
2.92 7.93 -1.95
16.05 43.63 2.44
3.6 9.78 -2.03
4.63 12.57 -2.12
10.54 28.64 3.75
6.82 18.53 -2.42
8.58 23.32 3.94
8.32 22.6 -2.11
8.01 21.77 4.51
8.52 23.15 -1.29
9.31 25.31 6.23
8.37 22.75 -0.42
7.92 21.52 6.14
2.48 6.67 -1.91
9.33 25.08 0.47
2.94 7.92 -1.95
3.63 9.76 -2.02
8.21 22.07 2.06
4.67 12.55 -2.12
10.65 28.65 3.75
6.87 18.46 -2.42
8.66 23.27 3.93
8.5 22.86 -2.13
10.64 28.62 5.93
8.55 22.98 -1.28
9.71 26.12 6.43
8.47 22.78 -0.42
8.04 21.63 6.18
2.51 6.67 -1.91
8.99 23.92 0.45
2.97 7.9 -1.95
10.41 27.7 1.55
3.66 9.74 -2.02
10.99 29.25 2.73
4.71 12.52 -2.12
8.56 22.76 2.99
6.3 16.76 -2.2
10.75 28.59 4.84
8.53 22.69 -2.12
8.48 22.56 -1.26
8.47 22.54 -0.42
8.58 22.84 6.54
2.53 6.65 -1.91
9.4 24.75 0.46
3 7.9 -1.95
10.51 27.67 1.55
3.69 9.71 -2.02
10.21 26.88 2.52
4.75 12.51 -2.12
8.6 22.65 2.97
6.34 16.7 -2.19
9.81 25.82 4.37
8.58 22.58 -2.11
8.93 23.51 4.89
8.69 22.87 -1.28
8.87 23.35 5.77
8.51 22.41 -0.42
8.17 21.51 6.16
2.54 6.62 -1.9
9.44 24.58 0.46
3.02 7.88 -1.95
3.72 9.69 -2.02
10.4 27.08 2.54
4.79 12.48 -2.12
9.43 24.58 3.23
6.39 16.64 -2.19
8.46 22.03 3.74
8.68 22.62 -2.12
8.78 22.88 -1.28
9.37 24.42 6.04
9.38 24.43 7.01
2.57 6.62 -1.9
9.47 24.42 0.46
3.05 7.87 -1.95
11.1 28.62 1.61
3.75 9.68 -2.02
10.49 27.04 2.54
4.82 12.44 -2.11
11.24 28.98 3.82
6.45 16.63 -2.19
8.94 23.05 3.92
8.75 22.56 -2.12
8.63 22.26 -1.25
9.52 24.54 6.08
2.59 6.61 -1.9
12.34 31.5 0.59
3.07 7.85 -1.95
11.18 28.53 1.61
3.79 9.67 -2.02
10.93 27.89 2.62
4.86 12.41 -2.11
9.76 24.91 3.29
6.53 16.66 -2.2
11.3 28.84 4.91
8.9 22.72 -2.13
12.3 31.39 6.55
8.8 22.46 -1.26
8.99 22.93 -0.43
2.61 6.6 -1.9
9.41 23.77 0.45
3.1 7.84 -1.95
11.28 28.49 1.61
3.82 9.64 -2.02
12.46 31.47 2.96
4.91 12.39 -2.11
12.42 31.37 4.14
6.58 16.63 -2.2
9.12 23.02 3.92
9.09 22.96 -2.16
11.35 28.68 6
8.91 22.5 -1.27
12.43 31.4 7.8
8.88 22.42 -0.42
2.63 6.57 -1.9
10.61 26.52 0.5
3.13 7.82 -1.94
10.26 25.64 1.45
3.85 9.62 -2.01
4.94 12.36 -2.11
9.71 24.28 3.21
6.62 16.55 -2.19
9.11 22.78 3.89
9.66 24.16 -2.28
11.45 28.64 5.99
9.75 24.37 -1.38
10.03 25.07 6.23
8.88 22.19 -0.42
11.28 28.21 8.14
2.65 6.55 -1.89
10.63 26.31 0.5
3.16 7.81 -1.95
11.03 27.29 1.54
3.88 9.59 -2.01
4.98 12.33 -2.11
19.08 47.23 6.25
6.69 16.55 -2.19
10.83 26.81 4.58
9.67 23.93 -2.26
9.1 22.53 -1.27
10.09 24.97 6.22
9.18 22.71 -0.43
9.37 23.19 6.7
2.67 6.54 -1.89
10.69 26.21 0.49
3.18 7.79 -1.94
3.91 9.58 -2.01
12.61 30.91 2.92
5.02 12.29 -2.1
10.58 25.94 3.44
6.77 16.6 -2.2
9.31 22.82 3.9
10.38 25.44 -2.4
8.94 21.9 4.6
9.16 22.46 -1.27
14.61 35.8 8.93
9.28 22.74 -0.43
9.6 23.52 6.81
2.69 6.53 -1.89
3.2 7.77 -1.94
18.88 45.82 2.6
3.94 9.56 -2.01
12.65 30.68 2.9
5.05 12.26 -2.1
12.7 30.81 4.09
6.85 16.61 -2.21
8.75 21.24 3.64
9.16 22.22 -2.1
8.96 21.74 4.57
11.42 27.7 6.92
9.34 22.66 -0.43
2.72 6.53 -1.89
13 31.23 0.59
3.23 7.76 -1.94
19.04 45.73 2.6
3.97 9.53 -2.01
12.74 30.59 2.9
5.09 12.23 -2.1
6.89 16.56 -2.2
12.77 30.67 5.26
10.44 25.08 -2.38
8.67 20.83 4.39
9.29 22.31 -1.27
13.75 33.03 8.26
9.35 22.46 -0.42
11.46 27.54 7.99
2.74 6.52 -1.89
9.41 22.39 0.42
3.25 7.74 -1.94
13.12 31.21 1.77
4 9.52 -2.01
9.97 23.72 2.25
5.13 12.21 -2.1
12.73 30.29 4.03
6.95 16.53 -2.2
9.52 22.65 3.89
10.54 25.07 -2.38
8.76 20.83 4.39
9.36 22.27 -1.27
13.15 31.29 -0.59
12.13 28.87 8.39
2.75 6.49 -1.89
10.85 25.57 0.48
3.28 7.73 -1.94
11.29 26.61 1.51
4.03 9.49 -2
5.17 12.18 -2.1
10.94 25.78 3.44
7.01 16.53 -2.21
9.6 22.64 3.89
9.95 23.45 -2.23
13 30.64 6.47
11.97 28.21 7.07
9.67 22.79 -0.43
10.95 25.81 7.51
2.77 6.47 -1.89
12.6 29.4 0.56
3.3 7.71 -1.94
12.52 29.22 1.67
4.06 9.47 -2
12.36 28.85 2.75
5.2 12.14 -2.09
10.83 25.28 3.38
7.07 16.5 -2.2
9.74 22.74 3.92
10.68 24.94 -2.37
9.1 21.25 4.49
9.77 22.81 -1.3
12.07 28.18 7.08
9.77 22.81 -0.43
2.8 6.46 -1.89
9.73 22.49 0.43
3.33 7.69 -1.93
10.09 23.32 1.33
4.09 9.45 -2
11.37 26.27 2.5
5.24 12.11 -2.09
10.85 25.08 3.36
7.13 16.49 -2.21
9.78 22.6 3.9
9.85 22.77 -2.17
9.23 21.33 4.52
9.62 22.24 -1.27
13.6 31.42 7.9
9.81 22.67 -0.43
2.82 6.45 -1.89
10.82 24.76 0.47
3.35 7.67 -1.93
9.94 22.75 1.3
4.12 9.43 -2
14.62 33.47 3.2
5.28 12.08 -2.09
10.91 24.98 3.35
7.18 16.44 -2.2
13.04 29.85 5.16
10.16 23.26 -2.22
9.34 21.38 4.54
10.07 23.06 -1.32
9.76 22.33 5.63
10 22.9 -0.44
10.23 23.42 6.85
2.84 6.44 -1.88
13.59 30.82 0.59
3.38 7.66 -1.93
14.76 33.48 1.92
4.15 9.4 -2
14.73 33.42 3.2
5.32 12.06 -2.09
11.14 25.26 3.39
7.24 16.42 -2.2
9.67 21.94 3.8
9.9 22.45 -2.15
13.04 29.59 6.29
13.76 31.21 7.87
10.08 22.87 -0.44
12.52 28.41 8.32
2.86 6.42 -1.88
10.11 22.72 0.43
3.4 7.65 -1.93
14.84 33.35 1.91
4.18 9.38 -2
16.09 36.16 3.46
5.36 12.03 -2.09
13.27 29.81 4.01
7.3 16.41 -2.21
10.31 23.16 -2.22
11.46 25.75 5.48
12.85 28.87 -1.66
10.03 22.54 5.7
9.9 22.25 6.52
2.88 6.4 -1.88
10.34 23.01 0.44
3.43 7.63 -1.93
12.01 26.74 1.54
4.21 9.37 -2
16.24 36.15 3.47
5.39 12 -2.08
16.14 35.94 4.84
7.37 16.41 -2.21
16.16 35.98 6.25
10.3 22.92 -2.2
11.5 25.6 5.45
10.5 23.38 -1.34
9.72 21.63 5.47
10.11 22.51 -0.43
9.98 22.22 6.53
2.9 6.39 -1.88
10.33 22.78 0.44
3.45 7.6 -1.93
12.06 26.59 1.53
4.24 9.35 -2
12.43 27.41 2.63
5.42 11.96 -2.08
12.98 28.64 3.86
7.43 16.39 -2.21
15.65 34.51 6
11.68 25.77 -2.48
13.5 29.77 6.35
13.06 28.81 -1.66
10.12 22.32 5.66
11.73 25.88 7.61
2.92 6.38 -1.88
10.37 22.65 0.43
3.48 7.59 -1.93
4.27 9.33 -1.99
12.5 27.32 2.63
5.46 11.93 -2.08
7.49 16.36 -2.21
9.93 21.7 3.78
11.96 26.13 -2.51
16.72 36.54 7.81
10.2 22.3 -1.29
9.73 21.27 5.4
10.62 23.2 -0.45
2.94 6.37 -1.88
13.2 28.58 0.55
3.5 7.58 -1.93
10.58 22.91 1.32
4.29 9.29 -1.99
12.59 27.26 2.63
5.5 11.91 -2.08
10.16 21.99 2.97
7.55 16.35 -2.21
10.66 23.09 -2.22
10.42 22.56 -1.3
9.96 21.57 5.48
10.63 23.02 -0.44
2.96 6.34 -1.88
13.36 28.66 0.55
3.53 7.56 -1.93
4.32 9.28 -1.99
13.35 28.64 2.76
5.54 11.88 -2.08
10.32 22.13 3
7.61 16.34 -2.21
18.48 39.64 6.93
10.67 22.9 -2.21
10.6 22.74 -1.31
10.24 21.97 5.6
10.77 23.11 -0.45
14.29 30.66 9.06
2.98 6.34 -1.88
13.46 28.61 0.55
3.55 7.54 -1.92
10.93 23.25 1.35
4.36 9.26 -1.99
20.64 43.89 4.24
5.57 11.83 -2.07
9.98 21.21 2.88
7.68 16.32 -2.22
14.29 30.39 5.32
12.25 26.04 -2.52
10.32 21.94 5.6
12.91 27.46 -0.53
3 6.32 -1.88
13.59 28.63 0.55
3.57 7.52 -1.92
10.94 23.06 1.34
4.39 9.24 -1.99
5.6 11.8 -2.07
10.04 21.15 2.88
7.76 16.34 -2.22
12.24 25.79 4.52
12.17 25.63 -2.48
10.74 22.62 4.87
10.94 23.05 5.89
12.71 26.77 7.94
3.02 6.32 -1.88
3.6 7.51 -1.92
11.03 23.04 1.34
4.41 9.22 -1.99
12.1 25.26 2.45
5.64 11.77 -2.07
7.82 16.32 -2.22
10.36 21.64 3.8
11.02 23 -2.23
10.93 22.83 -1.33
10.98 22.93 5.87
10.88 22.72 -0.44
14.57 30.43 9.04
3.05 6.3 -1.88
3.62 7.49 -1.92
4.44 9.19 -1.98
5.67 11.73 -2.06
7.88 16.3 -2.22
10.45 21.63 3.8
12.27 25.39 -2.47
10.94 22.64 -1.32
11.11 23 5.9
11.08 22.94 -0.44
3.06 6.28 -1.87
12.58 25.81 0.5
3.65 7.48 -1.92
11.09 22.75 1.33
4.47 9.17 -1.98
19.34 39.67 3.86
5.71 11.71 -2.06
7.94 16.3 -2.23
10.55 21.64 3.81
11.85 24.31 -2.37
14.04 28.8 -1.68
11.19 22.95 5.89
3.08 6.27 -1.87
3.67 7.46 -1.92
11.26 22.89 1.34
4.5 9.15 -1.98
20.54 41.76 4.07
5.74 11.67 -2.06
8.02 16.3 -2.23
11.05 22.48 3.97
10.96 22.28 -2.17
10.95 22.25 4.82
14.12 28.71 -1.68
11.29 22.95 5.9
11.08 22.53 -0.44
3.1 6.26 -1.87
11.21 22.6 0.44
3.69 7.44 -1.92
11.08 22.34 1.31
4.53 9.13 -1.98
16.35 32.94 3.22
5.78 11.64 -2.06
11.08 22.33 3.06
8.08 16.29 -2.23
11.11 22.39 3.96
11.2 22.57 -2.2
14.44 29.11 6.32
11.28 22.74 -1.33
11.33 22.83 5.88
14.14 28.5 -0.56
3.13 6.24 -1.87
14.17 28.3 0.55
3.72 7.42 -1.92
11.17 22.32 1.31
4.56 9.11 -1.98
5.81 11.61 -2.06
20.01 39.98 5.49
8.14 16.26 -2.23
11.34 22.65 -2.22
11.31 22.6 -1.32
11.45 22.87 5.9
3.14 6.23 -1.87
13.16 26.07 0.51
3.74 7.41 -1.92
14.17 28.06 1.65
4.59 9.09 -1.98
20.14 39.89 3.91
5.85 11.58 -2.06
11.14 22.07 3.04
8.19 16.23 -2.23
11.93 23.62 -2.32
11.02 21.83 4.75
11.44 22.65 -1.33
11.54 22.86 5.91
3.16 6.21 -1.87
11.58 22.73 0.45
3.77 7.4 -1.92
14.21 27.9 1.64
4.62 9.07 -1.98
14.24 27.95 2.74
5.88 11.55 -2.05
11.2 21.99 3.03
8.25 16.2 -2.23
11.82 23.21 4.12
11.38 22.35 -2.19
11.46 22.5 -1.32
11.35 22.29 5.77
11.3 22.2 -0.43
3.18 6.19 -1.86
3.79 7.38 -1.92
14.91 29.02 1.71
4.65 9.04 -1.98
14.31 27.85 2.74
5.91 11.5 -2.05
8.32 16.2 -2.24
11.65 22.68 4.04
11.49 22.37 -2.2
11.56 22.51 -1.33
11.45 22.3 5.79
11.42 22.23 -0.44
12.53 24.39 7.35
3.2 6.18 -1.87
11.58 22.36 0.44
3.81 7.36 -1.91
12.21 23.58 1.39
4.67 9.03 -1.98
12.44 24.02 2.37
5.95 11.48 -2.05
14.24 27.5 3.8
8.37 16.17 -2.24
11.43 22.08 3.94
11.67 22.53 -2.22
11.52 22.24 -1.31
11.41 22.04 5.73
11.41 22.03 -0.43
12.71 24.55 7.41
3.23 6.18 -1.87
11.71 22.43 0.44
3.83 7.34 -1.91
14.37 27.51 1.63
4.7 9 -1.97
12.44 23.81 2.35
5.98 11.45 -2.05
14.33 27.43 3.8
8.39 16.06 -2.23
13.85 26.51 4.74
11.8 22.6 -2.23
11.61 22.22 -1.31
13.95 26.7 6.95
12.79 24.48 7.4
3.25 6.16 -1.87
17.19 32.63 0.64
3.86 7.33 -1.91
14.38 27.29 1.62
4.73 8.97 -1.97
12.5 23.73 2.35
6.01 11.41 -2.04
13.67 25.95 3.6
8.42 15.98 -2.22
13.94 26.46 4.74
12.13 23.03 -2.28
11.55 21.93 4.82
11.79 22.38 -1.33
12.2 23.16 -0.46
12.88 24.45 7.41
3.26 6.14 -1.86
12.08 22.74 0.45
3.89 7.32 -1.91
14.41 27.13 1.61
4.76 8.95 -1.97
11.28 21.23 2.1
6.05 11.39 -2.04
18.05 33.98 4.72
8.48 15.96 -2.22
14.11 26.55 4.76
12.04 22.66 -2.25
11.85 22.31 -1.32
12.47 23.46 6.13
12.34 23.23 -0.46
13.21 24.87 7.54
3.28 6.12 -1.86
12.02 22.44 0.44
3.91 7.3 -1.91
18.08 33.74 2.01
4.79 8.93 -1.97
14.49 27.05 2.69
6.08 11.34 -2.04
18.18 33.94 4.73
8.54 15.94 -2.22
14.5 27.06 4.86
12.33 23.02 -2.28
14.39 26.85 5.92
11.84 22.09 -1.31
11.72 21.88 5.73
12.13 22.65 -0.45
13.17 24.59 7.47
3.3 6.11 -1.86
12.34 22.83 0.45
3.93 7.27 -1.91
11.86 21.95 1.31
4.82 8.91 -1.97
14.59 27.01 2.69
6.11 11.31 -2.04
8.59 15.9 -2.22
12.4 22.94 4.13
13.14 24.33 -2.42
12.28 22.74 -1.35
14.29 26.44 6.94
12.11 22.41 -0.44
13.13 24.31 7.4
3.32 6.1 -1.86
18.28 33.56 0.67
3.95 7.26 -1.91
4.84 8.89 -1.97
13.18 24.19 2.41
6.15 11.29 -2.04
8.64 15.87 -2.22
12.68 23.27 -2.32
12.25 22.48 -1.34
14.4 26.44 6.95
13.43 24.66 7.52
3.35 6.09 -1.86
12.53 22.81 0.45
3.98 7.25 -1.91
4.86 8.86 -1.96
6.19 11.26 -2.04
8.69 15.82 -2.22
24.76 45.08 8.15
12.45 22.66 -2.26
12.46 22.69 5.03
12.14 22.1 -1.32
12.58 22.91 -0.46
14.34 26.1 7.98
3.36 6.07 -1.86
4.01 7.23 -1.91
12.17 21.97 1.32
4.89 8.83 -1.96
6.22 11.24 -2.03
8.74 15.77 -2.21
12.56 22.67 -2.27
12.52 22.6 5.02
12.23 22.08 -1.32
12.01 21.68 5.72
14.19 25.62 -0.51
13.63 24.61 7.54
3.38 6.05 -1.86
18.51 33.15 0.66
4.03 7.21 -1.91
18.4 32.95 1.98
4.92 8.81 -1.96
6.25 11.19 -2.03
13.14 23.53 3.31
8.79 15.73 -2.21
12.47 22.32 4.05
13.19 23.62 -2.37
12.43 22.26 -1.34
12.43 22.26 5.89
12.56 22.49 -0.45
13.83 24.76 7.6
3.4 6.04 -1.86
12.7 22.55 0.45
4.05 7.19 -1.9
12.45 22.11 1.33
4.95 8.79 -1.96
18.45 32.77 3.29
6.29 11.17 -2.03
13.19 23.43 3.3
8.83 15.68 -2.21
13.02 23.13 -2.32
12.44 22.1 -1.33
12.6 22.38 5.93
16.08 28.57 -0.57
13.43 23.86 7.34
3.43 6.03 -1.86
14.49 25.53 0.51
4.07 7.17 -1.9
15.54 27.38 1.65
4.97 8.76 -1.96
6.32 11.14 -2.03
14 24.66 3.48
8.87 15.63 -2.21
18.36 32.35 5.89
14.14 24.92 -2.51
12.84 22.62 -1.36
16.16 28.47 -0.57
13.44 23.68 7.3
3.44 6.01 -1.86
16.14 28.21 0.57
4.09 7.15 -1.9
12.51 21.87 1.32
4.99 8.73 -1.95
26.75 46.75 4.71
6.36 11.11 -2.03
8.92 15.58 -2.2
27.34 47.78 8.72
14.2 24.81 -2.5
12.16 21.24 4.76
13.16 23 -1.39
12.35 21.59 5.74
13.78 24.08 7.43
3.46 5.99 -1.85
14.54 25.2 0.51
4.12 7.14 -1.9
16.22 28.12 1.7
5.02 8.7 -1.95
16.19 28.06 2.83
6.39 11.08 -2.03
26.96 46.73 6.62
8.97 15.54 -2.2
12.79 22.18 4.06
14.3 24.8 -2.5
12.23 21.2 4.76
13.17 22.83 -1.38
12.77 22.13 5.9
13.9 24.09 7.45
3.48 5.98 -1.85
14.59 25.08 0.51
4.15 7.13 -1.9
12.69 21.83 1.32
5.05 8.68 -1.95
16.21 27.88 2.82
6.42 11.04 -2.02
13.29 22.85 3.24
9 15.48 -2.2
27.28 46.91 8.6
14.33 24.64 -2.49
13.33 22.91 -1.39
12.89 22.16 5.92
13.97 24.03 7.45
3.5 5.97 -1.86
14.41 24.58 0.5
4.16 7.1 -1.9
5.08 8.66 -1.95
16.28 27.78 2.82
6.46 11.02 -2.02
16.25 27.71 3.94
9.05 15.44 -2.2
12.94 22.07 4.05
13.42 22.89 -2.32
13.21 22.53 -1.37
12.57 21.44 5.74
14.93 25.47 -0.52
3.52 5.96 -1.85
14.43 24.42 0.5
4.18 7.08 -1.9
12.87 21.78 1.33
5.1 8.64 -1.95
17.16 29.04 2.95
6.49 10.98 -2.02
12.5 21.16 3.02
9.09 15.39 -2.19
13.09 22.16 4.08
13.58 22.98 -2.34
16.05 27.16 6.13
13.28 22.47 -1.37
12.58 21.28 5.71
13.42 22.71 -0.46
3.54 5.95 -1.85
14.01 23.52 0.48
4.21 7.07 -1.9
13.74 23.08 1.41
5.12 8.6 -1.95
6.53 10.96 -2.02
12.74 21.39 3.06
9.13 15.32 -2.19
12.92 21.69 4
14.56 24.44 -2.49
12.45 20.9 4.73
13.36 22.43 -1.37
13.9 23.33 6.27
3.55 5.92 -1.85
13.63 22.71 0.46
4.24 7.05 -1.9
13.78 22.96 1.4
5.15 8.58 -1.94
6.56 10.93 -2.02
12.86 21.42 3.07
9.18 15.29 -2.19
12.64 21.06 3.89
13.74 22.89 -2.34
12.55 20.9 4.74
13.36 22.26 -1.36
16.12 26.85 7.23
13.63 22.71 -0.46
17 28.31 8.85
3.57 5.91 -1.85
14.33 23.69 0.48
4.26 7.04 -1.9
13.78 22.76 1.39
5.18 8.56 -1.95
6.59 10.89 -2.02
12.93 21.37 3.07
9.23 15.25 -2.19
13 21.49 3.98
13.81 22.82 -2.33
13.39 22.12 -1.36
15.02 24.82 6.7
13.67 22.59 -0.46
15.01 24.8 7.77
3.59 5.89 -1.85
14.23 23.32 0.48
4.27 7.01 -1.89
13.85 22.72 1.39
5.21 8.54 -1.94
20.23 33.17 3.4
6.63 10.86 -2.02
13.6 22.3 3.21
9.26 15.19 -2.18
13.14 21.54 4
13.97 22.91 -2.35
13.22 21.68 4.94
14.62 23.98 -1.47
14.02 22.98 6.21
13.79 22.6 -0.46
16.19 26.55 8.33
3.61 5.88 -1.85
14.27 23.22 0.48
4.29 6.98 -1.89
13.93 22.66 1.39
5.23 8.51 -1.94
17.8 28.96 2.97
6.66 10.84 -2.01
13.86 22.55 3.25
9.3 15.13 -2.18
13.08 21.28 3.96
14.08 22.9 -2.35
13.22 21.51 4.91
13.82 22.49 -1.38
14.14 23 6.23
14 22.77 -0.47
14.69 23.9 7.52
3.64 5.87 -1.85
14.3 23.09 0.47
4.32 6.97 -1.89
13.83 22.34 1.38
5.25 8.47 -1.94
24.65 39.82 4.1
6.69 10.81 -2.01
14.13 22.82 3.3
9.33 15.07 -2.18
13.16 21.25 3.96
14.27 23.06 -2.37
13.3 21.48 4.91
14.82 23.94 -1.48
14.35 23.19 -0.48
16 25.85 8.15
3.65 5.85 -1.85
4.34 6.96 -1.89
13.88 22.24 1.37
5.27 8.45 -1.94
6.73 10.78 -2.01
14.14 22.67 3.28
9.38 15.03 -2.17
13.28 21.28 3.97
14.23 22.81 -2.35
15.85 25.4 5.82
20.71 33.2 -2.05
14.75 23.65 -0.49
16.57 26.56 8.39
3.66 5.83 -1.84
14.55 23.14 0.48
4.36 6.94 -1.89
14.63 23.27 1.44
5.3 8.42 -1.93
13.79 21.93 2.27
6.75 10.74 -2.01
13.94 22.16 3.21
9.41 14.97 -2.17
13.59 21.61 4.04
14.33 22.79 -2.36
13.43 21.36 4.9
14.69 23.36 -1.45
14.44 22.97 -0.47
3.69 5.82 -1.85
14.43 22.78 0.47
4.38 6.91 -1.89
13.89 21.92 1.36
5.32 8.4 -1.93
13.87 21.88 2.27
6.79 10.72 -2.01
14.71 23.21 3.37
9.45 14.92 -2.17
16.23 25.62 4.8
14.43 22.77 -2.36
13.55 21.39 4.92
15.15 23.91 -1.48
14.57 22.99 -0.48
17.75 28.01 8.89
3.71 5.81 -1.85
4.4 6.89 -1.89
22.82 35.71 2.22
5.35 8.37 -1.93
22.79 35.67 3.7
6.83 10.68 -2.01
24.07 37.66 5.49
9.5 14.86 -2.17
16.38 25.63 4.82
14.52 22.72 -2.36
15.2 23.79 -1.48
14.48 22.66 -0.47
3.73 5.79 -1.85
14.95 23.21 0.48
4.42 6.87 -1.89
14.69 22.82 1.42
5.37 8.34 -1.93
14.05 21.82 2.27
6.86 10.65 -2.01
20.93 32.5 4.75
9.54 14.81 -2.16
16.49 25.6 4.82
14.67 22.78 -2.37
15.3 23.75 -1.48
14.47 22.47 6.17
14.7 22.83 -0.47
14.97 23.25 7.41
3.74 5.77 -1.84
14.64 22.58 0.47
4.45 6.86 -1.89
18.07 27.87 1.74
5.39 8.32 -1.93
6.89 10.63 -2.01
21.01 32.41 4.74
9.57 14.76 -2.16
14.92 23.01 4.34
14.82 22.86 -2.38
21.22 32.73 7.58
15.37 23.71 -1.48
14.82 22.86 6.29
14.81 22.84 -0.48
15.01 23.14 7.39
3.76 5.76 -1.84
14.74 22.56 0.47
4.46 6.83 -1.88
18.13 27.75 1.74
5.42 8.3 -1.93
6.92 10.59 -2
9.6 14.69 -2.15
14.98 22.93 4.34
14.97 22.91 -2.39
14.72 22.53 -1.41
14.7 22.5 -0.47
15.14 23.17 7.42
3.79 5.75 -1.85
14.87 22.58 0.47
4.48 6.8 -1.88
15.04 22.83 1.43
5.44 8.26 -1.92
28.63 43.47 4.55
6.95 10.55 -2
9.63 14.62 -2.15
15.01 22.79 4.32
15.12 22.96 -2.41
14.94 22.68 -1.42
14.83 22.51 -0.47
3.8 5.73 -1.84
15.04 22.66 0.47
4.5 6.78 -1.88
18.43 27.76 1.75
5.46 8.23 -1.92
14.61 22.02 2.31
6.98 10.52 -2
9.65 14.54 -2.14
16.52 24.9 4.73
15.22 22.93 -2.41
16.66 25.1 5.86
14.79 22.29 -1.4
14.91 22.47 -0.47
15.35 23.13 7.44
3.82 5.72 -1.84
15.09 22.57 0.47
4.52 6.76 -1.88
18.55 27.75 1.75
5.48 8.2 -1.92
18.36 27.46 2.89
7.02 10.49 -2
18.25 27.29 4.03
9.7 14.5 -2.14
16.78 25.1 4.78
15.31 22.9 -2.41
14.82 22.16 -1.4
15.2 22.73 -0.48
3.84 5.7 -1.84
15.27 22.67 0.48
4.54 6.74 -1.88
18.74 27.81 1.76
5.51 8.18 -1.92
18.37 27.26 2.88
7.05 10.46 -2
14.28 21.2 3.14
9.75 14.48 -2.14
15.39 22.84 -2.41
21.57 32.02 7.51
15.01 22.27 -1.41
16.37 24.3 7.85
3.85 5.67 -1.84
15.47 22.79 0.48
4.56 6.72 -1.88
5.54 8.15 -1.92
7.07 10.41 -1.99
15.44 22.75 3.38
9.8 14.44 -2.14
18.56 27.35 5.23
15.48 22.81 -2.41
15.17 22.35 -1.42
21.54 31.73 8.85
3.87 5.66 -1.84
4.59 6.71 -1.88
17.05 24.93 1.58
5.56 8.13 -1.91
7.09 10.37 -1.99
21.43 31.33 4.66
9.85 14.41 -2.14
16.05 23.47 4.5
15.54 22.72 -2.41
3.89 5.65 -1.84
16.58 24.08 0.51
4.6 6.68 -1.87
5.58 8.1 -1.91
18.43 26.77 2.84
7.12 10.34 -1.99
15.65 22.73 3.39
9.87 14.34 -2.14
17.88 25.97 4.99
15.65 22.72 -2.41
15.93 23.13 -1.47
3.91 5.63 -1.84
16.67 24.03 0.51
4.62 6.66 -1.87
26.54 38.26 2.44
5.6 8.07 -1.91
14.77 21.3 2.27
7.15 10.3 -1.99
9.89 14.25 -2.13
18.16 26.18 5.05
15.7 22.63 -2.41
23.25 33.51 9.42
17.25 24.87 8.11
3.92 5.6 -1.83
16.69 23.86 0.51
4.65 6.64 -1.87
25.04 35.8 2.29
5.62 8.04 -1.91
7.17 10.26 -1.98
25.04 35.81 5.37
9.93 14.2 -2.13
15.8 22.59 -2.41
23.48 33.57 7.96
15.96 22.82 -1.46
15.97 22.84 -0.49
3.94 5.59 -1.83
25.14 35.68 0.76
4.66 6.61 -1.87
5.65 8.02 -1.91
25.18 35.73 3.82
7.2 10.22 -1.98
15.06 21.38 3.21
9.97 14.15 -2.13
15.02 21.32 4.13
15.89 22.54 -2.41
16.06 22.79 -1.46
17.49 24.82 7.01
16.11 22.87 -0.49
3.96 5.57 -1.83
16.54 23.3 0.5
4.67 6.59 -1.86
16.64 23.45 1.51
5.68 8 -1.91
19.99 28.16 3.02
7.23 10.18 -1.98
15.09 21.26 3.2
10.01 14.1 -2.12
14.99 21.12 4.1
16.02 22.56 -2.42
16.1 22.68 -1.46
3.98 5.56 -1.83
16.67 23.31 0.5
4.7 6.57 -1.86
18.3 25.58 1.65
5.7 7.98 -1.91
7.26 10.15 -1.98
10.04 14.04 -2.12
15.01 20.99 4.09
16.1 22.51 -2.42
17.78 24.87 5.94
16.12 22.55 -1.45
16.62 23.24 6.6
16.28 22.77 -0.49
3.99 5.54 -1.83
17.9 24.84 0.53
4.72 6.55 -1.86
18.24 25.31 1.63
5.72 7.94 -1.9
18.82 26.12 2.82
7.28 10.11 -1.97
20.5 28.46 4.31
10.08 14 -2.12
15.09 20.95 4.09
16.22 22.52 -2.43
16.51 22.92 -1.48
18.35 25.47 7.25
16.32 22.65 -0.49
4.01 5.52 -1.83
18.14 25 0.54
4.74 6.53 -1.86
5.75 7.92 -1.9
7.3 10.06 -1.97
18.7 25.76 3.91
10.13 13.95 -2.12
14.94 20.59 4.03
16.27 22.42 -2.42
15.6 21.5 5.16
16.48 22.7 -1.47
17.57 24.21 6.91
4.03 5.51 -1.83
4.75 6.51 -1.86
16.82 23.02 1.49
5.77 7.89 -1.9
19.43 26.6 2.88
7.32 10.02 -1.97
18.98 25.98 3.95
10.16 13.9 -2.11
15.95 21.84 4.28
16.22 22.2 -2.41
15.54 21.27 5.12
16.55 22.65 -1.47
21.79 29.83 8.53
4.05 5.5 -1.83
16.95 23.03 0.5
4.77 6.48 -1.86
21.8 29.62 1.93
5.79 7.87 -1.9
21.32 28.98 3.15
7.35 9.99 -1.96
25.84 35.12 5.35
10.2 13.86 -2.11
25.82 35.08 6.9
16.37 22.24 -2.42
15.59 21.18 5.11
16.63 22.59 -1.47
17.97 24.42 7
17.27 23.46 -0.51
4.06 5.48 -1.83
18.53 25 0.54
4.78 6.45 -1.85
16.83 22.7 1.48
5.82 7.84 -1.9
21.38 28.84 3.14
7.38 9.95 -1.96
21.11 28.48 4.35
10.22 13.79 -2.11
20.84 28.11 5.54
16.41 22.14 -2.41
15.68 21.15 5.12
16.59 22.38 -1.46
20.46 27.6 7.93
17.29 23.32 -0.51
4.08 5.46 -1.83
17 22.77 0.5
4.81 6.43 -1.85
17.92 24 1.57
5.84 7.81 -1.9
7.41 9.92 -1.96
21.24 28.45 4.36
10.26 13.73 -2.1
18.49 24.75 4.89
16.53 22.14 -2.42
15.73 21.07 5.11
17.13 22.94 -1.5
17.21 23.05 6.64
4.09 5.44 -1.82
17.24 22.92 0.5
4.82 6.41 -1.85
5.86 7.79 -1.89
19.08 25.36 2.78
7.44 9.89 -1.96
10.29 13.68 -2.1
16.5 21.93 4.35
16.51 21.94 -2.4
16.58 22.03 5.36
22.08 29.35 8.48
4.11 5.43 -1.83
21.57 28.46 0.62
4.84 6.39 -1.85
17.01 22.44 1.48
5.88 7.76 -1.89
19.12 25.23 2.77
7.46 9.84 -1.96
27.3 36.01 5.55
10.33 13.63 -2.1
16.7 22.04 -2.42
17.29 22.81 6.61
17.61 23.24 7.81
4.13 5.41 -1.82
18.71 24.52 0.54
4.85 6.36 -1.85
20.11 26.35 1.74
5.91 7.74 -1.89
7.49 9.81 -1.95
21.56 28.26 4.36
10.36 13.57 -2.1
16.47 21.58 4.3
16.83 22.05 -2.43
17.47 22.9 6.65
17.56 23.01 -0.51
17.66 23.14 7.8
4.15 5.4 -1.82
4.87 6.34 -1.85
27.47 35.73 2.36
5.93 7.71 -1.89
17.49 22.75 2.51
7.51 9.78 -1.95
16.12 20.97 3.25
10.4 13.52 -2.09
16.82 21.88 4.37
16.85 21.92 -2.42
19.14 24.9 -1.65
17.54 22.82 6.65
17.6 22.89 -0.5
4.17 5.38 -1.82
22.58 29.16 0.64
4.9 6.32 -1.85
5.94 7.68 -1.89
17.73 22.9 2.53
7.53 9.72 -1.95
16.19 20.91 3.25
10.43 13.47 -2.09
24.9 32.15 6.44
16.92 21.85 -2.42
17.55 22.67 5.57
19.19 24.78 -1.64
22.47 29.01 8.47
17.68 22.83 -0.5
4.18 5.35 -1.82
4.91 6.29 -1.84
5.96 7.64 -1.88
19.06 24.44 2.71
7.55 9.69 -1.95
18.14 23.26 3.62
10.44 13.39 -2.08
16.92 21.69 4.36
17.12 21.96 -2.44
24.96 32.01 9.37
4.2 5.34 -1.82
4.93 6.27 -1.84
20.14 25.63 1.71
5.99 7.62 -1.88
17.62 22.42 2.49
7.58 9.65 -1.94
22.71 28.89 4.51
10.46 13.31 -2.08
22.84 29.07 5.86
17.15 21.83 -2.43
17.2 21.89 6.43
4.22 5.33 -1.82
4.94 6.24 -1.84
20.16 25.48 1.7
6.01 7.6 -1.88
22.79 28.8 3.21
7.61 9.62 -1.94
18.11 22.88 3.58
10.49 13.26 -2.08
22.72 28.72 5.8
17.29 21.84 -2.44
18.31 23.14 -1.55
17.38 21.96 6.47
4.23 5.31 -1.82
4.97 6.23 -1.84
6.03 7.57 -1.88
22.89 28.73 3.21
7.64 9.59 -1.94
18.2 22.84 3.59
10.53 13.21 -2.07
22.82 28.64 5.8
17.38 21.81 -2.44
22.6 28.36 7.05
18.34 23.02 -1.54
24.35 30.56 9.02
4.24 5.28 -1.82
4.98 6.21 -1.84
6.05 7.53 -1.88
18.06 22.51 2.52
7.67 9.56 -1.94
18.29 22.79 3.59
10.57 13.17 -2.07
17.44 21.74 -2.44
23.02 28.68 7.15
22.67 28.25 8.36
20.1 25.05 -0.56
4.25 5.26 -1.81
32.32 39.98 0.9
5 6.19 -1.84
6.07 7.51 -1.88
17.92 22.17 2.49
7.69 9.51 -1.94
10.6 13.12 -2.07
19.13 23.66 4.82
17.46 21.61 -2.43
18.59 22.99 -1.55
20.99 25.96 7.71
20.04 24.79 8.54
4.28 5.25 -1.82
19.89 24.43 0.55
5.02 6.17 -1.84
20.11 24.7 1.67
6.09 7.48 -1.88
27.37 33.63 3.79
7.71 9.47 -1.93
10.65 13.09 -2.07
19.08 23.44 4.79
17.54 21.55 -2.43
20.41 25.08 6.29
22.22 27.3 8.13
20.24 24.86 8.59
4.29 5.23 -1.81
26.25 32.02 0.72
5.04 6.14 -1.83
19.65 23.97 1.62
6.12 7.46 -1.87
7.74 9.44 -1.93
10.69 13.04 -2.07
19.06 23.24 4.76
17.3 21.1 -2.39
21.07 25.7 6.46
18.82 22.96 6.85
20.37 24.84 8.61
4.31 5.23 -1.82
5.06 6.13 -1.83
6.14 7.44 -1.87
26.27 31.82 3.61
7.76 9.4 -1.93
19.09 23.13 3.68
10.71 12.98 -2.07
19.14 23.18 4.76
17.49 21.19 -2.4
20.23 24.51 6.18
4.33 5.21 -1.81
5.09 6.12 -1.84
19.38 23.29 1.59
6.15 7.4 -1.87
20.03 24.08 2.74
7.8 9.37 -1.93
10.75 12.93 -2.06
17.56 21.11 -2.4
20.07 24.13 6.1
20.3 24.4 -1.66
4.34 5.18 -1.81
5.11 6.1 -1.84
6.18 7.37 -1.87
19.65 23.46 2.68
7.82 9.33 -1.93
23 27.46 4.4
10.79 12.88 -2.06
19.34 23.08 4.77
17.65 21.06 -2.4
4.36 5.17 -1.81
20.66 24.48 0.56
5.12 6.07 -1.83
6.21 7.35 -1.87
19.74 23.39 2.68
7.84 9.3 -1.93
10.83 12.84 -2.06
19.45 23.05 4.78
17.78 21.07 -2.41
19.78 23.44 -1.61
4.37 5.15 -1.81
28.82 33.91 0.78
5.13 6.04 -1.83
28.86 33.96 2.34
6.23 7.33 -1.87
7.87 9.27 -1.93
19.02 22.39 3.61
10.86 12.78 -2.06
19.55 23.01 4.78
17.89 21.05 -2.42
19.78 23.28 -1.6
21.74 25.59 7.75
4.4 5.14 -1.81
5.15 6.03 -1.83
6.25 7.3 -1.87
20.5 23.97 2.76
7.89 9.23 -1.92
19.08 22.31 3.6
10.87 12.71 -2.05
23.86 27.89 5.81
17.97 21.02 -2.42
21.82 25.51 -1.76
21.64 25.3 -0.58
4.41 5.12 -1.81
5.18 6.01 -1.83
6.26 7.27 -1.87
21.04 24.43 2.82
7.92 9.19 -1.92
19.08 22.16 3.59
10.91 12.67 -2.05
18.07 20.98 -2.42
19.76 22.95 -1.59
23.72 27.54 8.39
20.6 23.92 -0.55
22.81 26.49 9.37
4.42 5.09 -1.81
20.37 23.48 0.54
5.19 5.99 -1.83
6.29 7.25 -1.87
19.5 22.47 2.6
7.95 9.16 -1.92
19.41 22.37 3.64
10.94 12.61 -2.05
18.2 20.97 -2.43
4.44 5.08 -1.81
5.21 5.96 -1.83
6.31 7.23 -1.87
7.96 9.11 -1.92
19.51 22.33 3.64
10.97 12.56 -2.05
18.31 20.95 -2.43
4.46 5.06 -1.81
5.22 5.93 -1.83
6.34 7.2 -1.86
7.99 9.08 -1.92
11.01 12.51 -2.05
22.73 25.83 5.45
18.41 20.92 -2.44
23.95 27.22 7.05
21.51 24.44 -1.71
23.82 27.07 -0.63
4.47 5.04 -1.81
5.25 5.92 -1.83
6.36 7.18 -1.86
8.01 9.04 -1.91
19.57 22.08 3.62
11.02 12.44 -2.04
18.52 20.9 -2.44
22.38 25.25 -1.77
20.98 23.67 7.3
4.48 5.02 -1.8
21.4 23.97 0.56
5.27 5.9 -1.83
6.38 7.15 -1.86
20.74 23.24 2.73
8.04 9.01 -1.91
23.75 26.61 4.38
11.05 12.38 -2.04
27.46 30.77 6.53
18.61 20.85 -2.45
21.06 23.6 7.3
21.09 23.63 -0.55
22.98 25.75 9.25
4.5 5 -1.8
22.42 24.94 0.59
5.29 5.88 -1.83
6.4 7.12 -1.86
8.06 8.97 -1.91
19.96 22.21 3.67
11.08 12.33 -2.03
32.36 36.01 7.67
18.65 20.75 -2.44
4.51 4.99 -1.8
20.81 23 0.54
5.31 5.86 -1.83
21.52 23.78 1.68
6.42 7.09 -1.86
8.08 8.93 -1.91
32.39 35.8 5.93
11.1 12.27 -2.03
4.53 4.97 -1.8
5.32 5.84 -1.82
6.44 7.07 -1.86
21.15 23.22 2.75
8.1 8.89 -1.91
11.12 12.2 -2.03
22.46 24.66 6.48
26.04 28.58 -0.67
4.56 4.96 -1.81
22.8 24.84 0.59
5.34 5.82 -1.82
6.47 7.05 -1.86
21.32 23.23 2.76
8.12 8.85 -1.9
26.43 28.79 4.8
11.15 12.14 -2.02
26.41 28.78 6.19
16.35 17.81 -2.12
4.56 4.94 -1.8
26.78 28.98 0.69
5.37 5.81 -1.83
6.48 7.01 -1.86
21.43 23.19 2.76
8.14 8.81 -1.9
11.16 12.08 -2.02
26.46 28.63 6.17
26.41 28.57 8.98
4.57 4.91 -1.8
5.38 5.78 -1.82
21.43 23.02 1.65
6.49 6.98 -1.85
8.17 8.78 -1.9
11.19 12.02 -2.02
26.25 28.2 -2.02
24.15 25.94 8.18
26.49 28.45 10.42
4.59 4.89 -1.8
5.4 5.76 -1.82
26.38 28.15 2.02
6.52 6.95 -1.85
8.18 8.73 -1.9
11.22 11.97 -2.01
15.74 16.8 -2.01
23.14 24.69 -1.77
4.6 4.88 -1.8
23.09 24.47 0.59
5.4 5.73 -1.82
6.54 6.93 -1.85
8.21 8.7 -1.89
11.24 11.91 -2.01
24.94 26.42 5.75
15.99 16.95 -2.04
26.36 27.94 7.47
23.6 25.01 -1.8
23.21 24.59 -0.59
4.62 4.86 -1.8
5.42 5.71 -1.82
6.56 6.9 -1.85
22.46 23.64 2.85
8.23 8.66 -1.89
31.96 33.64 5.7
11.25 11.85 -2.01
16.29 17.14 -2.07
4.64 4.85 -1.8
22.74 23.76 0.57
5.44 5.69 -1.82
6.56 6.86 -1.84
8.25 8.63 -1.89
11.26 11.76 -2
16.21 16.93 -2.05
21.81 22.79 -1.65
4.64 4.82 -1.79
5.46 5.66 -1.82
6.58 6.83 -1.84
8.27 8.58 -1.89
11.29 11.72 -2
32.87 34.11 7.5
16.32 16.94 -2.06
21.89 22.72 -1.65
4.66 4.8 -1.79
5.48 5.65 -1.82
6.6 6.8 -1.84
22.94 23.64 2.88
8.28 8.54 -1.88
11.32 11.66 -2
24.21 24.95 5.51
16.35 16.85 -2.05
23.28 23.99 -1.75
24.54 25.29 9.44
4.68 4.79 -1.8
32.85 33.62 0.82
5.49 5.61 -1.81
6.61 6.77 -1.84
25.7 26.31 3.22
8.3 8.5 -1.88
11.35 11.62 -2
16.44 16.83 -2.06
28.08 28.74 -0.7
4.7 4.77 -1.79
5.5 5.6 -1.81
6.63 6.74 -1.84
8.32 8.46 -1.88
11.37 11.56 -1.99
24.27 24.67 5.48
16.6 16.87 -2.07
4.71 4.76 -1.79
5.52 5.58 -1.81
23.27 23.49 1.73
6.64 6.7 -1.83
8.35 8.43 -1.88
11.4 11.51 -1.99
26.38 26.64 5.94
16.73 16.89 -2.08
29.25 29.53 9.6
4.71 4.72 -1.79
5.54 5.55 -1.81
23.43 23.48 1.74
6.66 6.67 -1.83
8.37 8.38 -1.88
11.44 11.46 -1.99
36.66 36.74 8.22
16.85 16.89 -2.09
30.13 30.19 -0.74
4.73 4.71 -1.79
23.15 23.04 0.57
5.56 5.53 -1.81
6.67 6.64 -1.83
8.37 8.33 -1.87
36.39 36.21 6.3
11.46 11.41 -1.99
36.29 36.12 8.11
16.93 16.85 -2.09
30.23 30.09 -0.74
4.75 4.7 -1.79
23.07 22.8 0.57
5.57 5.5 -1.81
6.7 6.62 -1.83
30.24 29.89 3.72
8.39 8.29 -1.87
25.25 24.96 4.36
11.48 11.35 -1.98
16.98 16.78 -2.09
30.25 29.9 8.27
4.76 4.68 -1.79
23.84 23.41 0.58
5.58 5.48 -1.81
6.71 6.59 -1.83
30.3 29.75 3.72
8.42 8.27 -1.87
30.31 29.76 5.22
11.5 11.29 -1.98
30.24 29.69 6.71
17.08 16.77 -2.09
28.85 28.32 -2.12
26.05 25.58 9.78
4.78 4.66 -1.79
5.6 5.46 -1.81
6.73 6.56 -1.83
8.44 8.22 -1.87
11.53 11.24 -1.98
17.21 16.78 -2.1
28.94 28.2 -2.12
4.79 4.63 -1.79
5.62 5.44 -1.81
6.74 6.52 -1.82
8.46 8.19 -1.86
11.56 11.19 -1.98
29.66 28.71 6.54
17.28 16.72 -2.1
4.81 4.62 -1.79
30.33 29.16 0.73
5.63 5.41 -1.8
6.76 6.5 -1.82
28.65 27.54 3.48
8.48 8.15 -1.86
30.72 29.53 5.23
11.6 11.15 -1.98
24.96 23.99 5.48
17.39 16.71 -2.11
30.46 29.29 -0.74
4.82 4.61 -1.79
5.63 5.38 -1.8
6.78 6.48 -1.82
8.5 8.12 -1.86
11.63 11.1 -1.97
17.49 16.7 -2.12
26.52 25.32 -1.92
4.84 4.59 -1.79
30.63 29.04 0.74
5.65 5.36 -1.8
6.8 6.44 -1.82
8.52 8.08 -1.86
11.65 11.04 -1.97
24.49 23.21 5.34
17.6 16.69 -2.12
4.85 4.57 -1.79
5.67 5.34 -1.8
6.81 6.41 -1.82
23.98 22.58 2.88
8.54 8.04 -1.86
24.64 23.2 4.15
11.68 11 -1.97
30.94 29.13 6.73
17.66 16.63 -2.12
4.86 4.54 -1.78
34.04 31.82 0.81
5.69 5.32 -1.8
6.83 6.38 -1.82
8.56 8 -1.86
11.71 10.95 -1.97
31.04 29.02 6.73
17.77 16.62 -2.13
4.87 4.53 -1.78
30.34 28.17 0.72
5.7 5.29 -1.8
6.84 6.35 -1.81
8.57 7.96 -1.85
11.75 10.91 -1.97
26.25 24.37 5.67
17.94 16.66 -2.14
27.6 25.63 -0.66
4.89 4.51 -1.78
28.43 26.2 0.67
5.72 5.28 -1.8
6.86 6.32 -1.81
30.52 28.14 3.63
8.59 7.92 -1.85
11.78 10.86 -1.97
24.81 22.87 5.34
17.95 16.55 -2.14
4.91 4.5 -1.78
5.74 5.26 -1.8
6.86 6.28 -1.81
8.62 7.89 -1.85
24.59 22.51 4.09
11.78 10.78 -1.96
17.79 16.28 -2.11
4.92 4.48 -1.78
5.75 5.23 -1.79
6.88 6.25 -1.81
8.64 7.85 -1.85
11.8 10.73 -1.96
26.55 24.13 5.68
17.85 16.23 -2.11
4.93 4.45 -1.78
32.56 29.39 0.77
5.77 5.2 -1.79
6.89 6.22 -1.8
34.35 31.01 4.05
8.66 7.81 -1.85
24.92 22.49 4.12
11.82 10.67 -1.96
17.91 16.17 -2.11
4.95 4.43 -1.78
5.79 5.19 -1.79
6.92 6.2 -1.81
8.67 7.77 -1.84
24.99 22.4 4.12
11.84 10.61 -1.95
17.92 16.06 -2.11
4.96 4.42 -1.78
5.79 5.15 -1.79
29.05 25.86 2.04
6.94 6.18 -1.81
8.7 7.74 -1.84
11.86 10.56 -1.95
17.96 15.99 -2.1
28.58 25.44 -0.67
4.98 4.4 -1.78
32.65 28.86 0.76
5.8 5.13 -1.79
32.72 28.92 2.29
6.96 6.15 -1.8
8.72 7.7 -1.84
11.88 10.5 -1.95
27.06 23.91 5.72
18.03 15.94 -2.11
30.86 27.27 -0.72
4.99 4.38 -1.78
36.44 31.98 0.85
5.82 5.11 -1.79
29.3 25.71 2.04
6.97 6.11 -1.8
30.44 26.72 3.54
8.74 7.67 -1.84
11.88 10.43 -1.94
18.01 15.81 -2.1
5 4.36 -1.78
33.01 28.77 0.76
5.84 5.09 -1.79
6.98 6.09 -1.8
8.75 7.63 -1.84
11.89 10.37 -1.94
18.03 15.72 -2.09
5.01 4.34 -1.78
5.85 5.06 -1.79
7 6.06 -1.8
32.58 28.2 3.77
8.76 7.58 -1.83
11.91 10.31 -1.93
29.17 25.25 6.11
18.06 15.63 -2.09
5.03 4.32 -1.78
5.86 5.04 -1.78
32.73 28.14 2.26
7.03 6.04 -1.8
33.15 28.5 3.82
8.78 7.55 -1.83
11.93 10.25 -1.93
29.32 25.21 6.13
18.11 15.57 -2.09
5.04 4.31 -1.78
30.5 26.04 0.7
5.87 5.01 -1.78
7.04 6.01 -1.8
8.81 7.52 -1.83
32.42 27.68 5.23
11.92 10.18 -1.92
29.33 25.04 6.11
18.09 15.44 -2.08
5.05 4.28 -1.77
30.58 25.91 0.7
5.89 5 -1.78
7.06 5.98 -1.8
8.83 7.48 -1.83
11.96 10.13 -1.92
29.24 24.78 6.07
18.08 15.32 -2.07
5.06 4.26 -1.77
29.85 25.11 0.68
5.91 4.97 -1.78
7.07 5.95 -1.8
8.85 7.44 -1.83
11.98 10.08 -1.92
18.09 15.22 -2.07
5.08 4.24 -1.77
5.92 4.95 -1.78
7.09 5.92 -1.8
29.86 24.95 3.4
8.86 7.4 -1.83
30.98 25.89 4.96
11.99 10.02 -1.92
18.15 15.17 -2.07
5.09 4.22 -1.77
5.93 4.92 -1.78
7.1 5.89 -1.79
8.87 7.36 -1.83
30.66 25.43 4.89
11.97 9.93 -1.91
18.15 15.05 -2.06
5.11 4.21 -1.77
5.95 4.9 -1.78
7.11 5.86 -1.79
29.42 24.23 3.33
8.89 7.33 -1.82
11.99 9.88 -1.91
18.15 14.95 -2.06
5.12 4.19 -1.77
5.97 4.88 -1.78
7.12 5.83 -1.79
29.17 23.86 3.3
8.92 7.29 -1.82
31.18 25.5 4.95
12.03 9.84 -1.91
18.16 14.85 -2.05
5.13 4.16 -1.77
30.9 25.09 0.69
5.98 4.86 -1.78
7.14 5.8 -1.79
29.23 23.74 3.29
8.94 7.26 -1.82
12.08 9.81 -1.91
18.14 14.73 -2.04
5.14 4.15 -1.77
6 4.84 -1.78
7.16 5.77 -1.79
8.95 7.22 -1.82
12.09 9.75 -1.91
18.14 14.63 -2.04
5.15 4.13 -1.77
6 4.81 -1.78
7.17 5.74 -1.79
29.6 23.7 3.32
8.96 7.17 -1.82
12.1 9.69 -1.9
18.16 14.54 -2.04
36.88 29.53 -0.82
5.17 4.11 -1.77
6.02 4.78 -1.77
7.18 5.71 -1.78
29.68 23.59 3.32
8.98 7.14 -1.82
12.11 9.63 -1.9
18.18 14.45 -2.03
5.18 4.09 -1.77
6.04 4.76 -1.78
37.02 29.22 2.47
7.2 5.68 -1.78
9 7.1 -1.82
12.13 9.58 -1.9
30.71 24.23 6.2
18.2 14.36 -2.03
5.19 4.06 -1.77
6.06 4.75 -1.78
7.21 5.65 -1.78
9.02 7.07 -1.81
12.16 9.53 -1.9
18.2 14.26 -2.02
5.2 4.05 -1.77
6.07 4.72 -1.78
7.23 5.62 -1.78
9.02 7.02 -1.81
12.18 9.47 -1.89
18.21 14.16 -2.02
5.21 4.02 -1.76
6.07 4.69 -1.77
7.25 5.6 -1.78
9.04 6.98 -1.81
30.27 23.38 4.7
12.19 9.42 -1.89
31.23 24.12 6.25
18.27 14.11 -2.02
29.7 22.94 -1.97
5.23 4.01 -1.77
38.08 29.21 0.84
6.09 4.67 -1.77
7.26 5.57 -1.78
9.05 6.94 -1.81
12.21 9.36 -1.89
18.26 14.01 -2.01
5.24 3.99 -1.76
6.1 4.65 -1.77
7.26 5.53 -1.77
9.07 6.91 -1.81
30.59 23.29 4.72
12.22 9.3 -1.89
18.26 13.9 -2.01
5.25 3.96 -1.76
6.13 4.63 -1.77
7.27 5.49 -1.77
9.09 6.87 -1.8
12.23 9.25 -1.88
18.28 13.81 -2
5.26 3.94 -1.76
6.14 4.6 -1.77
7.3 5.47 -1.77
9.07 6.81 -1.8
31.55 23.66 4.84
12.25 9.19 -1.88
18.29 13.72 -2
5.27 3.93 -1.76
6.15 4.58 -1.77
7.32 5.45 -1.77
9.09 6.77 -1.8
12.26 9.13 -1.88
18.3 13.63 -2
5.29 3.91 -1.76
6.16 4.56 -1.77
7.33 5.42 -1.77
32.49 24.02 3.53
9.1 6.73 -1.79
12.26 9.07 -1.87
18.33 13.55 -1.99
5.3 3.89 -1.76
6.17 4.53 -1.77
7.34 5.39 -1.77
9.12 6.7 -1.79
12.29 9.02 -1.87
18.35 13.48 -1.99
31.29 22.99 -2.03
37.01 27.19 10.6
5.3 3.87 -1.76
6.19 4.52 -1.77
7.35 5.36 -1.77
32.32 23.56 3.5
9.13 6.66 -1.79
12.29 8.96 -1.87
18.35 13.38 -1.99
5.31 3.84 -1.76
6.21 4.49 -1.77
7.37 5.33 -1.77
9.13 6.6 -1.78
12.32 8.91 -1.87
18.37 13.29 -1.98
5.32 3.82 -1.76
6.21 4.46 -1.77
7.38 5.3 -1.77
9.14 6.56 -1.78
12.33 8.85 -1.86
18.42 13.22 -1.98
5.33 3.8 -1.76
6.22 4.44 -1.76
7.4 5.28 -1.77
38.21 27.25 4.11
9.15 6.53 -1.78
12.32 8.79 -1.86
18.42 13.14 -1.98
31.85 22.72 -2.05
5.35 3.79 -1.76
6.23 4.41 -1.76
7.41 5.24 -1.76
9.17 6.49 -1.78
12.33 8.73 -1.86
41.71 29.53 8.09
18.41 13.04 -1.97
31.85 22.55 -2.05
5.35 3.76 -1.75
6.25 4.39 -1.76
7.41 5.21 -1.76
9.17 6.44 -1.78
12.34 8.67 -1.85
18.42 12.93 -1.97
