# .PCD v0.7 - Point Cloud Data file format
VERSION 0.7
FIELDS x y z
SIZE 4 4 4
TYPE F F F
COUNT 1 1 1
WIDTH 2634
HEIGHT 1
VIEWPOINT 0 0 0 1 0 0 0
POINTS 2634
DATA ascii
-4.89 -19.04 -2.41
-9.16 -35.62 5.82
-6.21 -24.15 -2.18
-9.27 -36.06 7.24
-6.57 -25.56 -1.38
-9.47 -36.85 8.78
-6.57 -25.54 -0.46
-10.9 -42.41 11.73
-11.37 -43.56 0.79
-6.64 -25.45 1.38
-1.57 -6.01 -1.21
-6.64 -25.45 2.3
-1.58 -6.06 -0.99
-9.39 -35.97 4.56
-4.97 -19.04 -2.42
-9.3 -35.62 5.83
-6.31 -24.17 -2.19
-9.39 -35.98 7.23
-6.68 -25.59 -1.39
-9.42 -36.08 8.61
-6.67 -25.54 -0.46
-11.08 -42.46 11.76
-11.53 -43.57 0.79
-6.74 -25.47 1.38
-1.7 -6.44 -1.29
-6.73 -25.44 2.3
-1.67 -6.32 -1.03
-9.48 -35.84 4.55
-5.04 -19.05 -2.42
-9.43 -35.63 5.84
-6.4 -24.17 -2.19
-9.52 -35.99 7.24
-6.78 -25.61 -1.39
-9.54 -36.06 8.61
-6.76 -25.54 -0.46
-11.26 -42.55 11.79
-11.68 -43.55 0.79
-6.83 -25.48 1.38
-1.7 -6.35 -1.28
-6.83 -25.46 2.31
-1.71 -6.38 -1.05
-9.58 -35.71 4.54
-5.11 -19.05 -2.42
-9.56 -35.64 5.85
-6.48 -24.17 -2.19
-6.86 -25.59 -1.39
-9.65 -36 8.6
-6.85 -25.56 -0.46
-11.44 -42.67 11.84
-11.85 -43.61 0.79
-6.92 -25.48 1.38
-1.66 -6.09 -1.23
-6.92 -25.47 2.31
-1.72 -6.35 -1.04
-9.7 -35.69 4.54
-5.17 -19.04 -2.42
-9.69 -35.67 5.85
-6.49 -23.89 -2.17
-9.88 -36.38 7.33
-10.62 -39.1 9.36
-6.95 -25.58 -0.46
-11.6 -42.68 11.85
-12.03 -43.64 0.79
-7.02 -25.48 1.38
-1.71 -6.21 -1.25
-7.02 -25.47 2.31
-1.74 -6.31 -1.04
-9.84 -35.71 4.55
-5.24 -19.01 -2.42
-9.83 -35.68 5.86
-6.56 -23.79 -2.16
-10.02 -36.36 7.33
-10.78 -39.13 9.37
-7.05 -25.58 -0.46
-11.79 -42.76 11.88
-12.19 -43.65 0.79
-7.12 -25.49 1.39
-1.69 -6.05 -1.22
-7.12 -25.5 2.32
-1.75 -6.27 -1.03
-9.98 -35.76 4.56
-5.31 -19.02 -2.42
-9.96 -35.68 5.87
-6.64 -23.79 -2.16
-10.16 -36.38 7.34
-7.14 -25.59 -0.46
-11.95 -42.79 11.9
-12.34 -43.58 0.79
-7.22 -25.51 1.39
-1.71 -6.06 -1.22
-7.22 -25.49 2.32
-1.77 -6.24 -1.03
-10.14 -35.81 4.57
-5.38 -19.01 -2.43
-10.11 -35.7 5.88
-6.85 -24.19 -2.2
-10.32 -36.44 7.36
-7.25 -25.6 -0.46
-12.12 -42.81 11.92
-12.51 -43.62 0.79
-7.32 -25.53 1.39
-1.78 -6.2 -1.25
-7.31 -25.5 2.32
-1.83 -6.39 -1.05
-10.28 -35.85 4.58
-5.45 -19.02 -2.43
-10.24 -35.72 5.89
-6.94 -24.19 -2.2
-10.46 -36.46 7.37
-7.34 -25.61 -0.47
-12.29 -42.87 11.95
-12.69 -43.67 0.79
-7.42 -25.52 1.39
-1.74 -5.99 -1.21
-7.42 -25.51 2.32
-1.85 -6.37 -1.05
-10.43 -35.89 4.59
-5.53 -19.01 -2.43
-10.39 -35.73 5.89
-7.02 -24.16 -2.2
-10.62 -36.52 7.39
-7.45 -25.62 -0.47
-12.52 -43.07 12.02
-12.85 -43.66 0.79
-7.51 -25.53 1.39
-1.85 -6.27 -1.27
-7.51 -25.52 2.33
-1.9 -6.44 -1.06
-10.56 -35.87 4.59
-5.6 -19.01 -2.43
-10.52 -35.74 5.9
-7.11 -24.16 -2.2
-10.76 -36.57 7.41
-7.54 -25.63 -0.47
-12.7 -43.15 12.05
-13.03 -43.69 0.8
-7.62 -25.53 1.4
-1.78 -5.98 -1.21
-7.62 -25.54 2.33
-1.93 -6.47 -1.07
-10.7 -35.87 4.6
-3.51 -11.76 -1.51
-10.66 -35.74 5.91
-7.2 -24.14 -2.2
-10.92 -36.61 7.43
-7.64 -25.62 -0.47
-12.88 -43.19 12.08
-7.72 -25.56 1.4
-1.84 -6.09 -1.24
-7.71 -25.54 2.33
-1.96 -6.48 -1.07
-10.83 -35.89 4.6
-3.52 -11.65 -1.49
-10.8 -35.77 5.92
-7.28 -24.12 -2.2
-11.03 -36.55 7.42
-6.76 -22.39 -1.23
-7.74 -25.64 -0.47
-13.06 -43.25 12.11
-7.88 -25.77 0.47
-7.82 -25.58 1.4
-1.86 -6.07 -1.23
-7.82 -25.55 2.34
-1.99 -6.52 -1.08
-10.98 -35.9 4.61
-3.55 -11.59 -1.49
-10.95 -35.78 5.93
-7.85 -25.66 -0.47
-13.24 -43.28 12.13
-7.95 -25.67 0.47
-7.92 -25.57 1.4
-1.86 -6.01 -1.22
-7.91 -25.55 2.34
-1.98 -6.41 -1.06
-11.09 -35.83 4.61
-11.08 -35.79 5.93
-11.19 -36.16 8.74
-7.94 -25.66 -0.47
-13.4 -43.3 12.15
-8.03 -25.62 0.47
-8.01 -25.57 1.4
-1.87 -5.97 -1.22
-8.01 -25.57 2.34
-2.05 -6.54 -1.09
-11.23 -35.84 4.61
-11.22 -35.79 5.94
-6.77 -21.61 -1.98
-11.36 -36.25 7.38
-11.36 -36.24 8.77
-8.05 -25.68 -0.47
-13.57 -43.29 12.16
-8.13 -25.63 0.47
-8.11 -25.59 1.41
-1.89 -5.97 -1.22
-8.11 -25.58 2.35
-2.07 -6.54 -1.09
-11.37 -35.86 4.62
-11.35 -35.81 5.95
-6.79 -21.42 -1.97
-11.48 -36.2 7.38
-11.46 -36.15 8.75
-8.14 -25.68 -0.47
-13.75 -43.38 12.19
-8.23 -25.64 0.47
-8.22 -25.6 1.41
-1.93 -6.02 -1.23
-8.21 -25.58 2.35
-2.08 -6.49 -1.08
-11.55 -35.97 4.64
-11.51 -35.84 5.96
-6.83 -21.26 -1.95
-11.62 -36.19 7.39
-11.6 -36.12 8.76
-8.25 -25.69 -0.47
-13.91 -43.32 12.19
-8.33 -25.65 0.47
-8.32 -25.62 1.41
-2 -6.15 -1.26
-8.31 -25.6 2.35
-2.11 -6.49 -1.08
-11.7 -36.04 4.65
-11.64 -35.84 5.97
-6.84 -21.08 -1.94
-11.76 -36.2 7.4
-11.73 -36.14 8.77
-8.35 -25.7 -0.47
-8.43 -25.65 0.47
-8.42 -25.62 1.41
-2 -6.09 -1.25
-8.42 -25.6 2.36
-2.11 -6.42 -1.07
-11.82 -35.96 4.65
-11.79 -35.85 5.98
-11.91 -36.21 7.41
-11.88 -36.14 8.78
-8.46 -25.72 -0.47
-8.53 -25.66 0.47
-8.52 -25.62 1.42
-2.09 -6.29 -1.29
-8.52 -25.62 2.36
-2.13 -6.42 -1.07
-11.96 -35.97 4.65
-11.93 -35.87 5.99
-12.05 -36.24 7.42
-12.02 -36.15 8.79
-8.55 -25.73 -0.47
-8.64 -25.67 0.47
-8.62 -25.62 1.42
-2.15 -6.39 -1.31
-8.62 -25.62 2.37
-2.19 -6.51 -1.09
-12.11 -35.98 4.66
-12.07 -35.88 6
-12.2 -36.26 7.44
-12.17 -36.16 8.81
-8.66 -25.72 -0.47
-8.74 -25.69 0.47
-8.72 -25.64 1.42
-2.09 -6.13 -1.26
-8.72 -25.63 2.37
-2.23 -6.56 -1.1
-12.25 -36 4.67
-12.21 -35.88 6
-7.03 -20.65 -1.91
-12.34 -36.26 7.45
-7.11 -20.88 -1.16
-12.31 -36.19 8.82
-8.76 -25.74 -0.47
-8.84 -25.69 0.47
-8.83 -25.65 1.42
-2.11 -6.14 -1.26
-8.83 -25.65 2.37
-2.26 -6.56 -1.1
-12.42 -36.06 4.68
-12.36 -35.91 6.01
-7.09 -20.6 -1.91
-12.48 -36.26 7.45
-7.18 -20.86 -1.16
-12.46 -36.2 8.84
-8.87 -25.75 -0.48
-8.94 -25.69 0.47
-8.93 -25.67 1.42
-2.1 -6.04 -1.24
-8.93 -25.65 2.38
-2.28 -6.55 -1.1
-12.54 -36.02 4.68
-3.7 -10.63 -1.38
-12.5 -35.93 6.03
-7.16 -20.58 -1.91
-12.63 -36.28 7.47
-12.6 -36.21 8.85
-8.97 -25.77 -0.48
-9.04 -25.66 1.43
-2.14 -6.07 -1.25
-9.04 -25.66 2.38
-2.29 -6.52 -1.09
-12.67 -35.96 4.68
-12.65 -35.92 6.03
-7.25 -20.59 -1.91
-12.79 -36.31 7.48
-12.75 -36.21 8.86
-9.08 -25.77 -0.48
-15.2 -42.68 0.79
-9.14 -25.67 1.43
-2.23 -6.25 -1.29
-9.14 -25.67 2.38
-2.31 -6.48 -1.09
-12.79 -35.93 4.68
-12.79 -35.92 6.04
-7.34 -20.62 -1.91
-12.93 -36.31 7.49
-12.9 -36.22 8.88
-9.17 -25.77 -0.48
-15.38 -42.71 0.79
-9.25 -25.69 1.43
-2.23 -6.2 -1.28
-9.24 -25.67 2.39
-2.32 -6.45 -1.09
-12.97 -36.01 4.7
-12.95 -35.96 6.05
-7.4 -20.55 -1.91
-13.08 -36.32 7.5
-13.05 -36.25 8.89
-9.28 -25.78 -0.48
-15.54 -42.7 0.79
-9.35 -25.7 1.43
-2.26 -6.22 -1.29
-9.35 -25.68 2.39
-2.34 -6.42 -1.08
-13.13 -36.07 4.71
-3.76 -10.34 -1.35
-13.09 -35.97 6.06
-7.5 -20.59 -1.92
-13.23 -36.34 7.52
-13.2 -36.27 8.91
-9.39 -25.81 -0.48
-15.72 -42.74 0.79
-9.45 -25.71 1.44
-2.26 -6.14 -1.27
-9.45 -25.7 2.4
-2.36 -6.42 -1.08
-13.27 -36.09 4.72
-3.76 -10.22 -1.34
-13.23 -35.98 6.07
-7.58 -20.6 -1.92
-13.37 -36.35 7.53
-13.36 -36.33 8.94
-9.49 -25.81 -0.48
-15.89 -42.74 0.8
-9.56 -25.71 1.44
-2.3 -6.19 -1.28
-9.56 -25.71 2.4
-2.39 -6.42 -1.09
-13.42 -36.12 4.73
-3.78 -10.16 -1.33
-13.38 -36.01 6.08
-7.67 -20.64 -1.93
-13.52 -36.38 7.54
-13.51 -36.34 8.95
-9.6 -25.82 -0.48
-16.06 -42.75 0.8
-9.67 -25.73 1.44
-2.35 -6.26 -1.3
-9.66 -25.73 2.4
-2.45 -6.51 -1.1
-13.6 -36.2 4.75
-3.81 -10.14 -1.33
-13.53 -36 6.09
-7.74 -20.61 -1.93
-13.67 -36.38 7.55
-13.67 -36.38 8.97
-9.7 -25.82 -0.48
-16.23 -42.76 0.8
-9.77 -25.74 1.44
-2.35 -6.18 -1.28
-9.77 -25.73 2.41
-2.47 -6.5 -1.1
-13.78 -36.29 4.77
-3.84 -10.12 -1.33
-13.67 -36.02 6.1
-7.81 -20.58 -1.93
-13.82 -36.39 7.57
-13.8 -36.36 8.98
-9.81 -25.83 -0.48
-16.41 -42.78 0.8
-9.88 -25.75 1.45
-2.45 -6.39 -1.33
-9.87 -25.73 2.41
-2.46 -6.42 -1.09
-13.89 -36.2 4.76
-3.88 -10.1 -1.33
-13.82 -36.03 6.11
-13.97 -36.4 7.58
-13.98 -36.43 9.01
-9.92 -25.84 -0.48
-16.59 -42.8 0.8
-9.99 -25.76 1.45
-2.4 -6.2 -1.29
-9.98 -25.75 2.42
-2.51 -6.47 -1.1
-14.02 -36.17 4.76
-3.91 -10.09 -1.33
-13.98 -36.05 6.12
-14.12 -36.43 7.59
-14.14 -36.47 9.03
-10.02 -25.86 -0.48
-10.09 -25.76 1.45
-2.45 -6.25 -1.31
-10.09 -25.77 2.42
-2.51 -6.4 -1.09
-14.14 -36.1 4.76
-3.95 -10.07 -1.33
-14.12 -36.06 6.13
-14.27 -36.43 7.61
-14.3 -36.51 9.05
-10.13 -25.87 -0.48
-10.2 -25.77 1.45
-2.47 -6.24 -1.3
-10.2 -25.77 2.42
-2.53 -6.4 -1.09
-14.29 -36.12 4.77
-3.98 -10.06 -1.33
-14.27 -36.07 6.14
-14.43 -36.45 7.62
-14.43 -36.46 9.05
-10.24 -25.87 -0.49
-10.4 -26 0.49
-10.31 -25.79 1.46
-2.48 -6.2 -1.3
-10.3 -25.77 2.43
-2.56 -6.39 -1.09
-14.45 -36.14 4.78
-4.03 -10.07 -1.33
-14.43 -36.09 6.16
-14.58 -36.47 7.63
-14.58 -36.46 9.07
-10.35 -25.89 -0.49
-10.45 -25.89 0.49
-10.42 -25.8 1.46
-2.53 -6.26 -1.31
-10.41 -25.78 2.43
-2.62 -6.5 -1.11
-14.65 -36.28 4.8
-4.07 -10.08 -1.33
-14.58 -36.1 6.17
-14.72 -36.46 7.64
-10.47 -25.94 -1.47
-14.74 -36.5 9.09
-10.46 -25.9 -0.49
-10.54 -25.84 0.49
-10.53 -25.8 1.46
-2.55 -6.25 -1.31
-10.52 -25.79 2.44
-2.66 -6.51 -1.11
-14.8 -36.28 4.81
-4.12 -10.09 -1.34
-14.73 -36.12 6.18
-14.89 -36.5 7.66
-10.58 -25.94 -1.47
-14.9 -36.53 9.11
-10.57 -25.91 -0.49
-10.65 -25.86 0.49
-10.63 -25.8 1.46
-2.54 -6.17 -1.3
-10.63 -25.81 2.44
-2.66 -6.45 -1.11
-14.93 -36.24 4.81
-4.15 -10.08 -1.34
-14.89 -36.13 6.19
-9.9 -24.04 -2.27
-15.04 -36.51 7.68
-10.69 -25.96 -1.47
-10.68 -25.92 -0.49
-10.76 -25.87 0.49
-10.74 -25.82 1.47
-2.56 -6.17 -1.3
-10.74 -25.82 2.45
-2.7 -6.49 -1.11
-15.07 -36.25 4.82
-4.19 -10.07 -1.34
-15.03 -36.14 6.2
-9.98 -24.01 -2.27
-15.18 -36.51 7.69
-10.8 -25.96 -1.47
-10.78 -25.91 -0.49
-10.86 -25.87 0.49
-10.85 -25.83 1.47
-2.63 -6.27 -1.32
-10.84 -25.82 2.45
-2.73 -6.5 -1.12
-15.23 -36.27 4.83
-4.25 -10.13 -1.35
-15.19 -36.16 6.21
-10.08 -24.01 -2.28
-15.35 -36.54 7.7
-10.91 -25.97 -1.48
-10.89 -25.93 -0.49
-10.98 -25.88 0.49
-10.96 -25.84 1.47
-2.65 -6.25 -1.32
-10.96 -25.84 2.46
-2.75 -6.49 -1.12
-15.4 -36.32 4.84
-15.34 -36.17 6.22
-10.17 -23.98 -2.28
-15.51 -36.58 7.72
-11.02 -25.99 -1.48
-11 -25.94 -0.49
-11.09 -25.89 0.49
-11.07 -25.86 1.47
-2.69 -6.28 -1.33
-11.07 -25.85 2.46
-2.77 -6.48 -1.12
-15.54 -36.3 4.85
-15.49 -36.19 6.23
-10.27 -23.99 -2.28
-11.13 -25.99 -1.48
-11.12 -25.96 -0.49
-11.2 -25.9 0.49
-11.18 -25.86 1.48
-2.67 -6.18 -1.31
-11.18 -25.86 2.47
-2.81 -6.49 -1.12
-15.67 -36.24 4.85
-15.65 -36.19 6.25
-10.37 -23.98 -2.29
-16.47 -38.1 8.07
-11.24 -26 -1.48
-11.23 -25.97 -0.49
-11.31 -25.91 0.49
-11.29 -25.86 1.48
-2.7 -6.18 -1.31
-11.29 -25.87 2.47
-2.83 -6.49 -1.12
-15.83 -36.26 4.86
-4.43 -10.14 -1.36
-15.8 -36.19 6.25
-10.47 -24 -2.29
-16.65 -38.14 8.09
-11.35 -26 -1.49
-11.33 -25.96 -0.49
-11.43 -25.93 0.49
-11.41 -25.89 1.48
-2.73 -6.2 -1.32
-11.4 -25.87 2.47
-2.83 -6.43 -1.11
-15.99 -36.29 4.87
-4.47 -10.15 -1.36
-15.96 -36.23 6.27
-10.56 -23.96 -2.29
-16.82 -38.16 8.11
-11.46 -26.02 -1.49
-17.03 -38.65 9.75
-11.45 -25.99 -0.5
-11.53 -25.93 0.5
-11.52 -25.9 1.49
-2.77 -6.23 -1.32
-11.52 -25.89 2.48
-2.85 -6.4 -1.11
-16.17 -36.35 4.88
-4.5 -10.11 -1.36
-16.12 -36.24 6.28
-10.67 -23.98 -2.3
-16.95 -38.12 8.11
-11.58 -26.04 -1.49
-17.07 -38.38 9.7
-11.56 -25.99 -0.5
-11.64 -25.93 0.5
-11.63 -25.91 1.49
-2.8 -6.25 -1.33
-11.63 -25.9 2.48
-2.88 -6.42 -1.12
-16.33 -36.37 4.9
-4.55 -10.12 -1.36
-16.27 -36.25 6.29
-10.76 -23.96 -2.3
-11.69 -26.04 -1.5
-11.68 -26.01 -0.5
-11.76 -25.95 0.5
-11.74 -25.9 1.49
-2.83 -6.26 -1.33
-11.74 -25.91 2.49
-2.92 -6.44 -1.12
-16.51 -36.42 4.91
-4.6 -10.16 -1.37
-16.42 -36.23 6.3
-10.84 -23.93 -2.3
-11.8 -26.04 -1.5
-11.79 -26.02 -0.5
-11.88 -25.98 0.5
-11.86 -25.92 1.49
-2.85 -6.24 -1.33
-11.86 -25.92 2.49
-2.95 -6.44 -1.12
-16.73 -36.58 4.94
-4.65 -10.16 -1.37
-16.49 -36.05 6.28
-10.94 -23.91 -2.3
-11.92 -26.06 -1.5
-19.15 -41.86 10.63
-11.9 -26.02 -0.5
-12 -25.98 0.5
-11.98 -25.94 1.5
-2.88 -6.23 -1.33
-11.97 -25.92 2.5
-2.97 -6.43 -1.12
-16.82 -36.42 4.93
-4.71 -10.19 -1.38
-16.75 -36.29 6.33
-11.02 -23.88 -2.3
-12.04 -26.08 -1.51
-19.34 -41.9 10.65
-12.02 -26.03 -0.5
-12.1 -25.98 0.5
-12.09 -25.95 1.5
-2.9 -6.22 -1.33
-12.08 -25.93 2.5
-3 -6.43 -1.12
-16.98 -36.44 4.94
-4.77 -10.23 -1.39
-16.92 -36.31 6.34
-11.11 -23.84 -2.3
-12.15 -26.08 -1.51
-19.54 -41.95 10.68
-12.13 -26.05 -0.5
-12.22 -25.99 0.5
-12.21 -25.96 1.5
-2.95 -6.28 -1.35
-12.2 -25.95 2.51
-3.01 -6.41 -1.12
-17.1 -36.38 4.94
-4.83 -10.27 -1.39
-17.08 -36.33 6.36
-11.21 -23.84 -2.3
-12.26 -26.08 -1.51
-12.25 -26.07 -0.5
-12.34 -26.01 0.5
-12.32 -25.97 1.51
-2.96 -6.24 -1.34
-12.32 -25.96 2.51
-3.04 -6.4 -1.12
-17.26 -36.38 4.94
-4.85 -10.23 -1.39
-11.32 -23.85 -2.31
-17.44 -36.75 7.91
-12.38 -26.09 -1.51
-19.97 -42.09 10.76
-12.37 -26.07 -0.5
-12.45 -26.02 0.5
-12.43 -25.97 1.51
-2.98 -6.22 -1.34
-12.43 -25.97 2.52
-3.07 -6.4 -1.12
-17.43 -36.4 4.96
-4.88 -10.2 -1.39
-11.41 -23.84 -2.31
-20.16 -42.11 10.78
-12.48 -26.07 -0.5
-12.57 -26.04 0.5
-12.54 -25.99 1.51
-2.97 -6.16 -1.33
-12.53 -25.97 2.52
-3.1 -6.42 -1.13
-17.66 -36.59 4.99
-4.91 -10.17 -1.39
-11.5 -23.82 -2.31
-17.73 -36.75 7.93
-11.68 -24.2 -1.41
-20.4 -42.28 10.84
-12.59 -26.09 -0.51
-12.68 -26.04 0.51
-12.67 -26.01 1.52
-3 -6.17 -1.33
-12.65 -25.99 2.53
-3.1 -6.38 -1.12
-17.83 -36.62 5
-4.95 -10.17 -1.39
-17.5 -35.94 6.33
-11.59 -23.8 -2.32
-17.89 -36.75 7.94
-11.69 -24.01 -1.4
-20.62 -42.34 10.87
-12.71 -26.11 -0.51
-12.8 -26.05 0.51
-12.78 -26.02 1.52
-3.01 -6.14 -1.33
-12.77 -26 2.53
-3.15 -6.42 -1.13
-17.98 -36.6 5.01
-9.15 -18.63 -2.55
-17.66 -35.94 6.34
-11.68 -23.78 -2.32
-18.1 -36.85 7.98
-11.72 -23.86 -1.39
-20.83 -42.41 10.91
-12.83 -26.12 -0.51
-12.91 -26.06 0.51
-12.89 -26.02 1.52
-12.89 -26.02 2.54
-3.18 -6.41 -1.13
-18.13 -36.59 5.01
-9.22 -18.6 -2.55
-17.84 -36.01 6.37
-11.78 -23.78 -2.32
-18.28 -36.89 8
-11.74 -23.69 -1.39
-21.02 -42.43 10.93
-12.95 -26.14 -0.51
-13.04 -26.08 0.51
-13.02 -26.03 1.53
-13.02 -26.03 2.55
-3.2 -6.4 -1.13
-18.32 -36.63 5.03
-9.29 -18.57 -2.55
-18.04 -36.08 6.39
-11.88 -23.76 -2.32
-18.42 -36.83 8.01
-11.76 -23.52 -1.38
-21.25 -42.49 10.97
-13.07 -26.13 -0.51
-13.16 -26.09 0.51
-13.14 -26.05 1.53
-13.13 -26.03 2.55
-3.22 -6.39 -1.13
-18.5 -36.66 5.04
-9.37 -18.57 -2.55
-18.22 -36.11 6.41
-11.98 -23.75 -2.33
-18.59 -36.86 8.02
-11.79 -23.37 -1.37
-21.52 -42.67 11.03
-13.19 -26.15 -0.51
-13.27 -26.08 0.51
-13.26 -26.06 1.53
-13.25 -26.04 2.56
-3.24 -6.37 -1.13
-18.59 -36.53 5.03
-9.43 -18.54 -2.55
-18.38 -36.12 6.42
-12.07 -23.73 -2.33
-18.79 -36.92 8.05
-11.81 -23.2 -1.36
-21.76 -42.77 11.08
-13.31 -26.16 -0.51
-13.4 -26.1 0.51
-13.38 -26.07 1.54
-3.14 -6.11 -1.34
-13.37 -26.05 2.56
-3.25 -6.33 -1.13
-18.74 -36.5 5.04
-9.51 -18.52 -2.56
-18.54 -36.13 6.43
-12.18 -23.73 -2.33
-18.93 -36.87 8.06
-11.82 -23.02 -1.36
-21.96 -42.79 11.1
-13.43 -26.18 -0.51
-13.52 -26.12 0.51
-13.5 -26.08 1.54
-3.15 -6.09 -1.33
-13.5 -26.07 2.57
-3.28 -6.33 -1.13
-18.9 -36.52 5.05
-9.58 -18.5 -2.56
-18.72 -36.15 6.45
-12.27 -23.7 -2.34
-19.08 -36.86 8.07
-11.84 -22.88 -1.35
-22.18 -42.84 11.14
-13.56 -26.19 -0.51
-13.64 -26.13 0.51
-13.63 -26.1 1.54
-3.16 -6.06 -1.33
-13.62 -26.08 2.57
-3.4 -6.51 -1.16
-19.1 -36.59 5.07
-9.66 -18.51 -2.56
-18.87 -36.14 6.46
-12.36 -23.67 -2.34
-19.32 -37 8.11
-11.86 -22.72 -1.34
-22.46 -43.01 11.2
-13.67 -26.19 -0.52
-13.77 -26.14 0.52
-13.74 -26.1 1.55
-3.19 -6.05 -1.33
-13.73 -26.08 2.58
-3.48 -6.62 -1.18
-19.26 -36.58 5.08
-9.73 -18.48 -2.56
-19.06 -36.19 6.48
-12.45 -23.64 -2.34
-19.43 -36.91 8.11
-11.89 -22.59 -1.34
-22.7 -43.11 11.25
-13.8 -26.21 -0.52
-13.89 -26.15 0.52
-13.87 -26.12 1.55
-3.24 -6.1 -1.34
-13.86 -26.1 2.59
-3.46 -6.51 -1.17
-19.43 -36.59 5.09
-9.8 -18.46 -2.57
-19.25 -36.25 6.5
-12.55 -23.64 -2.34
-19.59 -36.9 8.12
-11.91 -22.44 -1.33
-22.92 -43.16 11.28
-13.92 -26.22 -0.52
-14 -26.16 0.52
-13.99 -26.13 1.55
-3.26 -6.09 -1.34
-13.98 -26.11 2.59
-3.42 -6.39 -1.15
-19.59 -36.6 5.1
-9.88 -18.46 -2.57
-19.43 -36.3 6.52
-12.64 -23.62 -2.34
-19.8 -36.98 8.15
-11.93 -22.28 -1.32
-23.14 -43.24 11.32
-14.04 -26.24 -0.52
-14.11 -26.13 1.56
-3.28 -6.08 -1.34
-14.1 -26.13 2.6
-3.47 -6.43 -1.16
-19.77 -36.62 5.11
-9.94 -18.42 -2.57
-19.64 -36.38 6.55
-12.75 -23.62 -2.35
-19.97 -36.99 8.17
-11.96 -22.15 -1.32
-23.36 -43.27 11.35
-14.17 -26.25 -0.52
-14.23 -26.15 1.56
-14.22 -26.14 2.6
-3.49 -6.41 -1.16
-19.94 -36.64 5.12
-10.01 -18.39 -2.57
-19.83 -36.45 6.57
-11.92 -21.9 -2.18
-20.1 -36.94 8.17
-11.97 -22.01 -1.31
-23.62 -43.4 11.41
-14.28 -26.25 -0.52
-14.35 -26.16 1.56
-14.34 -26.15 2.61
-3.5 -6.38 -1.15
-20.1 -36.64 5.13
-10.09 -18.39 -2.58
-20.04 -36.53 6.6
-11.94 -21.77 -2.17
-20.31 -37.02 8.21
-12 -21.88 -1.31
-23.88 -43.52 11.46
-14.41 -26.27 -0.52
-14.49 -26.17 1.57
-14.47 -26.14 2.61
-3.52 -6.35 -1.15
-20.29 -36.65 5.14
-10.17 -18.37 -2.58
-20.24 -36.56 6.62
-11.95 -21.59 -2.16
-20.51 -37.04 8.23
-12.03 -21.74 -1.3
-24.13 -43.59 11.5
-14.55 -26.27 -0.52
-14.61 -26.18 1.57
-14.6 -26.15 2.62
-3.53 -6.32 -1.15
-20.46 -36.66 5.16
-10.24 -18.35 -2.58
-20.43 -36.6 6.64
-11.99 -21.48 -2.15
-20.65 -37 8.24
-12.06 -21.6 -1.3
-24.36 -43.64 11.54
-14.68 -26.3 -0.53
-2.82 -5.01 -1.54
-14.74 -26.2 1.58
-14.72 -26.16 2.63
-3.56 -6.32 -1.15
-20.64 -36.68 5.17
-10.31 -18.31 -2.58
-20.63 -36.67 6.66
-12.01 -21.35 -2.14
-20.83 -37.02 8.26
-12.09 -21.49 -1.29
-24.61 -43.73 11.58
-14.8 -26.3 -0.53
-14.87 -26.2 1.58
-14.86 -26.18 2.63
-3.63 -6.39 -1.16
-20.82 -36.7 5.18
-10.38 -18.29 -2.58
-20.83 -36.71 6.68
-12.1 -21.33 -2.15
-21.08 -37.16 8.3
-12.13 -21.38 -1.29
-24.9 -43.88 11.65
-14.93 -26.31 -0.53
-2.86 -5 -1.54
-14.99 -26.21 1.58
-14.99 -26.2 2.64
-3.65 -6.39 -1.17
-21.01 -36.72 5.19
-10.46 -18.28 -2.59
-21.06 -36.81 6.72
-12.12 -21.19 -2.14
-21.19 -37.05 8.3
-12.18 -21.3 -1.29
-25.15 -43.96 11.69
-15.06 -26.32 -0.53
-15.12 -26.22 1.59
-15.09 -26.17 2.64
-3.64 -6.32 -1.15
-21.19 -36.74 5.21
-10.52 -18.25 -2.59
-21.27 -36.89 6.75
-12.18 -21.12 -2.13
-21.38 -37.07 8.32
-12.24 -21.22 -1.28
-25.38 -44.02 11.73
-15.18 -26.33 -0.53
-2.89 -4.98 -1.54
-15.25 -26.25 1.59
-15.25 -26.24 2.65
-3.73 -6.41 -1.17
-21.35 -36.74 5.22
-10.59 -18.23 -2.59
-21.46 -36.93 6.76
-12.26 -21.1 -2.13
-21.59 -37.16 8.35
-12.29 -21.15 -1.28
-25.6 -44.06 11.76
-15.31 -26.34 -0.53
-2.9 -4.96 -1.54
-15.46 -26.39 0.53
-15.37 -26.24 1.59
-15.38 -26.26 2.66
-3.78 -6.46 -1.19
-21.53 -36.75 5.23
-10.67 -18.21 -2.59
-21.69 -37.02 6.8
-12.37 -21.11 -1.28
-25.85 -44.13 11.81
-15.44 -26.36 -0.53
-2.93 -4.96 -1.54
-15.54 -26.31 0.53
-15.5 -26.26 1.6
-15.51 -26.26 2.67
-3.82 -6.47 -1.19
-21.71 -36.77 5.24
-10.72 -18.16 -2.59
-21.88 -37.05 6.82
-23.78 -40.28 9.09
-12.45 -21.09 -1.28
-15.57 -26.36 -0.53
-2.94 -4.94 -1.54
-15.66 -26.31 0.53
-15.64 -26.28 1.6
-15.65 -26.3 2.68
-3.86 -6.48 -1.19
-21.9 -36.8 5.26
-10.8 -18.15 -2.59
-22.09 -37.12 6.84
-24.06 -40.42 9.14
-12.56 -21.09 -1.29
-15.7 -26.38 -0.54
-2.96 -4.94 -1.54
-15.79 -26.33 0.54
-15.77 -26.29 1.61
-3.58 -5.97 -1.35
-15.81 -26.35 2.69
-3.88 -6.47 -1.2
-22.08 -36.8 5.27
-10.88 -18.14 -2.6
-22.31 -37.19 6.87
-24.3 -40.5 9.18
-12.68 -21.14 -1.29
-15.83 -26.39 -0.54
-2.98 -4.93 -1.54
-15.93 -26.34 0.54
-15.9 -26.3 1.61
-3.61 -5.97 -1.36
-15.95 -26.39 2.7
-3.97 -6.57 -1.22
-22.26 -36.82 5.28
-10.97 -18.14 -2.6
-22.51 -37.23 6.89
-15.97 -26.41 -0.54
-3 -4.93 -1.55
-16.05 -26.35 0.54
-16.03 -26.31 1.61
-3.64 -5.98 -1.36
-16.1 -26.43 2.71
-4.01 -6.57 -1.22
-22.44 -36.84 5.3
-11.02 -18.08 -2.6
-22.71 -37.27 6.91
-12.9 -21.18 -2.17
-16.1 -26.42 -0.54
-3.02 -4.92 -1.55
-16.19 -26.37 0.54
-16.16 -26.32 1.62
-3.67 -5.97 -1.36
-22.68 -36.93 3.79
-4.02 -6.55 -1.22
-22.62 -36.84 5.31
-11.11 -18.1 -2.61
-22.92 -37.32 6.94
-13.08 -21.31 -2.19
-12.95 -21.09 -1.3
-16.23 -26.43 -0.54
-3.03 -4.9 -1.54
-16.32 -26.38 0.54
-16.29 -26.34 1.62
-3.7 -5.97 -1.37
-22.84 -36.93 3.8
-4 -6.46 -1.2
-22.81 -36.87 5.32
-11.18 -18.08 -2.61
-23.14 -37.41 6.97
-13.23 -21.39 -2.2
-13.07 -21.13 -1.3
-16.36 -26.44 -0.54
-3.05 -4.89 -1.54
-16.45 -26.38 0.54
-16.43 -26.36 1.63
-3.73 -5.98 -1.37
-23.04 -36.96 3.81
-4.01 -6.44 -1.2
-23 -36.89 5.34
-11.25 -18.05 -2.61
-23.34 -37.44 6.99
-13.33 -21.37 -2.2
-25.61 -41.08 9.41
-13.18 -21.15 -1.31
-16.5 -26.46 -0.54
-3.07 -4.88 -1.55
-16.57 -26.37 1.63
-3.77 -6 -1.38
-23.23 -36.97 3.82
-4.05 -6.44 -1.2
-23.18 -36.89 5.35
-11.33 -18.04 -2.62
-23.56 -37.49 7.01
-13.44 -21.39 -2.21
-13.3 -21.17 -1.31
-16.63 -26.48 -0.55
-3.09 -4.88 -1.55
-16.69 -26.36 1.64
-3.79 -5.99 -1.38
-23.42 -36.99 3.83
-4.06 -6.42 -1.2
-23.37 -36.92 5.36
-11.4 -18 -2.62
-23.76 -37.53 7.03
-13.48 -21.29 -2.2
-25.94 -40.98 9.43
-13.43 -21.21 -1.32
-16.77 -26.48 -0.55
-3.11 -4.87 -1.55
-16.84 -26.38 1.64
-3.82 -5.98 -1.38
-4.09 -6.41 -1.2
-23.57 -36.93 5.38
-11.47 -17.98 -2.62
-23.97 -37.56 7.06
-14.87 -23.3 -2.42
-26.17 -41 9.45
-16.93 -26.53 -1.65
-16.91 -26.49 -0.55
-3.12 -4.85 -1.55
-16.98 -26.4 1.64
-3.85 -5.99 -1.38
-4.11 -6.39 -1.2
-23.77 -36.95 5.39
-11.55 -17.95 -2.62
-24.2 -37.62 7.08
-14.96 -23.26 -2.42
-17.07 -26.54 -1.65
-17.05 -26.51 -0.55
-3.14 -4.85 -1.55
-17.11 -26.41 1.65
-4.14 -6.39 -1.21
-23.96 -36.97 5.41
-11.61 -17.91 -2.62
-24.44 -37.72 7.12
-15.07 -23.26 -2.43
-17.2 -26.55 -1.66
-17.19 -26.53 -0.55
-3.16 -4.84 -1.55
-17.25 -26.43 1.65
-4.17 -6.39 -1.21
-24.14 -36.97 5.42
-11.68 -17.89 -2.62
-24.66 -37.78 7.15
-15.19 -23.26 -2.43
-17.34 -26.56 -1.66
-17.33 -26.54 -0.55
-3.18 -4.83 -1.55
-17.39 -26.43 1.66
-4.2 -6.38 -1.21
-24.34 -37 5.44
-11.74 -17.84 -2.62
-24.91 -37.86 7.18
-15.28 -23.23 -2.43
-17.48 -26.58 -1.67
-17.46 -26.55 -0.55
-3.2 -4.83 -1.55
-17.53 -26.45 1.66
-4.26 -6.43 -1.22
-24.54 -37.02 5.45
-11.81 -17.82 -2.62
-25.12 -37.89 7.2
-15.37 -23.19 -2.43
-17.6 -26.55 -0.56
-3.21 -4.81 -1.55
-17.83 -26.7 0.56
-17.67 -26.46 1.67
-4.29 -6.43 -1.22
-24.73 -37.04 5.47
-11.88 -17.79 -2.63
-25.32 -37.93 7.22
-15.47 -23.17 -2.44
-17.74 -26.57 -0.56
-3.23 -4.8 -1.55
-17.93 -26.65 0.56
-17.81 -26.48 1.67
-4.27 -6.35 -1.21
-24.94 -37.07 5.49
-11.95 -17.76 -2.63
-25.55 -37.98 7.25
-15.57 -23.15 -2.44
-17.89 -26.59 -0.56
-3.25 -4.79 -1.55
-17.99 -26.54 0.56
-17.96 -26.5 1.68
-4.29 -6.33 -1.21
-25.12 -37.07 5.5
-12.01 -17.72 -2.63
-25.77 -38.02 7.28
-15.68 -23.13 -2.44
-18.03 -26.61 -0.56
-3.26 -4.78 -1.55
-18.13 -26.54 0.56
-18.1 -26.5 1.68
-23.6 -34.55 3.66
-4.32 -6.32 -1.21
-25.33 -37.09 5.52
-12.1 -17.72 -2.63
-26.03 -38.12 7.31
-15.78 -23.1 -2.45
-18.18 -26.62 -0.56
-3.28 -4.76 -1.55
-18.28 -26.56 0.56
-18.25 -26.51 1.69
-4.34 -6.31 -1.21
-25.55 -37.12 5.53
-12.16 -17.66 -2.63
-26.28 -38.18 7.34
-15.88 -23.07 -2.45
-18.33 -26.62 -0.56
-3.3 -4.75 -1.55
-18.42 -26.57 0.56
-18.4 -26.53 1.69
-4.36 -6.29 -1.21
-25.73 -37.11 5.54
-12.24 -17.65 -2.64
-26.53 -38.25 7.37
-16 -23.07 -2.46
-16.72 -24.11 -1.54
-18.47 -26.64 -0.57
-3.31 -4.74 -1.55
-18.56 -26.58 0.57
-18.54 -26.55 1.7
-4.38 -6.27 -1.21
-25.95 -37.15 5.56
-12.32 -17.64 -2.64
-35.13 -50.31 9.72
-16.08 -23.02 -2.46
-18.62 -26.66 -0.57
-3.34 -4.74 -1.55
-18.71 -26.6 0.57
-18.69 -26.56 1.7
-4.43 -6.3 -1.22
-26.15 -37.16 5.58
-12.4 -17.62 -2.65
-16.19 -23.01 -2.46
-18.77 -26.67 -0.57
-3.36 -4.74 -1.56
-18.86 -26.61 0.57
-18.83 -26.56 1.71
-4.47 -6.3 -1.22
-26.35 -37.17 5.59
-12.45 -17.57 -2.64
-35 -49.37 9.58
-16.29 -22.99 -2.47
-18.92 -26.69 -0.57
-3.37 -4.72 -1.55
-19.02 -26.63 0.57
-18.98 -26.58 1.71
-4.53 -6.35 -1.24
-34.9 -48.87 7.37
-12.53 -17.55 -2.65
-16.4 -22.97 -2.47
-19.06 -26.7 -0.57
-3.39 -4.71 -1.55
-19.16 -26.64 0.57
-19.13 -26.6 1.72
-4.61 -6.4 -1.25
-34.3 -47.69 7.21
-12.63 -17.55 -2.65
-16.49 -22.92 -2.47
-19.21 -26.71 -0.57
-19.31 -26.64 0.57
-19.28 -26.61 1.72
-4.66 -6.43 -1.26
-5.91 -8.16 1.24
-12.69 -17.52 -2.66
-16.59 -22.9 -2.47
-19.36 -26.72 -0.58
-5.3 -7.32 2.42
-19.46 -26.66 0.58
-19.43 -26.63 1.73
-4.74 -6.5 -1.27
-5.9 -8.08 1.23
-12.76 -17.48 -2.66
-9.69 -13.28 2.6
-16.69 -22.87 -2.48
-19.52 -26.74 -0.58
-5.26 -7.21 2.39
-19.61 -26.68 0.58
-19.58 -26.63 1.73
-4.75 -6.47 -1.27
-5.94 -8.08 1.23
-12.82 -17.44 -2.66
-34.97 -47.57 9.35
-16.81 -22.87 -2.48
-19.67 -26.76 -0.58
-19.77 -26.7 0.58
-19.73 -26.65 1.74
-6.27 -8.46 0.92
-4.86 -6.56 -1.29
-6.76 -9.14 1.4
-12.9 -17.43 -2.66
-9.65 -13.03 2.57
-16.89 -22.81 -2.48
-5.69 -7.69 1.86
-19.81 -26.77 -0.58
-19.92 -26.71 0.58
-19.88 -26.67 1.74
-4.87 -6.54 -1.29
-6.81 -9.13 1.4
-5.19 -6.97 -1.07
-35.53 -47.65 9.41
-17 -22.8 -2.49
-5.7 -7.65 1.85
-19.96 -26.77 -0.58
-5.39 -7.22 2.41
-3.53 -4.7 -1.57
-20.07 -26.71 0.58
-20.05 -26.68 1.75
-4.87 -6.48 -1.28
-33.75 -44.92 6.9
-5.21 -6.94 -1.07
-35.74 -47.57 9.42
-16.81 -22.37 -2.45
-5.74 -7.64 1.86
-20.13 -26.8 -0.59
-5.4 -7.19 2.41
-3.53 -4.66 -1.57
-20.23 -26.73 0.59
-20.2 -26.69 1.75
-4.8 -6.34 -1.26
-9.86 -13.03 2.01
-5.24 -6.92 -1.07
-35.99 -47.55 9.45
-16.89 -22.31 -2.45
-5.75 -7.59 1.85
-20.29 -26.81 -0.59
-5.42 -7.17 2.41
-3.54 -4.64 -1.56
-20.39 -26.75 0.59
-20.35 -26.7 1.76
-4.89 -6.41 -1.28
-33.49 -43.93 6.78
-13.2 -17.31 -2.67
-36.29 -47.6 9.48
-5.76 -7.56 1.85
-20.45 -26.82 -0.59
-3.56 -4.63 -1.57
-20.55 -26.77 0.59
-20.51 -26.71 1.76
-6.36 -8.28 0.91
-4.95 -6.45 -1.29
-33.36 -43.45 6.73
-5.86 -7.63 -1.18
-36.53 -47.57 9.5
-17.04 -22.19 -1.47
-20.6 -26.83 -0.59
-5.47 -7.12 2.41
-3.57 -4.61 -1.56
-20.71 -26.78 0.59
-20.67 -26.74 1.77
-6.37 -8.24 0.91
-4.96 -6.41 -1.28
-9.87 -12.77 1.98
-5.88 -7.6 -1.18
-10.46 -13.53 2.71
-5.85 -7.57 -0.84
-6.82 -8.82 2.17
-5.88 -7.61 -0.5
-20.76 -26.86 -0.59
-3.58 -4.6 -1.56
-20.86 -26.78 0.59
-20.83 -26.75 1.78
-6.45 -8.28 0.92
-4.99 -6.4 -1.29
-9.88 -12.68 1.97
-5.89 -7.56 -1.18
-10.49 -13.47 2.7
-5.87 -7.53 -0.84
-5.79 -7.44 1.83
-5.88 -7.55 -0.5
-5.88 -7.55 -0.17
-3.61 -4.6 -1.57
-5.88 -7.5 0.17
-5.9 -7.51 0.5
-5.9 -7.53 0.84
-5.03 -6.41 -1.29
-9.98 -12.71 1.98
-5.91 -7.54 -1.18
-9.41 -11.99 2.41
-5.89 -7.5 -0.83
-6.91 -8.81 2.18
-5.91 -7.53 -0.5
-5.89 -7.5 -0.17
-3.62 -4.58 -1.57
-5.9 -7.47 0.17
-5.9 -7.46 0.5
-5.9 -7.46 0.83
-5.05 -6.39 -1.29
-5.91 -7.48 1.17
-5.94 -7.51 -1.18
-5.93 -7.5 1.51
-5.94 -7.52 -0.84
-5.87 -7.42 1.84
-5.92 -7.5 -0.5
-5.86 -7.41 2.18
-5.92 -7.49 -0.17
-3.64 -4.58 -1.57
-5.94 -7.47 0.17
-5.92 -7.45 0.5
-5.92 -7.45 0.83
-5.09 -6.4 -1.29
-5.93 -7.45 1.17
-5.92 -7.45 1.51
-5.92 -7.44 1.85
-5.96 -7.5 -0.5
-5.92 -7.44 2.19
-5.95 -7.48 -0.17
-5.75 -7.23 2.47
-3.65 -4.56 -1.56
-5.97 -7.45 0.5
-5.97 -7.45 0.84
-5.1 -6.36 -1.29
-5.97 -7.45 1.17
-13.72 -17.12 -2.69
-5.97 -7.45 1.51
-18.07 -22.55 -2.53
-5.96 -7.44 1.85
-5.4 -6.74 1.99
-21.57 -26.93 -0.6
-3.67 -4.55 -1.57
-21.7 -26.89 0.6
-21.65 -26.83 1.81
-6.59 -8.17 0.92
-5.09 -6.31 -1.28
-9.92 -12.29 1.94
-13.79 -17.1 -2.7
-18.18 -22.53 -2.53
-5.99 -7.42 1.85
-21.74 -26.94 -0.6
-5.56 -6.89 2.37
-3.7 -4.55 -1.57
-21.87 -26.91 0.61
-21.82 -26.84 1.81
-6.61 -8.13 0.92
-5.17 -6.36 -1.3
-10.13 -12.47 1.97
-13.85 -17.05 -2.7
-10.5 -12.92 2.64
-18.28 -22.5 -2.54
-6.05 -7.44 1.86
-7.4 -9.1 2.71
-21.92 -26.97 -0.61
-5.59 -6.88 2.37
-3.72 -4.54 -1.57
-22.04 -26.9 0.61
-21.99 -26.84 1.82
-5.11 -6.23 -1.28
-34.57 -42.21 6.7
-13.95 -17.03 -2.7
-36.14 -44.12 9.03
-18.38 -22.44 -2.54
-6.22 -7.59 1.91
-7.41 -9.04 2.7
-22.09 -26.98 -0.61
-3.74 -4.53 -1.57
-22.2 -26.91 0.61
-22.16 -26.86 1.82
-10.07 -12.21 1.38
-5.16 -6.26 -1.28
-6.76 -8.2 1.3
-14.02 -17 -2.71
-10.44 -12.66 2.6
-18.48 -22.4 -2.54
-22.25 -26.97 -0.61
-7.45 -9.03 3.14
-3.75 -4.52 -1.57
-22.37 -26.92 0.61
-22.33 -26.88 1.83
-5.27 -6.35 -1.31
-10.42 -12.55 2
-14.1 -16.97 -2.71
-10.28 -12.37 2.55
-18.6 -22.38 -2.55
-6.18 -7.43 1.88
-22.44 -27 -0.61
-5.65 -6.8 2.37
-3.77 -4.51 -1.58
-22.54 -26.94 0.61
-22.51 -26.9 1.84
-10.5 -12.55 1.43
-5.28 -6.31 -1.3
-35.17 -42.03 6.73
-14.19 -16.96 -2.72
-10.94 -13.07 2.7
-18.7 -22.35 -2.55
-6.99 -8.35 2.12
-22.63 -27.05 -1.85
-7.55 -9.02 2.72
-22.6 -27.02 -0.61
-3.8 -4.51 -1.58
-22.7 -26.94 0.61
-22.68 -26.92 1.84
-11.17 -13.26 1.52
-5.3 -6.29 -1.3
-35.37 -41.98 6.74
-6.43 -7.64 -1.23
-11.02 -13.08 2.71
-18.83 -22.35 -2.56
-22.79 -27.05 -1.85
-7.53 -8.94 2.7
-22.78 -27.04 -0.62
-5.73 -6.8 2.38
-3.82 -4.5 -1.58
-10.15 -11.96 0.27
-22.84 -26.92 1.85
-7.31 -8.62 0.99
-5.34 -6.29 -1.31
-6.88 -8.1 1.3
-6.45 -7.61 -1.22
-9.8 -11.55 2.4
-18.92 -22.3 -2.56
-7.5 -8.84 2.25
-21.9 -25.81 -1.77
-22.95 -27.06 -0.62
-5.68 -6.7 2.35
-3.84 -4.49 -1.58
-23.06 -26.99 0.62
-23.02 -26.94 1.86
-10.48 -12.27 1.41
-5.38 -6.3 -1.31
-6.89 -8.07 1.3
-14.39 -16.84 -2.72
-11.39 -13.33 2.78
-19.01 -22.25 -2.56
-7.36 -8.62 2.2
-23.11 -27.05 -0.62
-5.92 -6.93 2.44
-3.84 -4.47 -1.58
-23.24 -27.01 0.62
-23.2 -26.96 1.86
-10.56 -12.27 1.42
-5.48 -6.37 -1.33
-6.9 -8.02 1.3
-14.49 -16.84 -2.73
-10.36 -12.04 2.52
-19.11 -22.2 -2.56
-22.18 -25.78 -1.78
-5.93 -6.9 2.1
-23.3 -27.08 -0.62
-6.29 -7.31 2.58
-3.86 -4.46 -1.58
-23.41 -27.01 0.62
-23.38 -26.98 1.87
-6.41 -7.4 0.86
-5.49 -6.34 -1.33
-6.89 -7.95 1.29
-14.56 -16.8 -2.73
-10.07 -11.62 2.44
-19.23 -22.19 -2.57
-6 -6.92 2.11
-23.49 -27.1 -0.63
-6.31 -7.28 2.58
-3.87 -4.44 -1.58
-23.6 -27.04 0.63
-23.56 -26.99 1.88
-6.46 -7.4 0.86
-5.51 -6.32 -1.33
-6.91 -7.91 1.29
-14.63 -16.77 -2.73
-10.2 -11.68 2.46
-19.34 -22.16 -2.57
-7.29 -8.36 2.16
-21.93 -25.14 -1.75
-23.67 -27.12 -0.63
-3.89 -4.43 -1.58
-10.69 -12.17 0.28
-7.29 -8.29 0.58
-36.65 -41.72 4.86
-5.55 -6.32 -1.33
-10.54 -11.99 1.96
-6.29 -7.16 -1.17
-11.32 -12.88 2.72
-19.42 -22.11 -2.57
-7.57 -8.62 2.23
-21.97 -25.01 -1.74
-23.85 -27.15 -0.63
-3.92 -4.43 -1.59
-23.95 -27.07 0.63
-10.81 -12.22 0.85
-10.89 -12.31 1.44
-5.57 -6.29 -1.33
-6.9 -7.8 1.28
-6.39 -7.22 -1.18
-10.26 -11.6 2.45
-19.51 -22.05 -2.58
-6.2 -7.01 1.82
-22 -24.87 -1.74
-6.18 -6.98 2.15
-24.02 -27.15 -0.63
-5.94 -6.71 2.4
-3.94 -4.42 -1.59
-10.78 -12.1 0.28
-7.02 -7.88 0.55
-11.26 -12.63 1.48
-5.61 -6.3 -1.34
-6.66 -7.47 1.23
-6.7 -7.52 -1.24
-10.3 -11.56 2.45
-19.62 -22.02 -2.58
-6.23 -6.99 1.82
-22.02 -24.71 -1.73
-11.21 -12.57 3.89
-24.21 -27.16 -0.64
-5.9 -6.62 2.37
-3.95 -4.4 -1.59
-24.31 -27.09 0.64
-4.5 -5.01 -1.55
-10.99 -12.24 0.86
-11.12 -12.39 1.46
-5.71 -6.36 -1.35
-11.4 -12.7 2.1
-6.72 -7.49 -1.24
-10.5 -11.7 2.49
-19.72 -21.97 -2.58
-7.32 -8.15 2.13
-22.05 -24.56 -1.73
-6.22 -6.93 2.15
-24.4 -27.19 -0.64
-6.16 -6.86 2.47
-3.97 -4.39 -1.59
-24.5 -27.11 0.64
-4.52 -5 -1.56
-6.88 -7.61 0.54
-7.08 -7.83 0.92
-5.73 -6.34 -1.35
-5.86 -6.48 1.07
-6.74 -7.45 -1.23
-11.27 -12.46 2.66
-17.17 -18.99 -2.24
-22.06 -24.4 -1.72
-5.72 -6.33 1.97
-24.59 -27.21 -0.64
-3.99 -4.38 -1.59
-24.69 -27.13 0.64
-4.54 -4.99 -1.56
-11.1 -12.19 0.86
-6.4 -7.03 0.83
-5.75 -6.32 -1.35
-10.66 -11.71 1.94
-6.77 -7.43 -1.23
-5.78 -6.35 1.36
-17.02 -18.7 -2.21
-6.61 -7.26 1.91
-22.08 -24.25 -1.72
-6.66 -7.32 2.28
-24.78 -27.22 -0.64
-6.31 -6.94 2.51
-4.01 -4.38 -1.59
-24.88 -27.16 0.64
-4.56 -4.98 -1.56
-11.14 -12.16 0.86
-6.99 -7.63 0.91
-5.8 -6.33 -1.36
-10.88 -11.87 1.98
-6.84 -7.47 -1.24
-10.55 -11.52 2.47
-17.02 -18.58 -2.2
-6.64 -7.25 1.91
-22.09 -24.12 -1.71
-6.71 -7.32 2.29
-24.95 -27.24 -0.64
-6.33 -6.91 2.51
-4.02 -4.36 -1.59
-25.07 -27.17 0.65
-4.58 -4.96 -1.56
-11.42 -12.38 0.88
-7.67 -8.31 0.99
-5.8 -6.29 -1.36
-6.02 -6.53 1.09
-6.9 -7.48 -1.25
-6.54 -7.09 1.53
-6.5 -7.05 1.86
-22.12 -23.98 -1.71
-25.14 -27.26 -0.65
-5.98 -6.49 2.36
-4.04 -4.34 -1.59
-11.26 -12.12 0.29
-4.59 -4.94 -1.56
-25.23 -27.15 1.94
-6.94 -7.47 0.89
-5.84 -6.28 -1.36
-5.94 -6.39 1.07
-6.94 -7.47 -1.25
-6.1 -6.56 2.07
-25.34 -27.27 -0.65
-7.72 -8.31 3.04
-4.06 -4.34 -1.59
-11.31 -12.08 0.29
-4.61 -4.93 -1.56
-7.06 -7.54 0.54
-6.95 -7.43 0.89
-5.87 -6.27 -1.36
-5.99 -6.4 1.08
-6.96 -7.44 -1.25
-6.81 -7.28 1.58
-6.53 -6.98 1.86
-7.76 -8.3 2.62
-25.54 -27.29 -0.65
-4.1 -4.35 -1.6
-11.4 -12.1 0.29
-4.63 -4.91 -1.56
-7.39 -7.84 0.56
-7 -7.43 0.89
-5.87 -6.23 -1.36
-6 -6.36 1.07
-6.72 -7.13 -1.2
-7.03 -7.46 1.62
-25.74 -27.32 -0.66
-7.81 -8.29 3.05
-4.12 -4.34 -1.6
-11.5 -12.12 0.29
-4.66 -4.91 -1.56
-7.42 -7.82 0.56
-12.23 -12.89 1.55
-5.9 -6.22 -1.36
-6.13 -6.46 1.09
-6.7 -7.07 -1.2
-8.26 -8.71 2.77
-25.94 -27.34 -0.66
-7.86 -8.28 3.06
-4.13 -4.32 -1.6
-26.05 -27.27 0.66
-4.68 -4.9 -1.56
-25.99 -27.2 1.97
-12.26 -12.84 1.55
-5.93 -6.2 -1.36
-6.85 -7.17 1.22
-6.71 -7.02 -1.19
-12.03 -12.59 2.76
-6.93 -7.25 1.95
-7.83 -8.19 2.62
-26.13 -27.35 -0.66
-7.12 -7.46 2.76
-4.15 -4.31 -1.6
-26.24 -27.28 0.66
-4.71 -4.89 -1.57
-6.93 -7.2 0.52
-6.93 -7.21 0.87
-5.96 -6.2 -1.36
-6.86 -7.14 1.22
-6.73 -6.99 -1.19
-6.96 -7.24 1.59
-6.29 -6.54 1.76
-6.96 -7.24 2.32
-26.32 -27.36 -0.66
-6.96 -7.23 2.69
-4.17 -4.3 -1.61
-6.94 -7.17 0.17
-4.73 -4.88 -1.57
-6.92 -7.14 0.52
-6.92 -7.15 0.87
-5.99 -6.18 -1.36
-6.67 -6.89 -1.18
-6.98 -7.21 1.59
-6.95 -7.18 -0.87
-6.19 -6.39 1.73
-6.96 -7.19 -0.52
-6.96 -7.18 -0.17
-6.07 -6.26 2.34
-4.18 -4.28 -1.6
-6.94 -7.11 0.17
-4.75 -4.87 -1.57
-6.94 -7.11 0.52
-6.96 -7.14 0.87
-6.02 -6.18 -1.37
-6.97 -7.15 1.23
-6.56 -6.72 -1.15
-6.99 -7.17 1.59
-6.94 -7.12 -0.87
-6.28 -6.44 1.75
-6.98 -7.15 -0.52
-6.95 -7.13 -0.17
-6.11 -6.27 2.35
-4.2 -4.27 -1.61
-6.97 -7.1 0.17
-4.77 -4.85 -1.57
-6.97 -7.09 0.52
-7.02 -7.14 0.88
-6.05 -6.16 -1.37
-7.11 -7.24 1.25
-6.7 -6.82 -1.17
-7.08 -7.21 1.6
-6.96 -7.08 -0.87
-6.42 -6.53 1.78
-6.98 -7.11 -0.52
-7.07 -7.2 2.33
-6.96 -7.09 -0.17
-6.16 -6.27 2.36
-4.2 -4.25 -1.6
-7 -7.07 0.17
-4.79 -4.84 -1.57
-7.01 -7.09 0.52
-6.86 -6.93 0.85
-6.09 -6.16 -1.37
-7.14 -7.21 1.25
-6.75 -6.83 -1.18
-7.21 -7.29 1.62
-6.98 -7.06 -0.87
-6.42 -6.49 1.77
-7 -7.07 -0.52
-6.59 -6.66 2.16
-6.99 -7.07 -0.17
-6.19 -6.25 2.36
-4.22 -4.24 -1.6
-7.04 -7.07 0.17
-4.82 -4.84 -1.58
-7 -7.03 0.87
-6.12 -6.14 -1.37
-6.48 -6.51 1.13
-6.6 -6.63 -1.15
-7.94 -7.97 1.78
-7.02 -7.05 -0.87
-8.14 -8.17 2.24
-7.03 -7.06 -0.52
-6.64 -6.67 2.17
-7.04 -7.07 -0.17
-6.22 -6.24 2.36
-4.25 -4.24 -1.61
-11.23 -11.21 0.28
-4.82 -4.81 -1.57
-12.45 -12.42 0.92
-7.04 -7.03 0.87
-6.52 -6.5 1.13
-6.75 -6.73 -1.17
-7.07 -7.05 -0.87
-6.91 -6.89 1.9
-7.05 -7.03 -0.52
-7.08 -7.06 -0.17
-6.25 -6.23 2.36
-4.26 -4.22 -1.61
-27.67 -27.4 0.68
-4.85 -4.8 -1.57
-11.58 -11.47 0.85
-0.71 -0.7 -0.16
-6.53 -6.47 1.13
-6.28 -6.22 1.4
-6.11 -6.05 -0.75
-6.94 -6.87 1.9
-7.08 -7.01 2.3
-6.28 -6.22 2.37
-4.28 -4.21 -1.61
-27.88 -27.42 0.68
-4.88 -4.8 -1.58
-10.94 -10.76 0.8
-8.25 -8.12 1.01
-7.72 -7.59 1.33
-6.11 -6.01 -1.05
-6.29 -6.19 1.4
-6.11 -6.01 -0.75
-6.11 -6.01 -0.45
-27.96 -27.5 -0.68
-6.31 -6.21 2.37
-4.29 -4.19 -1.61
-6.15 -6 0.15
-4.9 -4.78 -1.58
-10.56 -10.32 1.29
-6.13 -5.98 -1.05
-6.31 -6.17 1.4
-6.12 -5.98 -0.75
-6.98 -6.82 1.9
-6.12 -5.98 -0.45
-7.25 -7.08 2.34
-6.15 -6 -0.15
-4.31 -4.18 -1.61
-6.15 -5.96 0.15
-4.91 -4.76 -1.58
-6.16 -5.97 0.45
-6.16 -5.98 0.75
-6.16 -5.98 1.05
-6.16 -5.98 -1.05
-8.2 -7.96 1.81
-6.15 -5.97 -0.75
-8.34 -8.09 2.26
-6.15 -5.97 -0.45
-6.19 -6.01 1.99
-6.17 -5.99 -0.15
-6.22 -6.04 2.32
-4.33 -4.17 -1.61
-6.18 -5.95 0.15
-4.93 -4.75 -1.58
-6.16 -5.93 0.45
-6.19 -5.96 0.75
-6.18 -5.95 1.05
-7.11 -6.84 -1.21
-6.2 -5.97 1.36
-6.18 -5.95 1.67
-6.18 -5.95 -0.45
-6.18 -5.95 1.98
-6.15 -5.93 2.29
-4.35 -4.16 -1.61
-28.76 -27.51 0.69
-4.95 -4.73 -1.58
-10.96 -10.48 0.79
-7.47 -7.14 0.9
-8.4 -8.04 1.43
-6.21 -5.94 1.36
-6.21 -5.94 1.67
-6.19 -5.92 1.98
-28.86 -27.6 -0.7
-6.19 -5.92 2.3
-4.36 -4.14 -1.61
-28.98 -27.52 0.7
-4.97 -4.72 -1.58
-12.6 -11.96 0.91
-7.59 -7.21 1.29
-12.33 -11.71 -2.09
-6.3 -5.98 1.38
-6.25 -5.93 1.68
-6.26 -5.94 1.99
-29.08 -27.61 -0.7
-6.22 -5.91 2.3
-4.37 -4.12 -1.61
-29.2 -27.54 0.7
-4.99 -4.71 -1.58
-29.15 -27.5 2.1
-42.66 -40.23 5.13
-0.73 -0.69 -0.16
-7.6 -7.17 1.28
-12.31 -11.61 -2.08
-8 -7.55 1.74
-6.22 -5.87 1.66
-6.2 -5.84 1.97
-29.31 -27.64 -0.7
-6.41 -6.05 2.36
-4.4 -4.12 -1.61
-29.42 -27.55 0.7
-5.02 -4.7 -1.59
-10.96 -10.27 0.79
-12.24 -11.46 1.47
-0.74 -0.69 -0.16
-11.92 -11.16 2
-7.99 -7.49 -1.34
-7.12 -6.67 1.55
-7.89 -7.39 2.1
-23.69 -22.18 -1.7
-6.18 -5.78 1.95
-29.53 -27.66 -0.71
-6.44 -6.03 2.37
-4.42 -4.11 -1.62
-29.65 -27.58 0.71
-5.03 -4.67 -1.58
-11.54 -10.73 0.83
-0.73 -0.68 -0.19
-11.39 -10.59 1.36
-0.75 -0.7 -0.16
-11.8 -10.97 1.98
-7.97 -7.41 -1.34
-7.64 -7.11 1.65
-6.32 -5.88 1.68
-29.79 -27.71 -2.13
-8.02 -7.45 2.53
-29.77 -27.68 -0.71
-6.47 -6.02 2.37
-4.44 -4.1 -1.62
-29.88 -27.61 0.71
-5.04 -4.66 -1.59
-11.51 -10.64 0.82
-0.73 -0.68 -0.19
-8.07 -7.45 0.96
-0.75 -0.69 -0.16
-11.79 -10.9 1.97
-7.81 -7.21 -1.3
-8.21 -7.59 2.17
-30.03 -27.75 -2.14
-6.23 -5.75 1.96
-29.98 -27.7 -0.71
-6.48 -5.99 2.37
-4.46 -4.09 -1.62
-30.11 -27.64 0.71
-5.07 -4.65 -1.59
-11.19 -10.27 0.8
-0.73 -0.67 -0.19
-7.17 -6.58 0.85
-0.75 -0.69 -0.16
-6.91 -6.34 1.15
-7.91 -7.26 -1.32
-7.16 -6.58 1.54
-8.27 -7.59 2.18
-30.25 -27.76 -2.15
-6.24 -5.73 1.96
-30.21 -27.73 -0.72
-6.48 -5.95 2.36
-4.46 -4.07 -1.62
-30.35 -27.65 0.72
-5.09 -4.64 -1.59
-30.29 -27.6 2.15
-0.74 -0.67 -0.19
-7.03 -6.41 0.83
-0.76 -0.69 -0.16
-7.38 -6.72 1.23
-7.92 -7.22 -1.32
-7.19 -6.55 1.54
-8.22 -7.49 2.16
-30.5 -27.79 -2.16
-30.45 -27.75 -0.72
-6.49 -5.92 2.35
-4.48 -4.06 -1.62
-30.58 -27.68 0.72
-5.11 -4.62 -1.59
-30.53 -27.63 2.16
-0.75 -0.68 -0.2
-7.1 -6.42 0.84
-0.75 -0.68 -0.16
-7.45 -6.75 1.23
-7.87 -7.12 -1.3
-12.04 -10.89 3.16
-30.74 -27.82 -2.17
-30.69 -27.77 -0.72
-6.49 -5.87 2.35
-4.51 -4.05 -1.62
-30.82 -27.69 0.72
-5.13 -4.61 -1.59
-30.77 -27.65 2.17
-0.76 -0.68 -0.2
-7.1 -6.38 0.83
-0.76 -0.68 -0.16
-7.43 -6.67 1.23
-7.88 -7.08 -1.3
-7.89 -7.09 1.68
-12.05 -10.83 3.15
-30.97 -27.83 -2.18
-30.93 -27.79 -0.73
-6.5 -5.84 2.34
-4.53 -4.04 -1.63
-31.06 -27.72 0.73
-5.14 -4.59 -1.59
-30.99 -27.66 2.18
-0.76 -0.68 -0.2
-7.19 -6.42 0.84
-0.77 -0.68 -0.16
-7.86 -7.01 -1.29
-7.74 -6.91 2.02
-31.21 -27.86 -2.19
-31.18 -27.82 -0.73
-6.49 -5.79 2.33
-4.54 -4.03 -1.63
-31.31 -27.75 0.73
-5.17 -4.58 -1.6
-31.24 -27.69 2.19
-0.76 -0.68 -0.2
-7.27 -6.44 0.85
-0.78 -0.69 -0.17
-7.47 -6.62 1.23
-7.86 -6.97 -1.29
-12.59 -11.16 -1.47
-6.8 -6.03 1.77
-31.46 -27.88 -2.2
-31.41 -27.84 -0.73
-6.49 -5.75 2.32
-4.56 -4.01 -1.63
-31.56 -27.78 0.73
-5.2 -4.58 -1.6
-31.49 -27.71 2.2
-5.95 -5.24 -1.54
-7.26 -6.39 0.85
-0.78 -0.69 -0.16
-7.5 -6.6 1.23
-7.87 -6.93 -1.29
-7.96 -7.01 1.68
-12.6 -11.09 -1.47
-6.8 -5.99 1.76
-31.72 -27.92 -2.21
-31.66 -27.87 -0.74
-7.15 -6.29 2.55
-4.56 -3.99 -1.62
-31.76 -27.75 0.74
-5.21 -4.55 -1.6
-11.43 -9.98 0.8
-5.98 -5.22 -1.54
-8.42 -7.35 0.98
-0.77 -0.68 -0.16
-7.5 -6.55 1.22
-7.88 -6.89 -1.29
-7.98 -6.97 1.68
-12.62 -11.02 -1.47
-6.8 -5.94 1.76
-31.99 -27.94 -2.23
-31.92 -27.89 -0.74
-7.17 -6.27 2.55
-4.59 -3.99 -1.63
-12.25 -10.63 0.28
-5.23 -4.53 -1.6
-11.42 -9.91 0.79
-6.01 -5.21 -1.55
-8.65 -7.5 1
-0.78 -0.68 -0.16
-7.53 -6.54 1.22
-7.89 -6.85 -1.28
-12.08 -10.48 2.53
-12.64 -10.97 -1.46
-6.87 -5.96 1.77
-32.26 -27.99 -2.24
-32.18 -27.92 -0.74
-7.15 -6.2 2.54
-4.62 -3.98 -1.63
-32.31 -27.84 0.74
-5.24 -4.52 -1.6
-11.46 -9.88 0.79
-6.03 -5.19 -1.55
-8.72 -7.52 1.01
-0.79 -0.68 -0.17
-7.9 -6.81 1.28
-7.72 -6.65 -1.25
-7.58 -6.53 1.94
-32.42 -27.93 -0.75
-7.32 -6.31 2.59
-4.63 -3.96 -1.63
-32.55 -27.85 0.75
-5.26 -4.5 -1.6
-11.4 -9.75 0.79
-6.05 -5.18 -1.55
-7.88 -6.75 0.91
-0.8 -0.69 -0.17
-7.6 -6.51 1.23
-7.71 -6.6 -1.25
-8.67 -7.42 1.81
-7.05 -6.03 1.8
-32.68 -27.97 -0.75
-4.64 -3.94 -1.63
-5.29 -4.49 -1.6
-11.52 -9.79 0.79
-6.06 -5.15 -1.55
-7.9 -6.71 0.91
-0.81 -0.69 -0.17
-8.14 -6.91 1.31
-7.99 -6.79 -1.29
-8.55 -7.26 1.78
-7.11 -6.04 1.81
-8.18 -6.95 2.48
-32.93 -27.98 -0.75
-7.34 -6.24 2.58
-4.65 -3.93 -1.63
-5.3 -4.47 -1.6
-11.59 -9.78 0.79
-6.09 -5.14 -1.55
-7.61 -6.42 0.87
-0.81 -0.68 -0.17
-8.15 -6.88 1.31
-7.94 -6.7 -1.27
-8.55 -7.21 1.77
-7.31 -6.17 1.86
-8.14 -6.87 2.46
-33.15 -27.97 -0.76
-7.95 -6.7 2.79
-4.68 -3.92 -1.63
-5.32 -4.46 -1.6
-8.22 -6.89 0.56
-6.13 -5.13 -1.55
-0.81 -0.68 -0.17
-8.06 -6.75 1.29
-7.95 -6.66 -1.27
-8.6 -7.2 1.78
-7.31 -6.12 1.85
-33.35 -27.93 -0.76
-4.7 -3.91 -1.64
-5.35 -4.45 -1.61
-8.28 -6.89 0.56
-6.14 -5.11 -1.55
-46.92 -39.03 5.34
-0.82 -0.68 -0.17
-8.08 -6.72 1.29
-8.01 -6.66 -1.28
-8.94 -7.44 1.84
-8.4 -6.99 2.12
-33.82 -28.13 -2.31
-7.68 -6.39 2.31
-33.63 -27.97 -0.76
-8.61 -7.16 3
-4.72 -3.9 -1.64
-5.37 -4.44 -1.61
-8.3 -6.85 0.56
-6.17 -5.09 -1.55
-47.18 -38.96 5.35
-0.83 -0.68 -0.17
-8.05 -6.64 1.28
-7.99 -6.6 -1.27
-8.99 -7.42 1.85
-6.76 -5.59 1.71
-34.08 -28.15 -2.32
-7.66 -6.33 2.29
-33.92 -28.01 -0.77
-8.65 -7.14 3.01
-4.72 -3.87 -1.64
-32.78 -26.88 0.74
-5.39 -4.42 -1.61
-8.32 -6.83 0.56
-6.19 -5.08 -1.56
-13.03 -10.69 1.47
-0.83 -0.68 -0.17
-8.06 -6.61 -1.28
-9.06 -7.43 1.86
-7.25 -5.95 1.82
-7.66 -6.28 2.29
-34.18 -28.03 -0.77
-8.68 -7.12 3.01
-4.74 -3.86 -1.64
-32.77 -26.68 0.74
-5.41 -4.41 -1.61
-6.22 -5.06 -1.56
-8.07 -6.57 0.91
-0.84 -0.68 -0.17
-8.15 -6.63 -1.29
-9.13 -7.44 1.87
-7.29 -5.93 1.83
-8.7 -7.08 2.59
-7.33 -5.96 2.53
-4.77 -3.85 -1.64
-32.78 -26.5 0.74
-5.42 -4.38 -1.61
-6.22 -5.03 -1.56
-47.95 -38.76 5.39
-0.84 -0.68 -0.17
-8.34 -6.74 1.32
-8.15 -6.59 -1.29
-9.18 -7.42 1.87
-7.36 -5.95 1.84
-35.34 -28.57 -0.79
-7.38 -5.96 2.54
-4.78 -3.84 -1.64
-32.81 -26.33 0.73
-5.44 -4.37 -1.61
-6.26 -5.02 -1.56
-48.22 -38.7 5.41
-0.85 -0.68 -0.17
-8.15 -6.54 -1.28
-8.91 -7.15 1.81
-7.39 -5.93 1.84
-7.39 -5.93 2.54
-4.8 -3.83 -1.65
-5.46 -4.35 -1.61
-6.27 -4.99 -1.56
-11.95 -9.53 1.34
-0.85 -0.68 -0.17
-8.38 -6.68 1.32
-8.09 -6.45 -1.27
-7.75 -6.18 1.57
-13.83 -11.02 -1.55
-35.8 -28.53 -0.8
-7.4 -5.9 2.54
-4.81 -3.81 -1.64
-5.49 -4.34 -1.62
-6.3 -4.98 -1.56
-48.71 -38.55 5.44
-0.86 -0.68 -0.17
-7.98 -6.32 1.25
-8.25 -6.53 -1.29
-7.84 -6.2 1.58
-13.82 -10.94 -1.54
-8.69 -6.87 2.15
-7.14 -5.65 2.1
-7.42 -5.88 2.54
-4.83 -3.8 -1.65
-5.51 -4.33 -1.62
-35.57 -27.95 2.37
-6.32 -4.97 -1.56
-0.86 -0.68 -0.17
-7.98 -6.28 1.25
-8.23 -6.47 -1.29
-7.71 -6.06 1.55
-7.28 -5.72 1.8
-36.34 -28.56 -0.81
-4.85 -3.79 -1.65
-5.52 -4.31 -1.62
-35.6 -27.78 2.37
-6.34 -4.95 -1.56
-0.87 -0.68 -0.18
-8.3 -6.47 -1.29
-7.73 -6.03 1.55
-7.36 -5.74 1.82
-7.14 -5.57 2.09
-4.87 -3.77 -1.65
-5.54 -4.29 -1.62
-8.55 -6.62 0.57
-6.37 -4.93 -1.57
-0.88 -0.68 -0.18
-8.81 -6.82 1.37
-8.27 -6.4 -1.28
-9.24 -7.16 1.85
-7.1 -5.5 1.75
-8.65 -6.7 2.53
-36.92 -28.6 -0.82
-4.89 -3.76 -1.65
-5.56 -4.28 -1.62
-8.6 -6.61 0.57
-6.39 -4.91 -1.57
-8.68 -6.67 0.96
-0.89 -0.68 -0.18
-8.83 -6.79 1.37
-8.21 -6.31 -1.27
-7.42 -5.71 1.48
-7.17 -5.51 1.76
-8.84 -6.8 2.58
-4.9 -3.74 -1.65
-37.08 -28.31 0.81
-5.59 -4.26 -1.62
-36.43 -27.82 2.4
-6.42 -4.9 -1.57
-0.9 -0.69 -0.18
-8.66 -6.62 1.34
-8.28 -6.32 -1.28
-7.42 -5.67 1.48
-7.16 -5.47 1.75
-31.44 -24.01 -2.07
-38.44 -29.35 -0.84
-4.91 -3.73 -1.65
-37.33 -28.31 0.82
-5.61 -4.25 -1.62
-36.78 -27.89 2.42
-0.96 -0.73 -0.23
-0.9 -0.69 -0.18
-7.98 -6.05 1.23
-8.33 -6.32 -1.28
-15.96 -12.1 -1.75
-7.21 -5.46 1.76
-7.62 -5.78 2.21
-38.49 -29.18 -0.84
-4.94 -3.72 -1.66
-37.64 -28.33 0.82
-5.62 -4.23 -1.62
-37.04 -27.88 2.43
-0.96 -0.72 -0.23
-7.95 -5.99 0.87
-0.92 -0.69 -0.18
-8.58 -6.46 -1.32
-7.63 -5.74 1.51
-7.58 -5.71 1.84
-9.5 -7.15 2.75
-4.95 -3.7 -1.66
-37.94 -28.35 0.83
-5.64 -4.21 -1.63
-0.97 -0.73 -0.24
-7.97 -5.95 0.87
-0.93 -0.7 -0.18
-8.57 -6.4 -1.31
-8.05 -6.01 1.59
-38.49 -28.76 -2.52
-9.01 -6.74 2.6
-38.47 -28.75 -0.84
-4.97 -3.68 -1.66
-38.26 -28.39 0.83
-5.67 -4.2 -1.63
-0.97 -0.72 -0.24
-7.98 -5.92 0.87
-0.93 -0.69 -0.18
-8.16 -6.06 1.25
-8.5 -6.31 -1.3
-16.24 -12.05 -1.77
-8.71 -6.46 2.11
-38.63 -28.66 -2.52
-7.72 -5.73 2.22
-38.52 -28.58 -0.84
-4.97 -3.66 -1.65
-38.58 -28.41 0.84
-5.69 -4.19 -1.63
-0.98 -0.72 -0.24
-8.83 -6.5 0.96
-0.95 -0.7 -0.19
-8.79 -6.47 -1.34
-16.28 -11.99 -1.77
-7.75 -5.71 1.87
-36.52 -26.89 -2.38
-7.67 -5.65 2.2
-38.75 -28.54 -0.84
-4.99 -3.65 -1.66
-38.89 -28.43 0.84
-5.71 -4.17 -1.63
-0.98 -0.72 -0.24
-8.87 -6.49 0.96
-0.95 -0.69 -0.19
-8.57 -6.27 1.3
-8.81 -6.44 -1.34
-7.61 -5.56 1.49
-39.15 -28.62 -2.54
-39.07 -28.56 -0.84
-9.23 -6.75 3.06
-5.01 -3.64 -1.66
-39.29 -28.5 0.85
-5.72 -4.15 -1.63
-0.99 -0.71 -0.24
-0.96 -0.7 -0.19
-9.43 -6.84 1.43
-8.85 -6.42 -1.34
-7.63 -5.53 1.49
-8.33 -6.05 2
-39.58 -28.71 -2.56
-39.4 -28.59 -0.85
-9.23 -6.69 3.05
-5.03 -3.62 -1.66
-39.56 -28.49 0.85
-5.74 -4.14 -1.63
-1 -0.72 -0.24
-0.96 -0.69 -0.19
-8.39 -6.04 1.27
-8.89 -6.4 -1.35
-7.63 -5.49 1.49
-8.4 -6.05 2.01
-39.73 -28.61 -0.85
-7.7 -5.54 2.54
-5.05 -3.61 -1.66
-39.91 -28.54 0.86
-5.76 -4.12 -1.63
-0.99 -0.71 -0.24
-0.97 -0.69 -0.19
-8.61 -6.16 1.3
-8.95 -6.4 -1.35
-8.28 -5.92 1.98
-40.07 -28.65 -0.86
-7.72 -5.52 2.54
-5.06 -3.59 -1.66
-40.23 -28.56 0.86
-5.78 -4.11 -1.64
-1 -0.71 -0.24
-0.98 -0.7 -0.19
-8.18 -5.81 1.23
-8.93 -6.34 -1.34
-8.82 -6.26 1.71
-8.29 -5.88 1.98
-40.4 -28.68 -0.86
-5.07 -3.57 -1.66
-40.56 -28.58 0.87
-5.8 -4.09 -1.64
-1.01 -0.71 -0.24
-0.98 -0.69 -0.19
-8.4 -5.92 1.26
-8.3 -5.85 1.97
-40.75 -28.72 -0.87
-5.09 -3.56 -1.66
-40.91 -28.61 0.87
-5.81 -4.06 -1.64
-1.03 -0.72 -0.24
-9.15 -6.4 0.98
-0.98 -0.68 -0.19
-1.06 -0.74 -0.16
-8.33 -5.82 1.98
-41.1 -28.75 -0.88
-5.11 -3.55 -1.67
-41.26 -28.65 0.88
-5.83 -4.05 -1.64
-1.03 -0.71 -0.24
-1 -0.7 -0.19
-1.06 -0.73 -0.16
-8.17 -5.68 1.93
-41.44 -28.77 -0.88
-5.12 -3.53 -1.67
-41.67 -28.72 0.88
-5.86 -4.04 -1.64
-1.03 -0.71 -0.24
-1.01 -0.7 -0.2
-9 -6.2 1.34
-1.04 -0.72 -0.16
-8.86 -6.11 1.7
-8.18 -5.64 1.93
-41.79 -28.8 -0.89
-5.14 -3.51 -1.67
-41.99 -28.72 0.89
-5.87 -4.02 -1.64
-1.03 -0.7 -0.24
-1.02 -0.7 -0.2
-9.05 -6.19 1.35
-1.07 -0.73 -0.16
-42.15 -28.83 -0.89
-5.15 -3.5 -1.67
-42.31 -28.72 0.89
-5.89 -4 -1.64
-6.78 -4.61 -1.59
-1.02 -0.69 -0.2
-9.13 -6.2 1.36
-1.07 -0.72 -0.16
-11.79 -8 -1.25
-8.48 -5.75 1.99
-8.48 -5.76 2.37
-5.17 -3.48 -1.67
-5.91 -3.98 -1.65
-6.82 -4.59 -1.6
-1.04 -0.7 -0.2
-9.14 -6.16 1.35
-1.08 -0.73 -0.16
-10.83 -7.3 -1.14
-8.79 -5.92 2.06
-8.51 -5.73 2.37
-5.19 -3.47 -1.67
-5.93 -3.97 -1.65
-1.03 -0.69 -0.24
-1.05 -0.7 -0.2
-9.17 -6.13 1.35
-1.09 -0.73 -0.16
-5.2 -3.46 -1.67
-5.95 -3.95 -1.65
-1.03 -0.69 -0.24
-1.06 -0.7 -0.2
-1.12 -0.74 -0.17
-10.87 -7.22 -1.14
-8.97 -5.96 2.09
-5.21 -3.44 -1.67
-5.98 -3.94 -1.65
-1.05 -0.69 -0.24
-1.06 -0.7 -0.2
-1.13 -0.74 -0.17
-19.85 -13.08 -2.08
-8.96 -5.91 2.09
-5.24 -3.43 -1.68
-6 -3.92 -1.65
-1.06 -0.7 -0.25
-1.05 -0.69 -0.2
-1.13 -0.74 -0.17
-19.85 -12.99 -2.08
-5.26 -3.41 -1.68
-6.01 -3.9 -1.65
-1.08 -0.7 -0.25
-1.07 -0.7 -0.2
-1.15 -0.74 -0.17
-19.87 -12.9 -2.07
-5.29 -3.41 -1.69
-6.04 -3.89 -1.66
-1.08 -0.7 -0.25
-1.07 -0.69 -0.2
-1.14 -0.73 -0.17
-12.58 -8.1 -1.31
-5.32 -3.4 -1.69
-6.06 -3.87 -1.66
-1.07 -0.69 -0.25
-1.08 -0.69 -0.2
-1.15 -0.73 -0.17
-12.67 -8.1 -1.32
-6.08 -3.85 -1.66
-1.07 -0.68 -0.25
-1.1 -0.7 -0.21
-1.15 -0.73 -0.17
-12.78 -8.11 -1.32
-1.03 -0.65 -0.33
-6.1 -3.84 -1.66
-1.08 -0.68 -0.25
-1.08 -0.68 -0.2
-1.15 -0.73 -0.17
-11.35 -7.15 -1.17
-0.97 -0.6 -0.3
-6.11 -3.82 -1.66
-7.07 -4.42 -1.62
-1.13 -0.71 -0.21
-1.16 -0.72 -0.17
-11.3 -7.06 -1.17
-0.97 -0.6 -0.3
-6.14 -3.8 -1.67
-7.08 -4.39 -1.62
-8.48 -5.26 -1.58
-1.15 -0.71 -0.17
-12.62 -7.82 -1.3
-0.97 -0.59 -0.3
-57.03 -35.07 1.17
-7.1 -4.36 -1.62
-1.13 -0.69 -0.21
-1.17 -0.72 -0.17
-11.95 -7.35 -1.23
-0.96 -0.59 -0.3
-7.13 -4.35 -1.62
-1.13 -0.69 -0.21
-1.17 -0.72 -0.17
-11.89 -7.25 -1.22
-0.96 -0.58 -0.3
-1.1 -0.67 -0.3
-7.17 -4.34 -1.63
-8.52 -5.16 -1.58
-1.18 -0.71 -0.17
-12.07 -7.31 -1.23
-0.97 -0.58 -0.3
-1 -0.6 -0.27
-7.2 -4.32 -1.63
-1.13 -0.68 -0.21
-1.18 -0.71 -0.17
-12.8 -7.69 -1.31
-0.97 -0.58 -0.3
-1.02 -0.61 -0.27
-7.21 -4.3 -1.63
-1.13 -0.67 -0.21
-1.18 -0.7 -0.17
-12.86 -7.67 -1.31
-0.98 -0.58 -0.31
-1.02 -0.6 -0.27
-7.22 -4.27 -1.63
-1.14 -0.67 -0.21
-1.19 -0.7 -0.17
-12.9 -7.63 -1.31
-0.98 -0.58 -0.3
-56.25 -33 1.14
-1.02 -0.6 -0.27
-56.5 -33.15 3.43
-7.27 -4.26 -1.64
-8.64 -5.07 -1.59
-1.2 -0.71 -0.17
-12.4 -7.28 -1.26
-0.98 -0.57 -0.3
-1.02 -0.59 -0.27
-8.67 -5.04 -1.59
-1.23 -0.72 -0.18
-12.02 -6.99 -1.22
-47.6 -27.71 -2.89
-1 -0.58 -0.31
-24.45 -14.11 0.49
-1.01 -0.59 -0.27
-24.88 -14.35 1.51
-1.12 -0.65 -0.25
-8.7 -5.02 -1.59
-1.25 -0.72 -0.18
-11.91 -6.87 -1.2
-1 -0.57 -0.31
-24.04 -13.76 0.48
-1.01 -0.58 -0.27
-1.05 -0.6 -0.24
-8.73 -4.99 -1.59
-1.26 -0.72 -0.18
-11.91 -6.82 -1.2
-1.02 -0.58 -0.31
-1.02 -0.58 -0.27
-23.62 -13.42 1.42
-1.04 -0.59 -0.23
-8.76 -4.97 -1.6
-1.26 -0.71 -0.18
-11.92 -6.77 -1.2
-1 -0.57 -0.31
-25.49 -14.36 0.51
-1.02 -0.57 -0.27
-23.64 -13.32 1.42
-1.04 -0.59 -0.23
-8.78 -4.95 -1.6
-1.27 -0.71 -0.18
-12.91 -7.28 -1.3
-1.03 -0.57 -0.32
-25.32 -14.15 0.51
-1.04 -0.58 -0.27
-23.3 -13.02 1.4
-1.05 -0.59 -0.23
-8.81 -4.92 -1.6
-1.3 -0.73 -0.18
-12.03 -6.72 -1.21
-47.21 -26.39 -2.83
-1.04 -0.57 -0.32
-1.03 -0.57 -0.27
-23.25 -12.89 1.39
-1.05 -0.58 -0.23
-24.74 -13.71 2.47
-8.84 -4.9 -1.6
-24.32 -13.48 3.41
-1.31 -0.73 -0.18
-12.44 -6.9 -1.24
-1.04 -0.57 -0.32
-24.13 -13.27 0.48
-1.04 -0.57 -0.27
-1.05 -0.58 -0.23
-24.43 -13.43 2.44
-8.86 -4.87 -1.6
-1.31 -0.72 -0.18
-12.73 -7 -1.27
-47.87 -26.33 -2.86
-1.06 -0.58 -0.32
-24.78 -13.52 0.49
-1.06 -0.58 -0.28
-23.9 -13.04 1.43
-1.04 -0.57 -0.23
-25.31 -13.81 2.52
-8.9 -4.85 -1.61
-1.33 -0.73 -0.19
-12.78 -6.97 -1.27
-1.06 -0.57 -0.32
-1.07 -0.58 -0.28
-25.75 -13.93 1.53
-1.04 -0.56 -0.23
-24.56 -13.28 2.44
-8.93 -4.83 -1.61
-1.36 -0.74 -0.19
-12.57 -6.8 -1.25
-54.59 -29.53 -3.25
-1.05 -0.57 -0.32
-1.07 -0.57 -0.28
-24.75 -13.28 1.47
-1.04 -0.56 -0.23
-24.58 -13.19 2.44
-8.95 -4.8 -1.61
-1.37 -0.73 -0.19
