# .PCD v0.7 - Point Cloud Data file format
VERSION 0.7
FIELDS x y z
SIZE 4 4 4
TYPE F F F
COUNT 1 1 1
WIDTH 2960
HEIGHT 1
VIEWPOINT 0 0 0 1 0 0 0
POINTS 2960
DATA ascii
13.43 19.92 -2.1
3.8 5.59 -1.81
4.44 6.54 -1.83
5.35 7.88 -1.85
6.67 9.81 -1.88
8.96 13.19 -1.96
13.45 19.8 -2.09
3.81 5.57 -1.81
4.47 6.53 -1.83
5.37 7.84 -1.85
6.7 9.79 -1.88
8.99 13.14 -1.95
13.48 19.7 -2.09
3.82 5.55 -1.81
4.49 6.51 -1.83
5.39 7.82 -1.85
6.73 9.76 -1.88
9.03 13.1 -1.95
13.52 19.61 -2.08
3.85 5.54 -1.81
4.51 6.49 -1.83
5.42 7.81 -1.85
6.75 9.72 -1.88
9.06 13.04 -1.95
13.54 19.51 -2.08
3.87 5.53 -1.81
4.53 6.47 -1.82
5.45 7.79 -1.85
6.78 9.69 -1.87
9.1 13 -1.95
13.61 19.45 -2.08
3.88 5.51 -1.81
4.54 6.44 -1.82
5.47 7.76 -1.85
6.82 9.68 -1.88
9.13 12.95 -1.95
13.65 19.36 -2.07
3.9 5.5 -1.81
4.57 6.43 -1.82
5.49 7.73 -1.84
6.85 9.65 -1.87
9.15 12.89 -1.94
13.69 19.28 -2.07
3.91 5.47 -1.8
4.59 6.42 -1.82
5.52 7.71 -1.84
6.88 9.62 -1.87
9.18 12.84 -1.94
13.72 19.18 -2.06
3.93 5.45 -1.8
4.61 6.4 -1.82
5.54 7.69 -1.84
6.91 9.59 -1.87
9.2 12.77 -1.93
13.76 19.1 -2.06
3.95 5.44 -1.8
4.63 6.37 -1.82
5.57 7.67 -1.84
6.93 9.56 -1.87
9.24 12.73 -1.93
13.79 19 -2.05
3.97 5.43 -1.8
4.65 6.36 -1.82
5.59 7.64 -1.84
6.97 9.53 -1.87
9.26 12.67 -1.93
13.84 18.94 -2.05
3.99 5.41 -1.8
4.67 6.34 -1.82
5.6 7.61 -1.84
6.99 9.5 -1.87
9.31 12.65 -1.93
13.86 18.83 -2.05
3.99 5.39 -1.8
4.69 6.32 -1.82
5.63 7.59 -1.84
7.02 9.47 -1.87
9.34 12.59 -1.93
13.88 18.72 -2.04
4.01 5.37 -1.8
4.71 6.31 -1.82
5.66 7.57 -1.84
7.04 9.43 -1.86
9.37 12.55 -1.92
13.92 18.64 -2.04
4.03 5.36 -1.8
4.72 6.28 -1.81
5.68 7.55 -1.84
7.08 9.41 -1.86
9.41 12.5 -1.92
13.9 18.48 -2.02
4.05 5.35 -1.8
4.74 6.26 -1.81
5.71 7.53 -1.84
7.1 9.37 -1.86
9.45 12.47 -1.92
13.88 18.32 -2.01
4.07 5.33 -1.8
4.77 6.24 -1.81
5.72 7.49 -1.83
7.13 9.34 -1.86
9.48 12.42 -1.92
13.9 18.21 -2
4.08 5.31 -1.79
4.79 6.23 -1.81
5.74 7.47 -1.83
7.15 9.3 -1.86
9.52 12.38 -1.92
13.93 18.12 -2
4.1 5.29 -1.79
4.81 6.21 -1.81
5.77 7.45 -1.83
7.18 9.27 -1.86
9.57 12.36 -1.92
14.03 18.1 -2
4.12 5.28 -1.79
4.82 6.18 -1.81
5.79 7.42 -1.83
7.21 9.24 -1.86
9.61 12.31 -1.92
14.05 18 -2
4.14 5.26 -1.79
4.84 6.16 -1.81
5.82 7.4 -1.83
7.23 9.21 -1.85
9.63 12.25 -1.91
14.08 17.91 -1.99
4.15 5.25 -1.79
4.87 6.15 -1.81
5.83 7.36 -1.83
7.26 9.17 -1.85
9.67 12.22 -1.91
14.13 17.86 -1.99
4.16 5.22 -1.79
4.88 6.13 -1.81
5.86 7.35 -1.83
7.29 9.14 -1.85
9.7 12.17 -1.91
14.17 17.78 -1.99
4.18 5.2 -1.79
4.9 6.11 -1.81
5.88 7.33 -1.83
7.31 9.1 -1.85
9.74 12.13 -1.91
14.19 17.67 -1.98
4.2 5.19 -1.79
4.91 6.08 -1.8
5.9 7.3 -1.82
7.33 9.07 -1.85
9.77 12.08 -1.91
14.2 17.57 -1.98
4.21 5.17 -1.79
4.93 6.06 -1.8
5.92 7.27 -1.82
7.35 9.03 -1.84
9.79 12.02 -1.9
14.22 17.46 -1.97
4.23 5.16 -1.79
4.96 6.05 -1.81
5.94 7.24 -1.82
7.38 8.99 -1.84
9.83 11.99 -1.9
14.25 17.37 -1.97
4.24 5.14 -1.79
4.98 6.03 -1.8
5.96 7.21 -1.82
7.4 8.95 -1.84
9.87 11.95 -1.9
14.27 17.28 -1.96
4.25 5.12 -1.78
5 6.01 -1.8
5.98 7.19 -1.82
7.42 8.92 -1.84
9.9 11.91 -1.9
14.28 17.17 -1.95
4.28 5.11 -1.79
5.01 5.98 -1.8
6.01 7.17 -1.82
7.43 8.88 -1.83
9.93 11.86 -1.9
14.32 17.1 -1.95
4.29 5.09 -1.78
5.03 5.96 -1.8
6.02 7.14 -1.82
7.46 8.85 -1.83
9.95 11.8 -1.89
14.34 17 -1.95
4.31 5.08 -1.78
5.05 5.95 -1.8
6.03 7.11 -1.81
7.49 8.82 -1.83
9.98 11.76 -1.89
14.37 16.92 -1.94
4.32 5.05 -1.78
5.07 5.93 -1.8
6.06 7.08 -1.81
7.51 8.78 -1.83
10.03 11.73 -1.89
14.36 16.8 -1.93
4.33 5.03 -1.78
5.09 5.91 -1.8
6.07 7.05 -1.81
7.53 8.74 -1.83
47.73 55.43 8.98
10.05 11.67 -1.89
14.41 16.73 -1.93
4.35 5.02 -1.78
5.1 5.88 -1.8
6.1 7.04 -1.81
7.55 8.71 -1.82
10.08 11.62 -1.89
14.44 16.65 -1.93
4.37 5 -1.78
5.12 5.86 -1.8
6.12 7.01 -1.81
7.58 8.68 -1.82
10.09 11.55 -1.88
14.41 16.51 -1.92
4.39 4.99 -1.78
5.14 5.85 -1.8
6.14 6.98 -1.81
7.6 8.64 -1.82
10.13 11.52 -1.88
14.43 16.41 -1.91
4.39 4.96 -1.78
5.16 5.83 -1.8
6.15 6.95 -1.8
7.61 8.6 -1.82
10.16 11.48 -1.88
14.48 16.35 -1.91
4.41 4.95 -1.78
5.18 5.8 -1.8
6.18 6.93 -1.8
7.63 8.55 -1.81
10.18 11.42 -1.88
14.51 16.27 -1.91
4.43 4.94 -1.78
5.19 5.78 -1.79
6.2 6.9 -1.8
7.66 8.53 -1.81
10.21 11.37 -1.88
14.59 16.25 -1.91
4.45 4.92 -1.78
5.2 5.76 -1.79
6.22 6.88 -1.8
7.69 8.5 -1.82
10.21 11.3 -1.87
4.46 4.9 -1.78
5.23 5.74 -1.79
6.23 6.84 -1.8
7.71 8.47 -1.81
10.25 11.26 -1.87
13.18 14.47 -1.71
25.51 28.03 -1.99
4.47 4.88 -1.77
5.24 5.72 -1.79
6.24 6.81 -1.8
7.74 8.44 -1.81
10.29 11.22 -1.87
13.11 14.3 -1.7
25.47 27.79 -1.98
4.49 4.86 -1.77
5.26 5.7 -1.79
6.27 6.8 -1.8
7.76 8.4 -1.81
10.31 11.16 -1.87
13.03 14.11 -1.68
25.43 27.54 -1.96
4.51 4.85 -1.78
5.27 5.67 -1.79
6.29 6.76 -1.79
7.77 8.36 -1.81
10.33 11.12 -1.86
13.07 14.06 -1.68
4.53 4.83 -1.77
5.29 5.65 -1.79
6.31 6.74 -1.79
7.81 8.34 -1.81
10.36 11.07 -1.86
13.08 13.97 -1.67
4.54 4.82 -1.77
5.31 5.63 -1.79
6.32 6.71 -1.79
7.83 8.31 -1.81
10.39 11.02 -1.86
13.1 13.89 -1.67
4.55 4.79 -1.77
5.33 5.61 -1.79
6.34 6.68 -1.79
7.86 8.27 -1.81
10.41 10.97 -1.86
13.08 13.77 -1.66
4.02 4.21 -1.56
5.34 5.59 -1.78
6.36 6.65 -1.79
7.87 8.23 -1.8
10.42 10.9 -1.85
13.1 13.7 -1.66
4 4.15 -1.55
5.36 5.56 -1.78
6.39 6.64 -1.79
7.9 8.2 -1.8
10.46 10.86 -1.85
13.17 13.68 -1.66
4.01 4.14 -1.54
5.37 5.54 -1.78
6.4 6.6 -1.79
7.92 8.17 -1.8
10.47 10.8 -1.85
13.25 13.66 -1.67
16.06 16.57 -1.21
4.03 4.13 -1.55
5.39 5.52 -1.78
6.42 6.57 -1.79
7.94 8.14 -1.8
10.5 10.76 -1.85
13.33 13.66 -1.67
22.82 23.38 -1.71
4.03 4.1 -1.54
5.41 5.5 -1.78
6.44 6.55 -1.79
7.96 8.1 -1.8
10.53 10.71 -1.84
13.39 13.62 -1.67
22.98 23.37 -1.72
4 4.04 -1.52
5.42 5.48 -1.78
6.46 6.52 -1.78
7.99 8.07 -1.8
10.56 10.67 -1.84
13.42 13.55 -1.67
19.49 19.69 -1.45
4.02 4.03 -1.53
5.44 5.45 -1.78
6.49 6.51 -1.79
8.01 8.04 -1.8
10.59 10.62 -1.84
13.35 13.39 -1.65
23.05 23.13 -1.71
4 3.99 -1.51
5.45 5.43 -1.78
6.5 6.47 -1.78
8.03 8 -1.8
10.6 10.56 -1.84
13.37 13.32 -1.65
23.09 23 -1.71
4.02 3.98 -1.52
5.47 5.41 -1.78
6.52 6.45 -1.78
8.06 7.97 -1.79
10.63 10.52 -1.84
13.43 13.29 -1.65
23.07 22.83 -1.7
4 3.93 -1.5
5.49 5.4 -1.78
6.53 6.42 -1.78
8.08 7.94 -1.79
10.66 10.48 -1.84
13.46 13.22 -1.65
23.15 22.75 -1.7
4.01 3.91 -1.5
5.51 5.37 -1.78
6.55 6.4 -1.78
8.09 7.9 -1.79
10.69 10.43 -1.83
13.54 13.21 -1.65
23.05 22.49 -1.69
4.02 3.89 -1.5
5.52 5.34 -1.77
6.58 6.37 -1.78
8.11 7.86 -1.79
10.71 10.38 -1.83
13.64 13.22 -1.66
23.19 22.47 -1.69
4.04 3.89 -1.5
5.53 5.32 -1.77
6.59 6.34 -1.78
8.14 7.83 -1.79
10.72 10.32 -1.83
13.74 13.22 -1.67
23.24 22.37 -1.69
4.05 3.87 -1.5
5.55 5.3 -1.77
6.6 6.31 -1.78
8.16 7.8 -1.79
10.76 10.29 -1.83
13.79 13.18 -1.67
23.08 22.07 -1.67
4.05 3.85 -1.5
5.56 5.28 -1.77
6.62 6.29 -1.77
8.18 7.77 -1.79
10.79 10.24 -1.83
13.87 13.17 -1.67
22.5 21.36 -1.63
4.07 3.84 -1.5
5.58 5.26 -1.77
6.64 6.26 -1.77
8.19 7.72 -1.78
10.82 10.2 -1.83
14 13.2 -1.68
4.09 3.83 -1.5
5.59 5.23 -1.77
6.66 6.24 -1.77
8.22 7.69 -1.78
48.76 45.66 8.2
10.86 10.17 -1.83
14.09 13.2 -1.69
23.37 21.89 -1.68
4.1 3.81 -1.5
29.51 27.44 0.7
5.61 5.21 -1.77
6.68 6.21 -1.77
8.24 7.66 -1.78
10.88 10.12 -1.82
14.16 13.17 -1.69
22.59 21.01 -1.62
4.1 3.79 -1.5
5.63 5.19 -1.77
6.69 6.18 -1.77
8.25 7.62 -1.78
10.93 10.09 -1.83
14.24 13.14 -1.7
4.09 3.75 -1.49
5.64 5.17 -1.77
6.71 6.15 -1.77
8.27 7.59 -1.78
10.94 10.03 -1.82
14.3 13.12 -1.7
23.15 21.23 -1.65
4.1 3.74 -1.49
5.66 5.15 -1.77
6.73 6.13 -1.77
8.29 7.55 -1.78
10.98 9.99 -1.82
14.38 13.1 -1.7
4.12 3.72 -1.49
5.66 5.12 -1.76
6.75 6.1 -1.77
8.31 7.51 -1.77
11.02 9.96 -1.82
14.48 13.09 -1.71
22.86 20.67 -1.61
4.13 3.71 -1.49
5.68 5.1 -1.76
6.77 6.08 -1.77
8.33 7.48 -1.77
11.03 9.91 -1.82
14.58 13.1 -1.71
22.79 20.48 -1.61
4.14 3.7 -1.49
5.69 5.08 -1.76
6.78 6.05 -1.77
8.35 7.45 -1.77
49.55 44.21 8.15
11.03 9.84 -1.82
14.73 13.14 -1.73
22.89 20.43 -1.61
4.14 3.66 -1.48
31.14 27.59 0.73
5.71 5.06 -1.76
6.79 6.02 -1.76
8.36 7.41 -1.77
49.94 44.24 8.19
11.04 9.78 -1.81
12.69 11.24 -1.48
23.04 20.42 -1.61
4.15 3.65 -1.48
5.72 5.04 -1.76
6.81 6 -1.76
8.38 7.37 -1.77
11.05 9.72 -1.81
23.02 20.26 -1.61
4.2 3.67 -1.49
5.73 5.01 -1.76
6.84 5.97 -1.76
8.4 7.34 -1.77
11.06 9.66 -1.8
12.54 10.95 -1.46
23.28 20.33 -1.62
4.24 3.68 -1.5
5.75 4.99 -1.76
6.86 5.95 -1.76
8.42 7.3 -1.77
11.07 9.6 -1.8
23.43 20.32 -1.63
4.24 3.65 -1.5
5.76 4.97 -1.76
6.86 5.91 -1.76
8.45 7.28 -1.77
11.08 9.55 -1.8
12.66 10.9 -1.46
4.24 3.63 -1.5
5.05 4.32 -1.53
6.89 5.89 -1.76
8.46 7.24 -1.76
48.95 41.87 7.91
11.13 9.52 -1.8
12.65 10.82 -1.46
23.75 20.31 -0.55
4.25 3.61 -1.5
5.02 4.26 -1.52
6.9 5.86 -1.76
8.47 7.19 -1.76
11.15 9.47 -1.8
12.66 10.75 -1.45
23.74 20.15 -0.54
4.26 3.59 -1.49
6.92 5.83 -1.76
8.5 7.16 -1.76
11.16 9.41 -1.79
12.65 10.67 -1.45
23.74 20.02 -0.54
4.27 3.58 -1.49
5.06 4.24 -1.52
6.93 5.8 -1.76
8.51 7.13 -1.76
49.99 41.87 8.01
11.17 9.36 -1.79
12.68 10.62 -1.45
23.74 19.89 -0.54
4.28 3.56 -1.49
5.83 4.85 -1.75
6.94 5.77 -1.76
8.53 7.09 -1.76
11.18 9.3 -1.79
12.67 10.54 -1.44
4.3 3.55 -1.49
5.11 4.22 -1.53
6.96 5.75 -1.75
8.55 7.06 -1.76
11.2 9.25 -1.78
12.66 10.46 -1.44
4.32 3.54 -1.5
5.12 4.2 -1.53
6.98 5.72 -1.75
8.56 7.02 -1.75
11.22 9.2 -1.78
12.67 10.39 -1.43
4.33 3.53 -1.5
5.12 4.17 -1.52
6.99 5.69 -1.75
8.57 6.98 -1.75
11.24 9.15 -1.78
12.64 10.29 -1.43
4.34 3.51 -1.49
5.11 4.13 -1.52
7.01 5.66 -1.75
8.59 6.94 -1.75
11.24 9.09 -1.77
12.63 10.21 -1.42
4.35 3.49 -1.49
5.09 4.09 -1.51
7.01 5.63 -1.75
8.61 6.91 -1.75
11.27 9.04 -1.77
4.35 3.47 -1.49
5.08 4.05 -1.5
7.03 5.6 -1.75
8.62 6.87 -1.75
11.29 9 -1.77
12.7 10.12 -1.42
4.37 3.46 -1.49
5.09 4.03 -1.5
7.05 5.58 -1.75
8.63 6.83 -1.74
11.31 8.95 -1.77
12.72 10.06 -1.42
4.39 3.45 -1.5
5.04 3.96 -1.48
7.06 5.55 -1.75
8.66 6.8 -1.74
11.31 8.88 -1.77
12.72 9.99 -1.42
4.41 3.44 -1.5
5.07 3.96 -1.49
7.08 5.52 -1.74
8.67 6.76 -1.74
11.28 8.79 -1.76
4.41 3.41 -1.49
5.1 3.95 -1.49
7.08 5.48 -1.74
8.7 6.73 -1.74
11.32 8.76 -1.76
4.38 3.37 -1.48
5.08 3.9 -1.48
7.1 5.46 -1.74
8.71 6.69 -1.74
11.36 8.73 -1.76
4.39 3.35 -1.48
5.14 3.93 -1.49
7.12 5.43 -1.74
8.72 6.65 -1.74
11.41 8.7 -1.76
4.42 3.35 -1.49
5.16 3.91 -1.49
7.13 5.41 -1.74
8.73 6.62 -1.74
11.42 8.66 -1.76
10.52 7.97 -1.15
4.44 3.34 -1.49
5.15 3.88 -1.49
7.14 5.37 -1.74
8.76 6.59 -1.74
11.43 8.6 -1.76
10.49 7.89 -1.15
4.45 3.32 -1.49
5.16 3.86 -1.49
7.15 5.34 -1.74
8.78 6.56 -1.73
11.46 8.56 -1.76
10.46 7.82 -1.14
10.65 7.95 -0.7
4.43 3.28 -1.48
5.17 3.84 -1.49
7.17 5.32 -1.73
8.8 6.52 -1.73
11.47 8.51 -1.75
10.43 7.74 -1.14
10.55 7.82 -0.69
4.43 3.26 -1.48
5.18 3.81 -1.48
7.18 5.29 -1.73
8.8 6.48 -1.73
11.51 8.47 -1.75
10.39 7.65 -1.13
10.44 7.69 -0.68
4.44 3.25 -1.47
5.17 3.78 -1.48
7.2 5.26 -1.73
8.81 6.44 -1.73
11.17 8.17 -1.7
10.41 7.61 -1.13
10.41 7.61 -0.68
4.47 3.25 -1.48
5.18 3.76 -1.48
7.21 5.23 -1.73
8.84 6.42 -1.73
11.03 8.01 -1.67
10.41 7.55 -1.13
10.41 7.56 -0.67
4.51 3.25 -1.49
5.2 3.74 -1.48
7.22 5.2 -1.73
8.86 6.38 -1.73
11.04 7.95 -1.67
10.43 7.52 -1.13
10.42 7.5 -0.67
4.49 3.22 -1.48
5.18 3.71 -1.47
7.23 5.17 -1.73
8.88 6.35 -1.73
11.06 7.91 -1.67
10.46 7.48 -1.13
10.41 7.45 -0.67
11.42 8.17 -0.25
4.52 3.21 -1.49
5.2 3.69 -1.47
7.25 5.15 -1.73
8.88 6.31 -1.73
11.11 7.89 -1.67
10.42 7.4 -1.12
10.39 7.38 -0.67
11.35 8.07 -0.24
4.54 3.2 -1.49
5.19 3.66 -1.47
7.27 5.13 -1.73
8.9 6.27 -1.72
11.17 7.88 -1.68
10.44 7.36 -1.12
10.37 7.31 -0.67
4.58 3.2 -1.5
5.21 3.65 -1.47
7.28 5.1 -1.73
8.92 6.24 -1.72
11.25 7.88 -1.69
10.4 7.28 -1.11
10.35 7.25 -0.66
4.58 3.18 -1.49
5.24 3.64 -1.47
7.28 5.06 -1.72
8.93 6.2 -1.72
11.37 7.9 -1.7
10.37 7.21 -1.1
10.35 7.19 -0.66
4.54 3.13 -1.48
5.27 3.64 -1.48
7.3 5.04 -1.72
8.95 6.17 -1.72
11.65 8.03 -1.74
10.35 7.14 -1.1
10.35 7.14 -0.66
4.53 3.1 -1.47
11.77 8.06 0.25
5.27 3.61 -1.47
7.32 5.01 -1.72
8.95 6.13 -1.72
11.65 7.98 -1.73
10.33 7.07 -1.1
10.36 7.09 -0.66
11.49 7.86 -0.24
4.56 3.1 -1.48
5.27 3.58 -1.47
7.33 4.98 -1.72
8.97 6.1 -1.72
11.67 7.93 -1.73
10.33 7.02 -1.09
10.36 7.04 -0.66
11.56 7.85 -0.24
4.57 3.08 -1.48
5.3 3.57 -1.48
7.34 4.95 -1.72
8.98 6.06 -1.72
11.67 7.87 -1.73
10.35 6.98 -1.09
10.37 7 -0.66
4.59 3.07 -1.48
5.33 3.56 -1.48
7.35 4.92 -1.72
9 6.02 -1.71
11.69 7.83 -1.73
10.36 6.93 -1.09
10.38 6.95 -0.65
4.59 3.05 -1.48
5.33 3.54 -1.48
6.62 4.4 -1.54
9.01 5.99 -1.71
11.72 7.79 -1.73
10.34 6.87 -1.09
10.4 6.91 -0.65
4.59 3.02 -1.47
5.32 3.51 -1.47
6.56 4.33 -1.53
9.02 5.94 -1.71
11.75 7.75 -1.73
10.36 6.83 -1.09
10.4 6.86 -0.65
4.58 3 -1.47
5.27 3.45 -1.45
6.57 4.3 -1.53
9.03 5.91 -1.71
11.76 7.7 -1.73
10.37 6.78 -1.08
10.4 6.8 -0.65
4.57 2.97 -1.46
5.29 3.44 -1.46
6.48 4.21 -1.5
9.05 5.88 -1.71
11.78 7.65 -1.72
10.39 6.75 -1.08
10.41 6.76 -0.65
4.55 2.93 -1.45
5.31 3.42 -1.46
12.4 7.99 0.77
6.45 4.15 -1.49
9.06 5.84 -1.71
11.78 7.59 -1.72
10.4 6.7 -1.08
10.42 6.72 -0.65
4.54 2.9 -1.44
5.33 3.41 -1.46
12.43 7.95 0.77
6.5 4.16 -1.5
9.08 5.81 -1.71
11.81 7.56 -1.72
10.41 6.66 -1.08
10.44 6.68 -0.65
4.55 2.88 -1.44
5.35 3.39 -1.46
12.38 7.86 0.77
6.49 4.12 -1.49
9.09 5.77 -1.7
11.82 7.5 -1.72
55.98 35.52 10.5
10.41 6.61 -1.08
10.46 6.64 -0.65
4.55 2.86 -1.44
5.4 3.4 -1.47
12.35 7.78 0.77
6.5 4.09 -1.49
9.11 5.74 -1.7
11.83 7.45 -1.72
10.43 6.57 -1.08
10.46 6.59 -0.65
4.57 2.86 -1.45
5.42 3.39 -1.48
12.32 7.7 0.76
6.48 4.05 -1.48
9.12 5.7 -1.7
11.82 7.39 -1.71
10.44 6.53 -1.08
10.48 6.55 -0.65
4.59 2.85 -1.45
5.39 3.35 -1.47
12.31 7.64 0.76
6.48 4.02 -1.48
9.14 5.67 -1.7
11.84 7.34 -1.71
10.46 6.49 -1.08
10.51 6.52 -0.65
4.58 2.82 -1.44
5.43 3.34 -1.47
12.3 7.57 0.76
6.51 4.01 -1.49
9.15 5.63 -1.7
11.83 7.28 -1.71
10.47 6.44 -1.08
10.54 6.49 -0.65
4.57 2.79 -1.43
5.44 3.32 -1.47
12.3 7.51 0.76
6.53 3.99 -1.49
9.14 5.58 -1.7
11.87 7.25 -1.71
10.48 6.4 -1.07
10.57 6.45 -0.65
4.58 2.78 -1.44
5.46 3.31 -1.47
12.29 7.44 0.75
6.55 3.97 -1.49
9.16 5.55 -1.7
11.87 7.19 -1.7
10.51 6.36 -1.07
10.59 6.42 -0.65
4.6 2.77 -1.44
5.48 3.29 -1.48
12.27 7.37 0.75
6.53 3.93 -1.48
9.18 5.52 -1.7
11.88 7.14 -1.7
10.53 6.33 -1.08
10.64 6.39 -0.65
4.61 2.75 -1.44
5.5 3.28 -1.48
12.27 7.32 0.75
6.45 3.84 -1.46
9.19 5.48 -1.69
11.9 7.1 -1.7
10.57 6.3 -1.08
4.61 2.73 -1.43
5.51 3.26 -1.48
12.26 7.26 0.75
6.51 3.85 -1.47
9.21 5.45 -1.69
11.92 7.05 -1.7
10.58 6.26 -1.08
10.72 6.34 -0.65
4.62 2.71 -1.43
5.55 3.26 -1.49
12.27 7.2 0.75
6.53 3.84 -1.47
9.2 5.4 -1.69
11.94 7.01 -1.7
10.62 6.23 -1.08
10.77 6.32 -0.65
4.63 2.7 -1.44
5.58 3.25 -1.49
12.27 7.15 0.74
6.56 3.82 -1.47
9.23 5.37 -1.69
36.13 21.05 5.13
11.95 6.96 -1.7
10.68 6.22 -1.08
10.74 6.26 -0.65
4.65 2.68 -1.44
5.53 3.2 -1.48
12.26 7.09 0.74
6.58 3.8 -1.48
9.23 5.33 -1.69
36.3 20.98 5.15
11.95 6.9 -1.69
10.79 6.23 -1.09
10.77 6.23 -0.65
11.5 6.64 -0.23
4.64 2.66 -1.43
5.53 3.17 -1.47
12.26 7.03 0.74
6.55 3.75 -1.47
9.24 5.3 -1.69
11.11 6.37 -1.57
10.83 6.21 -1.09
10.86 6.22 -0.66
11.49 6.59 -0.23
4.65 2.64 -1.43
11.85 6.74 0.24
5.51 3.14 -1.46
12.27 6.98 0.74
6.54 3.72 -1.46
9.25 5.26 -1.68
11.09 6.3 -1.57
10.92 6.21 -1.1
10.91 6.2 -0.66
11.52 6.55 -0.23
4.65 2.62 -1.43
11.87 6.7 0.24
5.54 3.12 -1.47
12.28 6.92 0.74
6.54 3.69 -1.46
9.24 5.21 -1.68
11.09 6.25 -1.56
11.03 6.22 -1.11
10.99 6.2 -0.66
11.51 6.49 -0.23
4.67 2.61 -1.43
5.53 3.09 -1.46
12.28 6.87 0.74
6.61 3.7 -1.47
9.26 5.18 -1.68
11.1 6.21 -1.56
11.12 6.22 -1.11
11.08 6.2 -0.67
11.54 6.46 -0.23
4.69 2.6 -1.44
5.53 3.07 -1.46
12.27 6.81 0.74
6.62 3.67 -1.47
9.27 5.14 -1.68
11.12 6.17 -1.56
11.15 6.18 -1.12
11.15 6.19 -0.67
4.72 2.6 -1.44
5.54 3.05 -1.46
12.28 6.76 0.73
6.64 3.65 -1.47
9.29 5.11 -1.68
11.21 6.17 -1.57
11.24 6.18 -1.12
11.25 6.19 -0.67
11.41 6.28 -0.23
4.71 2.57 -1.44
5.56 3.04 -1.46
12.3 6.71 0.73
6.69 3.65 -1.48
9.3 5.07 -1.68
11.33 6.19 -1.59
11.38 6.21 -1.13
11.36 6.2 -0.68
11.46 6.26 -0.23
4.73 2.56 -1.44
5.55 3 -1.46
12.31 6.67 0.73
6.7 3.63 -1.48
8.03 4.35 -1.45
38.78 21 5.42
11.44 6.19 -1.6
11.47 6.21 -1.14
11.46 6.21 -0.68
11.55 6.26 -0.23
4.74 2.55 -1.44
11.84 6.36 0.23
5.53 2.97 -1.45
12.33 6.62 0.73
6.72 3.61 -1.48
8.15 4.38 -1.47
11.54 6.2 -1.61
11.57 6.21 -1.15
11.55 6.21 -0.69
11.66 6.26 -0.23
4.76 2.53 -1.44
11.89 6.33 0.24
5.53 2.94 -1.45
12.34 6.57 0.73
6.7 3.57 -1.48
8.17 4.35 -1.47
12.08 6.43 -1.68
11.78 6.27 -1.17
11.67 6.21 -0.69
11.67 6.21 -0.23
4.77 2.52 -1.45
5.52 2.91 -1.44
12.38 6.53 0.73
6.67 3.52 -1.47
8.18 4.32 -1.46
12.1 6.39 -1.68
11.78 6.22 -1.17
11.78 6.22 -0.7
11.69 6.17 -0.23
4.78 2.5 -1.45
5.56 2.91 -1.45
12.4 6.5 0.73
6.68 3.5 -1.47
8.19 4.29 -1.46
12.11 6.34 -1.68
11.89 6.23 -1.17
11.89 6.23 -0.7
11.67 6.11 -0.23
4.8 2.49 -1.45
5.57 2.89 -1.45
12.47 6.48 0.74
6.68 3.47 -1.46
8.12 4.22 -1.45
12.13 6.3 -1.68
12.02 6.24 -1.19
12.01 6.24 -0.71
11.67 6.06 -0.23
4.84 2.49 -1.46
5.47 2.82 -1.42
12.59 6.48 0.74
6.69 3.45 -1.46
8.13 4.19 -1.45
12.15 6.26 -1.68
12.13 6.25 -1.19
12.11 6.24 -0.71
11.74 6.04 -0.23
4.85 2.47 -1.46
5.47 2.8 -1.42
12.7 6.49 0.75
6.71 3.42 -1.46
8.13 4.15 -1.45
12.15 6.21 -1.68
12.28 6.27 -1.21
12.23 6.25 -0.72
4.84 2.45 -1.45
12.61 6.38 0.25
5.48 2.78 -1.42
12.84 6.5 0.75
6.73 3.41 -1.47
8.11 4.1 -1.44
12.16 6.15 -1.67
12.39 6.27 -1.21
12.36 6.25 -0.73
12.47 6.31 -0.24
4.83 2.42 -1.45
12.7 6.37 0.25
5.52 2.77 -1.43
12.98 6.51 0.76
6.74 3.38 -1.47
8.09 4.06 -1.43
12.17 6.11 -1.67
12.53 6.28 -1.23
12.5 6.27 -0.73
12.55 6.3 -0.25
4.84 2.41 -1.45
12.82 6.38 0.25
5.54 2.75 -1.43
13.11 6.52 0.77
6.76 3.36 -1.47
8.08 4.02 -1.43
12.18 6.06 -1.67
12.65 6.29 -1.24
12.63 6.28 -0.74
12.69 6.31 -0.25
4.86 2.4 -1.45
12.98 6.4 0.25
5.6 2.76 -1.44
13.25 6.53 0.77
6.75 3.33 -1.46
8.08 3.98 -1.43
12.2 6.01 -1.67
12.79 6.31 -1.25
12.74 6.28 -0.74
12.82 6.32 -0.25
4.89 2.39 -1.46
13.12 6.41 0.25
5.61 2.74 -1.44
13.37 6.53 0.78
6.72 3.28 -1.45
7.99 3.9 -1.41
12.19 5.96 -1.67
12.93 6.32 -1.26
12.87 6.29 -0.75
12.98 6.34 -0.25
4.9 2.37 -1.46
13.26 6.42 0.26
5.6 2.71 -1.44
13.53 6.55 0.79
6.74 3.26 -1.46
8.11 3.93 -1.43
12.2 5.91 -1.66
13.07 6.33 -1.27
13 6.3 -0.76
13.11 6.35 -0.25
4.9 2.35 -1.46
13.39 6.43 0.26
5.59 2.68 -1.43
13.68 6.57 0.8
6.7 3.21 -1.44
8.14 3.91 -1.43
12.21 5.86 -1.66
13.21 6.34 -1.28
13.16 6.31 -0.76
13.26 6.37 -0.26
4.91 2.34 -1.46
13.53 6.44 0.26
5.58 2.66 -1.43
13.84 6.58 0.8
6.73 3.2 -1.45
8.17 3.89 -1.43
12.2 5.81 -1.66
13.36 6.36 -1.29
13.26 6.31 -0.77
13.4 6.37 -0.26
4.93 2.33 -1.46
13.68 6.45 0.26
5.59 2.63 -1.43
13.99 6.6 0.81
6.71 3.16 -1.44
8.19 3.86 -1.43
12.22 5.76 -1.66
13.52 6.37 -1.31
13.42 6.33 -0.78
13.54 6.38 -0.26
4.96 2.32 -1.47
13.83 6.46 0.27
5.59 2.61 -1.42
14.15 6.61 0.82
6.73 3.14 -1.44
8.19 3.83 -1.43
12.22 5.71 -1.66
13.68 6.39 -1.32
13.58 6.34 -0.79
13.69 6.39 -0.26
4.97 2.3 -1.47
13.99 6.48 0.27
5.61 2.6 -1.43
14.31 6.63 0.83
6.7 3.1 -1.44
8.21 3.81 -1.43
12.23 5.66 -1.65
13.84 6.41 -1.33
13.71 6.35 -0.79
13.82 6.4 -0.27
4.99 2.29 -1.47
14.16 6.5 0.27
5.62 2.58 -1.43
14.48 6.65 0.84
6.68 3.07 -1.43
8.18 3.76 -1.43
12.23 5.62 -1.65
14.01 6.43 -1.35
13.86 6.36 -0.8
13.98 6.42 -0.27
5 2.27 -1.47
14.29 6.5 0.27
5.63 2.56 -1.43
14.66 6.67 0.84
6.74 3.07 -1.44
8.19 3.73 -1.43
12.24 5.57 -1.65
14.29 6.5 -1.37
14.02 6.38 -0.81
14.14 6.43 -0.27
5 2.25 -1.47
14.46 6.51 0.28
5.66 2.55 -1.43
14.84 6.69 0.85
6.74 3.04 -1.44
8.2 3.7 -1.42
12.26 5.52 -1.65
16.92 7.63 -1.62
14.2 6.4 -0.82
14.32 6.45 -0.27
5.01 2.24 -1.47
14.62 6.53 0.28
5.69 2.54 -1.44
15.01 6.7 0.86
6.77 3.02 -1.44
8.2 3.66 -1.42
12.26 5.47 -1.65
16.89 7.54 -1.62
14.34 6.4 -0.82
14.48 6.46 -0.28
5.03 2.22 -1.47
14.78 6.54 0.28
5.72 2.53 -1.44
15.2 6.72 0.87
6.77 3 -1.44
8.23 3.64 -1.43
12.28 5.43 -1.65
16.93 7.49 -1.62
14.51 6.42 -0.83
14.63 6.47 -0.28
5.04 2.21 -1.47
14.95 6.55 0.28
5.73 2.51 -1.44
15.41 6.75 0.88
6.8 2.98 -1.44
8.26 3.62 -1.43
12.3 5.39 -1.65
16.94 7.42 -1.62
14.68 6.44 -0.84
14.8 6.49 -0.28
5.04 2.19 -1.47
15.13 6.57 0.29
5.74 2.49 -1.45
15.63 6.79 0.89
6.79 2.95 -1.44
8.14 3.53 -1.41
12.29 5.34 -1.65
15.35 6.67 -1.46
14.86 6.45 -0.85
14.98 6.5 -0.29
5.05 2.17 -1.47
15.31 6.58 0.29
5.74 2.47 -1.44
15.83 6.81 0.9
6.79 2.92 -1.44
8.16 3.51 -1.41
12.28 5.28 -1.64
15.36 6.61 -1.46
15.02 6.46 -0.86
15.16 6.52 -0.29
5.09 2.17 -1.48
15.49 6.6 0.29
5.75 2.45 -1.44
16.06 6.84 0.91
6.79 2.89 -1.43
8.21 3.5 -1.41
10.8 4.6 -1.44
15.37 6.55 -1.46
15.22 6.48 -0.87
15.33 6.53 -0.29
5.09 2.15 -1.48
15.69 6.62 0.3
5.77 2.43 -1.45
6.77 2.86 -1.43
8.24 3.48 -1.42
10.8 4.56 -1.44
15.42 6.5 -1.46
15.36 6.48 -0.87
15.49 6.53 -0.29
5.09 2.13 -1.48
15.88 6.63 0.3
5.79 2.42 -1.45
6.78 2.83 -1.43
8.29 3.46 -1.42
10.92 4.56 -1.45
15.71 6.56 -1.49
15.99 6.68 -0.91
15.68 6.55 -0.3
5.09 2.1 -1.47
16.07 6.65 0.3
5.82 2.41 -1.45
6.78 2.8 -1.43
8.24 3.41 -1.41
11.01 4.55 -1.46
15.8 6.53 -1.5
16.02 6.63 -0.91
15.88 6.57 -0.3
5.1 2.09 -1.48
16.28 6.67 0.31
5.84 2.39 -1.46
6.78 2.78 -1.42
8.33 3.41 -1.43
10.95 4.49 -1.45
16.98 6.95 -1.61
15.92 6.52 -0.9
16.06 6.58 -0.3
5.14 2.08 -1.49
16.5 6.69 0.31
5.88 2.38 -1.46
6.78 2.75 -1.42
8.37 3.39 -1.43
10.75 4.36 -1.42
17.01 6.9 -1.61
16.16 6.55 -0.91
16.25 6.59 -0.31
5.18 2.08 -1.49
16.73 6.72 0.31
5.89 2.37 -1.47
6.78 2.72 -1.42
8.38 3.37 -1.43
10.66 4.28 -1.41
17 6.83 -1.6
16.36 6.57 -0.92
16.44 6.6 -0.31
5.2 2.07 -1.5
16.86 6.71 0.32
5.92 2.35 -1.47
6.76 2.69 -1.42
8.39 3.34 -1.43
10.64 4.23 -1.41
17.01 6.76 -1.6
16.58 6.6 -0.94
16.67 6.63 -0.31
5.21 2.05 -1.5
5.93 2.34 -1.47
6.76 2.66 -1.41
8.37 3.3 -1.43
10.61 4.18 -1.4
17.01 6.7 -1.6
16.8 6.62 -0.95
16.88 6.64 -0.32
5.23 2.04 -1.51
5.93 2.31 -1.47
6.77 2.64 -1.41
8.31 3.23 -1.41
10.61 4.13 -1.4
17.03 6.63 -1.6
17.03 6.63 -0.96
5.24 2.02 -1.51
5.94 2.29 -1.47
6.79 2.62 -1.41
8.29 3.2 -1.41
10.6 4.09 -1.4
17.05 6.57 -1.6
5.3 2.02 -1.52
5.99 2.28 -1.48
6.81 2.6 -1.42
8.26 3.15 -1.4
10.64 4.06 -1.4
17.06 6.51 -1.6
5.32 2.01 -1.52
6.04 2.28 -1.49
6.91 2.61 -1.44
8.27 3.12 -1.4
10.7 4.04 -1.4
17.04 6.43 -1.59
5.35 2 -1.53
6.05 2.26 -1.49
6.93 2.59 -1.44
8.26 3.08 -1.4
10.72 4 -1.4
17.07 6.37 -1.59
5.38 1.99 -1.54
6.02 2.22 -1.48
6.89 2.54 -1.43
8.27 3.06 -1.4
10.67 3.94 -1.4
17.06 6.3 -1.59
5.38 1.97 -1.54
6.02 2.2 -1.48
6.87 2.51 -1.42
8.3 3.04 -1.4
10.66 3.9 -1.39
17.06 6.24 -1.59
5.39 1.95 -1.54
6.02 2.18 -1.48
6.87 2.49 -1.42
8.32 3.01 -1.4
10.67 3.86 -1.39
17.05 6.17 -1.59
5.4 1.93 -1.54
6 2.15 -1.47
6.89 2.46 -1.42
8.28 2.96 -1.39
10.66 3.81 -1.39
17.04 6.09 -1.58
5.45 1.93 -1.55
6.03 2.13 -1.48
6.92 2.45 -1.43
8.29 2.93 -1.39
10.83 3.83 -1.41
17.03 6.03 -1.58
5.51 1.93 -1.56
6.04 2.11 -1.48
6.94 2.43 -1.43
8.33 2.92 -1.4
10.66 3.73 -1.39
17.06 5.97 -1.58
30 10.5 -0.55
5.58 1.93 -1.58
6.08 2.11 -1.49
6.97 2.41 -1.43
8.35 2.89 -1.4
10.73 3.71 -1.39
17.05 5.9 -1.58
5.66 1.94 -1.6
6.13 2.1 -1.5
6.99 2.39 -1.44
8.29 2.84 -1.39
10.72 3.67 -1.39
17.05 5.84 -1.58
5.73 1.94 -1.62
6.18 2.09 -1.51
7 2.37 -1.44
8.33 2.82 -1.39
10.77 3.64 -1.4
17.05 5.77 -1.57
5.75 1.92 -1.63
6.22 2.08 -1.52
7.01 2.35 -1.44
8.35 2.79 -1.39
10.79 3.61 -1.4
17.04 5.7 -1.57
5.77 1.91 -1.63
6.24 2.06 -1.52
7.03 2.32 -1.44
8.26 2.73 -1.38
10.83 3.58 -1.4
17.04 5.63 -1.57
5.78 1.89 -1.63
6.24 2.04 -1.52
7.05 2.3 -1.44
8.28 2.71 -1.38
10.88 3.55 -1.4
17.05 5.57 -1.57
5.79 1.87 -1.63
6.26 2.02 -1.52
7.13 2.3 -1.46
8.32 2.69 -1.39
10.69 3.45 -1.38
14.98 4.84 -1.38
5.78 1.85 -1.63
6.28 2 -1.52
7.22 2.3 -1.47
8.36 2.67 -1.39
10.77 3.44 -1.39
14.95 4.77 -1.37
5.79 1.82 -1.63
6.3 1.99 -1.53
7.17 2.26 -1.46
8.4 2.65 -1.4
10.59 3.34 -1.36
14.89 4.7 -1.37
5.81 1.81 -1.63
6.37 1.99 -1.54
7.15 2.23 -1.46
8.45 2.63 -1.4
10.45 3.26 -1.34
14.85 4.63 -1.36
5.81 1.79 -1.63
6.46 1.99 -1.56
7.2 2.22 -1.46
8.45 2.6 -1.4
10.44 3.21 -1.34
14.69 4.52 -1.34
5.81 1.77 -1.63
6.56 2 -1.58
7.2 2.19 -1.46
8.43 2.56 -1.4
10.44 3.17 -1.34
14.65 4.45 -1.34
5.81 1.74 -1.62
6.66 2 -1.6
7.25 2.18 -1.47
8.42 2.53 -1.39
10.45 3.14 -1.34
14.59 4.38 -1.33
5.82 1.72 -1.63
6.72 1.99 -1.62
7.3 2.16 -1.48
8.47 2.51 -1.4
10.54 3.13 -1.35
14.61 4.33 -1.33
5.83 1.71 -1.63
6.72 1.97 -1.62
7.34 2.15 -1.49
8.47 2.48 -1.4
10.58 3.1 -1.35
14.76 4.32 -1.35
5.84 1.69 -1.63
6.73 1.95 -1.62
7.4 2.14 -1.5
8.48 2.45 -1.4
10.5 3.04 -1.34
14.82 4.28 -1.35
5.85 1.67 -1.63
6.75 1.92 -1.62
7.35 2.1 -1.48
8.54 2.44 -1.41
10.54 3.01 -1.35
14.86 4.24 -1.35
5.83 1.64 -1.62
6.75 1.9 -1.62
7.43 2.09 -1.5
8.52 2.4 -1.4
10.6 2.98 -1.35
14.9 4.19 -1.35
5.84 1.62 -1.62
6.77 1.88 -1.62
7.45 2.07 -1.5
8.54 2.37 -1.4
10.59 2.94 -1.35
14.9 4.14 -1.35
5.85 1.6 -1.63
6.76 1.85 -1.62
7.52 2.06 -1.51
8.58 2.35 -1.41
10.57 2.9 -1.35
14.99 4.11 -1.36
5.87 1.59 -1.63
6.76 1.83 -1.62
7.61 2.06 -1.53
8.6 2.32 -1.41
10.65 2.88 -1.35
14.97 4.05 -1.36
25.17 6.8 -1.37
5.87 1.57 -1.63
6.77 1.81 -1.62
7.74 2.07 -1.56
8.63 2.3 -1.41
10.75 2.87 -1.37
14.91 3.98 -1.35
5.86 1.54 -1.62
6.78 1.78 -1.62
7.86 2.07 -1.58
8.7 2.29 -1.43
10.77 2.83 -1.37
14.91 3.92 -1.35
25.88 6.81 -0.47
5.88 1.52 -1.63
6.78 1.76 -1.62
7.92 2.05 -1.59
8.72 2.26 -1.43
10.8 2.8 -1.37
14.87 3.86 -1.34
5.89 1.51 -1.63
6.77 1.73 -1.61
7.95 2.03 -1.59
8.81 2.25 -1.44
10.76 2.75 -1.36
14.76 3.77 -1.33
5.9 1.49 -1.63
6.78 1.71 -1.61
7.94 2 -1.59
8.9 2.24 -1.45
10.76 2.71 -1.36
14.95 3.76 -1.35
5.91 1.47 -1.63
6.79 1.68 -1.62
7.95 1.97 -1.59
8.93 2.22 -1.46
10.77 2.67 -1.36
14.78 3.66 -1.33
5.9 1.44 -1.63
6.8 1.66 -1.62
7.96 1.95 -1.59
8.97 2.19 -1.46
10.82 2.65 -1.37
14.59 3.57 -1.31
5.92 1.43 -1.63
6.81 1.64 -1.62
7.97 1.92 -1.59
8.97 2.16 -1.46
10.82 2.61 -1.37
14.43 3.48 -1.3
5.92 1.4 -1.63
6.8 1.61 -1.61
7.98 1.89 -1.59
9.01 2.13 -1.47
10.84 2.57 -1.37
14.42 3.42 -1.3
53.98 12.79 -0.97
5.95 1.39 -1.64
6.81 1.59 -1.62
7.98 1.86 -1.59
9.18 2.14 -1.49
10.82 2.52 -1.36
14.53 3.39 -1.3
5.94 1.37 -1.63
6.83 1.57 -1.62
7.99 1.84 -1.59
9.4 2.16 -1.53
10.88 2.5 -1.37
14.56 3.35 -1.31
5.94 1.34 -1.63
6.84 1.55 -1.62
7.99 1.81 -1.59
9.53 2.16 -1.55
10.9 2.46 -1.37
14.62 3.3 -1.31
23.27 5.26 -1.25
5.95 1.32 -1.63
6.84 1.52 -1.62
8 1.78 -1.59
9.58 2.13 -1.56
11.03 2.46 -1.39
14.69 3.27 -1.32
23.23 5.17 -1.25
5.97 1.31 -1.64
6.84 1.5 -1.62
8.01 1.75 -1.59
9.6 2.1 -1.56
11.16 2.44 -1.4
14.7 3.22 -1.32
23.02 5.04 -1.24
5.97 1.29 -1.64
6.85 1.48 -1.62
8.02 1.73 -1.59
9.61 2.07 -1.56
11.31 2.44 -1.42
14.61 3.15 -1.31
22.95 4.94 -1.23
5.98 1.27 -1.64
6.86 1.45 -1.62
8.02 1.7 -1.59
9.63 2.04 -1.56
11.38 2.41 -1.43
14.54 3.08 -1.3
22.97 4.86 -1.23
5.97 1.24 -1.63
6.88 1.43 -1.62
8.02 1.67 -1.59
9.63 2 -1.56
11.41 2.38 -1.43
14.59 3.04 -1.3
22.95 4.78 -1.23
5.99 1.22 -1.64
6.88 1.41 -1.62
8.03 1.64 -1.59
25.64 5.24 2.29
9.63 1.97 -1.56
11.45 2.34 -1.43
14.63 2.99 -1.31
22.96 4.7 -1.23
6 1.2 -1.64
6.88 1.38 -1.62
8.04 1.62 -1.59
25.62 5.15 2.29
9.63 1.94 -1.56
11.45 2.3 -1.43
14.69 2.95 -1.31
23.07 4.63 -1.23
6 1.18 -1.64
6.9 1.36 -1.62
8.05 1.59 -1.59
25.64 5.06 2.29
9.64 1.9 -1.56
11.6 2.29 -1.45
14.76 2.91 -1.32
23.11 4.56 -1.23
6 1.16 -1.64
6.9 1.34 -1.62
8.05 1.56 -1.59
25.65 4.96 2.29
9.65 1.87 -1.56
11.86 2.29 -1.48
14.85 2.87 -1.32
23.03 4.46 -1.23
6 1.14 -1.64
6.91 1.31 -1.62
8.06 1.53 -1.6
9.66 1.83 -1.56
12.13 2.3 -1.52
14.79 2.81 -1.32
23.03 4.37 -1.23
6.01 1.12 -1.64
6.92 1.29 -1.63
8.07 1.51 -1.6
9.66 1.8 -1.56
25.64 4.78 3.2
12.23 2.28 -1.53
14.91 2.78 -1.33
23.14 4.31 -1.23
6.02 1.1 -1.64
6.91 1.26 -1.62
8.08 1.48 -1.6
9.67 1.77 -1.56
25.59 4.68 3.19
12.24 2.24 -1.53
14.92 2.73 -1.33
23.06 4.21 -1.23
6.02 1.08 -1.64
6.93 1.24 -1.62
25.84 4.64 1.38
8.09 1.45 -1.6
25.71 4.61 2.28
9.68 1.74 -1.56
25.59 4.59 3.19
12.24 2.2 -1.53
14.97 2.68 -1.33
23.14 4.15 -1.23
6.02 1.06 -1.64
6.94 1.22 -1.63
25.87 4.54 1.38
8.09 1.42 -1.6
25.72 4.52 2.28
9.68 1.7 -1.56
25.62 4.5 3.19
12.24 2.15 -1.53
15.11 2.65 -1.34
22.96 4.03 -1.22
6.02 1.04 -1.64
6.95 1.2 -1.63
25.75 4.43 1.37
8.1 1.4 -1.6
25.73 4.43 2.28
8.71 1.5 -1.4
25.65 4.42 3.2
8.4 1.45 -1.05
8.59 1.48 -0.76
23.12 3.98 -1.23
6.02 1.02 -1.64
6.95 1.17 -1.63
25.75 4.34 1.37
8.11 1.37 -1.6
25.75 4.34 2.28
8.52 1.44 -1.37
25.7 4.33 3.2
8.22 1.38 -1.02
8.21 1.38 -0.73
23.12 3.9 -1.23
25.96 4.37 -0.46
6.03 1 -1.64
26 4.29 0.46
6.94 1.15 -1.62
25.79 4.26 1.37
8.12 1.34 -1.6
25.76 4.25 2.28
8.5 1.4 -1.37
25.65 4.23 3.19
8.13 1.34 -1.01
26.08 4.3 4.19
8.09 1.33 -0.72
8.17 1.35 -0.43
8.24 1.36 -0.15
6.04 0.98 -1.64
6.95 1.12 -1.63
25.87 4.17 1.37
8.13 1.31 -1.6
25.78 4.16 2.28
8.52 1.37 -1.37
25.68 4.14 3.19
8.08 1.3 -1
26.02 4.2 4.17
8.13 1.31 -0.72
8.13 1.31 -0.43
8.17 1.32 -0.14
6.05 0.95 -1.64
8.21 1.3 0.15
6.96 1.1 -1.63
25.89 4.09 1.37
8.12 1.28 -1.6
25.79 4.07 2.28
8.52 1.35 -1.37
25.69 4.05 3.19
8.05 1.27 -1
8.11 1.28 -0.72
8.05 1.27 -0.43
8.09 1.28 -0.14
6.03 0.93 -1.63
8.15 1.26 0.14
6.96 1.07 -1.63
25.9 3.99 1.37
8.14 1.25 -1.6
25.8 3.98 2.28
8.53 1.31 -1.37
25.71 3.96 3.19
8.07 1.24 -1
8.02 1.24 -0.71
8.05 1.24 -0.43
8.07 1.24 -0.14
6.03 0.91 -1.64
8.1 1.22 0.14
6.97 1.05 -1.63
8.14 1.23 -1.6
25.81 3.89 2.28
8.51 1.28 -1.36
25.75 3.88 3.2
8.07 1.22 -1
8.01 1.21 -0.71
8.03 1.21 -0.43
8.05 1.21 -0.14
6.04 0.89 -1.64
8.08 1.19 0.14
6.96 1.02 -1.62
8.15 1.2 -1.6
25.84 3.8 2.28
8.54 1.26 -1.37
25.77 3.79 3.2
8.06 1.18 -1
8.02 1.18 -0.71
8 1.18 -0.42
8.04 1.18 -0.14
6.05 0.87 -1.64
8.1 1.16 0.14
6.96 1 -1.62
8.15 1.17 -1.6
25.84 3.71 2.28
9.02 1.29 -1.44
8.05 1.16 -1
8.01 1.15 -0.71
8 1.15 -0.42
8.03 1.15 -0.14
6.05 0.85 -1.64
6.96 0.97 -1.62
8.15 1.14 -1.6
25.85 3.62 2.28
8 1.12 -1.28
8.05 1.13 -1
7.99 1.12 -0.71
8.01 1.12 -0.42
8.02 1.12 -0.14
6.04 0.83 -1.63
8.08 1.11 0.14
6.97 0.95 -1.62
8.15 1.11 -1.6
25.86 3.54 2.28
9.78 1.34 -1.56
8.05 1.1 -1
7.97 1.09 -0.7
8.01 1.1 -0.42
8.03 1.1 -0.14
6.04 0.8 -1.63
8.06 1.07 0.14
6.98 0.93 -1.63
8.16 1.09 -1.6
9.78 1.3 -1.56
8.05 1.07 -1
7.97 1.06 -0.7
8 1.07 -0.42
6.05 0.78 -1.63
8.06 1.05 0.14
6.96 0.9 -1.62
8.16 1.06 -1.6
25.95 3.37 2.29
9.79 1.27 -1.56
8.05 1.04 -1
7.97 1.03 -0.7
7.98 1.04 -0.42
8.04 1.04 -0.14
6.05 0.76 -1.64
8.05 1.01 0.14
6.96 0.88 -1.62
8.16 1.03 -1.6
9.79 1.23 -1.56
8.04 1.01 -1
7.98 1.01 -0.7
7.98 1.01 -0.42
8.02 1.01 -0.14
6.06 0.74 -1.63
8.06 0.99 0.14
6.97 0.85 -1.62
8.15 1 -1.6
9.8 1.2 -1.56
8.05 0.99 -1
7.98 0.98 -0.7
7.98 0.98 -0.42
8.01 0.98 -0.14
6.05 0.72 -1.63
8.05 0.96 0.14
6.97 0.83 -1.62
8.16 0.97 -1.6
9.8 1.17 -1.56
8.05 0.96 -1
7.97 0.95 -0.7
7.98 0.95 -0.42
8 0.95 -0.14
6.05 0.7 -1.63
8.05 0.93 0.14
6.98 0.81 -1.62
8.17 0.94 -1.6
7.97 0.92 -1.27
8.05 0.93 -0.99
7.97 0.92 -0.7
7.98 0.92 -0.42
8.01 0.93 -0.14
6.05 0.68 -1.63
8.04 0.9 0.14
6.97 0.78 -1.62
8.17 0.91 -1.6
7.97 0.89 -1.27
8.04 0.9 -0.99
7.97 0.89 -0.7
7.96 0.89 -0.42
8.01 0.9 -0.14
6.06 0.66 -1.63
8.04 0.87 0.14
6.97 0.76 -1.62
8.16 0.89 -1.6
9.81 1.06 -1.56
8.03 0.87 -0.99
7.97 0.86 -0.7
7.96 0.86 -0.42
8 0.87 -0.14
6.06 0.64 -1.63
8.03 0.84 0.14
6.98 0.73 -1.62
8.16 0.86 -1.59
9.81 1.03 -1.56
8.03 0.84 -0.99
7.98 0.84 -0.7
7.97 0.84 -0.42
8 0.84 -0.14
6.05 0.61 -1.63
8.03 0.81 0.14
6.98 0.71 -1.62
8.16 0.83 -1.59
9.81 0.99 -1.56
8.04 0.81 -0.99
7.97 0.81 -0.7
7.97 0.81 -0.42
8 0.81 -0.14
6.06 0.59 -1.63
8.02 0.79 0.14
6.99 0.68 -1.62
8.16 0.8 -1.59
9.8 0.96 -1.56
8.03 0.79 -0.99
7.98 0.78 -0.7
7.97 0.78 -0.42
8 0.78 -0.14
6.07 0.57 -1.63
8.03 0.76 0.14
6.98 0.66 -1.62
8.17 0.77 -1.59
9.8 0.93 -1.56
8.03 0.76 -0.99
7.97 0.75 -0.7
7.96 0.75 -0.42
8 0.76 -0.14
6.07 0.55 -1.63
8.04 0.73 0.14
6.98 0.64 -1.62
8.16 0.74 -1.59
58.37 5.31 5.13
9.8 0.89 -1.56
8.02 0.73 -0.99
7.98 0.73 -0.7
7.96 0.72 -0.42
8.01 0.73 -0.14
6.07 0.53 -1.63
8.04 0.7 0.14
6.98 0.61 -1.62
8.16 0.71 -1.59
9.8 0.86 -1.56
8.02 0.7 -0.99
7.98 0.7 -0.7
7.97 0.7 -0.42
7.99 0.7 -0.14
6.06 0.51 -1.63
8.04 0.68 0.14
6.99 0.59 -1.62
8.16 0.69 -1.59
9.81 0.82 -1.56
8.03 0.67 -0.99
7.97 0.67 -0.7
7.97 0.67 -0.42
8 0.67 -0.14
6.06 0.49 -1.63
8.02 0.65 0.14
6.99 0.56 -1.62
8.18 0.66 -1.59
9.8 0.79 -1.56
8.02 0.65 -0.99
7.98 0.64 -0.7
7.97 0.64 -0.42
7.98 0.64 -0.14
6.07 0.47 -1.63
8.03 0.62 0.14
6.98 0.54 -1.62
8.17 0.63 -1.59
9.8 0.75 -1.56
8.03 0.62 -0.99
7.98 0.61 -0.7
7.96 0.61 -0.42
8.01 0.62 -0.14
6.08 0.45 -1.63
8.04 0.59 0.14
6.98 0.51 -1.62
8.18 0.6 -1.59
9.8 0.72 -1.56
8.01 0.59 -0.99
7.99 0.59 -0.7
7.96 0.58 -0.42
8.01 0.59 -0.14
6.08 0.43 -1.63
8.04 0.56 0.14
6.99 0.49 -1.62
8.17 0.57 -1.59
9.82 0.69 -1.56
8.02 0.56 -0.99
7.99 0.56 -0.7
7.97 0.56 -0.42
8 0.56 -0.14
6.07 0.4 -1.63
8.03 0.54 0.14
7 0.47 -1.62
8.18 0.54 -1.59
9.81 0.65 -1.56
8.02 0.53 -0.99
7.98 0.53 -0.7
7.98 0.53 -0.42
8 0.53 -0.14
6.07 0.38 -1.63
8.03 0.51 0.14
6.99 0.44 -1.62
8.18 0.52 -1.59
9.81 0.62 -1.56
8.01 0.51 -0.99
7.99 0.5 -0.7
7.97 0.5 -0.42
8 0.51 -0.14
6.08 0.36 -1.63
8.03 0.48 0.14
6.98 0.41 -1.61
8.19 0.49 -1.59
9.81 0.58 -1.56
8.02 0.48 -0.99
7.99 0.47 -0.7
26.33 1.56 5.13
7.97 0.47 -0.42
8.02 0.48 -0.14
6.08 0.34 -1.63
8.04 0.45 0.14
6.99 0.39 -1.62
8.19 0.46 -1.59
9.81 0.55 -1.56
8 0.45 -0.98
7.99 0.45 -0.7
26.4 1.48 5.14
7.97 0.45 -0.42
8.02 0.45 -0.14
6.08 0.32 -1.63
8.05 0.42 0.14
6.99 0.37 -1.62
8.18 0.43 -1.59
9.81 0.52 -1.56
8.01 0.42 -0.98
7.99 0.42 -0.7
7.98 0.42 -0.42
8.01 0.42 -0.14
6.07 0.3 -1.63
8.04 0.39 0.14
7 0.34 -1.62
8.18 0.4 -1.59
9.81 0.48 -1.56
8.01 0.39 -0.99
7.99 0.39 -0.7
7.98 0.39 -0.42
8.02 0.39 -0.14
6.07 0.28 -1.63
8.03 0.37 0.14
6.99 0.32 -1.62
8.18 0.37 -1.59
9.8 0.45 -1.55
8.02 0.37 -0.99
7.99 0.36 -0.7
7.98 0.36 -0.42
8.02 0.37 -0.14
6.07 0.26 -1.63
8.04 0.34 0.14
6.98 0.29 -1.61
8.19 0.34 -1.59
9.8 0.41 -1.55
8.02 0.34 -0.99
7.99 0.34 -0.7
7.97 0.34 -0.42
8.03 0.34 -0.14
6.07 0.23 -1.63
8.05 0.31 0.14
6.98 0.27 -1.61
8.18 0.32 -1.59
9.81 0.38 -1.55
8.01 0.31 -0.98
8 0.31 -0.7
7.98 0.31 -0.42
8.03 0.31 -0.14
6.07 0.21 -1.63
8.05 0.28 0.14
6.99 0.25 -1.61
8.18 0.29 -1.59
9.8 0.34 -1.55
8.02 0.28 -0.99
8 0.28 -0.7
7.99 0.28 -0.42
7.99 0.28 -0.14
6.06 0.19 -1.63
8.06 0.26 0.14
6.99 0.22 -1.61
8.17 0.26 -1.59
9.81 0.31 -1.55
8.03 0.26 -0.99
8 0.25 -0.7
8.01 0.25 -0.42
8.03 0.26 -0.14
6.07 0.17 -1.63
8.06 0.23 0.14
6.99 0.2 -1.61
8.17 0.23 -1.59
9.81 0.28 -1.55
8.03 0.23 -0.99
8.01 0.23 -0.7
8.01 0.23 -0.42
8.04 0.23 -0.14
6.08 0.15 -1.63
8.06 0.2 0.14
6.97 0.17 -1.61
8.18 0.2 -1.59
9.8 0.24 -1.55
8.04 0.2 -0.99
8.01 0.2 -0.7
8 0.2 -0.42
8.05 0.2 -0.14
6.08 0.13 -1.63
8.07 0.17 0.14
6.98 0.15 -1.61
8.18 0.17 -1.59
9.81 0.21 -1.55
8.04 0.17 -0.99
8.01 0.17 -0.7
7.99 0.17 -0.42
8.04 0.17 -0.14
6.08 0.11 -1.63
8.07 0.14 0.14
6.98 0.12 -1.61
8.17 0.15 -1.59
9.81 0.17 -1.55
8.04 0.14 -0.99
8.02 0.14 -0.7
8 0.14 -0.42
8.04 0.14 -0.14
6.06 0.09 -1.62
8.07 0.12 0.14
6.98 0.1 -1.61
8.17 0.12 -1.59
9.81 0.14 -1.55
8.05 0.12 -0.99
8.01 0.11 -0.7
8.01 0.11 -0.42
8.05 0.12 -0.14
6.07 0.07 -1.63
8.07 0.09 0.14
6.99 0.08 -1.61
8.17 0.09 -1.59
9.81 0.11 -1.55
8.06 0.09 -0.99
8.02 0.09 -0.7
8.01 0.09 -0.42
8.06 0.09 -0.14
6.07 0.04 -1.63
8.08 0.06 0.14
6.97 0.05 -1.61
8.17 0.06 -1.59
9.82 0.07 -1.55
8.07 0.06 -0.99
8.02 0.06 -0.7
8 0.06 -0.42
8.06 0.06 -0.14
6.07 0.02 -1.63
8.1 0.03 0.14
6.97 0.03 -1.61
8.18 0.03 -1.59
8.13 0.03 -1.29
8.05 0.03 -0.99
8.03 0.03 -0.7
8.01 0.03 -0.42
8.07 0.03 -0.14
6.08 0 -1.63
8.11 0 0.14
6.98 0 -1.61
8.18 0 -1.59
8.11 0 -1.29
8.06 0 -0.99
8.03 0 -0.7
8.02 0 -0.42
8.06 0 -0.14
6.07 -0.02 -1.63
8.11 -0.02 0.14
6.99 -0.02 -1.61
8.18 -0.02 -1.59
9.82 -0.03 -1.56
8.07 -0.02 -0.99
8.03 -0.02 -0.7
8.03 -0.02 -0.42
8.07 -0.02 -0.14
6.07 -0.04 -1.63
8.11 -0.05 0.14
7 -0.05 -1.62
8.19 -0.05 -1.59
9.83 -0.06 -1.56
8.08 -0.05 -0.99
8.03 -0.05 -0.7
8.04 -0.05 -0.42
8.08 -0.05 -0.14
6.08 -0.06 -1.63
8.11 -0.08 0.14
6.99 -0.07 -1.61
8.2 -0.08 -1.59
9.84 -0.1 -1.56
8.08 -0.08 -0.99
8.04 -0.08 -0.7
8.03 -0.08 -0.42
8.1 -0.08 -0.14
6.08 -0.08 -1.63
8.13 -0.11 0.14
6.99 -0.09 -1.61
8.2 -0.11 -1.59
9.85 -0.13 -1.56
8.08 -0.11 -0.99
8.05 -0.11 -0.7
8.05 -0.11 -0.42
8.11 -0.11 -0.14
6.08 -0.1 -1.63
8.14 -0.14 0.14
7.01 -0.12 -1.62
8.21 -0.14 -1.6
9.85 -0.17 -1.56
8.09 -0.14 -0.99
8.05 -0.14 -0.7
8.06 -0.14 -0.42
8.11 -0.14 -0.14
6.07 -0.12 -1.63
8.15 -0.17 0.14
7.01 -0.14 -1.62
8.21 -0.17 -1.6
9.86 -0.2 -1.56
8.1 -0.17 -0.99
8.05 -0.16 -0.7
8.08 -0.16 -0.42
6.08 -0.15 -1.63
8.15 -0.19 0.14
7.01 -0.17 -1.62
8.21 -0.2 -1.6
8.11 -0.19 -1
8.06 -0.19 -0.71
8.08 -0.19 -0.42
6.08 -0.17 -1.63
8.16 -0.22 0.14
7 -0.19 -1.62
8.22 -0.23 -1.6
8.04 -0.22 -1.27
8.12 -0.22 -1
8.08 -0.22 -0.71
8.07 -0.22 -0.42
8.12 -0.22 -0.14
6.09 -0.19 -1.63
8.14 -0.25 0.14
7.01 -0.21 -1.62
8.22 -0.25 -1.6
8.61 -0.26 -1.36
8.12 -0.25 -1
8.09 -0.25 -0.71
8.09 -0.25 -0.42
8.13 -0.25 -0.14
6.1 -0.21 -1.64
8.18 -0.28 0.14
7.02 -0.24 -1.62
8.21 -0.28 -1.6
8.62 -0.29 -1.37
8.14 -0.28 -1
8.11 -0.28 -0.71
8.1 -0.28 -0.42
8.14 -0.28 -0.14
6.09 -0.23 -1.63
8.23 -0.31 0.14
7.02 -0.26 -1.62
8.21 -0.31 -1.6
8.6 -0.32 -1.36
8.14 -0.31 -1
8.13 -0.31 -0.71
8.13 -0.31 -0.43
8.15 -0.31 -0.14
6.1 -0.25 -1.63
8.27 -0.34 0.14
7.02 -0.29 -1.62
8.22 -0.34 -1.6
8.61 -0.35 -1.37
8.16 -0.33 -1
8.18 -0.34 -0.72
8.17 -0.34 -0.43
8.2 -0.34 -0.14
6.09 -0.27 -1.63
7.02 -0.31 -1.62
8.22 -0.37 -1.6
8.63 -0.39 -1.37
8.19 -0.37 -1.01
8.22 -0.37 -0.72
8.23 -0.37 -0.43
8.27 -0.37 -0.14
6.1 -0.29 -1.64
7.02 -0.34 -1.62
8.22 -0.4 -1.6
8.63 -0.42 -1.37
8.26 -0.4 -1.01
8.22 -0.4 -0.72
8.26 -0.4 -0.43
6.09 -0.31 -1.64
7.02 -0.36 -1.62
8.2 -0.42 -1.6
8.65 -0.45 -1.37
8.39 -0.43 -1.03
8.57 -0.44 -0.75
6.09 -0.34 -1.63
7.03 -0.39 -1.63
8.2 -0.45 -1.6
24.92 -1.37 -1.31
6.08 -0.36 -1.63
7.03 -0.41 -1.63
8.2 -0.48 -1.6
9.8 -0.57 -1.55
12.29 -0.72 -1.51
16.38 -0.96 -1.44
24.96 -1.46 -1.31
6.1 -0.38 -1.64
7.01 -0.44 -1.62
8.21 -0.51 -1.6
9.79 -0.61 -1.55
12.27 -0.76 -1.51
16.37 -1.02 -1.43
24.96 -1.55 -1.31
6.1 -0.4 -1.64
7.02 -0.46 -1.62
8.2 -0.54 -1.6
9.78 -0.64 -1.55
12.25 -0.8 -1.51
16.36 -1.07 -1.43
24.94 -1.63 -1.31
6.09 -0.42 -1.64
7.02 -0.48 -1.63
8.19 -0.57 -1.6
9.77 -0.67 -1.55
12.24 -0.85 -1.51
16.35 -1.13 -1.43
24.91 -1.72 -1.31
6.08 -0.44 -1.63
7.02 -0.51 -1.63
8.18 -0.59 -1.59
9.77 -0.71 -1.55
12.24 -0.89 -1.51
16.31 -1.18 -1.43
24.89 -1.8 -1.31
6.09 -0.46 -1.64
7.01 -0.53 -1.62
8.17 -0.62 -1.59
9.75 -0.74 -1.55
12.25 -0.93 -1.51
16.29 -1.24 -1.43
24.87 -1.89 -1.31
6.08 -0.48 -1.64
7 -0.56 -1.62
8.17 -0.65 -1.59
9.75 -0.78 -1.55
12.25 -0.98 -1.51
16.29 -1.3 -1.43
24.88 -1.98 -1.31
6.09 -0.51 -1.64
7 -0.58 -1.62
8.16 -0.68 -1.59
9.74 -0.81 -1.55
12.24 -1.02 -1.51
25.81 -2.14 4.1
16.28 -1.35 -1.43
24.82 -2.06 -1.31
6.09 -0.53 -1.64
6.99 -0.6 -1.62
8.14 -0.7 -1.59
9.74 -0.84 -1.55
12.24 -1.06 -1.51
25.8 -2.23 4.1
16.29 -1.41 -1.43
25.72 -2.22 5.02
24.76 -2.14 -1.3
6.08 -0.55 -1.64
7 -0.63 -1.62
8.15 -0.73 -1.59
9.73 -0.88 -1.55
12.25 -1.1 -1.51
25.84 -2.32 4.11
16.31 -1.47 -1.43
25.72 -2.31 5.02
6.08 -0.57 -1.64
6.99 -0.65 -1.62
8.14 -0.76 -1.59
9.72 -0.91 -1.55
12.25 -1.14 -1.51
16.31 -1.52 -1.43
25.73 -2.4 5.02
20.54 -1.92 -1.08
6.07 -0.59 -1.64
6.97 -0.67 -1.62
8.14 -0.79 -1.59
9.7 -0.94 -1.54
12.25 -1.19 -1.51
16.32 -1.58 -1.43
6.08 -0.61 -1.64
6.97 -0.7 -1.62
8.13 -0.82 -1.59
9.71 -0.98 -1.54
12.23 -1.23 -1.51
16.3 -1.64 -1.43
6.07 -0.63 -1.64
6.97 -0.73 -1.62
8.11 -0.84 -1.59
9.7 -1.01 -1.55
12.23 -1.27 -1.51
16.29 -1.69 -1.43
6.06 -0.65 -1.63
6.97 -0.75 -1.62
8.11 -0.87 -1.59
9.7 -1.04 -1.54
12.24 -1.31 -1.51
16.27 -1.75 -1.43
6.06 -0.67 -1.63
6.96 -0.77 -1.62
8.1 -0.9 -1.58
9.69 -1.07 -1.54
12.21 -1.35 -1.51
16.26 -1.8 -1.43
18 -2 -0.95
6.05 -0.69 -1.63
6.94 -0.79 -1.61
8.11 -0.93 -1.59
9.69 -1.11 -1.54
12.21 -1.4 -1.51
16.27 -1.86 -1.43
17.74 -2.03 -0.94
6.05 -0.71 -1.63
6.93 -0.82 -1.61
8.1 -0.96 -1.58
9.7 -1.14 -1.55
12.19 -1.44 -1.51
16.28 -1.92 -1.43
6.05 -0.74 -1.63
6.93 -0.84 -1.61
8.08 -0.98 -1.58
9.7 -1.18 -1.55
12.18 -1.48 -1.51
16.28 -1.98 -1.43
6.04 -0.76 -1.63
6.93 -0.87 -1.61
8.07 -1.01 -1.58
9.7 -1.21 -1.55
12.18 -1.52 -1.51
16.26 -2.03 -1.43
6.03 -0.78 -1.63
6.92 -0.89 -1.61
8.08 -1.04 -1.58
9.68 -1.25 -1.55
12.17 -1.57 -1.51
16.27 -2.09 -1.44
6.03 -0.8 -1.63
6.91 -0.91 -1.61
8.08 -1.07 -1.58
9.68 -1.28 -1.55
12.18 -1.61 -1.51
16.29 -2.15 -1.44
6.02 -0.82 -1.63
6.9 -0.94 -1.61
8.07 -1.09 -1.58
9.67 -1.31 -1.55
12.17 -1.65 -1.51
26.16 -3.55 4.18
16.29 -2.21 -1.44
6.02 -0.84 -1.63
6.9 -0.96 -1.61
8.06 -1.12 -1.58
9.68 -1.35 -1.55
12.17 -1.69 -1.51
26.1 -3.63 4.17
16.28 -2.26 -1.44
16.81 -2.34 -0.89
6 -0.86 -1.62
6.89 -0.98 -1.61
8.05 -1.15 -1.58
9.68 -1.38 -1.55
12.16 -1.73 -1.51
26.1 -3.72 4.17
14.01 -2 -1.24
13.94 -1.99 -0.74
6 -0.88 -1.62
6.89 -1.01 -1.61
8.06 -1.18 -1.58
9.66 -1.41 -1.55
12.16 -1.77 -1.51
26.09 -3.81 4.18
13.86 -2.02 -1.23
13.71 -2 -0.73
6 -0.9 -1.62
6.87 -1.03 -1.6
8.06 -1.21 -1.58
9.66 -1.45 -1.55
12.14 -1.82 -1.51
26.15 -3.92 4.19
13.6 -2.04 -1.2
13.48 -2.02 -0.71
13.72 -2.06 -0.24
6 -0.92 -1.63
6.87 -1.05 -1.61
8.05 -1.23 -1.58
9.67 -1.48 -1.55
12.13 -1.86 -1.51
26.2 -4.02 4.2
13.31 -2.04 -1.18
13.35 -2.05 -0.71
13.4 -2.05 -0.24
5.99 -0.94 -1.62
6.87 -1.08 -1.61
8.04 -1.26 -1.58
9.61 -1.51 -1.54
12.12 -1.9 -1.51
13.25 -2.08 -1.17
13.09 -2.06 -0.69
13.14 -2.06 -0.23
5.98 -0.96 -1.62
13.27 -2.13 0.23
6.87 -1.1 -1.61
8.04 -1.29 -1.58
9.62 -1.54 -1.54
12.12 -1.94 -1.51
13.04 -2.09 -1.16
12.87 -2.06 -0.68
12.89 -2.07 -0.23
5.98 -0.98 -1.62
13.03 -2.14 0.23
6.87 -1.13 -1.61
8.04 -1.32 -1.58
9.62 -1.58 -1.54
12.13 -1.99 -1.51
12.8 -2.1 -1.13
12.65 -2.08 -0.67
12.68 -2.08 -0.22
5.98 -1 -1.62
6.86 -1.15 -1.61
8.05 -1.35 -1.59
9.61 -1.61 -1.54
12.12 -2.03 -1.51
12.57 -2.11 -1.11
12.42 -2.08 -0.66
12.47 -2.09 -0.22
5.98 -1.02 -1.63
12.42 -2.13 0.22
6.86 -1.17 -1.61
12.79 -2.19 0.68
8.05 -1.38 -1.59
9.6 -1.64 -1.54
12.12 -2.08 -1.51
12.33 -2.11 -1.09
12.23 -2.09 -0.65
12.29 -2.1 -0.22
5.97 -1.04 -1.62
12.24 -2.14 0.22
6.85 -1.2 -1.61
12.59 -2.2 0.67
8.03 -1.4 -1.58
9.6 -1.68 -1.54
12.13 -2.12 -1.51
12.11 -2.12 -1.08
12.03 -2.1 -0.64
12.1 -2.11 -0.21
5.96 -1.06 -1.62
12.14 -2.16 0.22
6.86 -1.22 -1.61
12.39 -2.21 0.66
8.03 -1.43 -1.58
9.6 -1.71 -1.54
12.13 -2.16 -1.51
11.89 -2.12 -1.06
11.84 -2.11 -0.63
11.96 -2.13 -0.21
5.95 -1.08 -1.62
11.93 -2.17 0.21
6.87 -1.25 -1.61
12.19 -2.22 0.65
8.02 -1.46 -1.58
9.59 -1.74 -1.54
12.13 -2.21 -1.51
11.7 -2.13 -1.04
11.65 -2.12 -0.62
11.78 -2.14 -0.21
5.96 -1.11 -1.62
11.76 -2.18 0.21
6.85 -1.27 -1.61
11.99 -2.22 0.64
8.02 -1.49 -1.59
9.59 -1.78 -1.55
12.13 -2.25 -1.51
11.53 -2.14 -1.03
11.48 -2.13 -0.61
11.61 -2.15 -0.21
5.96 -1.13 -1.62
11.59 -2.19 0.21
6.84 -1.29 -1.61
11.8 -2.23 0.63
8.01 -1.51 -1.58
26.25 -4.96 2.34
9.59 -1.81 -1.55
12.11 -2.29 -1.51
11.36 -2.15 -1.01
11.32 -2.14 -0.6
11.45 -2.16 -0.2
5.95 -1.14 -1.62
11.43 -2.2 0.2
6.85 -1.32 -1.61
11.64 -2.24 0.62
8.01 -1.54 -1.59
26.18 -5.04 2.33
9.59 -1.84 -1.55
12.1 -2.33 -1.51
11.21 -2.16 -1
11.17 -2.15 -0.6
11.27 -2.17 -0.2
5.94 -1.16 -1.62
11.27 -2.21 0.2
6.84 -1.34 -1.61
11.49 -2.25 0.61
8 -1.57 -1.58
9.59 -1.88 -1.55
12.11 -2.37 -1.52
11.03 -2.16 -0.98
11.01 -2.16 -0.59
11.12 -2.18 -0.2
5.94 -1.19 -1.62
11.11 -2.22 0.2
6.84 -1.37 -1.61
11.32 -2.26 0.61
7.96 -1.59 -1.58
9.57 -1.91 -1.55
12.11 -2.42 -1.52
10.86 -2.17 -0.97
10.88 -2.17 -0.58
10.99 -2.2 -0.2
5.94 -1.21 -1.62
10.95 -2.23 0.2
6.82 -1.39 -1.61
11.16 -2.27 0.6
7.97 -1.62 -1.58
9.57 -1.95 -1.55
12.09 -2.46 -1.52
10.74 -2.18 -0.96
10.72 -2.18 -0.57
10.83 -2.2 -0.19
5.94 -1.23 -1.62
10.81 -2.24 0.19
6.83 -1.41 -1.61
10.99 -2.28 0.59
7.98 -1.65 -1.58
9.57 -1.98 -1.55
26.05 -5.39 3.27
12.07 -2.5 -1.51
10.58 -2.19 -0.95
10.56 -2.19 -0.56
10.7 -2.21 -0.19
5.94 -1.25 -1.63
10.66 -2.25 0.19
6.82 -1.44 -1.61
10.84 -2.28 0.58
7.95 -1.67 -1.58
26.07 -5.49 2.33
9.58 -2.02 -1.55
26.06 -5.49 3.27
12.06 -2.54 -1.51
10.44 -2.2 -0.93
10.42 -2.2 -0.56
10.54 -2.22 -0.19
5.92 -1.27 -1.62
10.53 -2.26 0.19
6.82 -1.46 -1.61
10.7 -2.29 0.57
7.95 -1.7 -1.58
9.57 -2.05 -1.55
26.13 -5.6 3.28
12.05 -2.58 -1.51
10.3 -2.21 -0.92
10.3 -2.21 -0.55
10.41 -2.23 -0.19
5.93 -1.29 -1.63
10.38 -2.26 0.19
6.82 -1.49 -1.61
10.56 -2.3 0.57
7.95 -1.73 -1.58
26.04 -5.67 2.33
9.56 -2.08 -1.55
25.99 -5.66 3.27
12.05 -2.63 -1.51
10.15 -2.21 -0.91
10.14 -2.21 -0.54
10.28 -2.24 -0.18
5.92 -1.31 -1.62
10.24 -2.27 0.18
6.8 -1.51 -1.61
10.42 -2.31 0.56
7.94 -1.76 -1.58
26.02 -5.76 2.33
9.55 -2.12 -1.55
25.97 -5.75 3.27
12.02 -2.66 -1.51
10.04 -2.22 -0.9
10.01 -2.22 -0.54
10.15 -2.25 -0.18
5.92 -1.33 -1.63
10.12 -2.28 0.18
6.8 -1.53 -1.61
10.3 -2.32 0.55
7.94 -1.79 -1.58
10.6 -2.39 0.95
9.55 -2.15 -1.55
25.94 -5.84 3.27
12 -2.7 -1.51
9.91 -2.23 -0.89
9.9 -2.23 -0.53
10.02 -2.26 -0.18
5.92 -1.35 -1.63
9.98 -2.28 0.18
6.8 -1.56 -1.61
10.17 -2.33 0.55
7.92 -1.81 -1.58
10.45 -2.39 0.94
9.55 -2.19 -1.55
25.95 -5.94 3.27
11.98 -2.74 -1.51
9.76 -2.23 -0.88
9.76 -2.23 -0.52
9.89 -2.26 -0.18
5.9 -1.37 -1.62
9.88 -2.3 0.18
6.8 -1.58 -1.61
10.06 -2.34 0.54
7.93 -1.84 -1.58
10.29 -2.39 0.92
9.55 -2.22 -1.55
25.94 -6.03 3.27
9.74 -2.26 -1.23
9.84 -2.29 -0.88
9.67 -2.25 -0.52
9.78 -2.27 -0.18
5.91 -1.4 -1.63
9.74 -2.3 0.17
6.81 -1.61 -1.62
9.94 -2.35 0.54
7.94 -1.88 -1.59
10.16 -2.4 0.91
9.54 -2.25 -1.55
9.68 -2.29 -1.22
9.86 -2.33 -0.89
9.53 -2.25 -0.51
9.66 -2.28 -0.17
5.9 -1.42 -1.63
9.62 -2.31 0.17
6.78 -1.63 -1.61
9.8 -2.35 0.53
7.94 -1.9 -1.59
10.02 -2.4 0.9
9.54 -2.29 -1.55
9.55 -2.29 -1.21
9.87 -2.37 -0.89
9.42 -2.26 -0.51
9.55 -2.29 -0.17
5.9 -1.44 -1.63
9.52 -2.32 0.17
6.77 -1.65 -1.61
9.69 -2.36 0.52
7.93 -1.93 -1.59
9.9 -2.41 0.89
9.4 -2.29 -1.53
9.42 -2.29 -1.19
9.88 -2.4 -0.89
9.31 -2.26 -0.5
9.42 -2.29 -0.17
5.89 -1.46 -1.63
9.41 -2.32 0.17
6.77 -1.67 -1.61
9.56 -2.36 0.52
7.92 -1.96 -1.58
9.77 -2.41 0.88
9.31 -2.3 -1.52
9.34 -2.31 -1.18
9.21 -2.28 -0.83
9.2 -2.27 -0.5
9.32 -2.3 -0.17
5.88 -1.47 -1.62
9.3 -2.33 0.17
6.77 -1.7 -1.61
9.46 -2.37 0.51
7.91 -1.98 -1.58
9.64 -2.42 0.87
9.26 -2.32 -1.51
9.17 -2.3 -1.16
9.12 -2.29 -0.82
9.1 -2.28 -0.49
9.19 -2.31 -0.17
5.88 -1.5 -1.63
9.18 -2.34 0.17
6.76 -1.72 -1.61
9.34 -2.38 0.51
7.92 -2.02 -1.59
9.52 -2.42 0.86
9.27 -2.36 -1.51
9.01 -2.29 -1.14
9.05 -2.3 -0.82
9 -2.29 -0.49
9.11 -2.32 -0.16
5.88 -1.52 -1.63
9.09 -2.35 0.16
6.73 -1.74 -1.61
9.25 -2.39 0.5
7.91 -2.04 -1.59
9.4 -2.43 0.85
9.27 -2.39 -1.52
8.98 -2.32 -1.14
8.96 -2.31 -0.81
8.89 -2.3 -0.48
9 -2.32 -0.16
5.88 -1.54 -1.63
8.98 -2.35 0.16
6.72 -1.76 -1.6
9.13 -2.39 0.49
7.91 -2.07 -1.59
9.3 -2.44 0.84
9.27 -2.43 -1.52
8.87 -2.32 -1.13
8.86 -2.32 -0.8
8.81 -2.31 -0.48
8.91 -2.33 -0.16
5.88 -1.56 -1.63
8.89 -2.36 0.16
6.72 -1.79 -1.61
9.02 -2.4 0.49
7.89 -2.1 -1.59
9.18 -2.44 0.83
9.29 -2.47 -1.52
8.78 -2.33 -1.11
8.74 -2.32 -0.79
8.69 -2.31 -0.47
8.79 -2.34 -0.16
5.85 -1.58 -1.62
8.79 -2.37 0.16
6.72 -1.81 -1.61
8.92 -2.4 0.48
7.88 -2.12 -1.59
9.07 -2.45 0.82
9.45 -2.55 -1.55
8.67 -2.34 -1.1
8.63 -2.32 -0.78
8.62 -2.32 -0.47
8.7 -2.34 -0.16
5.85 -1.6 -1.62
8.7 -2.37 0.16
6.72 -1.83 -1.61
8.83 -2.41 0.48
7.89 -2.15 -1.59
8.97 -2.45 0.81
9.47 -2.58 -1.55
8.59 -2.34 -1.09
8.54 -2.33 -0.77
8.51 -2.32 -0.46
8.61 -2.35 -0.16
5.85 -1.62 -1.63
8.59 -2.38 0.16
6.72 -1.86 -1.61
8.73 -2.41 0.47
7.89 -2.18 -1.59
8.87 -2.45 0.81
9.46 -2.62 -1.56
8.47 -2.34 -1.08
8.44 -2.33 -0.77
8.44 -2.33 -0.46
8.52 -2.36 -0.15
5.86 -1.64 -1.63
8.51 -2.39 0.15
6.72 -1.89 -1.61
8.63 -2.42 0.47
7.87 -2.21 -1.59
8.77 -2.46 0.8
9.46 -2.65 -1.56
8.37 -2.35 -1.07
8.35 -2.34 -0.76
8.34 -2.34 -0.45
8.44 -2.37 -0.15
5.86 -1.67 -1.63
8.42 -2.4 0.15
6.71 -1.91 -1.61
8.54 -2.43 0.47
7.86 -2.23 -1.59
8.68 -2.47 0.79
9.45 -2.69 -1.56
8.28 -2.35 -1.06
8.27 -2.35 -0.75
8.26 -2.35 -0.45
8.34 -2.37 -0.15
5.82 -1.68 -1.62
8.33 -2.4 0.15
6.71 -1.93 -1.61
8.46 -2.44 0.46
7.85 -2.26 -1.59
8.58 -2.47 0.78
9.44 -2.72 -1.56
8.2 -2.36 -1.05
8.15 -2.35 -0.74
8.2 -2.36 -0.45
8.25 -2.38 -0.15
5.82 -1.7 -1.62
8.24 -2.41 0.15
6.71 -1.96 -1.61
8.37 -2.44 0.46
7.86 -2.29 -1.59
8.49 -2.48 0.77
9.42 -2.75 -1.55
8.11 -2.37 -1.04
8.09 -2.36 -0.74
8.09 -2.36 -0.44
8.13 -2.37 -0.15
5.82 -1.72 -1.63
8.1 -2.39 0.15
6.68 -1.97 -1.61
8.27 -2.44 0.45
7.86 -2.32 -1.59
8.4 -2.48 0.77
9.41 -2.78 -1.55
8.02 -2.37 -1.03
8 -2.36 -0.73
8.02 -2.37 -0.44
8.04 -2.38 -0.15
5.81 -1.74 -1.62
8.03 -2.4 0.15
6.68 -2 -1.61
8.15 -2.44 0.45
7.85 -2.35 -1.59
8.31 -2.49 0.76
9.4 -2.81 -1.55
7.94 -2.38 -1.02
7.92 -2.37 -0.72
7.95 -2.38 -0.44
7.96 -2.38 -0.14
5.81 -1.76 -1.63
7.95 -2.41 0.14
6.68 -2.02 -1.61
8.06 -2.44 0.44
7.84 -2.37 -1.59
8.23 -2.49 0.75
9.39 -2.84 -1.55
7.86 -2.38 -1.01
7.85 -2.38 -0.72
7.86 -2.38 -0.43
7.87 -2.38 -0.14
5.78 -1.77 -1.62
7.87 -2.41 0.14
6.68 -2.05 -1.61
7.98 -2.45 0.44
7.83 -2.4 -1.59
8.12 -2.49 0.74
9.38 -2.88 -1.55
7.8 -2.39 -1
7.75 -2.38 -0.71
7.81 -2.39 -0.43
7.8 -2.39 -0.14
5.79 -1.8 -1.62
7.79 -2.42 0.14
6.68 -2.07 -1.61
7.9 -2.45 0.43
7.83 -2.43 -1.59
8.04 -2.5 0.74
9.36 -2.91 -1.55
7.72 -2.4 -0.99
7.71 -2.4 -0.71
7.73 -2.4 -0.42
7.71 -2.39 -0.14
5.78 -1.82 -1.62
7.7 -2.42 0.14
6.67 -2.1 -1.61
7.82 -2.46 0.43
7.82 -2.46 -1.59
7.96 -2.5 0.73
9.35 -2.94 -1.55
7.65 -2.4 -0.98
7.65 -2.4 -0.7
7.68 -2.41 -0.42
7.66 -2.41 -0.14
5.77 -1.84 -1.62
7.65 -2.43 0.14
6.66 -2.12 -1.61
7.73 -2.46 0.43
7.81 -2.49 -1.59
7.88 -2.51 0.72
9.34 -2.97 -1.55
7.59 -2.42 -0.98
7.6 -2.42 -0.7
7.62 -2.43 -0.42
7.62 -2.43 -0.14
5.78 -1.86 -1.63
7.6 -2.45 0.14
6.66 -2.14 -1.61
7.67 -2.47 0.42
7.8 -2.51 -1.59
7.8 -2.51 0.72
9.33 -3.01 -1.55
7.56 -2.44 -0.98
7.56 -2.44 -0.7
7.58 -2.44 -0.42
