# .PCD v0.7 - Point Cloud Data file format
VERSION 0.7
FIELDS x y z
SIZE 4 4 4
TYPE F F F
COUNT 1 1 1
WIDTH 2745
HEIGHT 1
VIEWPOINT 0 0 0 1 0 0 0
POINTS 2745
DATA ascii
-5.94 5.08 -1.8
-23.45 20.03 2.7
-8.84 7.55 -1.84
-23.57 20.13 3.81
-11.77 10.05 -1.9
-18.61 15.89 3.88
-17.81 15.21 -2.05
-23.74 20.28 -1.64
-24.63 21.04 -0.57
-13.35 11.41 4.71
-5.07 4.36 -1.79
-24.71 21.24 0.57
-5.94 5.1 -1.81
-23.4 20.12 1.62
-23.38 20.11 2.7
-8.82 7.58 -1.84
-11.73 10.09 -1.9
-18.55 15.95 3.87
-17.78 15.29 -2.05
-23.58 20.27 -1.63
-16.99 14.61 5.17
-24.51 21.07 -0.56
-21.58 18.55 7.62
-5.06 4.38 -1.79
-23.47 20.34 0.54
-5.94 5.15 -1.81
-23.3 20.2 1.62
-23.3 20.2 2.7
-8.79 7.62 -1.84
-24.89 21.58 4.05
-11.65 10.1 -1.89
-33.74 29.25 7.07
-17.72 15.36 -2.05
-14.22 12.32 3.66
-23.46 20.34 -1.63
-16.94 14.68 5.18
-24.16 20.94 -0.56
-16.12 13.97 5.72
-5.03 4.39 -1.79
-23.32 20.35 0.54
-5.92 5.16 -1.81
-23.29 20.33 1.62
-23.27 20.3 2.7
-8.77 7.65 -1.84
-24.82 21.66 4.04
-11.62 10.14 -1.89
-24.43 21.31 5.13
-17.67 15.42 -2.05
-17.6 15.36 4.54
-23.44 20.46 -1.63
-13.75 12 4.21
-23.68 20.66 -0.55
-16.4 14.31 5.83
-5.02 4.41 -1.79
-23.25 20.43 0.54
-5.9 5.19 -1.81
-23.24 20.43 1.62
-23.2 20.39 2.7
-8.74 7.68 -1.84
-24.8 21.79 4.05
-11.59 10.18 -1.89
-20.25 17.8 4.27
-17.59 15.46 -2.05
-17.43 15.32 4.51
-22.86 20.09 -1.59
-24.29 21.34 7.46
-23.47 20.63 -0.55
-13.46 11.83 4.8
-5 4.43 -1.79
-23.21 20.54 0.54
-5.87 5.19 -1.81
-23.16 20.49 1.62
-23.34 20.65 2.73
-8.71 7.7 -1.84
-24.63 21.79 4.04
-11.57 10.24 -1.9
-20.21 17.88 4.27
-17.55 15.53 -2.05
-17.37 15.37 4.51
-22.6 20 -1.58
-14.56 12.89 4.49
-23.35 20.66 -0.54
-13.22 11.7 4.73
-5 4.45 -1.79
-24.19 21.56 0.57
-5.84 5.21 -1.81
-23.01 20.5 1.61
-23.44 20.89 2.75
-8.68 7.73 -1.84
-24.41 21.75 4.01
-11.55 10.29 -1.9
-20.2 18 4.29
-17.49 15.58 -2.05
-18.62 16.59 4.85
-22.66 20.19 -1.59
-15.66 13.96 4.84
-23.08 20.56 -0.54
-13.53 12.05 4.85
-4.98 4.46 -1.79
-20.48 18.37 0.48
-5.83 5.23 -1.81
-20.04 17.98 2.36
-8.66 7.76 -1.84
-24.26 21.76 4
-11.5 10.31 -1.9
-15.9 14.26 3.38
-17.44 15.64 -2.05
-22.59 20.26 -1.59
-15.64 14.03 4.85
-23.01 20.64 -0.54
-13.11 11.76 4.72
-4.97 4.49 -1.8
-24.24 21.91 0.57
-5.81 5.25 -1.81
-21.42 19.36 1.51
-20.11 18.18 2.37
-8.63 7.8 -1.84
-24.32 21.98 4.02
-11.46 10.35 -1.9
-20.01 18.09 4.27
-17.37 15.7 -2.05
-17.22 15.56 4.51
-22.44 20.29 -1.59
-22.93 20.73 -0.54
-13.14 11.88 4.75
-4.95 4.5 -1.79
-23.92 21.76 0.56
-22.45 20.43 1.59
-17.65 16.06 2.09
-8.6 7.82 -1.84
-20.34 18.51 3.38
-11.42 10.39 -1.9
-19.81 18.03 4.24
-17.32 15.76 -2.05
-22.08 20.09 -1.56
-28.19 25.65 8.8
-22.8 20.75 -0.54
-13.05 11.88 4.73
-4.92 4.51 -1.79
-23.78 21.79 0.56
-22.3 20.43 1.59
-19.93 18.26 2.37
-8.57 7.85 -1.84
-20.22 18.53 3.37
-11.38 10.43 -1.9
-19.81 18.15 4.26
-17.25 15.81 -2.05
-22.04 20.2 -1.57
-20.24 18.54 6.34
-22.59 20.7 -0.53
-20.22 18.53 7.35
-4.92 4.54 -1.79
-23.58 21.75 0.56
-22.2 20.48 1.58
-19.63 18.11 2.34
-8.54 7.88 -1.84
-17.45 16.1 2.92
-11.34 10.46 -1.89
-19.95 18.41 4.3
-17.2 15.87 -2.05
-21.93 20.23 -1.56
-14.57 13.44 4.58
-20.1 18.54 7.33
-4.91 4.56 -1.79
-23.66 21.99 0.56
-19.44 18.07 1.39
-19.79 18.4 2.36
-8.51 7.91 -1.84
-17.34 16.11 2.91
-11.28 10.48 -1.89
-17.09 15.89 3.7
-17.12 15.91 -2.04
-14.82 13.77 3.93
-21.86 20.32 -1.56
-14.3 13.29 4.51
-22.93 21.32 -0.55
-12.54 11.66 4.59
-4.88 4.56 -1.79
-23.68 22.16 0.57
-18.92 17.7 1.36
-19.71 18.45 2.36
-8.49 7.94 -1.84
-17.4 16.29 2.93
-11.23 10.51 -1.89
-17.02 15.93 3.69
-17.05 15.95 -2.04
-14.77 13.82 3.93
-21.85 20.45 -1.57
-14.33 13.41 4.53
-19.76 18.49 -0.47
-15.53 14.53 5.7
-4.85 4.57 -1.79
-23.54 22.19 0.56
-19.53 18.4 1.41
-19.62 18.49 2.36
-8.45 7.96 -1.84
-17.37 16.37 2.93
-11.2 10.55 -1.89
-19.94 18.79 4.34
-16.97 15.99 -2.04
-19.93 18.78 5.32
-21.89 20.63 -1.58
-16.05 15.12 5.09
-19.44 18.32 -0.47
-15.54 14.64 5.72
-4.85 4.6 -1.79
-19.68 18.67 0.47
-20.38 19.33 1.47
-17.51 16.61 2.11
-8.42 7.99 -1.84
-15.23 14.45 2.58
-11.17 10.59 -1.89
-19.85 18.83 4.33
-16.89 16.02 -2.04
-21.77 20.65 -1.57
-16.07 15.24 5.11
-19.42 18.42 -0.47
-17.04 16.16 6.29
-4.83 4.61 -1.79
-23.26 22.23 0.56
-21.85 20.88 1.58
-19.82 18.94 2.4
-8.39 8.02 -1.84
-17.32 16.55 2.94
-11.12 10.62 -1.89
-16.17 15.46 3.54
-16.8 16.06 -2.03
-15.59 14.9 4.19
-21.64 20.68 -1.57
-16.03 15.32 5.12
-21.94 20.96 -0.53
-16.95 16.2 6.28
-4.82 4.64 -1.79
-22.11 21.27 0.54
-19.86 19.1 1.44
-19.73 18.98 2.4
-8.37 8.05 -1.84
-17.29 16.63 2.95
-11.06 10.64 -1.88
-16.83 16.19 3.7
-16.7 16.06 -2.03
-15.57 14.98 4.2
-21.53 20.71 -1.57
-16 15.4 5.13
-21.67 20.84 -0.52
-13.76 13.24 5.12
-4.8 4.65 -1.79
-19.71 19.1 1.44
-19.68 19.07 2.4
-8.34 8.08 -1.84
-19.84 19.22 3.39
-11.02 10.67 -1.88
-31.8 30.82 7.01
-16.6 16.09 -2.02
-15.56 15.07 4.21
-18.78 18.2 -1.37
-13.06 12.66 4.2
-18.65 18.07 -0.45
-12.99 12.59 4.85
-4.78 4.66 -1.79
-19.7 19.22 0.48
-19.63 19.15 1.44
-19.07 18.61 2.33
-8.31 8.1 -1.84
-19.78 19.3 3.39
-10.98 10.71 -1.88
-22.84 22.29 5.05
-16.54 16.13 -2.02
-16.29 15.89 4.42
-19.43 18.96 -1.42
-15.95 15.56 5.14
-13.03 12.72 4.88
-4.76 4.67 -1.79
-19.6 19.26 0.48
-19.61 19.26 1.44
-28.04 27.54 3.44
-8.27 8.12 -1.84
-16.74 16.45 2.88
-10.94 10.75 -1.88
-22.94 22.54 5.09
-16.45 16.16 -2.02
-16.26 15.97 4.43
-22.52 22.12 -1.65
-15.92 15.64 5.15
-19.7 19.36 -0.48
-12.33 12.11 4.63
-4.74 4.69 -1.79
-18.19 17.99 0.45
-18.01 17.81 1.33
-17.24 17.05 2.12
-8.24 8.15 -1.84
-15.12 14.95 2.61
-10.9 10.77 -1.88
-15.19 15.02 3.38
-16.35 16.17 -2.01
-14.4 14.24 3.94
-19.73 19.51 -1.45
-14.55 14.39 4.72
-19.59 19.37 -0.48
-12.34 12.2 4.65
-4.73 4.71 -1.79
-17.54 17.48 0.43
-17.53 17.46 1.3
-17.52 17.46 2.16
-8.21 8.18 -1.84
-17.5 17.44 3.03
-10.85 10.81 -1.88
-15.76 15.7 3.52
-16.24 16.17 -2.01
-14.38 14.32 3.94
-19.58 19.5 -1.45
-14.81 14.75 4.83
-19.52 19.44 -0.48
-12.74 12.69 4.82
-4.72 4.73 -1.79
-17.47 17.52 0.43
-17.46 17.51 1.3
-17.51 17.57 2.17
-8.19 8.21 -1.84
-16.64 16.69 2.89
-10.8 10.84 -1.88
-15.44 15.49 3.46
-16.15 16.2 -2
-14.3 14.34 3.94
-17.48 17.54 -1.3
-17.48 17.53 -0.43
-15.95 16 6.05
-4.69 4.74 -1.79
-17.43 17.61 0.43
-25.45 25.71 1.9
-17.71 17.89 2.2
-8.16 8.24 -1.84
-16.57 16.74 2.89
-10.77 10.88 -1.88
-16.02 16.18 -1.99
-17.42 17.59 -1.3
-14.71 14.86 4.83
-17.43 17.61 -0.43
-15.89 16.05 6.05
-4.67 4.75 -1.78
-21.48 21.85 0.53
-20.02 20.36 2.5
-8.12 8.26 -1.83
-16.53 16.81 2.89
-10.73 10.91 -1.88
-15.09 15.35 3.41
-15.91 16.19 -1.99
-13.95 14.2 3.87
-18.03 18.34 -1.35
-13.11 13.33 4.32
-11.78 11.99 4.5
-4.66 4.77 -1.79
-21.65 22.18 0.54
-17.26 17.68 1.3
-17.16 17.58 2.15
-8.09 8.29 -1.83
-16.5 16.91 2.9
-10.68 10.94 -1.88
-15.02 15.39 3.41
-15.82 16.2 -1.98
-16.82 17.23 4.68
-20.52 21.02 -1.54
-15.62 16 5.16
-11.81 12.1 4.53
-4.64 4.79 -1.79
-21.47 22.15 0.54
-17.04 17.58 1.28
-17.08 17.61 2.15
-8.07 8.32 -1.84
-23.74 24.49 4.19
-10.63 10.96 -1.88
-15.53 16.02 3.53
-15.74 16.23 -1.98
-16.75 17.28 4.68
-17.47 18.03 -1.32
-15.55 16.04 5.16
-17.31 17.86 -0.43
-11.93 12.31 4.59
-4.63 4.81 -1.79
-18.06 18.76 0.45
-16.85 17.51 1.27
-16.99 17.65 2.14
-8.04 8.35 -1.84
-16.77 17.42 2.97
-10.58 10.99 -1.87
-13.2 13.71 3.01
-15.65 16.25 -1.97
-19.43 20.18 5.45
-17.44 18.11 -1.32
-16.86 17.51 5.61
-15.86 16.47 6.13
-4.6 4.81 -1.78
-21.27 22.25 0.54
-14.18 14.84 1.8
-8.01 8.38 -1.84
-16.7 17.47 2.97
-10.55 11.03 -1.87
-17.01 17.79 3.9
-15.49 16.21 -1.96
-15.15 15.84 4.26
-17.8 18.62 -1.35
-15.47 16.19 5.17
-17.07 17.86 -0.43
-15.08 15.77 5.85
-4.59 4.84 -1.79
-19.47 20.5 0.49
-19.82 20.87 1.51
-16.72 17.61 2.12
-7.98 8.4 -1.83
-17.76 18.7 3.17
-10.52 11.08 -1.88
-16.98 17.88 3.9
-15.42 16.23 -1.96
-15.08 15.88 4.26
-17.74 18.68 -1.35
-14.42 15.18 4.83
-16.96 17.86 -0.43
-13.59 14.32 5.29
-4.58 4.86 -1.79
-19.17 20.33 0.49
-17.51 18.57 1.34
-16.31 17.3 2.08
-7.94 8.42 -1.83
-23.45 24.87 4.2
-10.47 11.1 -1.87
-12.99 13.78 3
-15.33 16.26 -1.95
-16.86 17.88 4.78
-17.03 18.06 -1.3
-13.8 14.64 4.64
-16.82 17.84 -0.43
-13.71 14.53 5.35
-4.57 4.88 -1.79
-19.32 20.63 0.49
-17.94 19.16 1.38
-16.22 17.32 2.08
-7.92 8.46 -1.83
-13.56 14.48 2.44
-10.42 11.13 -1.87
-15.08 16.1 3.49
-15.24 16.28 -1.95
-15.55 16.6 4.42
-19.37 20.68 -1.48
-15.46 16.51 5.22
-19.62 20.96 -0.5
-13.67 14.6 5.36
-18.27 19.65 0.47
-19.79 21.28 1.52
-17.1 18.39 2.2
-7.89 8.48 -1.83
-13.64 14.67 2.46
-10.35 11.13 -1.87
-15.04 16.18 3.5
-15.13 16.27 -1.94
-15.49 16.66 4.42
-19.29 20.74 -1.48
-15.75 16.94 5.34
-16.49 17.73 -0.42
-15.8 16.99 6.22
-4.54 4.91 -1.79
-18.77 20.33 0.48
-19.4 21.01 1.5
-17.21 18.64 2.22
-7.86 8.51 -1.83
-13.61 14.74 2.46
-10.31 11.17 -1.87
-14.99 16.23 3.5
-15.02 16.27 -1.94
-14.36 15.55 4.11
-19.14 20.73 -1.48
-15.96 17.29 5.43
-18.84 20.41 -0.48
-15.75 17.06 6.22
-4.51 4.92 -1.79
-21.89 23.88 0.57
-16.61 18.11 2.15
-7.82 8.53 -1.83
-13.62 14.85 2.47
-10.27 11.2 -1.87
-14.93 16.28 3.5
-14.96 16.31 -1.94
-15.41 16.81 4.43
-19.08 20.81 -1.48
-13.95 15.21 4.76
-19.28 21.03 -0.5
-12.79 13.95 5.07
-4.5 4.94 -1.79
-21.85 24 0.57
-16.47 18.08 2.14
-7.79 8.56 -1.83
-15.67 17.21 2.86
-10.22 11.23 -1.86
-15.09 16.57 3.55
-14.92 16.39 -1.94
-15.68 17.21 4.53
-19.23 21.12 -1.5
-15.68 17.22 5.38
-18.98 20.85 -0.49
-13.14 14.43 5.23
-4.47 4.94 -1.78
-16.21 17.93 0.42
-16.44 18.18 1.28
-16.32 18.05 2.13
-7.76 8.59 -1.83
-15.65 17.31 2.87
-10.19 11.27 -1.87
-15.69 17.35 3.7
-14.79 16.35 -1.93
-12.93 14.3 3.75
-19.08 21.1 -1.49
-15.56 17.21 5.36
-19.09 21.12 -0.5
-15.46 17.1 6.18
-4.45 4.96 -1.78
-15.97 17.78 0.42
-15.9 17.71 1.25
-15.79 17.58 2.07
-7.74 8.62 -1.83
-15.6 17.37 2.87
-10.14 11.3 -1.86
-15.65 17.43 3.71
-14.68 16.35 -1.92
-15.57 17.34 4.53
-18.95 21.11 -1.49
-15.52 17.28 5.36
-16.15 17.98 -0.42
-15.45 17.21 6.2
-4.43 4.97 -1.78
-15.86 17.79 0.42
-15.78 17.69 1.24
-15.69 17.6 2.06
-7.71 8.65 -1.83
-15.59 17.49 2.88
-10.11 11.34 -1.87
-15.27 17.13 3.64
-14.58 16.35 -1.92
-15.48 17.36 4.52
-16.15 18.12 -1.27
-16.49 18.49 5.72
-16.03 17.98 -0.42
-15.37 17.24 6.19
-4.41 4.98 -1.78
-15.79 17.83 0.42
-15.7 17.73 1.24
-15.63 17.65 2.06
-7.67 8.66 -1.83
-15.58 17.59 2.89
-10.07 11.37 -1.86
-15.21 17.17 3.63
-14.54 16.41 -1.92
-12.84 14.5 3.76
-16.04 18.11 -1.27
-16.45 18.58 5.73
-15.95 18.01 -0.42
-20.26 22.88 8.19
-4.4 5 -1.78
-15.74 17.9 0.42
-15.65 17.8 1.24
-15.59 17.73 2.07
-7.64 8.69 -1.83
-15.6 17.74 2.9
-10.02 11.39 -1.86
-15.15 17.22 3.63
-14.42 16.4 -1.91
-15.94 18.13 -1.27
-15.89 18.07 -0.42
-4.38 5.02 -1.79
-15.74 18.02 0.42
-15.62 17.88 1.24
-15.52 17.77 2.06
-7.61 8.71 -1.83
-17.72 20.29 3.31
-10.01 11.46 -1.87
-15.05 17.22 3.62
-14.35 16.43 -1.91
-18.23 20.86 5.39
-15.87 18.16 -1.26
-13.59 15.56 4.77
-15.84 18.14 -0.42
-4.36 5.03 -1.78
-15.99 18.43 0.43
-25.75 29.69 2.06
-15.28 17.62 2.04
-7.58 8.74 -1.83
-16.74 19.3 3.14
-9.97 11.49 -1.87
-14.94 17.23 3.61
-14.3 16.48 -1.91
-14.15 16.31 4.2
-15.82 18.23 -1.26
-18.98 21.88 6.69
-15.83 18.25 -0.42
-15.2 17.52 6.22
-4.34 5.04 -1.78
-18.56 21.55 0.5
-15.22 17.67 2.04
-7.55 8.77 -1.83
-16.57 19.24 3.12
-9.96 11.56 -1.87
-14.84 17.23 3.6
-14.22 16.51 -1.91
-14.4 16.71 4.29
-15.76 18.29 -1.27
-15.81 18.36 -0.42
-12.88 14.95 5.29
-4.32 5.05 -1.78
-18.27 21.36 0.49
-7.52 8.79 -1.83
-14.16 16.56 2.68
-9.93 11.61 -1.88
-23.56 27.54 5.74
-14.1 16.48 -1.9
-14.49 16.94 4.33
-15.72 18.38 -1.27
-14.4 16.83 5.11
-15.8 18.48 -0.42
-12.79 14.95 5.27
-4.3 5.07 -1.78
-18.19 21.42 0.49
-29.82 35.11 2.41
-15.21 17.92 2.06
-7.49 8.82 -1.83
-14.41 16.96 2.73
-9.89 11.65 -1.88
-11.54 13.59 2.82
-14.05 16.54 -1.9
-14.44 17 4.34
-15.69 18.47 -1.27
-14.33 16.88 5.11
-17.21 20.27 -0.46
-16.41 19.32 6.79
-4.29 5.09 -1.78
-18.28 21.68 0.5
-15.14 17.95 2.05
-7.46 8.84 -1.83
-14.44 17.13 2.75
-9.86 11.69 -1.88
-15.54 18.43 3.82
-13.96 16.56 -1.9
-16.38 19.43 4.94
-18.15 21.52 -1.48
-14.24 16.88 5.1
-15.16 17.97 -0.41
-13.2 15.66 5.49
-4.27 5.1 -1.78
-29.48 35.21 0.8
-16.32 19.49 1.33
-16.28 19.45 2.22
-7.43 8.88 -1.83
-17.25 20.6 3.3
-9.81 11.72 -1.88
-14.78 17.65 3.65
-13.93 16.63 -1.9
-11.93 14.25 3.61
-18.05 21.56 -1.47
-14.18 16.94 5.1
-15.05 17.98 -0.41
-13.93 16.63 5.81
-4.25 5.11 -1.78
-15.13 18.2 0.41
-16.3 19.61 1.34
-16.25 19.54 2.22
-7.4 8.9 -1.83
-29.58 35.58 5.68
-9.79 11.77 -1.88
-13.67 16.44 3.39
-13.83 16.63 -1.89
-11.01 13.25 3.35
-22.6 27.19 -1.85
-14.24 17.13 5.14
-15.04 18.09 -0.41
-13.83 16.63 5.8
-4.23 5.12 -1.78
-28.95 35.08 0.79
-16.98 20.58 2.33
-7.36 8.92 -1.83
-17.29 20.95 3.33
-9.75 11.81 -1.88
-13.56 16.44 3.38
-13.79 16.71 -1.9
-11.02 13.35 3.36
-22.5 27.27 -1.85
-14.6 17.69 5.3
-14.95 18.12 -0.41
-13.8 16.72 5.81
-4.21 5.14 -1.78
-28.79 35.14 0.79
-17.07 20.83 1.41
-27.29 33.31 3.77
-7.33 8.95 -1.83
-9.72 11.86 -1.88
-14.61 17.84 3.65
-13.78 16.82 -1.9
-11.34 13.84 3.48
-23.31 28.44 -1.93
-12.95 15.8 4.72
-14.75 18.01 -0.41
-4.2 5.16 -1.78
-16.03 19.69 0.44
-27.31 33.54 2.27
-17.68 21.72 2.45
-7.3 8.97 -1.83
-9.67 11.88 -1.88
-14.54 17.86 3.65
-13.67 16.8 -1.89
-13.14 16.15 4.05
-23.2 28.5 -1.93
-14.5 17.81 5.3
-14.89 18.29 -0.41
-4.18 5.17 -1.78
-14.89 18.42 0.41
-7.28 9 -1.83
-16.6 20.54 3.24
-9.63 11.91 -1.88
-11.01 13.62 2.77
-13.62 16.85 -1.9
-10.66 13.19 3.3
-16.05 19.85 -1.34
-12.89 15.94 4.73
-14.73 18.22 -0.41
-15.75 19.48 6.71
-4.15 5.18 -1.78
-16.05 20 0.45
-17.55 21.86 2.45
-7.25 9.03 -1.83
-16.56 20.64 3.25
-9.59 11.95 -1.88
-10.79 13.44 2.73
-13.51 16.84 -1.89
-10.71 13.34 3.33
-22.87 28.5 -1.92
-12.75 15.89 4.7
-14.32 17.84 -0.4
-12.3 15.33 5.27
-4.13 5.19 -1.78
-14.98 18.79 0.42
-7.2 9.03 -1.83
-14.39 18.06 2.83
-9.56 12 -1.88
-10.75 13.49 2.73
-13.42 16.84 -1.88
-10.97 13.77 3.42
-22.8 28.61 -1.92
-12.76 16.01 4.73
-12.26 15.38 5.27
-4.12 5.21 -1.78
-25.73 32.52 2.17
-7.17 9.06 -1.83
-14.33 18.11 2.84
-9.56 12.09 -1.89
-10.91 13.79 2.78
-13.4 16.93 -1.89
-10.91 13.78 3.42
-22.65 28.63 -1.91
-12.76 16.13 4.75
-14.62 18.48 -0.41
-19.27 24.36 8.32
-4.1 5.22 -1.78
-14.47 18.43 0.41
-19.24 24.49 2.72
-7.14 9.09 -1.83
-14.23 18.12 2.83
-9.5 12.1 -1.89
-16.45 20.94 4.22
-13.37 17.02 -1.89
-10.92 13.91 3.44
-22.48 28.61 -1.91
-19.17 24.4 7.16
-15.14 19.27 -0.43
-19.25 24.51 8.35
-4.1 5.25 -1.79
-14.39 18.46 0.41
-18.97 24.33 1.62
-5.73 7.35 -1.81
-18.96 24.33 2.7
-7.11 9.12 -1.83
-14.17 18.18 2.83
-9.44 12.11 -1.89
-19.19 24.62 4.94
-13.3 17.07 -1.89
-11.39 14.61 3.6
-14.49 18.58 -1.23
-17.53 22.49 6.58
-14.29 18.33 -0.41
-14.37 18.57 0.41
-16.53 21.35 1.42
-5.7 7.36 -1.81
-17.03 22.01 2.43
-7.08 9.14 -1.83
-9.39 12.14 -1.88
-16.69 21.57 4.32
-13.22 17.08 -1.89
-10.82 13.97 3.43
-15.46 19.97 -1.32
-21.61 27.93 8.15
-15.28 19.74 -0.44
-14.33 18.65 0.41
-14.27 18.56 1.23
-5.67 7.37 -1.81
-20.65 26.86 2.96
-7.04 9.15 -1.83
-13.79 17.94 2.78
-9.35 12.16 -1.88
-16.59 21.58 4.31
-13.17 17.13 -1.89
-12.41 16.15 3.96
-15.42 20.05 -1.33
-14.93 19.42 5.65
-14.79 19.24 -0.42
-14.62 19.16 0.42
-5.64 7.39 -1.81
-16.05 21.03 2.31
-7.01 9.18 -1.83
-13.7 17.95 2.77
-9.3 12.18 -1.88
-16.6 21.75 4.33
-13.11 17.18 -1.89
-11.29 14.79 3.62
-21.67 28.4 -1.87
-18.51 24.25 7.04
-15.38 20.15 -0.44
-13.76 18.03 6.08
-4.02 5.31 -1.78
-14.4 19.01 0.42
-16.56 21.85 1.44
-5.62 7.41 -1.81
-15.89 20.98 2.3
-6.98 9.21 -1.83
-9.25 12.21 -1.88
-10.43 13.76 2.73
-13 17.16 -1.88
-10.99 14.51 3.54
-15.21 20.07 -1.32
-22.23 29.34 8.5
-15.06 19.88 -0.44
-12.24 16.15 5.43
-3.99 5.31 -1.78
-28.85 38.35 0.84
-5.59 7.43 -1.81
-15.75 20.93 2.29
-6.95 9.24 -1.83
-9.22 12.25 -1.88
-10.36 13.78 2.73
-12.92 17.17 -1.88
-12.11 16.1 3.92
-15.2 20.21 -1.33
-17.14 22.79 6.58
-14.25 18.95 -0.41
-13.57 18.04 6.05
-15.21 20.37 0.44
-5.56 7.44 -1.81
-20.35 27.24 2.97
-6.91 9.25 -1.83
-22.1 29.59 4.53
-9.14 12.24 -1.88
-16.87 22.59 4.47
-12.36 16.55 -1.81
-10.51 14.07 3.41
-15.08 20.19 -1.32
-13.13 17.57 5.06
-14.96 20.02 -0.44
-15.07 20.17 6.75
-14.97 20.19 0.44
-5.54 7.47 -1.81
-15.99 21.56 2.35
-6.88 9.27 -1.83
-20.47 27.6 4.22
-9.05 12.2 -1.87
-13.53 18.24 3.6
-12.29 16.57 -1.8
-10.47 14.11 3.42
-15.02 20.26 -1.32
-13.03 17.57 5.05
-14.81 19.97 -0.43
-16.6 22.38 7.47
-22.21 30.17 1.96
-5.51 7.49 -1.81
-15.89 21.59 2.35
-6.84 9.29 -1.83
-21.92 29.79 4.54
-8.91 12.1 -1.84
-9.82 13.34 2.62
-12.7 17.25 -1.87
-10.43 14.18 3.42
-20.84 28.32 -1.84
-16.65 22.62 6.48
-14.65 19.9 -0.43
-22.09 30.24 0.65
-15.22 20.84 1.35
-5.49 7.52 -1.81
-13.59 18.6 2.01
-6.81 9.32 -1.83
-20.3 27.79 4.23
-8.71 11.92 -1.81
-9.82 13.44 2.64
-12.66 17.33 -1.88
-13.36 18.29 4.4
-20.56 28.15 -1.83
-16.62 22.76 6.51
-13.91 19.05 -0.41
-16.46 22.53 7.48
-21.88 30.16 0.65
-14.91 20.55 1.33
-5.46 7.52 -1.81
-13.33 18.37 1.99
-6.78 9.35 -1.83
-19.24 26.52 4.02
-8.63 11.9 -1.8
-21.52 29.66 5.8
-12.61 17.38 -1.88
-10.41 14.35 3.45
-17.03 23.47 -1.52
-16.87 23.25 6.63
-22.02 30.35 -0.65
-19.54 26.93 8.92
-21.77 30.23 0.65
-14.77 20.52 1.32
-5.44 7.55 -1.81
-6.75 9.37 -1.83
-19.7 27.35 4.14
-8.61 11.95 -1.81
-19.65 27.28 5.33
-12.54 17.41 -1.88
-19.03 26.43 6.33
-20.72 28.76 -1.86
-13.63 18.93 5.39
-22.01 30.56 -0.66
-14.48 20.11 6.64
-14.8 20.7 0.44
-14.77 20.67 1.33
-5.42 7.58 -1.81
-15.1 21.13 2.27
-6.7 9.38 -1.83
-21.86 30.59 4.62
-8.58 12.01 -1.81
-21.81 30.52 5.94
-12.47 17.45 -1.88
-10.34 14.47 3.46
-20.54 28.75 -1.85
-11.33 15.86 4.5
-21.8 30.51 -0.65
-14.45 20.22 6.66
-19.69 27.76 0.59
-21.72 30.62 1.97
-5.38 7.59 -1.81
-15.54 21.9 2.35
-6.67 9.41 -1.83
-22.87 32.23 4.85
-8.53 12.03 -1.81
-19.42 27.38 5.32
-12.4 17.47 -1.87
-21.74 30.64 7.3
-20.39 28.73 -1.85
-13.55 19.09 5.41
-19.77 27.87 -0.6
-12.39 17.46 5.74
-21.59 30.65 0.65
-21.58 30.64 1.96
-5.35 7.6 -1.81
-22.74 32.28 3.45
-6.64 9.43 -1.83
-14.09 20 3
-8.5 12.07 -1.81
-20.11 28.55 5.53
-12.32 17.49 -1.87
-12.81 18.19 4.33
-20.3 28.82 -1.85
-13.51 19.18 5.42
-19.64 27.88 -0.6
-12.28 17.43 5.71
-14.35 20.52 0.44
-22.49 32.16 2.06
-6.61 9.45 -1.83
-13.98 20 3
-8.46 12.1 -1.81
-13.2 18.88 3.65
-12.25 17.51 -1.87
-10.2 14.59 3.46
-19.52 27.92 -1.79
-15.72 22.48 6.33
-21.53 30.79 -0.66
-14.6 20.88 6.83
-22.27 32.1 0.68
-14.63 21.09 2.25
-6.57 9.48 -1.83
-17.23 24.83 3.71
-8.44 12.17 -1.82
-13.15 18.95 3.65
-12.15 17.51 -1.86
-12.02 17.33 4.1
-19.48 28.08 -1.79
-21.45 30.93 -0.66
-14.56 20.99 6.85
-26.02 37.78 0.8
-24.6 35.71 2.27
-14.62 21.22 2.25
-6.53 9.48 -1.82
-17.2 24.97 3.72
-8.42 12.22 -1.82
-19.69 28.6 5.5
-12.1 17.57 -1.87
-11.96 17.37 4.1
-20.01 29.05 -1.85
-13.95 20.25 5.68
-21.94 31.86 -0.68
-10.74 15.6 5.08
-15.38 22.49 0.48
-16.91 24.73 1.57
-25.33 37.05 3.93
-6.5 9.51 -1.82
-22.93 33.53 4.99
-8.38 12.25 -1.82
-13.36 19.54 3.75
-12.04 17.61 -1.87
-14.96 21.88 5.15
-17.1 25.02 -1.59
-13 19.02 5.32
-10.5 15.35 4.98
-15.27 22.49 0.47
-15.95 23.5 1.49
-19.53 28.78 3.04
-6.47 9.53 -1.82
-17.42 25.67 3.81
-8.17 12.04 -1.79
-11.98 17.64 -1.87
-10.09 14.86 3.49
-17.13 25.24 -1.6
-12.03 17.73 4.95
-10.44 15.38 4.98
-14.16 21.02 0.44
-6.44 9.55 -1.82
-8.12 12.06 -1.79
-19.27 28.6 5.46
-11.89 17.64 -1.86
-19.41 28.8 -1.82
-17.02 25.27 7.03
-10.37 15.39 4.97
-14.15 21.15 0.44
-16.68 24.93 1.57
-15.88 23.74 2.5
-6.4 9.57 -1.82
-17.28 25.84 3.82
-7.97 11.91 -1.76
-19.16 28.65 5.46
-11.8 17.64 -1.86
-13.39 20.02 -1.26
-17.01 25.43 7.06
-10.33 15.44 4.98
-14.54 21.91 0.46
-16.52 24.89 1.57
-6.36 9.58 -1.82
-19.1 28.77 4.24
-8.01 12.07 -1.78
-11.72 17.67 -1.86
-12.67 19.09 4.45
-16.86 25.41 7.04
-10.26 15.45 4.97
-14.31 21.73 0.45
-15.12 22.95 1.44
-6.33 9.6 -1.82
-19.06 28.93 4.25
-7.94 12.05 -1.77
-11.63 17.66 -1.85
-18.69 28.38 -1.78
-16.95 25.73 7.11
-24.67 37.45 -0.78
-10.21 15.5 4.97
-14.21 21.75 0.45
-15.22 23.3 1.46
-6.29 9.63 -1.82
-18.94 28.99 4.25
-7.85 12.02 -1.76
-11.49 17.59 -1.84
-11.18 17.11 3.97
-12.98 19.87 -1.24
-9.33 14.28 3.94
-14.8 22.66 -0.47
-10.02 15.33 4.91
-14.2 21.89 0.46
-15.1 23.28 1.45
-18.97 29.25 3.05
-6.26 9.65 -1.82
-11.23 17.32 2.53
-7.84 12.08 -1.77
-11.4 17.57 -1.83
-13.13 20.25 4.69
-12.82 19.77 -1.23
-16.16 24.92 6.86
-11.56 17.82 5.69
-14.33 22.27 0.46
-14.99 23.28 1.45
-18.9 29.37 3.06
-6.22 9.67 -1.82
-11.08 17.21 2.51
-7.74 12.02 -1.75
-17.34 26.93 5.07
-11.29 17.55 -1.83
-18 27.97 6.46
-12.92 20.07 -1.25
-16.03 24.9 6.84
-13.07 20.3 -0.42
-9.72 15.1 4.81
-14.67 22.97 0.48
-15.57 24.37 1.52
-16.94 26.51 2.75
-6.19 9.68 -1.82
-13.83 21.65 3.15
-7.75 12.13 -1.77
-17.25 26.99 5.07
-11.22 17.56 -1.82
-16.54 25.89 5.97
-14.49 22.68 -1.41
-11.71 18.33 5.02
-12.99 20.34 -0.42
-18.81 29.67 0.61
-12.77 20.14 2.09
-6.15 9.7 -1.82
-13.94 21.99 3.2
-7.68 12.12 -1.76
-11.12 17.55 -1.82
-17.05 26.89 6.19
-14.4 22.72 -1.41
-15.84 25 6.83
-12.92 20.38 -0.42
-9.7 15.31 4.86
-13.03 20.72 0.43
-17.06 27.11 1.68
-16.99 27 2.79
-6.12 9.72 -1.82
-10.47 16.64 2.41
-7.63 12.13 -1.76
-17.06 27.12 5.07
-11.08 17.61 -1.82
-16.97 26.97 6.19
-18.44 29.31 -1.81
-9.74 15.48 4.22
-11.31 17.98 -0.37
-15.82 25.15 7.96
-12.87 20.61 0.42
-15.46 24.77 1.53
-11.53 18.47 1.91
-6.09 9.75 -1.82
-13.61 21.8 3.16
-7.6 12.17 -1.76
-18.49 29.62 5.53
-11.06 17.71 -1.83
-12.25 19.63 4.5
-18.24 29.22 -1.81
-9.36 15 4.08
-11.19 17.94 -0.37
-15.83 25.37 8.01
-11 17.75 0.36
-15.39 24.85 1.53
-18.59 30.01 3.09
-6.04 9.76 -1.82
-13.35 21.55 3.11
-7.54 12.17 -1.76
-15.06 24.32 4.53
-11 17.75 -1.83
-18.13 29.26 -1.8
-15.51 25.04 6.8
-9.61 15.51 4.89
-14.49 23.56 0.48
-12.43 20.21 1.24
-11.41 18.56 1.91
-6.01 9.77 -1.82
-10.55 17.16 2.47
-7.5 12.19 -1.76
-10.27 16.7 3.11
-10.9 17.73 -1.82
-16.03 26.06 5.95
-11.12 18.08 -1.11
-9.29 15.1 4.09
-11.09 18.04 -0.37
-9.61 15.63 4.92
-12.92 21.17 0.43
-15.22 24.95 1.53
-11.33 18.57 1.9
-5.98 9.79 -1.82
-12.99 21.29 3.06
-7.47 12.23 -1.76
-17.76 29.11 5.4
-10.84 17.76 -1.82
-17.48 28.65 6.52
-17.41 28.53 -1.75
-9.35 15.32 4.14
-10.9 17.87 -0.37
-9.55 15.64 4.91
-13.34 22.06 0.45
-15.17 25.08 1.54
-17.97 29.71 3.04
-5.94 9.81 -1.82
-12.87 21.27 3.05
-7.42 12.27 -1.76
-19.36 32.01 5.93
-10.76 17.79 -1.82
-15.86 26.21 5.96
-15.97 26.41 7.13
-11.05 18.27 -0.37
-8.4 13.88 4.35
-19.16 31.92 0.65
-14.42 24.03 1.47
-4.78 7.96 -1.8
-19.12 31.86 3.25
-5.9 9.83 -1.82
-12.84 21.39 3.06
-7.42 12.36 -1.77
-16.17 26.93 4.98
-10.67 17.78 -1.81
-15.96 26.59 6.03
-16.83 28.03 -1.71
-15.7 26.15 7.04
-10.86 18.1 -0.37
-8.33 13.87 4.33
-13.79 23.14 0.47
-12.42 20.85 1.27
-4.75 7.97 -1.8
-13.98 23.46 2.39
-5.87 9.85 -1.82
-12.93 21.7 3.1
-7.43 12.48 -1.78
-14.87 24.95 4.6
-10.59 17.77 -1.81
-17.29 29.02 6.57
-10.83 18.18 -1.11
-15.07 25.29 6.8
-10.84 18.19 -0.37
-8.32 13.96 4.35
-10.82 18.3 0.37
-4.72 7.98 -1.8
-16.36 27.67 2.81
-5.83 9.86 -1.81
-12.82 21.68 3.09
-7.21 12.2 -1.74
-14.93 25.25 4.65
-10.49 17.74 -1.8
-10.79 18.25 -1.11
-14.96 25.31 6.79
-11 18.6 -0.38
-9.4 15.89 4.95
-10.78 18.38 0.37
-12.05 20.54 1.25
-4.69 7.99 -1.8
-15.2 25.92 2.63
-5.79 9.88 -1.81
-12.66 21.58 3.07
-7.16 12.21 -1.74
-17.27 29.44 5.41
-10.41 17.76 -1.8
-14.39 24.53 5.53
-10.73 18.29 -1.11
-9.38 15.99 4.28
-12.09 20.62 -0.42
-9.39 16.01 4.97
-10.73 18.45 1.12
-4.65 7.99 -1.8
-14.58 25.06 2.54
-5.76 9.9 -1.81
-13.42 23.07 3.28
-7.08 12.17 -1.73
-13.59 23.36 4.28
-10.33 17.76 -1.8
-13.71 23.56 -1.43
-9.02 15.51 4.14
-10.62 18.26 -0.37
-9.35 16.07 4.98
-10.47 18.14 0.37
-12.14 21.03 1.27
-4.62 8.01 -1.8
-13.85 24 2.42
-5.72 9.91 -1.81
-12.62 21.86 3.1
-7.05 12.21 -1.73
-13.59 23.55 4.31
-10.23 17.73 -1.79
-15.95 27.63 6.2
-10.56 18.29 -1.11
-8.96 15.52 4.14
-10.29 17.83 -0.36
-9.31 16.13 4.99
-12.4 21.66 0.44
-10.62 18.55 1.12
-4.59 8.02 -1.8
-10.49 18.33 1.85
-5.68 9.93 -1.81
-19.1 33.36 4.72
-6.77 11.82 -1.67
-18.84 32.91 6.01
-10.15 17.72 -1.79
-10.69 18.67 -1.13
-14.91 26.05 6.93
-10.55 18.43 -0.37
-9.27 16.19 5
-12.85 22.63 0.45
-14.06 24.76 1.49
-4.56 8.04 -1.8
-20 35.22 3.54
-5.64 9.94 -1.81
-10.23 18.01 2.54
-6.73 11.85 -1.67
-18.91 33.31 6.07
-10.1 17.78 -1.79
-13.97 24.6 5.5
-13.45 23.68 -1.43
-8.87 15.62 4.15
-10.37 18.25 -0.37
-9.23 16.26 5.01
-11.75 20.86 0.42
-4.54 8.05 -1.8
-13.06 23.19 2.33
-5.61 9.96 -1.81
-18.01 31.97 4.51
-6.68 11.87 -1.67
-9.77 17.35 3.15
-10.03 17.81 -1.79
-10.34 18.36 -1.1
-8.71 15.46 4.1
-10.06 17.87 -0.36
-10.55 18.88 0.38
-11.64 20.83 1.25
-4.51 8.07 -1.8
-5.57 9.97 -1.81
-12.21 21.85 3.07
-6.71 12 -1.69
-13.76 24.64 4.47
-9.95 17.81 -1.78
-13.89 24.87 5.54
-10.12 18.12 -1.09
-8.25 14.76 3.9
-13.79 24.69 -0.49
-15.7 28.1 8.63
-10.6 19.13 0.38
-11.57 20.89 1.25
-4.48 8.08 -1.8
-13.84 24.98 2.5
-5.54 9.99 -1.81
-12.19 21.99 3.09
-6.64 11.99 -1.68
-14.99 27.06 4.9
-9.86 17.79 -1.78
-13.81 24.92 -1.49
-8.2 14.8 3.91
-9.83 17.75 -0.35
-7.9 14.26 4.37
-10.51 19.12 0.38
-20.15 36.65 2.19
-4.45 8.09 -1.79
-13.75 25.01 2.5
-5.5 10 -1.81
-15.03 27.34 3.83
-6.65 12.1 -1.69
-13.69 24.9 4.5
-9.78 17.79 -1.78
-13.5 24.56 -1.47
-8.21 14.94 3.94
-13.11 23.84 -0.47
-15.57 28.31 8.66
-10.41 19.1 0.38
-4.42 8.11 -1.8
-12.72 23.32 2.32
-5.46 10.02 -1.81
-14.98 27.48 3.84
-6.63 12.17 -1.7
-13.76 25.25 4.55
-9.7 17.8 -1.77
-13.35 24.48 -1.46
-14.81 27.16 7.14
-10.48 19.22 -0.38
-12.27 22.5 6.87
-13.82 25.56 1.52
-4.39 8.12 -1.79
-12.97 23.98 2.39
-5.42 10.03 -1.81
-13.42 24.82 3.46
-6.58 12.16 -1.7
-9.39 17.36 3.13
-9.64 17.82 -1.77
-12.81 23.69 5.23
-10.34 19.13 -1.14
-8.15 15.07 3.96
-9.96 18.41 -0.37
-7.81 14.44 4.4
-9.56 17.82 0.35
-9.33 17.39 1.03
-4.36 8.13 -1.79
-14.85 27.7 2.75
-5.39 10.05 -1.81
-9.49 17.7 2.47
-6.46 12.05 -1.68
-9.4 17.53 3.15
-9.56 17.83 -1.77
-12.72 23.73 5.23
-13.5 25.18 -1.5
-8.1 15.12 3.96
-13.58 25.33 -0.5
-7.74 14.43 4.39
-10.15 19.09 0.38
-9.3 17.49 1.04
-4.33 8.14 -1.79
-14.68 27.61 2.74
-5.35 10.07 -1.81
-9.42 17.72 2.46
-6.34 11.93 -1.66
-9.46 17.8 -1.76
-12.75 23.98 5.28
-9.63 18.11 -1.07
-8.05 15.13 3.96
-11.33 21.32 -0.42
-7.69 14.45 4.39
-13.34 25.31 0.5
-12.83 24.33 1.44
-4.3 8.15 -1.79
-13.57 25.73 2.54
-5.32 10.09 -1.81
-9.36 17.75 2.46
-6.42 12.17 -1.69
-9.39 17.8 -1.76
-12.31 23.35 5.13
-9.98 18.93 -1.12
-11.53 21.86 5.71
-9.29 17.62 -0.35
-7.78 14.75 4.47
-13.01 24.89 0.49
-9.82 18.78 1.11
-4.27 8.17 -1.79
-13.55 25.93 2.56
-5.28 10.11 -1.81
-13.23 25.31 3.51
-6.57 12.56 -1.74
-9.29 17.77 -1.75
-12.75 24.39 5.35
-9.65 18.45 -1.09
-11.91 22.77 5.93
-9.96 19.06 -0.38
-7.72 14.77 4.47
-9.47 18.28 0.36
-9.66 18.63 1.1
-4.24 8.19 -1.79
-9.33 18 1.77
-5.25 10.13 -1.81
-12.12 23.37 3.23
-6.37 12.29 -1.7
-9.21 17.78 -1.75
-12.43 23.97 5.25
-13.38 25.81 -1.52
-12.12 23.38 6.08
-9.67 18.66 -0.37
-7.69 14.84 4.48
-10.4 20.24 0.4
-11.66 22.68 1.34
-4.22 8.2 -1.79
-5.21 10.14 -1.81
-11.97 23.28 3.21
-6.39 12.43 -1.72
-9.15 17.8 -1.75
-12.85 25.01 5.47
-9.28 18.05 -1.06
-14.83 28.86 7.49
-9.04 17.59 -0.35
-9.29 18.22 0.36
-9.3 18.25 1.07
-4.18 8.21 -1.79
-15.63 30.68 3.01
-5.18 10.17 -1.81
-15.6 30.62 4.22
-6.4 12.56 -1.73
-9.05 17.76 -1.74
-6.53 12.82 2.8
-13.31 26.12 -1.54
-11.62 22.8 5.91
-9.14 17.94 -0.35
-14.43 28.31 8.51
-8.9 17.62 0.34
-9.14 18.09 1.06
-4.15 8.22 -1.79
-10.76 21.28 2.09
-5.14 10.18 -1.81
-8.67 17.15 2.36
-6.38 12.63 -1.74
-8.71 17.23 3.06
-8.99 17.78 -1.74
-6.68 13.22 2.88
-9.08 17.98 -1.06
-10.97 21.7 5.61
-9.22 18.25 -0.36
-7.65 15.13 4.54
-8.81 17.58 0.34
-9.31 18.58 1.09
-4.12 8.23 -1.79
-14.89 29.73 2.91
-5.1 10.18 -1.8
-8.68 17.32 2.38
-6.44 12.86 -1.77
-15.37 30.68 5.43
-8.9 17.77 -1.74
-11.97 23.9 5.2
-8.99 17.94 -1.05
-10.43 20.83 5.38
-8.91 17.78 -0.35
-7.65 15.27 4.58
-8.77 17.67 0.34
-15.37 30.96 1.81
-4.09 8.25 -1.79
-5.06 10.19 -1.8
-12.82 25.82 3.54
-11.92 24.01 4.25
-8.81 17.74 -1.73
-6.51 13.12 2.85
-12.99 26.17 -1.53
-15.17 30.56 7.88
-8.81 17.75 -0.35
-11.01 22.19 6.64
-9.15 18.59 0.36
-12.92 26.26 1.53
-4.07 8.26 -1.79
-13.44 27.31 2.66
-5.03 10.22 -1.8
-8.64 17.56 2.4
-6.57 13.36 -1.83
-14.88 30.24 5.34
-8.74 17.76 -1.73
-14.45 29.36 6.36
-8.63 17.54 -1.02
-10.24 20.81 5.36
-8.77 17.82 -0.35
-8.75 17.94 0.35
-9.02 18.49 1.08
-4.03 8.27 -1.79
-10.61 21.75 2.12
-5 10.24 -1.8
-8.32 17.06 2.33
-8.66 17.75 -1.73
-6.61 13.55 2.93
-8.77 17.98 -1.05
-8.62 17.66 -0.34
-12.49 25.82 0.5
-9.79 20.25 1.18
-4.01 8.28 -1.79
-10.4 21.51 2.09
-4.95 10.23 -1.8
-8.3 17.17 2.34
-5.87 12.13 -1.65
-11.72 24.22 4.26
-8.59 17.76 -1.73
-6.46 13.35 2.88
-8.58 17.74 -1.03
-10.51 21.72 5.57
-8.57 17.71 -0.34
-7.45 15.41 4.59
-8.55 17.83 0.35
-8.96 18.69 1.09
-3.97 8.29 -1.79
-10.49 21.87 2.12
-4.91 10.25 -1.8
-8.22 17.14 2.33
-6.5 13.56 -1.85
-11.62 24.24 4.26
-8.5 17.74 -1.72
-6.42 13.39 2.89
-8.51 17.75 -1.03
-8.72 18.19 -0.35
-8.51 17.9 0.35
-12.3 25.9 1.5
-3.95 8.31 -1.79
-8.11 17.07 1.65
-4.87 10.25 -1.8
-12.36 26.01 4.56
-8.43 17.75 -1.72
-6.38 13.43 2.89
-8.44 17.78 -1.03
-10.14 21.34 5.45
-12.75 26.85 -0.52
-9.61 20.42 0.39
-12.04 25.58 1.48
-3.92 8.32 -1.79
-8.02 17.03 1.65
-4.83 10.27 -1.8
-10.99 23.34 3.17
-6.26 13.3 -1.81
-12.17 25.85 4.52
-8.35 17.75 -1.72
-6.34 13.48 2.9
-8.32 17.67 -1.02
-14.65 31.13 7.94
-8.46 17.96 -0.35
-10.96 23.27 6.89
-9.69 20.77 0.4
-9.54 20.45 1.18
-3.88 8.33 -1.79
-7.96 17.06 1.65
-4.8 10.29 -1.8
-11.24 24.09 3.26
-5.76 12.36 -1.67
-12.6 27 4.72
-8.28 17.75 -1.71
-6.31 13.52 2.9
-8.24 17.66 -1.02
-10.58 22.68 5.78
-12.79 27.41 -0.53
-10.45 22.4 6.62
-9.31 20.13 0.39
-9.44 20.42 1.18
-3.86 8.34 -1.79
-4.77 10.31 -1.8
-10.9 23.57 3.19
-5.76 12.47 -1.69
-8.78 19 3.32
-8.23 17.8 -1.72
-6.11 13.21 2.83
-8.39 18.14 -1.05
-5.65 12.22 3.11
-9.59 20.75 -0.4
-7.44 16.1 4.75
-9.1 19.86 0.38
-12.44 27.17 1.57
-3.83 8.36 -1.79
-7.82 17.07 1.64
-4.73 10.32 -1.8
-8.08 17.64 2.38
-5.72 12.49 -1.69
-12.12 26.46 4.61
-8.16 17.82 -1.71
-6.22 13.59 2.9
-8.3 18.12 -1.04
-8.23 17.96 -0.34
-7.37 16.1 4.74
-8.3 18.28 0.35
-7.84 17.28 0.99
-3.8 8.37 -1.79
-7.77 17.13 1.65
-4.7 10.36 -1.8
-8.03 17.69 2.38
-5.83 12.84 -1.73
-8.14 17.93 -1.72
-6.02 13.27 2.83
-9.17 20.21 -1.16
-7.79 17.15 4.35
-12.65 27.87 -0.53
-8.1 17.84 5.25
-8.13 18.09 0.35
-7.8 17.35 1
-3.77 8.39 -1.79
-7.77 17.28 1.66
-4.67 10.4 -1.81
-5.76 12.82 -1.73
-10.08 22.43 3.89
-8.07 17.95 -1.72
-5.61 12.47 2.66
-8.17 18.17 -1.04
-7.73 17.19 4.35
-7.93 17.64 5.18
-7.9 17.74 0.34
-7.76 17.41 1
-3.74 8.39 -1.79
-7.72 17.32 1.66
-4.64 10.42 -1.81
-11.86 26.63 3.58
-5.75 12.91 -1.74
-11.72 26.31 4.56
-8.01 17.97 -1.72
-5.58 12.54 2.67
-8.06 18.09 -1.04
-5.7 12.8 3.23
-12.45 27.96 -0.53
-6.97 15.65 4.59
-7.71 17.46 1
-3.71 8.4 -1.79
-7.74 17.55 1.68
-4.6 10.42 -1.8
-10.59 23.99 3.22
-5.63 12.76 -1.71
-7.85 17.79 3.08
-7.99 18.11 -1.73
-5.56 12.6 2.68
-7.99 18.11 -1.04
-7.84 17.76 4.48
-7.98 18.1 -0.35
-6.88 15.6 4.57
-7.79 17.8 0.34
-7.77 17.77 1.02
-3.68 8.42 -1.79
-7.54 17.23 1.65
-4.57 10.44 -1.8
-7.47 17.08 2.29
-6.28 14.36 -1.92
-7.78 17.79 3.07
-7.85 17.95 -1.71
-6.02 13.78 2.92
-12.03 27.5 -1.57
-7.82 17.89 4.51
-7.87 18 -0.34
-7.68 17.55 5.13
-7.73 17.84 0.34
-7.57 17.49 1
-3.66 8.44 -1.79
-7.47 17.25 1.64
-4.53 10.46 -1.81
-7.39 17.06 2.28
-6.23 14.37 -1.92
-7.72 17.82 3.08
-7.84 18.1 -1.73
-5.99 13.82 2.93
-7.85 18.13 -1.04
-5.44 12.56 3.16
-7.7 17.79 -0.34
-6.62 15.29 4.46
-7.72 17.99 0.34
-3.62 8.44 -1.79
-7.63 17.78 1.69
-4.49 10.48 -1.81
-7.31 17.05 2.28
-6.17 14.38 -1.92
-7.68 17.9 3.09
-7.73 18.02 -1.72
-5.95 13.88 2.94
-7.77 18.11 -1.03
-5.41 12.61 3.17
-7.73 18.03 -0.34
-10 23.3 6.79
-7.64 17.99 0.34
-3.59 8.45 -1.78
-7.61 17.92 1.7
-4.45 10.48 -1.8
-7.34 17.28 2.31
-5.47 12.88 -1.72
-5.65 13.3 2.29
-7.67 18.05 -1.72
-7.7 18.12 -1.03
-5.46 12.85 3.22
-7.67 18.05 -0.34
-13.42 31.58 9.19
-7.58 18.02 0.34
-3.56 8.46 -1.78
-4.41 10.49 -1.8
-7.33 17.41 2.32
-5.45 12.96 -1.73
-5.62 13.35 2.29
-7.58 18.02 -1.71
-5.84 13.88 2.93
-7.62 18.11 -1.03
-5.46 12.97 3.25
-7.61 18.08 -0.34
-5.04 12.1 0.23
-3.53 8.47 -1.78
-7.36 17.68 1.68
-4.37 10.5 -1.8
-10.63 25.51 3.39
-6.01 14.43 -1.92
-13.65 32.76 5.62
-7.56 18.15 -1.72
-5.93 14.24 3
-5.07 12.16 -0.69
-5.06 12.15 -0.23
-8.47 20.32 5.9
-5.01 12.14 0.23
-4.99 12.1 0.69
-3.5 8.49 -1.79
-7.3 17.69 1.67
-4.34 10.51 -1.8
-7.25 17.56 2.33
-5.05 12.23 -1.62
-10.08 24.44 4.19
-5.03 12.2 -1.15
-10.31 24.99 5.26
-5.02 12.18 -0.69
-7.7 18.67 4.66
-5.03 12.18 -0.23
-8.4 20.35 5.9
-11.37 27.83 0.52
-4.98 12.2 0.69
-3.47 8.5 -1.78
-7.13 17.45 1.65
-4.3 10.53 -1.8
-11.63 28.46 3.77
-9.5 23.24 3.98
-10.42 25.51 5.36
-11.22 27.46 -1.55
-5.27 12.9 3.22
-12.56 30.75 -0.58
-8.34 20.42 5.91
-10.99 27.18 0.51
-4.96 12.28 0.69
-3.44 8.5 -1.78
-7.07 17.48 1.65
-4.26 10.53 -1.8
-6.8 16.82 2.23
-5.84 14.45 -1.91
-9.84 24.32 4.16
-7.5 18.55 -1.75
-10.31 25.49 5.34
-9.3 23 -1.3
-5.25 12.98 3.23
-13.23 32.7 9.45
-16.28 40.66 0.76
-4.94 12.35 0.7
-3.41 8.52 -1.78
-7.03 17.57 1.66
-4.22 10.55 -1.8
-6.74 16.84 2.23
-5.49 13.71 -1.81
-5.42 13.53 2.31
-7.18 17.94 -1.69
-10.4 25.97 5.44
-11.14 27.83 -1.57
-5.43 13.57 3.38
-12.11 30.24 8.73
-12.93 32.61 0.61
-3.38 8.53 -1.78
-7 17.66 1.66
-4.18 10.54 -1.8
-6.69 16.89 2.23
-5.74 14.49 -1.91
-5.37 13.56 2.31
-7.28 18.37 -1.73
-7.11 17.94 3.75
-7.63 19.25 -1.09
-8.37 21.11 5.24
-10.45 26.37 7.6
-12.9 32.89 0.62
-3.35 8.54 -1.78
-6.94 17.69 1.66
-4.14 10.54 -1.79
-9.85 25.1 3.31
-5.37 13.7 -1.81
-10.19 25.98 4.42
-7.57 19.3 -1.81
-7.06 18 3.76
-10.98 27.99 -1.58
-7.11 18.13 4.5
-8.8 22.44 6.46
-12.6 32.45 0.61
-3.32 8.55 -1.78
-6.85 17.64 1.66
-4.09 10.54 -1.79
-10.95 28.21 3.72
-5.63 14.51 -1.91
-9.53 24.54 4.17
-7.18 18.49 -1.74
-9.69 24.95 5.2
-10.88 28.03 -1.58
-7.43 19.13 4.74
-12.71 32.72 -0.61
-8.26 21.28 6.12
-11.67 30.37 0.57
-3.29 8.55 -1.78
-6.79 17.68 1.66
-4.06 10.56 -1.79
-7.3 19 2.5
-5.02 13.06 -1.72
-9.45 24.6 4.17
-7.19 18.7 -1.75
-9.07 23.59 4.91
-10.79 28.08 -1.58
-4.94 12.85 3.18
-12.48 32.46 -0.61
-8.18 21.28 6.11
-12.29 32.31 0.6
-12.37 32.51 1.82
-3.26 8.57 -1.78
-6.76 17.76 1.66
-4.02 10.57 -1.79
-7.23 19 2.5
-5.53 14.54 -1.91
-5.23 13.74 2.33
-7.52 19.78 -1.85
-9.27 24.37 5.07
-10.75 28.26 -1.58
-6.9 18.14 4.48
-12.44 32.69 -0.61
-8.11 21.32 6.11
-12.15 32.26 0.6
-9.4 24.95 1.4
-3.23 8.59 -1.78
-3.99 10.61 -1.8
-7.24 19.22 2.52
-4.88 12.95 -1.7
-5.16 13.71 2.32
-7.44 19.76 -1.85
-5.28 14.02 2.91
-10.64 28.26 -1.58
-6.81 18.08 4.46
-7.58 20.12 5.76
-9.38 25.18 0.47
-3.2 8.59 -1.78
-6.46 17.32 1.62
-3.96 10.62 -1.79
-7.31 19.62 2.57
-5.43 14.57 -1.91
-8.22 22.05 3.73
-7.38 19.79 -1.85
-5.27 14.13 2.93
-10.58 28.39 -1.59
-12.1 32.48 -0.61
-4.96 13.31 3.81
-9.25 25.09 0.47
-3.17 8.6 -1.78
-6.39 17.33 1.62
-3.92 10.63 -1.79
-7.22 19.57 2.56
-4.92 13.34 -1.75
-8.17 22.16 3.74
-6.87 18.63 -1.74
-5.23 14.17 2.94
-10.51 28.49 -1.59
-6.82 18.49 4.55
-9.27 25.13 -0.47
-4.99 13.52 3.86
-12.07 33.11 0.62
-3.14 8.61 -1.78
-6.32 17.35 1.62
-3.88 10.64 -1.79
-7.11 19.51 2.55
-5.33 14.61 -1.91
-7.68 21.07 3.55
-7.19 19.71 -1.84
-5.19 14.25 2.95
-10.44 28.65 -1.6
-7.69 21.1 5.19
-6.4 17.54 -0.33
-4.96 13.59 3.88
-11.95 33.12 0.61
-9.6 26.6 1.48
-3.11 8.62 -1.78
-6.26 17.35 1.61
-3.83 10.63 -1.79
-6.98 19.34 2.52
-5.27 14.62 -1.91
-7.6 21.07 3.55
-6.6 18.3 -1.7
-5.13 14.23 2.94
-9.11 25.25 -1.41
-6.77 18.75 4.6
-15.72 43.58 -0.81
-4.26 11.82 3.37
-11.82 33.13 0.61
-7.53 21.12 1.18
-3.08 8.63 -1.78
-6.25 17.53 1.63
-3.79 10.63 -1.79
-7.51 21.07 2.75
-5.22 14.64 -1.91
-7.53 21.11 3.55
-6.89 19.33 -1.8
-5.12 14.35 2.96
-10.26 28.76 -1.6
-6.7 18.78 4.6
-15.47 43.39 -0.8
-10.07 28.23 8.03
-7.47 21.17 0.39
-7.44 21.09 1.17
-3.05 8.64 -1.78
-6.26 17.76 1.65
-3.75 10.62 -1.78
-7.05 19.98 2.6
-5.17 14.66 -1.91
-7.21 20.42 -1.89
-5.07 14.37 2.96
-9.7 27.49 -1.53
-6.63 18.8 4.6
-7.66 21.7 6.16
-7.36 21.11 0.39
-7.36 21.11 1.17
-3.02 8.65 -1.78
-6.05 17.36 1.61
-3.71 10.64 -1.79
-10.66 30.56 3.97
-5.12 14.67 -1.91
-4.89 14.01 2.35
-6.26 17.94 -1.66
-7.48 21.43 -1.19
-6.58 18.86 4.61
-7.38 21.16 -0.39
-7.56 21.67 6.15
-7.29 21.13 0.39
-7.31 21.2 1.18
-2.98 8.65 -1.78
-5.97 17.3 1.6
-3.68 10.66 -1.79
-5.07 14.69 -1.91
-4.85 14.07 2.36
-6.27 18.18 -1.68
-7.47 21.66 4.45
-7.28 21.11 -1.17
-7.29 21.12 -0.39
-7.23 21.19 0.39
-9.13 26.74 1.48
-2.95 8.65 -1.78
-9.01 26.41 2.44
-3.64 10.67 -1.79
-9.21 27 3.5
-5.02 14.71 -1.91
-8.63 25.3 4.23
-6.82 19.98 -1.85
-7.35 21.54 4.42
-7.14 20.94 -1.16
-6.48 18.99 4.63
-7.12 20.86 -0.38
-7.38 21.63 6.12
-6.98 20.68 0.38
-6.96 20.63 1.14
-2.92 8.67 -1.78
-6.94 20.58 1.9
-3.6 10.66 -1.78
-9.08 26.9 3.49
-4.44 13.17 -1.71
-4.72 13.99 2.34
-6.7 19.85 -1.83
-7.24 21.45 4.4
-7.04 20.85 -1.15
-6.36 18.86 4.59
-7.01 20.77 -0.38
-6.9 20.67 0.38
-6.87 20.6 1.14
-2.9 8.68 -1.78
-6.86 20.56 1.9
-3.56 10.66 -1.78
-6.75 20.24 2.62
-4.34 13 -1.68
-13.32 39.93 6.67
-6.44 19.31 -1.78
-8.33 24.98 5.12
-6.95 20.83 -1.15
-6.19 18.55 4.51
-6.94 20.79 -0.38
-6.84 20.72 0.38
-6.8 20.62 1.14
-2.86 8.68 -1.78
-6.79 20.58 1.9
-3.51 10.65 -1.78
-6.65 20.16 2.61
-4.87 14.76 -1.91
-6.66 20.19 3.37
-5.95 18.03 -1.66
-6.73 20.4 4.18
-6.88 20.85 -1.15
-6.12 18.55 4.51
-5.87 17.8 -0.33
-6.75 20.73 1.14
-2.83 8.69 -1.78
-5.73 17.62 1.62
-3.48 10.69 -1.78
-5.62 17.27 2.23
-4.33 13.31 -1.72
-6.57 20.18 3.36
-5.9 18.12 -1.67
-6.59 20.24 4.14
-8.73 26.82 -1.48
-6.02 18.5 4.49
-13.14 40.37 -0.74
-6.51 20.01 5.64
-13.08 40.66 0.75
-6.67 20.73 1.14
-2.8 8.7 -1.78
-8.73 27.14 2.49
-3.44 10.7 -1.78
-5.58 17.33 2.24
-4.76 14.79 -1.91
-6.5 20.21 3.36
-5.89 18.3 -1.68
-6.51 20.23 4.13
-5.74 17.84 -0.98
-6.29 19.56 4.74
-8.57 26.64 -0.49
-8.69 27.02 7.61
-8.86 27.87 0.51
-6.59 20.74 1.14
-2.77 8.71 -1.78
-8.59 27.04 2.48
-3.4 10.69 -1.78
-10.33 32.51 4.19
-4.7 14.8 -1.91
-7.14 22.47 3.73
-5.95 18.72 -1.72
-6.44 20.27 4.13
-8.84 27.81 -1.53
-12.8 40.27 -0.74
-6.37 20.06 5.64
-8.23 26.21 0.48
-6.51 20.73 1.14
-2.74 8.72 -1.78
-5.5 17.5 1.6
-3.36 10.7 -1.78
-5.77 18.39 2.37
-4.65 14.81 -1.91
-7.11 22.64 3.76
-5.68 18.07 -1.66
-8.92 28.41 5.79
-8.76 27.91 -1.53
-6.02 19.17 4.64
-5.67 18.05 -0.33
-6.31 20.08 5.64
-8.23 26.51 0.48
-6.45 20.77 1.14
-2.71 8.72 -1.78
-5.56 17.92 1.64
-3.32 10.7 -1.77
-8.73 28.12 3.62
-4.6 14.83 -1.91
-7.08 22.82 3.78
-5.59 18.01 -1.65
-6.01 19.36 -1.06
-5.91 19.06 4.61
-5.48 17.66 -0.32
-7.5 24.46 0.45
-8.7 28.39 1.56
-2.67 8.72 -1.77
-8.57 27.96 2.56
-3.28 10.7 -1.77
-5.5 17.92 2.3
-4.55 14.84 -1.91
-6.42 20.94 3.47
-5.77 18.83 -1.72
-5.76 18.79 -1.03
-5.83 19.03 4.59
-6.47 21.12 5.92
-8.59 28.37 0.52
-8.23 27.18 1.49
-2.64 8.73 -1.77
-5.24 17.3 1.58
-3.24 10.69 -1.77
-5.44 17.97 2.31
-4.5 14.85 -1.91
-6.36 20.99 3.47
-5.44 17.97 -1.64
-8.73 28.81 5.85
-8.52 28.13 -1.54
-5.8 19.16 4.62
-6.45 21.29 -0.39
-3.77 12.43 3.48
-8.04 26.89 0.49
-8.01 26.76 1.46
-2.62 8.75 -1.77
-5.27 17.6 1.61
-3.2 10.69 -1.77
-5.39 18.03 2.31
-4.45 14.86 -1.91
-7.67 25.65 4.24
-6.03 20.16 -1.84
-5.43 18.16 -0.99
-5.99 20.02 4.82
-5.4 18.05 -0.33
-6.98 23.32 6.52
-8.16 27.63 0.5
-8.23 27.86 1.52
-2.59 8.76 -1.77
-5.25 17.78 1.62
-3.16 10.69 -1.77
-5.4 18.29 2.34
-4.39 14.88 -1.9
-6.9 23.38 3.86
-5.31 17.98 -1.64
-8.25 27.94 -1.53
-8.28 28.04 6.75
-7.9 26.74 -0.49
-6.98 23.65 6.61
-7.92 27.17 0.49
-7.89 27.09 1.48
-2.55 8.76 -1.77
-5.17 17.74 1.62
-3.12 10.71 -1.77
-6.35 21.81 2.79
-4.34 14.88 -1.9
-6.12 21.01 3.47
-5.37 18.44 -1.68
-8.02 27.51 5.57
-8.19 28.1 -1.53
-5.66 19.41 4.67
-5.14 17.63 -0.32
-5.94 20.39 5.69
-7.61 26.46 0.48
-2.52 8.75 -1.77
-5.09 17.7 1.61
-3.07 10.69 -1.76
-6.28 21.84 2.79
-4.28 14.89 -1.9
-5.23 18.18 -1.66
-8.08 28.1 -1.53
-4.45 15.49 3.72
-5.06 17.59 -0.32
-3.62 12.6 3.51
-2.49 8.76 -1.77
-5.03 17.72 1.61
-3.03 10.7 -1.76
-6.19 21.81 2.78
-4.23 14.91 -1.9
-4.34 15.31 2.52
-5.13 18.07 -1.64
-7.22 25.44 5.14
-5.07 17.88 -0.97
-4.41 15.56 3.73
-7.72 27.23 -0.49
-11.43 40.76 0.74
-7.9 28.17 1.53
-2.46 8.78 -1.77
-4.97 17.71 1.61
-3 10.68 -1.76
-6.14 21.9 2.79
-4.18 14.93 -1.9
-4.4 15.68 2.58
-5.17 18.44 -1.68
-4.99 17.81 -0.97
-5.56 19.85 4.76
-7.69 27.44 -0.5
-6.59 23.84 0.43
-4.79 17.34 0.94
-2.43 8.78 -1.77
-4.9 17.71 1.61
-2.95 10.67 -1.75
-4.93 17.83 2.27
-4.13 14.94 -1.9
-4.22 15.25 2.51
-4.9 17.72 -1.61
-4.62 16.72 3.37
-7.48 27.05 -1.47
-5.49 19.87 4.76
-7.41 26.78 -0.49
-8.72 31.53 8.76
-7.51 27.55 0.5
-4.74 17.39 0.94
-2.4 8.79 -1.77
-4.83 17.72 1.61
-2.92 10.7 -1.76
-4.94 18.11 2.3
-4.07 14.93 -1.9
-6 22.01 3.61
-5.6 20.55 -1.86
-4.67 17.11 3.45
-7.52 27.58 -1.5
-5.48 20.1 4.81
-7.54 27.66 -0.5
-4.28 15.7 4.36
-4.65 17.3 0.31
-4.68 17.43 0.95
-2.36 8.79 -1.77
-4.76 17.73 1.61
-2.88 10.71 -1.76
-4.8 17.85 2.27
-4.02 14.95 -1.9
-8.53 31.72 5.2
-4.77 17.73 -1.61
-4.72 17.56 3.53
-7.24 26.92 -1.46
-6.34 23.59 5.64
-7.91 29.42 -0.53
-4.23 15.75 4.37
-11.56 43.61 0.79
-4.64 17.48 0.95
-2.33 8.79 -1.77
-6.09 22.98 2.08
-2.84 10.7 -1.75
-4.48 16.91 2.15
-3.97 14.96 -1.9
-5.79 21.85 3.58
-5.47 20.65 -1.87
-4.17 15.73 3.16
-7.27 27.42 -1.49
-7.31 27.56 -0.5
-4.19 15.78 4.38
-4.57 17.47 0.32
-4.58 17.53 0.95
-2.3 8.8 -1.77
-6.01 22.99 2.08
-2.8 10.72 -1.76
-4.69 17.93 2.28
-3.91 14.97 -1.9
-5.72 21.87 3.58
-4.1 15.7 3.15
-7.08 27.08 -1.47
-5.13 19.65 4.69
-7.1 27.16 -0.49
-4.13 15.81 4.38
-4.52 17.53 0.32
-5.71 22.14 1.2
-2.27 8.81 -1.77
-5.89 22.84 2.06
-2.77 10.73 -1.75
-4.7 18.23 2.31
-3.86 14.97 -1.9
-6.34 24.57 4.02
-5.29 20.53 -1.85
-4.05 15.7 3.15
-6.64 25.77 -1.39
-5.06 19.62 4.68
-5 19.39 -0.35
-4.1 15.9 4.4
-9.59 37.75 0.68
-2.24 8.81 -1.77
-5.8 22.84 2.06
-2.74 10.77 -1.76
-4.63 18.24 2.31
-3.81 14.98 -1.9
-5.27 20.73 -1.87
-6.95 27.37 -1.48
-4.28 16.84 4.01
-4.96 19.51 -0.35
-4.57 18 4.98
-4.42 17.67 0.32
-4.39 17.55 0.95
-2.21 8.81 -1.77
-4.37 17.47 1.58
-2.7 10.78 -1.76
-5 19.97 2.53
-3.75 14.98 -1.9
-3.89 15.55 2.54
-4.56 18.24 -1.64
-4.21 16.81 3.37
-7.22 28.84 -1.56
-4.05 16.2 3.86
-4.91 19.63 -0.35
-4.23 16.91 4.67
-4.36 17.68 0.32
-4.35 17.64 0.95
-2.17 8.82 -1.76
-4.35 17.66 1.59
-2.66 10.78 -1.76
-4.3 17.44 2.21
-3.7 15 -1.9
-4.28 17.36 2.83
-4.48 18.18 -1.64
-4.26 17.27 3.46
-4.46 18.1 -0.98
-3.99 16.17 3.85
-4.41 17.89 -0.32
-4.16 16.86 4.65
-4.35 17.92 0.32
-4.32 17.77 0.96
-2.14 8.82 -1.76
-4.29 17.64 1.59
-2.62 10.77 -1.76
-4.25 17.5 2.21
-3.65 15.01 -1.9
-3.74 15.4 2.51
-4.4 18.12 -1.63
-4.39 18.07 -0.97
-3.93 16.19 3.85
-4.37 18 -0.32
-7.55 31.06 8.56
-4.32 18.07 0.97
-2.11 8.84 -1.77
-3.65 15.27 1.37
-2.58 10.79 -1.76
-7.66 32.01 4.04
-3.59 15.02 -1.9
-5.92 24.73 4.03
-4.28 17.87 3.57
-6.52 27.24 -1.47
-3.89 16.27 3.86
-4.2 17.81 0.32
-4.29 18.21 0.98
-2.08 8.84 -1.76
-3.6 15.27 1.37
-2.54 10.76 -1.75
-3.81 16.15 2.04
-3.54 15.01 -1.89
-4.19 17.76 -1.6
-3.87 16.41 3.28
-6.42 27.24 -1.47
-2.96 12.58 2.98
-4.12 17.79 0.32
-5.2 22.42 1.21
-2.05 8.83 -1.76
-2.49 10.75 -1.75
-3.58 15.45 1.95
-3.48 15.02 -1.89
-4.1 17.69 2.88
-4.15 17.88 -1.61
-3.8 16.4 3.27
-6.5 28.04 -1.51
-4 17.25 4.09
-6.66 28.7 -0.51
-4.15 17.88 4.92
-5.26 23.02 0.41
-6.28 27.53 1.48
-2.02 8.84 -1.76
-2.45 10.75 -1.75
-3.53 15.47 1.95
-3.43 15.03 -1.89
-5.16 22.61 3.67
-4.09 17.9 -1.61
-3.75 16.42 3.27
-6.39 27.98 -1.5
-3.85 16.87 3.99
-5.28 23.11 -0.41
-3.01 13.17 3.62
-6.2 27.63 0.49
-5.05 22.51 1.21
-1.99 8.84 -1.76
-2.41 10.75 -1.74
-3.48 15.48 1.95
-3.38 15.05 -1.89
-3.94 17.54 2.85
-4.03 17.95 -1.61
-3.7 16.46 3.28
-6.04 26.92 -1.45
-3.73 16.61 3.93
-6.22 27.72 -0.5
-5.8 26.25 0.47
-1.64 7.43 -1.76
-5.75 26.04 1.4
-1.96 8.85 -1.76
-5.72 25.88 2.32
-2.38 10.76 -1.74
-3.97 17.97 2.26
-3.33 15.05 -1.89
-3.91 17.71 2.87
-4 18.09 -1.62
-4.88 22.1 4.4
-6.09 27.58 -1.48
-5.53 25.04 5.92
-5.86 26.51 -0.47
-3.19 14.44 3.96
-5.05 23.23 0.42
-1.61 7.4 -1.75
-1.92 8.86 -1.76
-3.92 18.04 1.62
-2.33 10.75 -1.74
-3.61 16.61 2.09
-3.27 15.05 -1.89
-3.88 17.88 2.9
-3.9 17.95 -1.61
-4.91 22.59 4.49
-5.97 27.49 -1.47
-5.41 24.92 5.89
-6.18 28.44 -0.51
-3.14 14.47 3.97
-6.11 28.62 0.51
-1.58 7.4 -1.75
-5.73 26.8 1.44
-1.89 8.85 -1.76
-3.27 15.3 1.37
-2.3 10.75 -1.74
-3.34 15.62 1.96
-3.22 15.06 -1.89
-3.83 17.92 2.9
-3.81 17.85 -1.6
-4.8 22.46 4.46
-5.85 27.38 -1.47
-3.24 15.14 3.58
-6.91 32.32 -0.58
-3.66 17.13 4.69
-5.42 25.84 0.46
-1.55 7.4 -1.75
-1.86 8.86 -1.76
-3.2 15.23 1.36
-2.26 10.78 -1.74
-3.14 14.97 1.88
-3.16 15.07 -1.89
-3.66 17.42 2.82
-3.75 17.89 -1.6
-4.72 22.47 4.46
-5.8 27.65 -1.48
-3.17 15.09 3.56
-5.97 28.44 -0.51
-3 14.3 3.92
-5.89 28.49 0.51
-1.53 7.4 -1.74
-3.77 18.24 0.98
-1.83 8.87 -1.76
-3.15 15.25 1.36
-2.22 10.75 -1.74
-3.1 15.02 1.88
-3.11 15.08 -1.89
-3.47 16.78 2.71
-3.73 18.04 -1.61
-3.61 17.46 3.47
-5.09 24.66 -1.32
-3.13 15.13 3.57
-5.05 24.47 -0.44
-4.93 24.31 0.43
-1.5 7.39 -1.74
-4.92 24.22 1.3
-1.8 8.88 -1.76
-3.11 15.31 1.37
-2.18 10.75 -1.74
-3.04 15 1.88
-3.06 15.08 -1.89
-3.41 16.78 2.71
-3.61 17.77 -1.59
-4.75 23.42 -1.25
-3.06 15.06 3.55
-4.98 24.53 -0.44
-6.22 30.67 8.39
-5.39 27.05 0.48
-1.47 7.39 -1.74
-5.7 28.62 1.53
-1.77 8.88 -1.76
-3.07 15.4 1.37
-2.14 10.73 -1.73
-3.05 15.31 1.92
-3.01 15.09 -1.89
-3.35 16.81 2.71
-3.53 17.72 -1.58
-4.57 22.92 4.54
-4.68 23.5 -1.26
-3 15.05 3.54
-5.5 27.62 -0.49
-2.88 14.43 3.94
-5.62 28.73 0.51
-1.45 7.41 -1.74
-5.59 28.59 1.53
-1.74 8.88 -1.76
-2.1 10.71 -1.73
-3.01 15.38 1.92
-2.95 15.1 -1.89
-3.29 16.81 2.71
-3.49 17.82 -1.59
-3.13 16.01 3.17
-5.8 29.66 -1.58
-5.4 27.61 -0.49
-2.86 14.6 3.99
-6.89 35.9 0.64
-1.42 7.4 -1.74
-4.84 25.19 1.34
-1.71 8.88 -1.76
-4.09 21.29 1.9
-2.06 10.72 -1.73
-2.96 15.41 1.93
-2.9 15.1 -1.89
-3.24 16.88 2.72
-3.43 17.84 -1.59
-3.06 15.95 3.16
-5.7 29.67 -1.58
-2.91 15.13 3.56
-5.29 27.55 -0.49
-2.82 14.66 4
-6.78 35.97 0.64
-1.39 7.4 -1.74
-4.16 22.05 1.18
-1.68 8.89 -1.76
-4.38 23.24 2.07
-2.01 10.69 -1.72
-2.91 15.43 1.93
-2.85 15.12 -1.89
-3.2 16.97 2.73
-3.35 17.8 -1.58
-2.96 15.73 3.11
-4.28 22.74 -1.21
-2.84 15.07 3.54
-5.2 27.6 -0.49
-2.77 14.71 4.01
-5.53 29.94 0.53
-1.37 7.4 -1.74
-4.05 21.89 1.17
-1.64 8.89 -1.76
-4.95 26.8 2.38
-1.98 10.69 -1.72
-3.26 17.62 2.2
-2.79 15.12 -1.89
-3.14 16.98 2.73
-4.33 23.41 4.63
-4.17 22.59 -1.2
-2.81 15.21 3.57
-5.52 29.88 -0.53
-2.74 14.81 4.03
-4.17 23.02 0.41
-1.34 7.4 -1.74
-5.41 29.86 1.59
-1.61 8.9 -1.76
-3.32 18.32 1.63
-1.94 10.7 -1.72
-3.12 17.22 2.15
-2.74 15.12 -1.89
-3.07 16.93 2.72
-3.24 17.88 -1.59
-4.23 23.37 4.62
-5.38 29.69 -1.58
-2.72 14.99 3.52
-5.43 29.95 -0.53
-2.94 16.22 4.42
-5.67 31.92 0.57
-1.32 7.41 -1.74
-3.11 17.53 0.93
-1.58 8.9 -1.76
-3.08 17.33 1.54
-1.9 10.71 -1.72
-2.74 15.43 1.92
-2.69 15.13 -1.89
-3 16.87 2.71
-3.13 17.62 -1.57
-2.93 16.5 3.26
-5.27 29.68 -1.58
-2.9 16.33 3.83
-5.68 31.96 -0.57
-2.88 16.2 4.41
-3.05 17.55 0.31
-1.29 7.41 -1.74
-3.03 17.44 0.93
-1.55 8.9 -1.76
-3 17.26 1.53
-1.86 10.71 -1.72
-2.68 15.4 1.92
-2.63 15.13 -1.89
-2.93 16.86 2.71
-3.04 17.48 -1.55
-2.87 16.47 3.25
-3.08 17.73 -0.94
-2.62 15.07 3.53
-3.07 17.63 -0.31
-2.82 16.22 4.41
-2.99 17.49 0.31
-1.27 7.41 -1.74
-2.97 17.39 0.92
-1.52 8.9 -1.76
-2.94 17.24 1.53
-1.82 10.68 -1.72
-2.61 15.3 1.91
-2.59 15.14 -1.89
-2.88 16.87 2.71
-3 17.57 -1.56
-2.76 16.16 3.19
-3.02 17.67 -0.94
-3 17.58 -0.31
-2.78 16.28 4.42
-2.92 17.46 0.31
-1.24 7.41 -1.73
-2.9 17.37 0.92
-1.49 8.91 -1.76
-2.88 17.22 1.53
-1.79 10.69 -1.72
-2.56 15.3 1.9
-2.53 15.16 -1.89
-2.82 16.89 2.71
-2.94 17.59 -1.56
-2.69 16.1 3.17
-2.95 17.63 -0.94
-2.75 16.43 3.85
-2.94 17.57 -0.31
-2.88 17.22 4.68
-2.85 17.46 0.31
-1.21 7.41 -1.73
-2.84 17.37 0.92
-1.46 8.91 -1.76
-2.82 17.24 1.53
-1.75 10.72 -1.72
-2.78 17.01 2.12
-2.48 15.15 -1.89
-2.76 16.92 2.72
-2.88 17.62 -1.56
-2.71 16.61 3.27
-2.88 17.61 -0.94
-2.81 17.19 4.02
-2.87 17.56 -0.31
-2.59 15.86 4.31
-2.79 17.48 0.31
-1.18 7.41 -1.73
-2.78 17.38 0.92
-1.42 8.9 -1.75
-2.76 17.26 1.53
-1.71 10.71 -1.72
-2.38 14.92 1.85
-2.42 15.15 -1.88
-2.52 15.79 2.53
-2.81 17.6 -1.56
-2.74 17.17 3.38
-2.81 17.61 -0.93
-2.75 17.23 4.03
-2.81 17.56 -0.31
-2.76 17.29 4.69
-2.74 17.52 0.31
-1.16 7.42 -1.73
-2.72 17.41 0.92
-1.39 8.91 -1.75
-2.71 17.3 1.53
-1.68 10.73 -1.72
-2.34 14.96 1.86
-2.37 15.16 -1.88
-2.48 15.83 2.54
-2.75 17.61 -1.56
-2.7 17.26 3.4
-2.76 17.64 -0.94
-2.75 17.59 -0.31
-4.08 26.08 7.07
-2.68 17.55 0.31
-1.13 7.42 -1.73
-2.67 17.48 0.93
-1.36 8.92 -1.75
-2.66 17.41 1.54
-1.64 10.73 -1.72
-2.3 15.02 1.87
-2.32 15.17 -1.88
-4.94 32.34 5.18
-2.69 17.63 -1.56
-2.69 17.63 3.47
-2.7 17.68 -0.94
-2.55 16.71 3.9
-2.7 17.63 -0.31
-5.01 32.78 8.88
-2.63 17.66 0.31
-1.11 7.41 -1.73
-2.62 17.58 0.93
-1.33 8.92 -1.75
-2.87 19.26 1.7
-1.6 10.72 -1.72
-2.25 15.07 1.87
-2.26 15.18 -1.89
-2.5 16.74 2.68
-2.64 17.7 -1.57
-2.44 16.36 3.22
-2.64 17.71 -0.94
-2.47 16.56 3.87
-2.64 17.72 -0.31
-3.54 23.78 6.44
-2.67 18.36 0.32
-1.08 7.41 -1.73
-5.48 37.67 1.99
-1.3 8.92 -1.75
-2.5 17.16 1.52
-1.56 10.71 -1.71
-2.2 15.12 1.88
-2.21 15.17 -1.88
-2.99 20.52 3.28
-2.58 17.7 -1.56
-4.79 32.94 6.47
-2.59 17.82 -0.94
-2.42 16.65 3.88
-4.22 28.97 7.84
-2.62 18.47 0.33
-1.05 7.42 -1.73
-4.52 31.82 1.68
-1.27 8.91 -1.75
-2.44 17.16 1.52
-1.52 10.72 -1.71
-2.16 15.25 1.89
-2.15 15.16 -1.88
-2.91 20.47 3.28
-2.53 17.83 -1.58
-2.35 16.56 3.25
-2.36 16.65 3.88
-5.15 36.28 -0.64
-2.71 19.11 5.17
-2.56 18.51 0.33
-1.03 7.42 -1.73
-1.23 8.92 -1.75
-1.48 10.72 -1.71
-2.12 15.29 1.9
-2.1 15.18 -1.88
-2.83 20.42 3.27
-2.52 18.19 -1.61
-2.26 16.3 3.2
-4.24 30.62 -1.62
-2.27 16.41 3.83
-4.62 33.41 -0.59
-4.28 30.95 8.37
-2.49 18.45 0.32
-1 7.43 -1.73
