# .PCD v0.7 - Point Cloud Data file format
VERSION 0.7
FIELDS x y z
SIZE 4 4 4
TYPE F F F
COUNT 1 1 1
WIDTH 2760
HEIGHT 1
VIEWPOINT 0 0 0 1 0 0 0
POINTS 2760
DATA ascii
-3.26 -13.9 2.26
-1.89 -8.07 -0.72
-1.83 -7.82 1.56
-1.69 -7.21 -0.39
-2.63 -11.24 2.66
-1.69 -7.23 -0.13
-1.98 -8.34 0.45
-1.81 -7.6 -1.52
-1.78 -7.48 -1.22
-2.06 -8.64 1.09
-1.82 -7.63 -0.96
-1.91 -8.05 1.31
-1.68 -7.08 -0.64
-1.86 -7.81 1.56
-1.86 -7.82 -0.42
-2.34 -9.85 2.34
-1.7 -7.16 -0.13
-1.88 -7.89 2.17
-1.86 -7.68 0.41
-1.76 -7.29 -1.46
-2.01 -8.31 0.75
-1.81 -7.48 -1.22
-1.84 -7.62 -0.96
-1.92 -7.94 1.29
-1.83 -7.56 -0.68
-1.88 -7.8 1.56
-1.95 -8.08 1.92
-1.73 -7.18 -0.13
-2.13 -8.83 2.43
-2.05 -8.36 0.15
-1.91 -7.77 0.42
-1.76 -7.18 -1.44
-1.97 -8.01 0.72
-1.87 -7.63 -1.24
-1.99 -8.11 1.03
-1.85 -7.54 -0.95
-1.95 -7.94 1.3
-1.81 -7.36 -0.66
-2.55 -10.4 2.08
-1.73 -7.04 -0.13
-2.28 -9.28 2.56
-2.04 -8.2 0.15
-2.04 -8.2 0.44
-1.88 -7.55 -1.51
-1.98 -7.96 0.72
-1.96 -7.88 -1.29
-2.3 -9.26 1.17
-1.85 -7.41 -0.94
-5.51 -22.11 3.61
-1.74 -6.99 -0.63
-2.58 -10.37 2.08
-1.97 -7.93 -0.43
-2.02 -8.11 1.93
-1.76 -7.09 -0.13
-1.91 -7.67 2.12
-2.11 -8.34 0.15
-2.11 -8.36 0.45
-1.99 -7.89 -1.58
-2.1 -8.3 0.75
-1.92 -7.59 -1.24
-2.04 -8.06 1.02
-1.88 -7.43 -0.94
-5.5 -21.78 3.56
-1.97 -7.78 -0.7
-1.87 -7.42 -0.4
-2.05 -8.11 1.93
-1.93 -7.65 2.11
-2.27 -8.83 0.16
-2.21 -8.63 0.47
-1.99 -7.76 -1.56
-2.04 -7.94 0.72
-1.92 -7.48 -1.22
-3.51 -13.68 1.73
-2 -7.78 -0.99
-2.12 -8.27 1.35
-1.88 -7.34 -0.4
-2.68 -10.46 2.49
-1.95 -7.6 -0.14
-1.98 -7.7 2.13
-2.19 -8.42 0.15
-1.99 -7.65 -1.54
-2.08 -7.98 0.72
-2.17 -8.34 1.06
-1.93 -7.4 -0.94
-2.13 -8.19 1.34
-2.01 -7.73 1.55
-2.07 -7.96 -0.43
-2.12 -8.15 1.95
-2.18 -8.36 -0.15
-1.98 -7.49 -1.51
-2.19 -8.29 0.75
-1.99 -7.54 -1.23
-2.17 -8.24 1.05
-2.01 -7.62 -0.97
-2.16 -8.2 1.34
-2.14 -8.1 -0.44
-1.89 -7.16 -0.13
-2.01 -7.6 2.11
-1.91 -7.13 0.39
-2 -7.49 -1.51
-2.2 -8.24 0.75
-2 -7.47 -1.23
-2.2 -8.22 1.04
-2.02 -7.53 -0.96
-2.19 -8.2 1.34
-1.88 -7.01 -0.64
-2.1 -7.85 1.58
-1.92 -7.19 -0.39
-1.99 -7.42 1.77
-2.03 -7.59 2.1
-2.03 -7.47 0.14
-2.07 -7.62 -1.53
-2.24 -8.27 0.75
-2.03 -7.47 -1.23
-3.7 -13.65 1.74
-1.98 -7.31 -0.93
-2.3 -8.49 1.39
-1.87 -6.89 -0.62
-2.05 -7.55 1.52
-1.96 -7.22 -0.39
-2.07 -7.63 1.82
-2.04 -7.52 -0.14
-2.13 -7.86 2.18
-2.1 -7.63 0.14
-2.16 -7.86 0.43
-2.1 -7.64 -1.54
-4.1 -14.92 1.35
-2.16 -7.84 -1.29
-4.14 -15.04 1.92
-1.99 -7.24 -0.92
-3.75 -13.63 2.24
-1.93 -7.02 -0.64
-2.08 -7.56 1.52
-1.95 -7.08 -0.38
-2.11 -7.69 1.84
-1.92 -6.98 -0.13
-2.18 -7.93 2.2
-1.96 -7.02 0.13
-2.15 -7.71 0.42
-2.11 -7.57 -1.53
-2.28 -8.17 0.74
-2.14 -7.68 -1.26
-4.2 -15.05 1.92
-2.04 -7.33 -0.93
-2.25 -8.06 1.33
-2.03 -7.29 -0.66
-2.11 -7.55 1.52
-2.11 -7.57 -0.41
-2.15 -7.72 1.85
-2.11 -7.58 -0.14
-2.11 -7.46 -1.51
-2.32 -8.22 0.75
-2.14 -7.57 -1.25
-2.29 -8.11 1.03
-2.12 -7.48 -0.95
-1.98 -7.02 -0.64
-2.26 -8 1.62
-2.2 -7.77 -0.42
-2.41 -8.52 2.37
-2.11 -7.39 0.13
-2.15 -7.5 -1.52
-2.77 -9.68 0.88
-2.15 -7.52 -1.24
-4.21 -14.73 1.88
-2.13 -7.44 -0.95
-2.25 -7.85 1.29
-2.15 -7.51 -0.68
-2.29 -7.99 1.62
-2.07 -7.24 -0.39
-2.32 -8.11 1.95
-2.15 -7.52 -0.14
-2.25 -7.88 2.2
-2.13 -7.36 0.13
-2.32 -8 0.44
-2.18 -7.52 -1.52
-2.65 -9.15 0.83
-2.17 -7.5 -1.24
-2.29 -7.9 1.01
-2.14 -7.38 -0.94
-2.27 -7.84 1.29
-2.23 -7.7 -0.7
-2.32 -8.01 1.62
-2.11 -7.27 -0.4
-2.31 -7.97 -0.14
-2.38 -8.21 2.29
-2.25 -7.67 0.42
-2.21 -7.53 -1.53
-2.43 -8.27 0.75
-2.23 -7.58 -1.25
-2.35 -8 1.02
-2.15 -7.34 -0.94
-2.29 -7.82 1.29
-2.1 -7.17 -0.65
-2.65 -9.01 1.83
-2.19 -7.44 -0.41
-4.19 -14.26 3.43
-2.27 -7.75 -0.14
-2.21 -7.54 2.11
-2.15 -7.24 0.4
-2.22 -7.48 -1.52
-4.42 -14.85 1.36
-2.36 -7.95 1.02
-2.23 -7.51 -0.96
-2.34 -7.87 1.3
-2.1 -7.06 -0.64
-2.32 -7.81 1.58
-2.21 -7.45 -0.41
-2.44 -8.2 1.98
-2.35 -7.9 -0.14
-2.45 -8.23 2.3
-2.25 -7.46 0.14
-2.24 -7.45 -1.51
-2.69 -8.94 0.82
-2.38 -7.91 1.01
-2.24 -7.44 -0.95
-2.35 -7.8 1.29
-2.14 -7.09 -0.65
-2.35 -7.81 1.59
-2.24 -7.45 -0.41
-2.46 -8.17 1.97
-2.48 -8.24 -0.15
-2.48 -8.24 2.31
-2.41 -7.91 0.14
-2.36 -7.73 0.42
-2.26 -7.4 -1.5
-3.87 -12.7 1.16
-3.27 -10.7 1.37
-2.26 -7.42 -0.95
-2.35 -7.71 1.28
-2.13 -6.99 -0.64
-2.21 -7.24 -0.4
-3.32 -10.87 2.62
-6.17 -20.22 5.67
-2.43 -7.88 0.14
-2.26 -7.32 0.4
-2.35 -7.6 -1.55
-3.9 -12.63 1.16
-2.36 -7.66 -1.27
-2.46 -7.97 1.02
-2.24 -7.27 -0.93
-2.32 -7.52 1.25
-2.23 -7.23 -0.66
-4.43 -14.34 2.92
-2.21 -7.15 -0.39
-2.98 -9.64 2.33
-6.17 -19.99 5.61
-2.39 -7.63 0.14
-2.37 -7.58 0.42
-2.37 -7.57 -1.54
-2.52 -8.05 0.74
-2.37 -7.58 -1.26
-2.53 -8.1 1.04
-2.29 -7.33 -0.94
-3.21 -10.28 1.71
-2.25 -7.21 -0.66
-4.64 -14.84 3.02
-2.27 -7.26 -0.4
-3.42 -10.95 2.65
-2.38 -7.62 -0.14
-6.21 -19.87 5.58
-2.45 -7.72 0.14
-2.36 -7.46 0.41
-2.37 -7.49 -1.53
-2.6 -8.21 0.75
-2.39 -7.56 -1.26
-3.2 -10.12 1.3
-2.33 -7.37 -0.95
-2.78 -8.78 1.46
-2.22 -7 -0.64
-4.68 -14.78 3.01
-2.29 -7.24 -0.4
-2.83 -8.95 2.17
-2.39 -7.55 -0.14
-2.57 -8.13 2.29
-2.42 -7.56 0.14
-2.68 -8.37 0.46
-2.48 -7.75 0.71
-2.43 -7.58 -1.26
-2.57 -8.02 1.03
-2.36 -7.36 -0.95
-2.98 -9.31 1.55
-2.29 -7.13 -0.66
-4.78 -14.92 3.05
-2.35 -7.32 -0.4
-3.5 -10.92 2.65
-2.36 -7.37 -0.14
-2.63 -8.19 2.31
-2.42 -7.46 0.14
-2.42 -7.47 0.41
-2.52 -7.77 0.71
-2.43 -7.5 -1.25
-2.4 -7.41 -0.96
-2.43 -7.5 1.25
-2.41 -7.42 -0.68
-3.33 -10.27 2.1
-2.34 -7.22 -0.4
-3.07 -9.47 2.3
-2.41 -7.42 -0.14
-2.64 -8.15 2.29
-2.46 -7.5 0.14
-4.83 -14.72 0.81
-2.49 -7.58 -1.55
-2.49 -7.6 -1.27
-2.71 -8.27 1.07
-2.42 -7.38 -0.95
-2.44 -7.43 1.24
-2.27 -6.92 -0.64
-3.39 -10.34 2.11
-2.36 -7.19 -0.4
-3.59 -10.95 2.66
-2.4 -7.32 -0.13
-2.65 -8.07 2.27
-2.47 -7.43 0.14
-2.74 -8.25 0.46
-2.49 -7.51 -1.54
-2.5 -7.51 -1.25
-2.35 -7.07 0.91
-2.46 -7.4 -0.96
-2.48 -7.47 1.25
-2.25 -6.77 -0.62
-3.45 -10.38 2.13
-2.35 -7.08 -0.39
-2.9 -8.73 2.12
-2.52 -7.58 -0.14
-3.24 -9.77 2.76
-2.53 -7.52 -1.54
-2.69 -8 0.74
-2.34 -6.98 0.9
-2.51 -7.47 1.25
-3.54 -10.55 2.16
-2.42 -7.2 -0.4
-2.92 -8.7 2.12
-2.5 -7.43 -0.14
-2.53 -7.45 0.14
-4.62 -13.6 1.26
-2.7 -7.97 -1.33
-3.01 -8.86 1.15
-2.59 -7.63 -0.99
-2.54 -7.49 1.25
-3.05 -8.99 1.84
-2.41 -7.1 -0.39
-2.93 -8.62 2.1
-2.5 -7.36 -0.14
-3.42 -10.07 2.85
-2.74 -7.97 0.15
-2.77 -8.07 0.45
-2.59 -7.54 -1.55
-4.22 -12.31 1.14
-2.71 -7.9 -1.32
-3.37 -9.81 1.27
-2.62 -7.63 -0.99
-2.57 -7.49 1.25
-3.63 -10.59 2.18
-2.45 -7.14 -0.4
-7.11 -20.71 5.05
-2.52 -7.33 -0.14
-3.38 -9.85 2.79
-2.79 -8.03 0.15
-2.3 -6.63 0.37
-2.66 -7.65 -1.57
-2.77 -7.96 0.74
-2.79 -8.04 -1.35
-3.58 -10.31 1.34
-2.52 -7.25 -0.94
-6.74 -19.38 3.25
-2.6 -7.47 -0.69
-3.71 -10.67 2.2
-2.51 -7.21 -0.4
-3.85 -11.06 2.7
-2.51 -7.21 -0.13
-3.42 -9.84 2.79
-2.54 -7.24 0.13
-2.66 -7.56 -1.56
-2.54 -7.22 0.67
-2.67 -7.59 -1.27
-3.65 -10.39 1.35
-2.67 -7.61 -0.71
-2.52 -7.16 1.47
-2.52 -7.18 -0.4
-3.89 -11.07 2.71
-2.66 -7.58 -0.14
-3.68 -10.47 2.97
-2.66 -7.49 0.14
-2.79 -7.86 0.44
-2.75 -7.74 -1.6
-2.75 -7.75 -1.3
-2.5 -7.05 0.92
-2.62 -7.39 -0.96
-2.69 -7.59 1.28
-2.48 -7 -0.65
-2.54 -7.15 1.47
-2.57 -7.23 -0.4
-3.54 -9.97 2.44
-2.65 -7.46 -0.14
-7 -19.71 5.6
-2.68 -7.48 0.14
-2.69 -7.51 -1.55
-4.72 -13.15 1.22
-2.72 -7.57 -1.27
-2.48 -6.92 0.9
-2.66 -7.41 -0.97
-2.69 -7.5 1.26
-2.73 -7.6 -0.71
-4.6 -12.81 2.65
-2.57 -7.16 -0.4
-4.19 -11.68 2.86
-3.48 -9.69 2.76
-2.65 -7.29 0.14
-2.6 -7.16 0.4
-2.72 -7.5 -1.55
-2.85 -7.86 -1.32
-2.54 -6.99 0.91
-2.83 -7.8 -1.02
-5.16 -14.21 2.39
-2.78 -7.67 -0.71
-7.31 -20.14 4.17
-2.58 -7.12 -0.4
-4.24 -11.67 2.87
-3.54 -9.76 2.78
-2.94 -8.02 0.15
-2.69 -7.35 0.41
-2.55 -6.95 0.65
-2.92 -7.96 -1.34
-2.54 -6.91 0.9
-2.79 -7.59 -0.99
-2.64 -7.21 -0.67
-7.38 -20.11 4.16
-2.54 -6.92 -0.39
-4.29 -11.7 2.88
-3.57 -9.73 2.78
-2.63 -7.08 0.13
-2.65 -7.14 0.4
-2.78 -7.5 -1.56
-2.74 -7.39 0.69
-2.85 -7.68 -1.3
-3.43 -9.24 1.21
-2.75 -7.4 -0.97
-4.99 -13.45 2.27
-2.78 -7.5 -0.7
-7.39 -19.9 4.13
-2.61 -7.04 -0.39
-4.33 -11.67 2.87
-2.79 -7.51 -0.14
-3.62 -9.75 2.79
-2.58 -6.89 0.13
-2.54 -6.77 0.38
-2.78 -7.42 0.69
-2.77 -7.39 -1.25
-7.56 -20.17 2.64
-2.89 -7.72 -1.01
-2.79 -7.43 -0.69
-7.53 -20.09 4.17
-4.06 -10.83 2.67
-2.78 -7.42 -0.14
-2.68 -7.06 0.13
-2.54 -6.7 0.38
-2.61 -6.9 0.65
-2.85 -7.52 -1.27
-7.67 -20.24 2.66
-3 -7.92 -1.04
-2.84 -7.51 1.27
-3.01 -7.95 -0.74
-4.88 -12.89 2.68
-2.79 -7.38 -0.41
-4.08 -10.78 2.66
-2.79 -7.38 -0.14
-4.04 -10.65 3.05
-2.93 -7.65 0.43
-2.89 -7.54 -1.57
-2.92 -7.63 -1.29
-5.02 -13.12 1.72
-2.96 -7.73 -1.02
-4.14 -10.81 1.83
-2.69 -7.02 -0.66
-4.09 -10.7 2.23
-2.83 -7.41 -0.42
-2.8 -7.31 -0.14
-2.68 -6.92 0.13
-3.06 -7.9 -1.65
-2.8 -7.25 0.68
-2.9 -7.48 -1.27
-2.65 -6.86 0.9
-3 -7.75 -1.02
-4.18 -10.81 1.84
-2.78 -7.19 -0.67
-4.13 -10.68 2.23
-2.94 -7.59 -0.43
-3.8 -9.83 2.43
-4.27 -11.04 3.17
-2.97 -7.6 0.14
-2.75 -7.04 0.66
-2.94 -7.53 -1.28
-2.76 -7.05 0.93
-2.98 -7.63 -1.01
-2.65 -6.79 1.15
-2.96 -7.58 -0.71
-2.59 -6.64 1.38
-3.05 -7.81 -0.44
-4.06 -10.4 2.58
-2.79 -7.14 -0.13
-4.32 -11.05 3.18
-2.7 -6.84 0.13
-3.1 -7.85 -1.64
-2.84 -7.19 0.68
-3.17 -8.02 -1.37
-2.75 -6.98 0.92
-2.98 -7.54 -1
-2.63 -6.67 1.14
-3 -7.6 -0.71
-4.37 -11.08 2.32
-2.97 -7.52 -0.42
-4.08 -10.34 2.57
-2.8 -7.08 -0.13
-3.88 -9.83 2.83
-2.91 -7.3 0.41
-3.01 -7.55 -1.58
-3.22 -8.09 0.76
-3.06 -7.67 -1.31
-2.69 -6.74 0.89
-2.65 -6.65 1.13
-3.01 -7.54 -0.71
-4.43 -11.1 2.32
-2.96 -7.42 -0.42
-4.12 -10.33 2.57
-2.81 -7.04 -0.13
-8.56 -21.48 6.2
-2.84 -7.04 0.4
-3.07 -7.63 -1.6
-3.66 -9.09 0.86
-3.13 -7.76 -1.32
-2.67 -6.63 0.88
-3.04 -7.55 -1
-5.24 -12.99 2.22
-2.99 -7.43 -0.7
-4.57 -11.33 2.37
-2.89 -7.18 -0.41
-4.16 -10.33 2.57
-3.22 -7.98 2.31
-2.84 -6.99 0.13
-3.06 -7.51 -1.58
-2.81 -6.9 0.65
-3.16 -7.76 -1.33
-2.89 -7.11 0.94
-2.72 -6.69 1.14
-3.05 -7.5 -0.71
-4.56 -11.22 2.35
-3.04 -7.46 -0.42
-4.18 -10.28 2.56
-2.88 -7.07 -0.13
-3.15 -7.73 2.24
-2.84 -6.91 0.13
-2.77 -6.73 0.38
-3.13 -7.62 -1.6
-3.01 -7.32 0.69
-3.16 -7.68 -1.32
-4.42 -10.75 1.43
-3.09 -7.52 -1
-11.64 -28.31 4.85
-3.12 -7.59 -0.72
-3.46 -8.43 1.77
-3.12 -7.58 -0.43
-4.22 -10.27 2.56
-2.79 -6.72 0.38
-3.33 -8.02 -1.37
-3.12 -7.52 -1
-2.87 -6.91 1.18
-2.88 -6.95 -0.66
-4.41 -10.62 2.24
-3.14 -7.56 -0.43
-3.68 -8.86 2.21
-5.62 -13.55 3.93
-2.75 -6.55 0.12
-3.26 -7.79 -1.64
-3.07 -7.32 0.69
-3.18 -7.59 -1.3
-3.02 -7.2 0.96
-3.12 -7.45 -0.99
-5.11 -12.19 2.09
-10.13 -24.16 -2.29
-4.46 -10.62 2.24
-3.11 -7.42 -0.42
-3.71 -8.84 2.21
-2.83 -6.74 -0.13
-3.19 -7.62 2.21
-2.79 -6.59 0.12
-3.33 -7.86 -1.66
-3.21 -7.59 -1.31
-2.96 -6.99 0.93
-3.31 -7.83 -1.04
-4.6 -10.87 1.87
-3.17 -7.49 -0.71
-4.52 -10.67 2.25
-2.98 -7.05 -0.4
-3.7 -8.75 2.19
-3 -7.08 -0.13
-3.95 -9.34 2.72
-2.78 -6.51 0.12
-3.47 -8.11 -1.71
-4.55 -10.64 1.01
-3.23 -7.56 -1.3
-2.9 -6.79 0.91
-3.3 -7.72 -1.03
-7.84 -18.34 3.16
-4.53 -10.6 2.24
-3.18 -7.45 -0.42
-3.03 -7.08 -0.13
-5.9 -13.81 4.02
-2.78 -6.44 0.12
-2.88 -6.66 0.38
-3.49 -8.08 -1.71
-3.55 -8.23 0.78
-3.27 -7.57 -1.31
-2.9 -6.71 0.9
-3.21 -7.43 -0.99
-7.94 -18.39 3.17
-3.19 -7.39 -0.7
-4.56 -10.57 2.24
-4.3 -9.96 -0.57
-3.77 -8.73 2.2
-3.03 -7.01 -0.13
-5.9 -13.68 3.99
-2.79 -6.4 0.12
-3.69 -8.46 0.48
-3.42 -7.84 -1.66
-4.23 -9.69 0.93
-3.32 -7.62 -1.32
-3.1 -7.12 0.95
-3.02 -6.94 1.2
-3.16 -7.24 -0.69
-3.61 -8.29 1.76
-3.17 -7.26 -0.42
-3.68 -8.44 2.12
-3.03 -6.95 -0.13
-5.11 -11.73 3.43
-2.73 -6.2 0.12
-3.14 -7.14 0.41
-3.32 -7.53 -1.6
-3.06 -6.95 0.66
-3.43 -7.8 -1.35
-3.04 -6.91 0.93
-3.28 -7.46 -1
-3.7 -8.4 1.45
-3.28 -7.46 -0.71
-4.55 -10.34 2.2
-3.24 -7.37 -0.42
-4.66 -10.58 -0.2
-7.19 -16.34 4.78
-2.76 -6.21 0.12
-3.31 -7.46 -1.59
-5.59 -12.59 1.21
-3.51 -7.92 -1.37
-4.14 -9.32 1.62
-3.2 -7.2 -0.69
-3.36 -7.56 1.61
-3.31 -7.46 -0.43
-3.2 -7.21 -0.14
-12.18 -27.43 8.04
-4.77 -10.65 0.2
-4.94 -11.01 0.63
-3.68 -8.2 -1.75
-3.26 -7.27 -1.26
-13.11 -29.26 3.94
-3.4 -7.58 -1.02
-4.17 -9.31 1.62
-4.79 -10.68 -1.02
-3.64 -8.12 -0.47
-3.79 -8.45 2.14
-3.52 -7.86 2.31
-2.86 -6.33 0.12
-3.65 -8.08 0.46
-3.55 -7.84 -1.67
-3.54 -7.82 -1.36
-3.06 -6.76 0.91
-3.8 -8.41 1.46
-4.37 -9.65 2.06
-4.56 -10.08 -0.58
-3.64 -8.06 2.04
-3.12 -6.89 -0.13
-3.8 -8.32 0.48
-3.45 -7.56 -1.62
-3.83 -8.39 -1.46
-3.13 -6.86 0.93
-3.52 -7.7 -1.04
-3.83 -8.39 1.46
-4.58 -10.02 2.14
-3.3 -7.24 -0.42
-3.71 -8.13 2.06
-3.12 -6.84 -0.13
-7.63 -16.71 4.92
-2.89 -6.26 0.12
-3.84 -8.33 0.48
-3.94 -8.56 -1.83
-4.58 -9.95 0.96
-3.8 -8.25 -1.44
-3.12 -6.77 0.92
-3.53 -7.67 -1.04
-7.82 -16.98 2.96
-3.27 -7.1 -0.68
-3.5 -7.61 -0.44
-3.83 -8.31 2.11
-3.17 -6.89 -0.13
-7.57 -16.44 4.85
-2.89 -6.21 0.12
-4.62 -9.93 0.96
-3.12 -6.71 0.91
-3.54 -7.61 -1.03
-7.6 -16.34 2.85
-4.61 -9.92 2.13
-3.51 -7.56 -0.44
-7.43 -15.98 4.72
-3.13 -6.67 0.13
-3.5 -7.46 0.43
-4.66 -9.93 0.96
-3.58 -7.62 -1.33
-4.67 -9.94 1.35
-3.57 -7.62 -1.03
-8.85 -18.86 3.3
-3.48 -7.41 -0.72
-3.54 -7.54 -0.44
-3.84 -8.18 2.09
-13.7 -29.2 8.64
-3.13 -6.61 0.13
-3.6 -7.6 0.44
-4.78 -10.08 0.98
-3.58 -7.55 -1.32
-3.3 -6.96 0.95
-3.61 -7.63 -1.04
-3.63 -7.66 1.34
-4.53 -9.57 2.06
-3.4 -7.17 -0.42
-4.42 -9.33 2.38
-3.65 -7.72 -0.15
-13.98 -29.52 8.75
-2.99 -6.26 0.12
-3.8 -7.95 0.46
-3.67 -7.67 -1.35
-7.81 -16.34 2.22
-3.66 -7.67 -1.04
-5.07 -10.62 1.86
-4.88 -10.22 2.2
-3.53 -7.38 -0.43
-5.7 -11.92 3.05
-3.64 -7.61 -0.15
-7.63 -15.96 4.74
-3.78 -7.83 0.46
-3.93 -8.16 0.79
-3.61 -7.48 -1.32
-4.09 -8.49 1.16
-3.7 -7.67 -1.05
-5.1 -10.58 1.86
-4.19 -8.69 1.88
-3.81 -7.89 -0.46
-3.46 -7.17 1.84
-3.58 -7.42 -0.14
-3.82 -7.92 2.36
-3.54 -7.27 0.14
-3.83 -7.87 0.46
-4.39 -9.02 0.88
-3.66 -7.52 -1.32
-4.12 -8.47 1.16
-3.75 -7.7 -1.05
-3.77 -7.75 1.36
-4.74 -9.74 2.11
-4.72 -9.7 -0.57
-4.73 -9.72 2.5
-3.74 -7.69 -0.15
-3.85 -7.91 2.36
-3.2 -6.53 0.13
-3.8 -7.75 0.45
-4.5 -9.16 0.89
-3.65 -7.43 -1.31
-3.78 -7.71 1.05
-3.71 -7.56 -1.03
-3.7 -7.53 1.33
-4.8 -9.77 2.12
-3.85 -7.85 -0.46
-4.13 -8.41 2.16
-3.71 -7.56 -0.15
-6.75 -13.75 4.1
-3.96 -8 0.16
-6.63 -13.39 0.78
-5.31 -10.73 1.05
-3.7 -7.49 -1.32
-9.62 -19.43 2.66
-3.79 -7.65 -1.05
-5.07 -10.25 1.81
-3.93 -7.93 -0.77
-4.26 -8.61 1.87
-4.15 -8.38 2.16
-3.7 -7.48 -0.15
-6.75 -13.65 4.08
-3.02 -6.05 0.12
-3.71 -7.43 0.44
-4.06 -8.12 0.79
-3.78 -7.57 -1.34
-4.09 -8.19 1.12
-3.9 -7.82 -1.07
-4.52 -9.05 -0.89
-4.29 -8.59 1.87
-5.09 -10.19 -0.6
-3.72 -7.45 -0.15
-3.97 -7.96 2.38
-3.05 -6.05 0.12
-3.76 -7.48 0.44
-3.71 -7.36 0.72
-3.84 -7.62 -1.35
-4.11 -8.16 1.12
-3.82 -7.58 -1.04
-3.41 -6.77 -0.66
-5.04 -10.01 2.18
-5.36 -10.64 2.75
-3.98 -7.91 2.37
-3.64 -7.16 0.14
-3.84 -7.55 0.44
-3.83 -7.53 0.74
-3.84 -7.56 -1.34
-3.85 -7.58 -1.04
-3.86 -7.59 1.35
-5.42 -10.67 2.33
-3.93 -7.73 -0.45
-5.4 -10.62 2.75
-5.24 -10.3 3.1
-3.67 -7.16 0.42
-4.44 -8.66 0.85
-3.9 -7.61 -1.35
-5.08 -9.92 1.37
-3.91 -7.64 -1.05
-5.02 -9.8 1.74
-3.96 -7.73 -0.76
-4.41 -8.62 1.88
-4.24 -8.28 2.15
-3.33 -6.5 -0.13
-4.17 -8.06 0.16
-4.04 -7.81 0.46
-3.91 -7.56 -1.35
-5.1 -9.87 1.36
-3.93 -7.61 -1.05
-6.71 -12.99 2.32
-3.43 -6.64 -0.65
-4.45 -8.61 1.88
-5.22 -10.11 -0.6
-4.24 -8.2 2.13
-3.35 -6.48 -0.13
-4.05 -7.84 2.37
-3.88 -7.44 0.15
-5.3 -10.16 0.6
-4.2 -8.06 0.8
-4.05 -7.78 -1.39
-6.36 -12.21 1.69
-3.95 -7.59 -1.05
-6.98 -13.39 2.39
-3.85 -7.39 1.62
-3.32 -6.37 -0.13
-4.09 -7.84 2.37
-3.81 -7.25 0.14
-4.2 -8 -1.76
-11.62 -22.1 2.18
-4.06 -7.72 -1.38
-4.08 -7.76 1.08
-4.05 -7.71 -1.07
-4.3 -8.18 1.46
-4.06 -7.73 -0.76
-3.84 -7.3 1.6
-3.85 -7.31 -0.43
-3.37 -6.41 -0.13
-5.26 -10 3.03
-5.36 -10.11 0.2
-11.38 -21.46 1.27
-4.18 -7.88 -1.73
-4.44 -8.37 0.83
-4.02 -7.58 -1.36
-4.08 -7.7 1.07
-4.75 -8.96 1.61
-4.1 -7.74 -0.77
-6 -11.32 2.49
-4.29 -8.1 2.12
-5.35 -10.1 -0.2
-4.14 -7.81 2.37
-5.39 -10.08 0.2
-9.1 -17.02 1.01
-5.09 -9.52 0.94
-4.18 -7.82 -1.41
-5.01 -9.36 1.3
-4.04 -7.56 -1.05
-3.9 -7.3 1.31
-4.12 -7.7 -0.76
-4.05 -7.58 1.67
-3.81 -7.12 -0.42
-5.24 -9.8 2.56
-3.52 -6.58 -0.13
-4.13 -7.73 2.35
-5.43 -10.06 0.2
-4.14 -7.68 0.46
-5.28 -9.8 0.97
-4.08 -7.58 -1.36
-4.16 -7.72 1.08
-4.09 -7.58 -1.06
-3.85 -7.15 1.29
-3.76 -6.98 1.54
-4.08 -7.57 -0.45
-4.31 -8 2.1
-4.15 -7.7 2.34
-5.43 -9.99 0.2
-5.47 -10.07 0.6
-4.16 -7.65 1.07
-4.12 -7.57 -1.06
-5.44 -10 1.8
-5.46 -10.05 2.22
-4.05 -7.45 -0.44
-5.24 -9.64 2.53
-4.16 -7.66 2.34
-5.51 -10.05 0.6
-5.52 -10.08 1.01
-4.27 -7.8 -1.41
-5.41 -9.88 1.38
-4.19 -7.65 -1.07
-5.36 -9.79 1.77
-4.11 -7.5 -0.75
-4.16 -7.59 -0.45
-5.25 -9.58 2.52
-3.57 -6.51 -0.13
-5.06 -9.24 2.82
-5.41 -9.79 0.2
-4.64 -8.41 0.5
-5.55 -10.04 1
-4.18 -7.56 -1.37
-5.45 -9.86 1.38
-5.46 -9.89 1.79
-4.18 -7.57 -0.76
-5.51 -9.97 2.21
-4.16 -7.53 -0.45
-5.34 -9.67 2.96
-4.02 -7.23 0.14
-5.62 -10.1 0.61
-5.61 -10.07 1.01
-4.25 -7.64 -1.38
-5.43 -9.74 1.37
-4.22 -7.58 -1.06
-5.55 -9.96 1.8
-4.33 -7.78 -0.78
-5.53 -9.93 2.21
-3.72 -6.68 -0.4
-4.83 -8.67 2.29
-5.46 -9.8 3
-4.11 -7.32 0.44
-5.66 -10.08 1.01
-5.61 -9.98 1.41
-3.9 -6.95 -0.98
-5.46 -9.72 1.77
-4.17 -7.43 -0.75
-5.35 -9.53 2.12
-4.13 -7.29 0.15
-4.23 -7.47 0.45
-4.41 -7.78 -1.42
-5.64 -9.96 1.81
-4.2 -7.42 -0.75
-5.45 -9.63 2.15
-3.76 -6.64 -0.4
-4.18 -7.38 1.96
-4.62 -8.16 2.51
-4.08 -7.15 0.43
-4.53 -7.94 -1.45
-5.11 -8.95 1.27
-4.4 -7.7 1.41
-4.26 -7.47 -0.75
-5.67 -9.94 2.22
-3.92 -6.87 -0.41
-4.36 -7.63 2.03
-5.49 -9.62 2.97
-4.58 -7.96 0.16
-4.09 -7.11 0.43
-6.08 -10.57 1.07
-4.42 -7.67 -1.4
-6.69 -11.63 1.65
-4.45 -7.74 -1.1
-4.34 -7.55 -0.76
-5.66 -9.83 2.2
-4.66 -8.1 -0.49
-5.71 -9.93 2.64
-4.18 -7.26 -0.15
-5.72 -9.94 3.07
-4.84 -8.34 -2.58
-6.79 -11.7 0.24
-4.52 -7.79 0.79
-3.95 -6.8 -1.25
-12.14 -20.92 2.97
-4.46 -7.68 -1.09
-5.74 -9.89 1.81
-4.16 -7.17 -0.73
-4.44 -7.65 -0.46
-4.24 -7.32 -0.15
-5.72 -9.86 3.05
-4.4 -7.54 -2.34
-6.91 -11.82 0.24
-4.2 -7.19 0.44
-4.57 -7.82 0.79
-4.48 -7.66 -1.4
-4.53 -7.74 1.1
-4.5 -7.7 -1.09
-4.89 -8.36 1.53
-4.45 -7.62 -0.77
-5.62 -9.61 2.16
-3.71 -6.35 -0.39
-5.06 -8.66 2.32
-5.76 -9.85 3.06
-4.84 -8.22 -2.56
-4.69 -7.95 0.16
-6.8 -11.53 0.7
-5.95 -10.1 1.03
-4.47 -7.59 -1.4
-4.55 -7.72 1.1
-4.86 -8.25 1.52
-4.7 -7.97 -0.81
-4.39 -7.45 -0.15
-5.79 -9.83 3.06
-4.71 -7.93 -2.47
-4.37 -7.36 0.45
-5.7 -9.59 0.98
-5.19 -8.73 1.25
-4.53 -7.62 -1.09
-4.56 -7.68 1.41
-4.28 -7.21 -0.73
-5.6 -9.43 2.13
-4.47 -7.53 -0.46
-5.06 -8.52 2.29
-5.78 -9.73 3.03
-4.56 -7.61 -2.38
-4.47 -7.46 0.15
-4.4 -7.34 0.45
-4.8 -8.01 0.82
-4.48 -7.47 1.07
-4.57 -7.63 -1.09
-4.84 -8.09 1.49
-4.41 -7.36 -0.75
-5.45 -9.1 2.06
-4.48 -7.47 -0.46
-5.68 -9.48 2.55
-5.83 -9.73 3.04
-4.57 -7.57 -2.37
-4.67 -7.73 0.16
-4.72 -7.81 -1.77
-5.94 -9.83 1.01
-4.48 -7.42 1.06
-4.59 -7.61 -1.09
-5.43 -9 2.04
-4.3 -7.13 -0.44
-5.66 -9.37 2.53
-4.85 -8.03 -0.16
-4.29 -7.11 2.23
-4.67 -7.67 -2.4
-5.9 -9.69 0.2
-4.2 -6.9 0.42
-4.67 -7.68 -1.75
-5.29 -8.69 0.89
-4.71 -7.74 -1.44
-5.94 -9.76 1.4
-4.62 -7.6 -1.09
-4.92 -8.08 1.5
-4.31 -7.09 -0.43
-5.04 -8.29 2.24
-4.79 -7.86 -0.16
-5.08 -8.34 2.62
-4.66 -7.6 -2.39
-4.61 -7.52 0.15
-8.03 -13.1 0.81
-4.69 -7.65 -1.75
-6.08 -9.91 1.02
-4.74 -7.74 -1.44
-5.12 -8.35 1.2
-4.74 -7.74 -1.11
-4.93 -8.04 1.49
-4.6 -7.5 -0.77
-4.55 -7.42 1.69
-4.41 -7.2 -0.44
-5.02 -8.19 2.22
-4.84 -7.89 2.48
-4.7 -7.61 -2.4
-8.17 -13.22 0.27
-4.32 -6.99 0.43
-6.08 -9.84 1.01
-4.33 -7 -1.3
-5.63 -9.12 1.32
-4.92 -7.97 1.48
-4.6 -7.44 -0.76
-4.72 -7.64 -0.47
-4.46 -7.22 -0.15
-5.5 -8.9 2.8
-4.98 -8 -2.53
-4.49 -7.22 0.15
-4.01 -6.43 0.66
-4.73 -7.59 -1.42
-5.69 -9.13 1.32
-4.93 -7.92 1.48
-4.49 -7.22 -0.74
-7.43 -11.93 2.73
-4.33 -6.96 -0.43
-4.53 -7.27 1.98
-4.52 -7.26 -0.15
-5.5 -8.83 2.79
-5.13 -8.17 -2.58
-4.11 -6.54 0.68
-4.88 -7.78 -1.45
-6.14 -9.78 1.42
-4.97 -7.91 1.48
-4.36 -6.94 -0.72
-4.63 -7.38 1.69
-4.51 -7.19 -0.44
-4.55 -7.26 1.98
-5.05 -8.05 -0.17
-4.45 -7.09 2.24
-5.2 -8.23 -2.61
-5.01 -7.93 0.16
-4.16 -6.58 0.68
-4.88 -7.72 -1.45
-6.29 -9.95 1.44
-4.3 -6.8 -0.99
-7.29 -11.52 2.16
-4.65 -7.35 -0.76
-4.66 -7.37 1.69
-4.48 -7.09 -0.44
-5.74 -9.08 2.48
-4.51 -7.13 -0.15
-8.17 -12.92 4.1
-4.9 -7.7 -2.45
-5.05 -7.93 0.16
-6.11 -9.58 0.6
-4.62 -7.25 0.75
-4.85 -7.61 -1.43
-11.58 -18.17 2.65
-4.97 -7.8 -1.14
-6.76 -10.61 1.99
-4.39 -6.89 -0.71
-7.52 -11.8 2.72
-5.81 -9.11 2.5
-4.47 -7.02 -0.15
-8.22 -12.9 4.1
-5.08 -7.91 -2.52
-10.68 -16.63 0.35
-6.15 -9.57 0.6
-4.64 -7.23 0.75
-4.82 -7.51 -1.41
-9.93 -15.46 2.26
-4.64 -7.22 -1.05
-8.69 -13.54 2.55
-4.85 -7.55 1.74
-4.79 -7.46 -0.15
-4.55 -7.08 2.26
-4.9 -7.57 -2.42
-4.27 -6.59 0.41
-4.49 -6.94 -1.31
-11.47 -17.73 2.59
-4.92 -7.6 -1.11
-6.41 -9.91 1.87
-5.71 -8.83 2.05
-4.86 -7.51 -0.47
-7.82 -12.09 3.32
-6.7 -10.35 -0.22
-4.57 -7.06 2.25
-4.61 -7.08 -2.26
-6.38 -9.8 0.2
-6.04 -9.27 0.58
-5.16 -7.92 0.83
-5.93 -9.1 1.33
-4.72 -7.24 -1.06
-6.5 -9.97 1.88
-5.06 -7.76 -0.81
-5.73 -8.79 2.04
-4.56 -6.99 -0.44
-4.64 -7.13 1.96
-16.2 -24.86 7.95
-6.58 -10.03 0.21
-4.93 -7.51 0.47
-5.1 -7.77 0.81
-4.59 -7 -1.33
-7.02 -10.7 1.57
-5.12 -7.79 -1.14
-7.71 -11.74 2.23
-4.65 -7.09 -0.74
-5.73 -8.73 2.03
-5.9 -8.99 2.48
-7.36 -11.22 3.6
-4.99 -7.54 -2.42
-5.12 -7.74 0.16
-4.96 -7.49 0.47
-4.27 -6.45 0.68
-4.62 -6.98 -1.32
-8.45 -12.77 1.88
-5.12 -7.74 -1.14
-6.72 -10.15 1.93
-4.53 -6.85 -0.72
-4.74 -7.17 1.67
-5.31 -8.03 -0.5
-5.92 -8.95 2.48
-7.43 -11.23 3.61
-5.1 -7.65 -2.46
-6.62 -9.94 0.21
-6.26 -9.39 0.59
-4.26 -6.39 0.67
-4.57 -6.85 -1.3
-6.55 -9.83 1.45
-5.22 -7.84 -1.16
-7.51 -11.27 2.14
-4.78 -7.17 -0.75
-5.64 -8.46 1.98
-5 -7.5 -0.47
-7.63 -11.45 3.18
-8.04 -12.06 3.88
-5.22 -7.77 -2.51
-5.25 -7.82 0.16
-5.1 -7.59 0.48
-4.72 -7.03 0.74
-6.46 -9.62 1.42
-4.49 -6.69 -0.99
-8.09 -12.04 2.3
-4.71 -7.01 -0.74
-5.68 -8.45 1.98
-4.74 -7.05 -0.45
-5.22 -7.77 -0.16
-5.84 -8.69 2.81
-5.4 -7.98 -2.58
-6.66 -9.84 0.21
-5.22 -7.71 0.49
-4.32 -6.39 0.67
-6.42 -9.49 1.41
-4.42 -6.53 -0.69
-5.55 -8.21 1.93
-5.11 -7.55 -0.48
-16.68 -24.64 6.87
-5.85 -8.64 2.8
-5.33 -7.82 -2.54
-5.28 -7.74 0.16
-5.95 -8.72 0.55
-4.51 -6.62 -1.27
-9.1 -13.34 1.98
-16.36 -23.99 4.6
-5.58 -8.18 1.92
-4.83 -7.08 -0.45
-8.77 -12.86 3.59
-4.97 -7.29 -0.15
-5.83 -8.55 2.77
-4.84 -7.05 0.15
-5.28 -7.68 0.49
-4.76 -6.93 0.74
-4.48 -6.52 -1.25
-8 -11.65 1.74
-5.05 -7.35 -1.09
-7.96 -11.59 2.23
-4.8 -6.99 -0.74
-5.79 -8.43 1.99
-4.72 -6.87 -0.44
-6.68 -9.72 2.72
-6.51 -9.47 -0.2
-5.84 -8.5 2.76
-4.49 -6.48 -2.11
-6.48 -9.37 0.2
-5.82 -8.41 0.54
-4.74 -6.85 0.73
-5.15 -7.44 -1.43
-8.04 -11.61 1.73
-4.63 -6.69 -1
-6.99 -10.1 1.95
-5.05 -7.3 -0.78
-12.55 -18.14 4.29
-4.91 -7.09 -0.45
-4.74 -6.85 1.92
-6.52 -9.42 -0.2
-4.79 -6.92 2.26
-4.54 -6.51 -2.13
-5.96 -8.55 0.55
-6.65 -9.54 1.02
-4.65 -6.68 -1.29
-4.49 -6.44 -0.96
-13.27 -19.04 3.68
-5.36 -7.69 -0.82
-16.9 -24.25 5.75
-5.22 -7.48 -0.48
-8.14 -11.68 3.29
-5.27 -7.56 -0.16
-6.14 -8.8 2.87
-5.61 -7.98 -2.61
-6.46 -9.19 0.59
-6.71 -9.54 1.02
-5.35 -7.61 -1.47
-6.65 -9.46 1.42
-9.76 -13.89 2.69
-5.83 -8.29 1.97
-5.11 -7.28 -0.47
-8.07 -11.48 3.24
-5.39 -7.66 -0.16
-5.63 -8.01 2.62
-4.4 -6.22 -2.04
-5.53 -7.82 0.17
-6.38 -9.02 0.58
-6.74 -9.52 1.02
-4.93 -6.97 -1.35
-7.34 -10.37 1.56
-4.89 -6.91 -1.04
-7.98 -11.27 2.19
-5.84 -8.24 1.96
-4.89 -6.91 -0.44
-5.22 -7.37 -0.16
-5.86 -8.28 2.72
-4.38 -6.15 -2.02
-5.11 -7.16 0.15
-5.35 -7.5 0.48
-5.14 -7.21 0.77
-6.72 -9.43 1.42
-4.82 -6.76 -1.02
-4.72 -6.63 -0.71
-12.62 -17.7 4.22
-4.77 -6.69 -0.43
-8.19 -11.48 3.26
-5.07 -7.11 -0.15
-5.89 -8.26 2.72
-5.71 -7.95 -2.62
-5.36 -7.46 0.48
-4.64 -6.46 -1.26
-8.11 -11.3 1.71
-5.02 -7 -1.06
-12.62 -17.58 3.43
-4.68 -6.51 -0.7
-7.47 -10.41 2.49
-8.14 -11.34 3.22
-5.29 -7.37 -0.16
-5.75 -8 2.64
-5.38 -7.44 0.8
-4.76 -6.58 1
-10.18 -14.07 2.75
-4.67 -6.45 -0.7
-8.26 -11.42 2.74
-5.12 -7.07 -0.46
-8.24 -11.38 3.24
-5.26 -7.28 -0.16
-8.17 -11.29 3.73
-5.34 -7.33 0.16
-5.41 -7.42 0.8
-4.73 -6.5 0.99
-4.82 -6.62 -1.01
-12.78 -17.54 3.44
-4.74 -6.51 -0.7
-7.59 -10.41 2.5
-5.28 -7.25 -0.16
-5.74 -7.88 2.61
-5.28 -7.19 0.16
-6.12 -8.33 0.54
-5.25 -7.16 0.78
-5.01 -6.82 -1.34
-5.43 -7.4 1.13
-8.3 -11.31 2.22
-4.77 -6.49 -0.7
-8.36 -11.39 2.75
-4.76 -6.48 -0.42
-17.14 -23.34 6.68
-5.23 -7.12 -0.15
-5.85 -7.92 0.17
-7.13 -9.65 1.05
-5.66 -7.65 -1.51
-8.36 -11.31 1.73
-4.95 -6.7 -1.02
-6.71 -9.07 1.79
-5.23 -7.08 -0.77
-4.75 -6.42 -0.42
-5.67 -7.67 2.2
-16.82 -22.74 7.58
-5.73 -7.68 0.17
-7.34 -9.85 0.64
-8.39 -11.27 1.23
-4.74 -6.36 -1.26
-8.39 -11.26 1.72
-4.86 -6.52 -1
-4.76 -6.39 1.26
-5.08 -6.82 -0.74
-7.72 -10.36 2.51
-5.73 -7.69 2.21
-4.62 -6.21 -0.14
-9.19 -12.33 4.12
-5.29 -7.05 0.15
-7.41 -9.88 0.65
-7.13 -9.5 1.04
-4.97 -6.62 -1.31
-8.44 -11.25 1.73
-5.08 -6.77 -1.04
-8.39 -11.18 2.21
-4.86 -6.48 -0.42
-5.73 -7.64 2.2
-5.35 -7.14 -0.16
-6.72 -8.95 3
-5.53 -7.31 -2.46
-5.26 -6.96 0.15
-7.32 -9.69 0.64
-7.45 -9.86 1.08
-4.94 -6.54 -1.3
-8.44 -11.17 2.22
-8.57 -11.34 2.76
-4.85 -6.42 -0.42
-5.8 -7.68 2.22
-5.23 -6.91 -0.15
-8.6 -11.38 3.82
-5.6 -7.36 -2.48
-5.49 -7.21 0.16
-5.97 -7.84 0.52
-7.18 -9.44 1.04
-4.56 -5.99 -1.19
-6.23 -8.18 1.26
-4.99 -6.56 -1.01
-8.41 -11.05 2.2
-4.81 -6.32 -0.69
-8.27 -10.87 2.65
-4.79 -6.29 -0.41
-5.81 -7.64 2.22
-5.33 -7 -0.15
-5.57 -7.32 2.47
-5.97 -7.78 -2.63
-9.89 -12.9 1.42
-4.56 -5.95 -1.19
-6.24 -8.13 1.26
-9.13 -11.91 2.38
-4.83 -6.3 -0.69
-7.49 -9.77 2.39
-4.74 -6.18 -0.41
-5.83 -7.61 2.21
-5.41 -7.06 -0.16
-6.31 -8.22 2.78
-5.69 -7.37 -2.5
-5.44 -7.05 0.16
-5.97 -7.74 0.51
-8.05 -10.42 1.15
-6.31 -8.17 1.27
-4.52 -5.86 -0.91
-6.9 -8.93 1.79
-4.84 -6.26 1.54
-8.23 -10.65 3.11
-9.28 -12.01 -0.26
-5.61 -7.26 2.46
-5.77 -7.42 -2.52
-5.68 -7.3 0.16
-8.68 -11.16 0.74
-6.43 -8.26 0.92
-5.22 -6.72 -1.35
-4.8 -6.17 -0.96
-10.13 -13.02 2.61
-5.37 -6.9 -0.77
-6.66 -8.56 2.11
-5.22 -6.72 -0.45
-9.18 -11.79 3.45
-5.27 -6.77 -0.15
-9.93 -12.77 4.33
-5.86 -7.48 -2.54
-5.48 -7 0.16
-5.95 -7.6 0.51
-6.43 -8.2 0.91
-6.2 -7.91 1.23
-7.45 -9.51 1.91
-5.1 -6.51 -0.72
-8.8 -11.23 2.77
-4.87 -6.22 -0.41
-6.38 -8.15 2.39
-5.2 -6.64 -0.15
-8.96 -11.43 3.89
-5.82 -7.38 -2.52
-5.49 -6.96 0.15
-5.97 -7.57 0.51
-6.36 -8.06 0.9
-5.44 -6.89 -1.39
-6.23 -7.89 1.23
-4.91 -6.23 -0.97
-9.24 -11.71 2.36
-4.95 -6.27 -0.7
-6.69 -8.48 2.1
-5.06 -6.42 -0.43
-6.4 -8.1 2.38
-8.97 -11.37 3.88
-5.82 -7.32 -2.5
-5.28 -6.65 0.15
-9.68 -12.17 0.81
-10.14 -12.76 1.43
-6.03 -7.58 -1.53
-14.38 -18.09 2.84
-4.64 -5.84 -0.92
-7.69 -9.67 1.96
-4.74 -5.96 -0.67
-6.75 -8.5 2.11
-4.75 -5.97 -0.4
-10.77 -13.55 4
-5.94 -7.47 -0.17
-10.02 -12.61 4.32
-5.84 -7.3 -2.51
-7.85 -9.8 0.22
-5.7 -7.12 0.48
-6.27 -7.83 0.88
-6.03 -7.53 -1.53
-14.47 -18.08 2.84
-4.53 -5.66 -0.89
-9.95 -12.43 2.52
-9.33 -11.65 2.9
-5.1 -6.36 -0.43
-6.46 -8.07 2.39
-5.91 -7.38 -0.17
-6.31 -7.88 2.71
-5.84 -7.25 -2.49
-8.39 -10.4 1.17
-6.17 -7.65 -1.56
-8.81 -10.92 1.72
-4.54 -5.63 -0.89
-5.27 -6.53 -0.73
-7.04 -8.73 2.18
-4.74 -5.87 -0.4
-8.11 -10.05 3.46
-5.85 -7.2 -2.49
-5.09 -6.28 0.14
-6.95 -8.56 0.58
-8.42 -10.38 1.17
-5.54 -6.82 -1.39
-15.9 -19.59 3.1
-5.31 -6.55 -1.04
-10.23 -12.61 2.57
-4.96 -6.11 -0.69
-7.04 -8.67 2.17
-4.75 -5.86 -0.4
-9.6 -11.83 3.52
-5.52 -6.8 -0.15
-10.13 -12.49 4.31
-5.9 -7.22 -2.5
-5.02 -6.14 0.14
-6.88 -8.41 0.57
-8.77 -10.73 1.21
-5.58 -6.82 -1.4
-6.17 -7.55 1.2
-5.03 -6.15 -0.98
-10.24 -12.53 2.56
-5.01 -6.13 -0.69
-9.97 -12.2 3.06
-4.82 -5.9 -0.4
-9.69 -11.86 3.54
-6.57 -8.03 2.78
-5.93 -7.21 -2.5
-5.03 -6.11 0.14
-5.68 -6.91 0.47
-6.84 -8.31 0.94
-8.05 -9.79 -2.01
-5.06 -6.15 -0.98
-10.32 -12.54 2.57
-5.27 -6.4 -0.72
-8.18 -9.93 2.5
-5.19 -6.3 -0.43
-6.84 -8.31 2.49
-6 -7.28 -0.16
-6.58 -8 2.78
-5.94 -7.16 -2.49
-5.01 -6.04 0.14
-6.76 -8.15 0.55
-10.04 -12.11 1.38
-5.63 -6.79 -1.4
-6.21 -7.49 1.19
-5.24 -6.31 -1.01
-7.22 -8.7 1.79
-5.73 -6.91 -0.79
-7.44 -8.98 2.27
-5.26 -6.34 -0.43
-7.73 -9.33 2.8
-5.12 -6.18 -0.14
-6.62 -7.99 2.78
-5.98 -7.15 -2.5
-4.99 -5.97 0.14
-9.61 -11.5 0.79
-8.92 -10.68 1.22
-5.46 -6.54 -1.35
-6.01 -7.2 1.15
-5.27 -6.31 -1.01
-8.21 -9.83 2.03
-6.92 -8.29 2.1
-5.27 -6.31 -0.43
-9.22 -11.03 3.32
-6.01 -7.2 -0.16
-7.67 -9.19 3.21
-5.99 -7.12 -2.49
-4.99 -5.93 0.14
-10.34 -12.29 0.84
-9.87 -11.73 1.34
-5.42 -6.44 -1.33
-5.29 -6.29 -1.01
-11.38 -13.53 2.8
-5.6 -6.66 -0.76
-6.94 -8.25 2.1
-4.7 -5.59 -0.38
-9.28 -11.03 3.33
-7.62 -9.06 3.17
-5.99 -7.07 -2.48
-9.74 -11.5 0.26
-10.03 -11.84 0.81
-9.87 -11.65 1.34
-4.73 -5.58 -1.16
-6.26 -7.39 1.19
-5.05 -5.97 -0.96
-6.13 -7.24 1.5
-5.81 -6.86 -0.79
-8.95 -10.57 2.69
-6.93 -8.18 2.47
-7.8 -9.21 3.23
-6.06 -7.11 -2.5
-4.93 -5.78 0.13
-7.08 -8.3 0.57
-7.26 -8.51 0.98
-8.05 -9.44 -1.96
-6.2 -7.27 1.17
-5.13 -6.02 -0.97
-6.13 -7.19 1.5
-5.04 -5.91 -0.68
-9.42 -11.04 2.82
-8.2 -9.61 2.92
-7.92 -9.28 3.27
-6.12 -7.13 -2.52
-4.94 -5.75 0.13
-8.35 -9.72 0.67
-7.24 -8.43 0.97
-5.9 -6.87 -1.43
-8.31 -9.67 1.57
-5.35 -6.23 -1.01
-6.22 -7.24 1.51
-5.06 -5.89 -0.68
-9.47 -11.03 3.36
-5.29 -6.16 -0.14
-7.93 -9.23 3.26
-6.18 -7.15 -2.53
-5 -5.78 0.13
-8.38 -9.69 1.12
-4.75 -5.49 -1.15
-8.32 -9.61 1.56
-5.24 -6.06 -0.98
-6.28 -7.26 1.52
-5.09 -5.88 -0.68
-8.28 -9.57 2.46
-5.07 -5.86 -0.41
-10.6 -12.26 3.74
-5.3 -6.13 -0.14
-6.74 -7.79 2.76
-6.26 -7.19 -2.55
-5.01 -5.75 0.13
-5.36 -6.16 0.43
-7.74 -8.89 1.03
-8.3 -9.53 1.55
-5.2 -5.96 -0.97
-6.29 -7.23 1.52
-8.33 -9.56 2.46
-5.5 -6.31 -0.44
-7.31 -8.4 2.57
-5.32 -6.1 -0.14
-8.22 -9.43 3.35
-6.27 -7.14 -2.55
-6.97 -7.95 0.18
-7.31 -8.33 0.97
-4.81 -5.48 -1.15
-7.21 -8.21 1.34
-5.28 -6.02 -0.98
-6.31 -7.2 1.52
-5.93 -6.76 -0.79
-8.38 -9.55 2.47
-8.33 -9.49 2.91
-5.36 -6.11 -0.14
-8.25 -9.4 3.35
-6.29 -7.11 -2.54
-8.9 -10.07 0.23
-5.4 -6.11 0.43
-8.45 -9.56 1.12
-4.93 -5.58 -1.18
-8.12 -9.18 1.5
-5.29 -5.99 -0.98
-8.43 -9.54 2.02
-6.25 -7.07 -0.83
-8.4 -9.51 2.47
-5.18 -5.86 -0.41
-9.84 -11.13 3.43
-8.28 -9.37 3.35
-6.28 -7.06 -2.53
-5.32 -5.97 0.14
-7 -7.86 0.55
-7.52 -8.44 0.99
-5.24 -5.88 -1.25
-8.43 -9.47 2.01
-5.26 -5.91 -0.69
-9.93 -11.16 2.9
-5.18 -5.82 -0.41
-8.04 -9.03 2.79
-6.59 -7.4 -0.17
-6.27 -7 -2.52
-5.31 -5.92 0.14
-10.19 -11.37 0.8
-7.98 -8.9 1.05
-5.1 -5.69 -1.21
-8.25 -9.21 1.52
-5.32 -5.94 -0.98
-8.57 -9.56 2.03
-13.7 -15.28 3.99
-6.81 -7.6 -0.53
-7.37 -8.23 2.55
-6.59 -7.35 -0.17
-6.29 -6.97 -2.51
-6.71 -7.43 0.17
-5.27 -5.84 -1.82
-6.79 -7.52 0.53
-8.03 -8.9 1.05
-5.08 -5.63 -1.2
-8.36 -9.27 1.53
-5.32 -5.9 -0.98
-8.61 -9.54 2.03
-8.59 -9.52 2.49
-6.23 -6.9 -0.49
-9.03 -10 3.11
-6.54 -7.24 -0.17
-9.93 -11 3.97
-6.31 -6.94 -2.51
-6.8 -7.48 0.18
-7.47 -8.22 -2.56
-6.81 -7.5 0.53
-6.9 -7.59 0.9
-5.17 -5.69 -1.22
-8.48 -9.34 1.55
-5.33 -5.86 -0.97
-6.53 -7.19 1.54
-6.43 -7.08 -0.84
-8.62 -9.49 2.49
-8.66 -9.53 2.97
-6.51 -7.16 -0.17
-10.03 -11.04 4
-6.73 -7.36 0.17
-5 -5.47 -1.71
-5.54 -6.05 0.43
-7.22 -7.89 0.94
-5.26 -5.75 -1.23
-8.52 -9.31 1.55
-5.36 -5.86 -0.97
-6.54 -7.15 1.54
-6.51 -7.12 -0.84
-8.68 -9.48 2.5
-5.27 -5.76 -0.41
-9.02 -9.86 3.09
-6.57 -7.18 -0.17
-8.51 -9.3 3.38
-5.34 -5.8 -2.11
-6.93 -7.52 0.18
-7.08 -7.69 -2.41
-8.22 -8.93 0.64
-7.99 -8.67 1.03
-5.18 -5.62 -1.21
-5.38 -5.84 -0.97
-6.6 -7.16 1.54
-5.35 -5.81 -0.69
-10.38 -11.27 2.98
-6.37 -6.91 -0.49
-9.14 -9.92 3.11
-6.37 -6.92 -0.16
-7.67 -8.33 3.03
-8.25 -8.9 0.64
-8.11 -8.74 1.04
-5.34 -5.75 -1.24
-7.48 -8.06 1.35
-5.38 -5.8 -0.97
-6.7 -7.23 1.56
-5.42 -5.85 -0.7
-10.4 -11.21 2.97
-6.95 -7.49 -0.54
-8.67 -9.34 2.94
-6.29 -6.79 -0.16
-8.39 -9.04 3.3
-6.24 -6.68 -2.45
-8.98 -9.6 0.23
-4.95 -5.3 -1.67
-5.56 -5.95 0.43
-8.24 -8.82 1.06
-6.9 -7.38 -1.6
-7.45 -7.97 1.34
-9.99 -10.69 2.32
-5.97 -6.38 -0.76
-10.01 -10.7 2.85
-8.82 -9.44 -0.68
-10.44 -11.17 3.53
-5.36 -5.74 -0.14
-8.62 -9.22 3.38
-6.39 -6.79 -2.5
-9.01 -9.57 0.23
-7.3 -7.75 -2.46
-8.43 -8.95 0.64
-6.96 -7.4 0.89
-9.58 -10.18 1.72
-12.26 -13.03 2.83
-5.52 -5.87 -0.71
-9.93 -10.55 2.82
-8.73 -9.27 2.94
-6.34 -6.74 -0.16
-10.4 -11.05 4.07
-6.39 -6.75 -2.49
-8.57 -9.05 0.22
-7.28 -7.68 -2.44
-8.59 -9.07 0.65
-7.01 -7.4 0.89
-5.19 -5.48 -1.2
-8.6 -9.07 1.53
-7.08 -7.47 -1.26
-7.02 -7.41 1.62
-9.97 -10.52 2.82
-7.08 -7.47 -0.54
-8.77 -9.26 2.94
-9.05 -9.56 -0.23
-8.45 -8.92 3.29
-6.38 -6.69 -2.48
-7.19 -7.54 -2.41
-12.27 -12.87 0.93
-13.04 -13.68 1.65
-5.49 -5.76 -1.26
-8.65 -9.07 1.54
-5.33 -5.59 -0.95
-6.79 -7.12 1.56
-7.92 -8.3 2.23
-6.87 -7.2 -0.52
-10.86 -11.39 3.63
-7.31 -7.67 -0.18
-10.65 -11.16 4.13
-6.19 -6.44 -2.39
-7.24 -7.54 0.18
-7.21 -7.5 -2.4
-16.21 -16.87 1.23
-13.07 -13.6 1.65
-10.38 -10.81 1.84
-8.56 -8.91 1.96
-9.96 -10.37 2.79
-6.9 -7.18 -0.52
-10.8 -11.24 3.6
-9.25 -9.63 -0.23
-9.66 -10.06 3.74
-6.38 -6.59 -2.46
-6.31 -6.52 0.16
-7.34 -7.59 -2.44
-5.7 -5.89 0.43
-6.7 -6.93 0.84
-5.58 -5.77 -1.27
-8.85 -9.15 1.56
-6.81 -7.04 -1.2
-6.75 -6.98 1.54
-7.08 -7.32 -0.89
-9.17 -9.48 2.56
-9.87 -10.21 3.28
-7.12 -7.36 -0.18
-10.62 -10.98 4.09
-6.39 -6.56 -2.45
-9.5 -9.75 0.24
-7.45 -7.65 -2.47
-6.9 -7.08 0.86
-5.48 -5.62 -1.24
-8.9 -9.14 1.57
-6.72 -6.89 -1.18
-6.77 -6.95 1.54
-7.36 -7.56 -0.92
-6.54 -6.72 1.82
-6.89 -7.07 -0.52
-9.71 -9.97 3.21
-9.31 -9.56 3.58
-6.35 -6.47 -2.43
-7.2 -7.34 0.18
-7.43 -7.57 -2.45
-6.98 -7.11 0.52
-6.78 -6.91 0.85
-5.31 -5.41 -1.2
-9.05 -9.23 1.59
-9.49 -9.68 -1.66
-6.82 -6.95 1.54
-7.39 -7.54 -0.92
-6.92 -7.06 -0.17
-9.32 -9.5 3.57
-6.36 -6.44 -2.42
-8.65 -8.75 0.21
-7.55 -7.64 -2.48
-7.04 -7.12 0.52
-12.34 -12.49 1.54
-5.34 -5.4 -1.2
-9.15 -9.26 1.6
-6.93 -7.01 -1.21
-7.32 -7.41 -0.91
-10.45 -10.57 3.43
-7.18 -7.26 -0.18
-9.73 -9.85 3.71
-6.34 -6.37 -2.41
-8.75 -8.79 0.22
-7.53 -7.57 -2.46
-7.05 -7.09 0.52
-6.81 -6.85 0.85
-5.43 -5.46 -1.22
-9.14 -9.18 1.59
-7.75 -7.78 -1.35
-6.83 -6.87 1.53
-7.68 -7.72 -0.95
-8.72 -8.77 2.4
-7.41 -7.44 -0.55
-7.97 -8.01 2.61
-7.16 -7.2 -0.18
-9.78 -9.83 3.72
-6.26 -6.25 -2.37
-7.42 -7.41 0.18
-7.68 -7.67 -2.51
-11.26 -11.24 0.83
-6.89 -6.88 0.85
-8.27 -8.26 -1.85
-9.16 -9.14 1.59
-7.03 -7.02 -1.22
-6.96 -6.95 1.56
-7.52 -7.51 -0.93
-6.67 -6.66 1.83
-7.46 -7.45 -0.55
-7.85 -7.84 2.56
-7.13 -7.12 -0.18
-8.79 -8.78 3.33
-6.12 -6.07 -2.31
-7.57 -7.5 0.19
-7.4 -7.34 -2.41
-9.04 -8.97 0.67
-8.78 -8.7 1.08
-0.71 -0.7 -0.16
-7.81 -7.75 1.35
-6.91 -6.86 -1.2
-10.89 -10.8 2.43
-7.55 -7.48 -0.93
-9.11 -9.03 2.49
-7.36 -7.3 -0.54
-9.63 -9.56 3.13
-7.24 -7.18 -0.18
-10.39 -10.31 3.92
-6.11 -6.01 -2.3
-7.48 -7.37 0.18
-7.42 -7.31 -2.4
-9.97 -9.82 0.73
-8.76 -8.63 1.08
-12.48 -12.29 2.15
-7.15 -7.04 -1.23
-6.92 -6.81 1.54
-7.49 -7.37 -0.92
-7.62 -7.51 2.08
-7.38 -7.27 -0.54
-7.87 -7.75 2.55
-7.33 -7.21 2.75
-6.11 -5.98 -2.29
-7.49 -7.33 0.18
-7.75 -7.58 -2.5
-6.9 -6.75 0.51
-8.81 -8.62 1.08
-8.74 -8.54 1.5
-7.18 -7.02 -1.23
-7.31 -7.15 1.62
-7.64 -7.47 -0.94
-7.53 -7.36 2.05
-7.34 -7.18 -0.54
-6.62 -6.47 2.14
-7.21 -7.05 -0.18
-7.34 -7.18 2.75
-6.13 -5.95 -2.29
-7.52 -7.3 0.18
-5.24 -5.09 -1.69
-10.14 -9.85 0.74
-8.78 -8.52 1.07
-8.16 -7.92 1.4
-5.7 -5.53 -0.97
-7.3 -7.09 -0.89
-7.75 -7.52 2.1
-7.69 -7.46 -0.56
-7.36 -7.15 -0.18
-8.89 -8.63 3.32
-6.15 -5.93 -2.29
-9.26 -8.93 0.22
-5.21 -5.02 -1.67
-7.01 -6.76 0.51
-8.3 -8.01 1.01
-8.84 -8.52 1.51
-5.7 -5.5 -0.97
-12.08 -11.65 2.66
-7.56 -7.29 -0.92
-10.35 -9.98 2.8
-8.01 -7.73 2.57
-7.82 -7.54 -0.19
-8.94 -8.62 3.33
-6.17 -5.91 -2.29
-7.87 -7.54 -2.52
-8.37 -8.01 0.61
-10.19 -9.76 1.73
-12.56 -12.03 2.75
-7.87 -7.54 -0.95
-7.71 -7.38 2.08
-7.73 -7.4 -0.56
-8.86 -8.49 2.83
-7.55 -7.23 -0.18
-9.14 -8.75 3.39
-5.83 -5.55 -2.16
-12.63 -12.02 0.3
-7.93 -7.54 -2.53
-8.44 -8.03 0.61
-10.39 -9.89 1.26
-10.2 -9.7 1.73
-7.39 -7.03 -1.25
-14.54 -13.83 3.18
-7.43 -7.06 -0.54
-8.86 -8.43 2.82
-7.47 -7.11 -0.18
-9.18 -8.73 3.4
-5.86 -5.53 -2.16
-12.79 -12.08 0.31
-7.83 -7.39 -2.49
-8.49 -8.01 0.61
-10.37 -9.8 1.25
-0.73 -0.69 -0.16
-9.68 -9.14 1.63
-7.42 -7.01 -1.25
-11.56 -10.91 2.52
-7.72 -7.29 2.06
-7.91 -7.47 -0.57
-8.85 -8.36 2.81
-7.65 -7.23 -0.18
-11.68 -11.03 4.3
-5.84 -5.48 -2.15
-7.48 -7.02 0.18
-7.94 -7.45 -2.51
-12.83 -12.03 0.92
-0.72 -0.67 -0.19
-8.6 -8.06 1.03
-0.73 -0.69 -0.16
-8.01 -7.52 1.35
-7.96 -7.46 -1.34
-7.41 -6.95 1.61
-7.71 -7.23 -0.92
-10.19 -9.56 2.72
-8.29 -7.78 -0.6
-8.7 -8.16 2.75
-9.06 -8.5 3.33
-5.78 -5.38 -2.12
-8.08 -7.53 -2.55
-8.75 -8.14 0.63
-0.73 -0.68 -0.19
-8.73 -8.13 1.04
-0.75 -0.7 -0.16
-10.39 -9.67 1.74
-11.92 -11.09 2.58
-7.78 -7.24 2.07
-8.46 -7.88 -0.61
-7.76 -7.23 -0.19
-10.42 -9.7 3.81
-5.77 -5.33 -2.1
-8.49 -7.85 0.2
-7.97 -7.37 -2.51
-4.22 -3.9 0.3
-0.74 -0.68 -0.19
-8.77 -8.11 1.04
-0.75 -0.69 -0.16
-10.42 -9.64 1.74
-8.57 -7.92 -1.43
-10.36 -9.58 2.24
-8.39 -7.76 -1
-8.55 -7.91 -0.61
-8.81 -8.15 2.77
-7.57 -7 -0.18
-7.94 -7.34 2.9
-5.78 -5.31 -2.1
-4.23 -3.89 0.1
-8.07 -7.41 -2.53
-4.23 -3.88 0.3
-0.74 -0.68 -0.19
-8.54 -7.84 1.01
-0.75 -0.69 -0.16
-9.85 -9.04 1.64
-8.48 -7.79 -1.41
-7.91 -7.26 1.7
-8.38 -7.69 -0.99
-11.99 -11.01 3.16
-8.37 -7.68 -0.6
-8.86 -8.14 2.78
-7.57 -6.95 -0.18
-7.89 -7.24 2.87
-5.8 -5.29 -2.1
-4.24 -3.87 0.1
-7.99 -7.29 -2.5
-4.24 -3.86 0.3
-0.74 -0.67 -0.19
-9.11 -8.31 1.08
-0.75 -0.68 -0.16
-9.85 -8.99 1.64
-8.67 -7.91 -1.44
-7.92 -7.22 1.7
-8.31 -7.58 -0.98
-13.13 -11.97 3.45
-8.41 -7.67 -0.6
-7.61 -6.94 -0.18
-7.75 -7.07 2.81
-5.8 -5.25 -2.1
-4.24 -3.84 0.1
-7.94 -7.19 -2.47
-4.24 -3.84 0.3
-0.75 -0.68 -0.2
-8.69 -7.87 1.03
-0.76 -0.69 -0.16
-9.89 -8.96 1.64
-8.55 -7.74 -1.42
-7.58 -6.87 1.62
-8.58 -7.77 -1.01
-10.47 -9.48 2.75
-8.44 -7.64 -0.6
-12.38 -11.22 3.86
-7.68 -6.96 2.78
-5.83 -5.25 -2.1
-4.24 -3.82 0.1
-7.95 -7.16 -2.47
-4.24 -3.81 0.3
-0.75 -0.68 -0.2
-10.09 -9.08 1.19
-0.76 -0.68 -0.16
-9.91 -8.91 1.64
-8.5 -7.65 -1.4
-7.65 -6.88 1.63
-8.65 -7.78 -1.02
-12.23 -11 3.2
-8.67 -7.8 -0.61
-9.39 -8.44 2.91
-8.49 -7.64 -0.2
-7.63 -6.87 2.75
-5.84 -5.22 -2.1
-4.26 -3.8 0.1
-8 -7.15 -2.48
-4.24 -3.79 0.3
-0.76 -0.68 -0.2
-10.39 -9.28 1.22
-0.77 -0.69 -0.16
-9.9 -8.85 1.63
-8.64 -7.72 -1.42
-11.24 -10.04 2.39
-8.69 -7.76 -1.02
-14.67 -13.11 3.82
-8.78 -7.84 -0.62
-12.89 -11.51 3.99
-8.92 -7.97 -0.21
-7.59 -6.78 2.73
-5.85 -5.19 -2.09
-4.26 -3.78 0.1
-7.98 -7.08 -2.46
-4.24 -3.76 0.3
-0.76 -0.67 -0.2
-21.15 -18.76 2.47
-0.78 -0.69 -0.17
-9.93 -8.8 1.63
-8.64 -7.66 -1.42
-9.9 -8.78 2.1
-8.47 -7.51 -0.99
-10.82 -9.6 2.81
-8.69 -7.71 -0.61
-10.88 -9.65 3.36
-8.65 -7.68 -0.2
-7.56 -6.71 2.71
-5.87 -5.17 -2.09
-4.26 -3.75 0.1
-8.1 -7.14 -2.49
-4.25 -3.74 0.3
-0.77 -0.68 -0.2
-21.21 -18.68 2.47
-0.78 -0.69 -0.16
-9.9 -8.72 1.62
-8.7 -7.66 -1.42
-8.63 -7.6 1.82
-7.87 -6.93 -0.92
-12.3 -10.83 3.18
-8.69 -7.66 -0.61
-12.94 -11.39 3.98
-8.64 -7.61 -0.2
-7.66 -6.75 2.74
-5.9 -5.16 -2.1
-4.26 -3.72 0.1
-8.04 -7.03 -2.46
-4.26 -3.73 0.3
-0.78 -0.68 -0.2
-4.21 -3.68 0.49
-0.78 -0.68 -0.16
-10.34 -9.05 1.69
-7.71 -6.74 1.62
-8.87 -7.76 -1.03
-10.9 -9.53 2.81
-8.45 -7.39 -0.59
-10.54 -9.22 3.23
-9.06 -7.92 -0.21
-7.62 -6.67 2.71
-5.92 -5.14 -2.1
-4.27 -3.7 0.1
-7.97 -6.92 -2.44
-4.25 -3.69 0.29
-0.78 -0.68 -0.2
-4.18 -3.63 0.48
-0.78 -0.68 -0.16
-10.3 -8.94 1.67
-8.98 -7.79 -1.46
-9.29 -8.06 1.95
-8.86 -7.69 -1.03
-10.9 -9.46 2.81
-8.93 -7.75 -0.62
-8.33 -7.23 2.55
-8.68 -7.54 -0.2
-7.63 -6.63 2.71
-5.85 -5.04 -2.07
-4.22 -3.64 0.1
-7.89 -6.81 -2.41
-4.2 -3.62 0.29
-0.79 -0.68 -0.2
-4.2 -3.62 0.48
-0.79 -0.68 -0.17
-10.02 -8.64 1.62
-9.03 -7.78 -1.46
-7.77 -6.7 1.62
-9.07 -7.82 -1.05
-11.05 -9.52 2.83
-8.61 -7.43 -0.6
-9.82 -8.47 2.99
-4.23 -3.64 -0.1
-11.72 -10.11 4.15
-5.81 -4.97 -2.05
-4.22 -3.61 0.1
-7.94 -6.8 -2.41
-4.22 -3.61 0.29
-0.77 -0.66 -0.2
-4.23 -3.62 0.49
-0.8 -0.68 -0.17
-10.03 -8.59 1.62
-9.02 -7.73 -1.46
-8.63 -7.39 1.8
-4.25 -3.64 -0.49
-4.25 -3.64 -0.29
-8.39 -7.18 2.55
-4.22 -3.61 -0.1
-7.68 -6.58 2.71
-5.77 -4.91 -2.03
-4.23 -3.6 0.1
-8.06 -6.85 -2.44
-4.24 -3.6 0.29
-8.81 -7.49 -2.25
-4.23 -3.59 0.49
-0.8 -0.68 -0.17
-10.07 -8.56 1.62
-4.24 -3.61 -0.68
-9.3 -7.91 1.93
-4.23 -3.59 -0.49
-12.31 -10.47 3.14
-4.25 -3.61 -0.29
-8.41 -7.15 2.55
-4.23 -3.6 -0.1
-8.07 -6.86 2.84
-5.79 -4.89 -2.03
-4.27 -3.61 0.1
-4.27 -3.61 -1.29
-4.28 -3.61 0.29
-4.25 -3.59 -1.08
-4.27 -3.6 0.49
-0.8 -0.67 -0.17
-10.02 -8.46 1.61
-4.24 -3.58 -0.68
-11.98 -10.11 2.48
-4.24 -3.58 -0.49
-8.01 -6.76 2.04
-4.26 -3.6 -0.29
-11.06 -9.34 3.34
-4.27 -3.61 -0.1
-7.71 -6.51 2.7
-4.27 -3.58 -1.49
-4.29 -3.6 0.1
-4.26 -3.57 -1.28
-4.28 -3.59 0.29
-4.27 -3.58 -1.08
-4.28 -3.59 0.49
-0.81 -0.68 -0.17
-12.23 -10.26 1.96
-4.28 -3.59 -0.69
-11.95 -10.01 2.47
-4.27 -3.58 -0.49
-8.01 -6.72 2.03
-8.82 -7.4 -0.6
-11.07 -9.28 3.34
-4.3 -3.6 -0.1
-8.31 -6.97 2.91
-4.27 -3.56 -1.49
-4.29 -3.57 0.1
-4.28 -3.56 -1.29
-4.28 -3.56 0.29
-4.28 -3.56 -1.08
-4.29 -3.58 0.49
-0.82 -0.68 -0.17
-12.1 -10.08 1.93
-9.37 -7.8 -1.5
-10.62 -8.84 2.19
-9.42 -7.84 -1.07
-12.54 -10.44 3.17
-8.44 -7.03 2.54
-8.89 -7.41 -0.2
-8.32 -6.93 2.9
-4.3 -3.55 -1.49
-4.3 -3.55 0.1
-4.3 -3.56 -1.29
-4.29 -3.55 0.29
-4.33 -3.58 -1.09
-4.29 -3.55 0.49
-0.83 -0.68 -0.17
-9.04 -7.47 1.44
-9.47 -7.84 -1.51
-12.1 -10.01 2.49
-9.33 -7.72 -1.06
-10.95 -9.06 2.76
-9.08 -7.51 -0.62
-10.36 -8.57 3.1
-8.86 -7.33 -0.2
-8.61 -7.12 2.99
-4.3 -3.53 -1.49
-4.3 -3.53 0.1
-7.72 -6.34 -2.31
-4.3 -3.53 0.29
-9.99 -8.21 -2.51
-4.31 -3.54 0.49
-0.83 -0.68 -0.17
-13.59 -11.15 2.16
-9.4 -7.72 -1.49
-8.82 -7.24 -1
-9.32 -7.65 -0.63
-10.36 -8.5 3.09
-8.57 -7.03 -0.19
-8.62 -7.08 2.99
-5.68 -4.63 -1.96
-4.3 -3.51 0.1
-7.8 -6.36 -2.32
-4.3 -3.51 0.29
-0.91 -0.74 -0.23
-11.17 -9.11 1.26
-0.83 -0.68 -0.17
-9.51 -7.76 -1.51
-10.57 -8.62 2.16
-12.12 -9.88 3.04
-8.13 -6.63 -0.55
-8.47 -6.91 2.52
-8.53 -6.96 -0.19
-8.77 -7.15 3.03
-5.71 -4.62 -1.97
-4.31 -3.48 0.1
-7.79 -6.3 -2.31
-4.3 -3.48 0.29
-9.5 -7.68 -2.37
-10.8 -8.73 1.22
-0.85 -0.69 -0.17
-9.19 -7.43 1.45
-9.58 -7.75 -1.51
-13.48 -10.9 2.75
-8.88 -7.18 -1
-12.22 -9.89 3.06
-8.23 -6.66 -0.55
-8.5 -6.88 2.53
-8.75 -7.08 -0.2
-8.85 -7.16 3.05
-5.69 -4.57 -1.96
-4.31 -3.46 0.1
-7.78 -6.25 -2.3
-4.29 -3.45 0.29
-9.66 -7.76 -2.41
-10.64 -8.55 1.19
-0.85 -0.68 -0.17
-9.35 -7.51 1.47
-9.64 -7.75 -1.52
-10.82 -8.69 2.2
-8.89 -7.14 -1
-10.78 -8.66 2.69
-8.41 -6.75 -0.57
-8.48 -6.81 2.51
-10.71 -8.6 -0.24
-8.83 -7.09 3.03
-5.67 -4.53 -1.94
-4.31 -3.44 0.1
-7.79 -6.22 -2.3
-4.31 -3.44 0.29
-9.48 -7.56 -2.36
-11.07 -8.83 1.24
-0.85 -0.68 -0.17
-9.82 -7.84 1.54
-9.79 -7.81 -1.54
-10.81 -8.63 2.19
-8.89 -7.09 -1
-13.45 -10.73 3.34
-8.3 -6.62 -0.56
-8.51 -6.79 2.51
-8.74 -6.97 -0.2
-8.71 -6.95 2.99
-5.7 -4.51 -1.95
-4.31 -3.42 0.1
-7.86 -6.23 -2.32
-4.31 -3.41 0.29
-10.07 -7.98 -2.5
-12.91 -10.23 1.44
-0.86 -0.68 -0.17
-9.05 -7.17 1.42
-9.84 -7.8 -1.54
-11.16 -8.85 2.26
-8.9 -7.05 -0.99
-13.49 -10.69 3.35
-8.37 -6.64 -0.56
-8.45 -6.7 2.49
-8.66 -6.86 -0.19
-8.7 -6.89 2.97
-5.78 -4.55 -1.97
-4.31 -3.39 0.1
-7.26 -5.71 -2.13
-4.32 -3.39 0.29
-10.14 -7.98 -2.51
-10.45 -8.22 1.16
-0.86 -0.67 -0.17
-10.15 -7.98 1.59
-9.88 -7.77 -1.54
-16.05 -12.63 3.23
-13.55 -10.66 3.35
-8.47 -6.66 2.49
-9.4 -7.39 -0.21
-8.97 -7.06 3.06
-5.81 -4.54 -1.97
-4.32 -3.37 0.1
-7.26 -5.67 -2.13
-4.31 -3.37 0.29
-10.12 -7.9 -2.5
-12.95 -10.12 1.44
-0.87 -0.68 -0.18
-9.11 -7.11 1.42
-12.81 -10 2.57
-8.98 -7.01 -1
-12.17 -9.51 3
-11.59 -9.05 -0.77
-10.73 -8.38 3.14
-9.46 -7.39 -0.21
-8.17 -6.38 2.78
-5.82 -4.51 -1.97
-4.33 -3.36 0.1
-7.27 -5.64 -2.12
-4.31 -3.34 0.29
-10.03 -7.78 -2.47
-15.38 -11.92 1.7
-0.88 -0.69 -0.18
-15.7 -12.17 2.44
-10.01 -7.76 -1.56
-10.18 -7.89 2.04
-8.25 -6.4 2.03
-9.79 -7.59 -0.65
-10.91 -8.46 3.19
-11.41 -8.85 3.87
-5.84 -4.49 -1.97
-8.59 -6.61 0.19
-7.29 -5.61 -2.12
-10.02 -7.72 -2.46
-10.24 -7.88 1.13
-0.9 -0.69 -0.18
-10.1 -7.78 -1.57
-10.31 -7.93 2.06
-8.59 -6.61 -0.95
-8.24 -6.34 2.02
-9.69 -7.46 -0.64
-8.56 -6.59 2.49
-8.41 -6.47 -0.19
-9.17 -7.06 3.1
-5.87 -4.49 -1.98
-7.31 -5.59 -2.12
-9.49 -7.26 0.63
-10.04 -7.68 -2.46
-10.53 -8.05 1.16
-0.9 -0.69 -0.18
-9.15 -7 1.41
-10.17 -7.78 -1.57
-15.83 -12.1 3.16
-8.2 -6.27 2.01
-8.42 -6.44 -0.56
-10.81 -8.26 3.14
-8.42 -6.44 -0.19
-11.05 -8.44 3.73
-5.88 -4.47 -1.98
-8.66 -6.57 0.19
-7.22 -5.48 -2.09
-10.38 -7.88 0.68
-0.96 -0.73 -0.23
-16.01 -12.16 1.76
-0.91 -0.69 -0.18
-10.44 -7.93 1.61
-10.24 -7.77 -1.58
-12.21 -9.27 2.43
-9.82 -7.45 -1.08
-8.43 -6.4 2.06
-17.63 -13.38 5.11
-8.33 -6.32 -0.18
-8.46 -6.42 2.85
-5.88 -4.43 -1.97
-8.58 -6.47 0.19
-7.21 -5.43 -2.08
-12.78 -9.63 0.84
-0.96 -0.72 -0.23
-17.44 -13.14 1.91
-0.92 -0.69 -0.18
-9.24 -6.96 1.42
-9.47 -7.14 -1.46
-10.92 -8.23 2.17
-9.93 -7.48 -1.09
-13.11 -9.88 3.19
-13.09 -9.87 -0.86
-14.21 -10.71 4.11
-9.67 -7.29 -0.21
-8.42 -6.34 2.82
-5.91 -4.42 -1.98
-11.15 -8.34 0.24
-7.22 -5.4 -2.08
-10.01 -7.49 0.66
-0.97 -0.73 -0.24
-0.93 -0.69 -0.18
-10.89 -8.14 1.67
-9.68 -7.24 -1.48
-13.54 -10.13 2.68
-9.49 -7.1 -1.04
-15.76 -11.79 3.83
-9.88 -7.39 -0.65
-10.99 -8.23 3.17
-8.46 -6.33 2.83
-5.92 -4.4 -1.98
-11.02 -8.19 0.24
-7.23 -5.37 -2.08
-10.06 -7.47 0.66
-0.96 -0.72 -0.23
-12.97 -9.63 1.41
-0.94 -0.69 -0.18
-14.21 -10.55 2.17
-9.89 -7.34 -1.51
-10.42 -7.74 2.06
-8.31 -6.17 2.01
-10.05 -7.46 -0.66
-10.13 -7.53 2.91
-8.46 -6.28 -0.18
-9.8 -7.28 3.27
-5.94 -4.38 -1.98
-8.56 -6.31 0.19
-7.22 -5.32 -2.07
-10.35 -7.63 0.67
-0.97 -0.72 -0.24
-14.18 -10.45 1.54
-0.94 -0.7 -0.19
-11.6 -8.55 1.77
-9.75 -7.19 -1.49
-11 -8.11 2.16
-10.41 -7.68 -1.13
-8.29 -6.12 2
-8.97 -6.61 -0.58
-10.15 -7.48 2.91
-8.27 -6.1 -0.18
-9.97 -7.35 3.32
-5.84 -4.28 -1.94
-8.51 -6.23 0.18
-7.22 -5.28 -2.07
-8.88 -6.5 0.58
-0.98 -0.72 -0.24
-15.46 -11.31 1.68
-0.95 -0.7 -0.19
-11.98 -8.77 1.82
-9.83 -7.19 -1.5
-10.5 -7.68 2.06
-10.5 -7.69 -1.14
-8.29 -6.07 2
-10.45 -7.65 2.99
-12.17 -8.9 -0.26
-8.36 -6.12 2.78
-5.83 -4.23 -1.93
-11.94 -8.67 0.26
-7.24 -5.26 -2.07
-8.91 -6.48 0.58
-0.99 -0.72 -0.24
-13.25 -9.63 1.43
-0.96 -0.7 -0.19
-10.81 -7.85 -1.64
-10.5 -7.63 -1.14
-8.27 -6.01 1.99
-8.88 -6.45 -0.58
-12.75 -9.26 -0.28
-8.36 -6.07 2.77
-5.84 -4.21 -1.93
-10.13 -7.31 0.22
-7.34 -5.29 -2.09
-13.69 -9.87 0.88
-1 -0.72 -0.24
-13.09 -9.44 1.41
-0.97 -0.7 -0.19
-11.59 -8.36 1.75
-10.84 -7.82 -1.64
-11.64 -8.4 2.27
-10.45 -7.54 -1.13
-13.47 -9.71 3.23
-12.63 -9.11 -0.82
-10.16 -7.33 2.89
-9.6 -6.93 -0.21
-10.17 -7.34 3.36
-5.86 -4.2 -1.93
-10.84 -7.76 0.23
-7.37 -5.28 -2.09
-10.5 -7.51 0.68
-0.99 -0.71 -0.24
-9.83 -7.04 1.06
-0.98 -0.7 -0.19
-9.48 -6.79 1.43
-10.95 -7.84 -1.65
-10.58 -7.57 -1.14
-11.6 -8.31 2.77
-8.81 -6.31 -0.57
-10.21 -7.31 2.9
-9.63 -6.89 -0.21
-9.85 -7.05 3.25
-5.87 -4.17 -1.93
-10.66 -7.57 0.23
-7.39 -5.25 -2.09
-10.58 -7.52 0.68
-1 -0.71 -0.24
-9.69 -6.89 1.04
-0.98 -0.7 -0.19
-12.61 -8.96 1.9
-14.81 -10.53 -2.23
-15.97 -11.35 3.1
-10 -7.11 -1.07
-12.02 -8.54 2.87
-8.82 -6.27 -0.57
-11.47 -8.15 3.25
-9.55 -6.78 -0.2
-16.52 -11.74 5.43
-5.87 -4.14 -1.93
-11.87 -8.37 0.25
-7.38 -5.21 -2.09
-10.33 -7.29 0.66
-1.01 -0.72 -0.24
-12.72 -8.97 1.36
-0.97 -0.69 -0.19
-1.08 -0.76 -0.16
-11.33 -7.99 2.2
-10.47 -7.38 -1.12
-11.69 -8.25 2.78
-8.89 -6.27 -0.57
-11.92 -8.41 3.37
-9.57 -6.75 -0.2
-10.3 -7.27 3.38
-5.88 -4.12 -1.92
-8.71 -6.1 0.19
-7.35 -5.15 -2.07
-10.39 -7.28 0.66
-1.02 -0.72 -0.24
-9.78 -6.85 1.04
-0.99 -0.69 -0.19
-10.39 -7.27 1.56
-1.06 -0.74 -0.16
-10.62 -7.44 2.05
-10.39 -7.27 -1.11
-10.73 -7.52 2.55
-11.48 -8.04 -0.73
-10.58 -7.41 2.98
-8.95 -6.26 -0.19
-7.9 -5.53 2.58
-5.89 -4.09 -1.92
-10.88 -7.56 0.23
-7.34 -5.1 -2.06
-10.62 -7.38 0.68
-1.03 -0.71 -0.24
-16.31 -11.34 1.74
-0.99 -0.69 -0.19
-9.76 -6.78 1.46
-1.05 -0.73 -0.16
-11.56 -8.03 2.23
-10.07 -7 -1.07
-10.66 -7.41 2.52
-11.45 -7.96 -0.73
-10.8 -7.5 3.04
-9.83 -6.83 -0.21
-15.9 -11.05 5.19
-5.91 -4.08 -1.92
-8.73 -6.03 0.19
-7.23 -4.99 -2.03
-10.58 -7.3 0.67
-1.03 -0.71 -0.24
-9.84 -6.79 1.05
-1.01 -0.7 -0.19
-15.16 -10.46 2.26
-1.04 -0.72 -0.16
-11.44 -7.9 2.2
-10.03 -6.92 -1.07
-11.3 -7.8 2.67
-8.77 -6.05 -0.56
-10.73 -7.41 3.01
-20.17 -13.92 -0.43
-10.35 -7.14 3.37
-5.83 -3.99 -1.89
-12.22 -8.37 0.26
-7.13 -4.88 -1.99
-10.8 -7.4 0.69
-1.03 -0.71 -0.24
-9.87 -6.76 1.05
-1.02 -0.7 -0.2
-10.56 -7.23 1.57
-1.06 -0.73 -0.16
-10.33 -7.08 1.98
-10.08 -6.91 -1.07
-10.01 -6.86 2.36
-11.09 -7.6 -0.7
-12.47 -8.54 3.49
-9.87 -6.76 -0.21
-12.49 -8.56 4.06
-5.78 -3.93 -1.87
-13.27 -9.02 0.28
-7.16 -4.87 -2
-9.98 -6.78 -2.35
-9.86 -6.7 1.04
-1.03 -0.7 -0.2
-11.16 -7.59 1.66
-1.06 -0.72 -0.16
-10.81 -7.35 2.07
-10.24 -6.96 -1.08
-11.22 -7.63 2.64
-11.87 -8.07 -0.75
-10.57 -7.18 2.95
-11.92 -8.1 3.86
-5.8 -3.91 -1.87
-9.67 -6.52 0.2
-7.16 -4.83 -1.99
-10.83 -7.31 0.68
-10 -6.75 -2.35
-11.62 -7.83 1.23
-1.04 -0.7 -0.2
-10.7 -7.22 1.58
-1.08 -0.73 -0.16
-10.96 -7.39 -1.16
-13.36 -9.01 -0.84
-10.13 -6.83 -0.21
-11.9 -8.03 3.85
-5.8 -3.89 -1.87
-11.77 -7.88 0.25
-7.17 -4.8 -1.99
-10.91 -7.3 0.69
-1.04 -0.69 -0.24
-10.64 -7.13 1.12
-1.05 -0.7 -0.2
-16.53 -11.07 2.44
-1.1 -0.73 -0.16
-11.13 -7.46 2.12
-10.16 -6.8 -1.07
-10.51 -7.04 2.46
-8.97 -6.01 -0.57
-9.53 -6.38 -0.2
-10.8 -7.23 3.48
-5.8 -3.86 -1.87
-15.25 -10.14 0.32
-7.18 -4.77 -1.99
-10.95 -7.28 0.69
-1.03 -0.69 -0.24
-10.7 -7.11 1.12
-1.06 -0.71 -0.2
-1.11 -0.74 -0.16
-11.32 -7.52 2.15
-11.14 -7.4 -1.17
-8.99 -5.97 -0.57
-9.49 -6.31 -0.2
-12.38 -8.23 3.98
-5.81 -3.83 -1.86
-12.56 -8.29 0.26
-7.08 -4.67 -1.96
-1.05 -0.69 -0.24
-15.17 -10.01 1.59
