# .PCD v0.7 - Point Cloud Data file format
VERSION 0.7
FIELDS x y z
SIZE 4 4 4
TYPE F F F
COUNT 1 1 1
WIDTH 2937
HEIGHT 1
VIEWPOINT 0 0 0 1 0 0 0
POINTS 2937
DATA ascii
-3.77 18.89 -1.69
-7.51 37.63 7.46
-6.15 30.85 -1.65
-7.29 36.53 -0.65
-7.12 35.68 9.75
-6.55 33.42 0.59
-1.41 7.2 -1.69
-1.66 8.49 -1.68
-6.52 33.31 2.97
-2.04 10.4 -1.68
-6.91 35.29 4.41
-2.64 13.47 -1.68
-7.83 39.97 6.45
-3.7 18.88 -1.68
-7.36 37.58 7.44
-6.04 30.84 -1.65
-6.46 33.59 0.6
-1.39 7.2 -1.69
-9.74 50.64 2.7
-1.64 8.5 -1.68
-6.4 33.26 2.96
-2 10.4 -1.68
-6.81 35.42 4.43
-2.59 13.47 -1.68
-7.65 39.78 6.42
-3.63 18.87 -1.68
-6.35 33.01 6.53
-5.92 30.78 -1.64
-6.43 33.43 -0.59
-6.27 33.2 0.59
-1.36 7.2 -1.69
-6.58 34.85 1.86
-1.61 8.51 -1.68
-6.31 33.41 2.97
-1.96 10.39 -1.68
-6.32 33.51 4.19
-2.54 13.47 -1.68
-6.64 35.15 5.67
-3.56 18.84 -1.68
-5.8 30.73 -1.64
-6.98 36.99 -0.66
-6.11 32.99 0.59
-1.34 7.2 -1.69
-6.45 34.8 1.86
-1.58 8.51 -1.68
-6.27 33.84 3.01
-1.93 10.4 -1.68
-6.2 33.46 4.18
-2.5 13.47 -1.68
-6.47 34.89 5.62
-3.5 18.86 -1.68
-6.28 33.91 6.7
-5.68 30.67 -1.63
-6.08 33.44 0.59
-1.31 7.21 -1.69
-6.25 34.4 1.83
-1.55 8.52 -1.68
-6.24 34.33 3.05
-1.89 10.41 -1.68
-6.04 33.24 4.15
-2.44 13.45 -1.68
-6.34 34.89 5.62
-3.43 18.86 -1.68
-6.87 37.81 7.47
-5.57 30.62 -1.63
-6.2 34.82 0.62
-1.28 7.21 -1.69
-6.13 34.44 1.83
-1.52 8.52 -1.68
-5.97 33.56 2.98
-1.85 10.41 -1.68
-6.9 38.75 4.83
-2.4 13.47 -1.68
-6.93 38.95 6.27
-3.36 18.86 -1.68
-6.72 37.76 7.45
-5.44 30.56 -1.63
-6.42 36.05 -0.64
-1.26 7.22 -1.69
-6.16 35.36 1.88
-1.49 8.52 -1.68
-6.79 38.97 3.46
-1.82 10.41 -1.67
-6.78 38.88 4.85
-2.35 13.47 -1.68
-6.83 39.15 6.29
-3.29 18.85 -1.67
-5.32 30.49 -1.62
-6.3 36.13 -0.64
-5.85 34.2 0.61
-1.23 7.21 -1.69
-6.87 40.18 2.14
-1.46 8.53 -1.68
-5.46 31.97 2.84
-1.78 10.4 -1.67
-2.3 13.48 -1.68
-3.22 18.86 -1.67
-6.47 37.84 7.46
-5.2 30.44 -1.62
-5.72 34.21 0.61
-1.21 7.21 -1.69
-6.78 40.53 2.15
-1.43 8.54 -1.68
-5.39 32.23 2.86
-1.74 10.41 -1.67
-5.43 32.45 4.04
-2.26 13.48 -1.68
-3.16 18.87 -1.67
-6.33 37.85 7.46
-5.09 30.39 -1.61
-5.53 33.76 0.6
-1.18 7.21 -1.69
-6.68 40.77 2.17
-1.4 8.54 -1.68
-5.59 34.12 3.02
-1.71 10.42 -1.67
-5.18 31.65 3.94
-2.2 13.46 -1.68
-6.7 40.94 6.57
-3.09 18.87 -1.67
-4.97 30.32 -1.61
-6.68 40.81 9.55
-5.63 34.39 -0.61
-5.38 33.61 0.59
-1.15 7.21 -1.69
-6.2 38.69 2.05
-1.37 8.53 -1.68
-6.13 38.26 3.39
-1.67 10.43 -1.67
-5.09 31.77 3.95
-2.16 13.47 -1.68
-3.02 18.87 -1.67
-5.45 34.05 6.7
-4.84 30.21 -1.6
-6.52 40.72 -0.72
-6.52 40.73 11.05
-5.27 33.64 0.59
-1.13 7.23 -1.69
-1.34 8.53 -1.68
-1.63 10.42 -1.67
-4.93 31.47 3.91
-2.11 13.47 -1.67
-5.41 34.56 5.54
-2.95 18.87 -1.67
-4.73 30.21 -1.6
-6.06 38.7 -0.68
-5.15 33.66 0.59
-1.11 7.23 -1.69
-7.93 51.82 2.75
-1.31 8.54 -1.68
-1.59 10.42 -1.67
-5.08 33.21 4.13
-2.06 13.48 -1.67
-2.88 18.85 -1.67
-4.61 30.15 -1.6
-5.01 32.74 -0.58
-5.75 38.5 0.68
-1.08 7.22 -1.69
-1.28 8.55 -1.68
-5.96 39.9 3.53
-1.56 10.42 -1.67
-4.71 31.53 3.91
-2.02 13.49 -1.68
-5.47 36.62 5.86
-2.82 18.87 -1.67
-5.48 36.68 7.21
-4.5 30.09 -1.59
-5.5 36.79 8.59
-5.52 36.95 10.01
-5.32 36.49 0.64
-1.05 7.23 -1.69
-5.32 36.49 1.93
-1.25 8.55 -1.68
-5.33 36.55 3.23
-1.52 10.44 -1.67
-4.6 31.54 3.91
-1.96 13.47 -1.67
-5.34 36.64 5.86
-2.75 18.87 -1.67
-4.37 29.95 -1.59
-5.36 36.74 8.57
-5.2 36.51 0.64
-1.03 7.23 -1.69
-5.21 36.53 1.93
-1.22 8.55 -1.68
-5.23 36.7 3.24
-1.49 10.43 -1.67
-4.49 31.5 3.91
-1.92 13.48 -1.67
-5.72 40.13 6.42
-2.69 18.86 -1.67
-4.27 29.96 -1.59
-5.21 36.53 -0.64
-1.01 7.24 -1.69
-5.51 39.64 2.1
-1.19 8.56 -1.68
-6.7 48.19 4.26
-1.45 10.43 -1.67
-5.26 37.84 4.69
-1.87 13.48 -1.67
-4.76 34.29 5.48
-2.62 18.87 -1.67
-4.16 29.93 -1.58
-4.62 33.25 -0.59
-4.74 34.98 0.62
-0.98 7.25 -1.69
-4.74 34.98 1.85
-1.16 8.56 -1.68
-4.74 34.98 3.09
-1.41 10.43 -1.67
-4.73 34.96 4.33
-1.83 13.48 -1.67
-4.73 34.94 5.58
-2.55 18.84 -1.66
-4.73 34.91 6.85
-4.05 29.89 -1.58
-4.71 34.77 8.1
-4.74 35.04 -0.62
-4.72 34.85 9.42
-4.62 35.03 0.62
-0.95 7.24 -1.69
-1.13 8.57 -1.68
-6.32 47.96 4.23
-1.37 10.43 -1.67
-4.26 32.29 4
-1.78 13.48 -1.67
-2.48 18.83 -1.66
-3.93 29.78 -1.57
-4.6 34.89 8.12
-4.38 33.25 -0.59
-4.61 35.86 0.63
-0.93 7.24 -1.69
-1.1 8.57 -1.68
-5 38.92 3.43
-1.34 10.44 -1.67
-4.19 32.62 4.04
-1.73 13.48 -1.67
-2.42 18.81 -1.66
-3.82 29.72 -1.57
-4.48 35.89 0.63
-0.91 7.25 -1.69
-1.07 8.57 -1.68
-4.85 38.82 3.42
-1.3 10.44 -1.67
-4.73 37.84 4.68
-1.68 13.47 -1.67
-4.29 34.32 5.48
-2.35 18.8 -1.66
-4.27 34.22 6.7
-3.69 29.53 -1.56
-5.03 40.27 9.37
-4.04 33.3 0.59
-0.88 7.26 -1.69
-4.36 35.94 1.9
-1.04 8.57 -1.68
-5.79 47.71 4.2
-1.27 10.43 -1.66
-3.99 32.84 4.06
-1.64 13.47 -1.67
-2.28 18.8 -1.66
-3.58 29.47 -1.56
-5.11 42.13 -0.74
-4.87 40.17 10.84
-0.85 7.25 -1.69
-5.56 47.22 2.49
-1.01 8.58 -1.68
-5.61 47.58 4.19
-1.23 10.42 -1.66
-5.66 48.02 5.94
-1.59 13.47 -1.67
-5.6 47.49 7.57
-2.21 18.79 -1.65
-3.47 29.45 -1.55
-3.84 32.57 -0.57
-4.85 42.4 0.74
-0.83 7.25 -1.69
-4.8 42.03 2.22
-0.98 8.58 -1.68
-4.94 43.22 3.81
-1.19 10.43 -1.66
-5.43 47.52 5.87
-1.54 13.47 -1.66
-5.46 47.78 7.62
-2.15 18.78 -1.65
-3.36 29.37 -1.55
-3.73 32.59 -0.57
-0.8 7.25 -1.68
-4.66 42.05 2.22
-0.95 8.58 -1.68
-5.12 46.18 4.07
-1.16 10.43 -1.66
-5.29 47.8 5.91
-1.49 13.46 -1.66
-5.26 47.54 7.57
-2.08 18.8 -1.65
-3.25 29.3 -1.54
-3.61 32.61 -0.57
-3.81 35.45 0.62
-0.78 7.26 -1.69
-0.92 8.57 -1.68
-5.14 47.81 4.21
-1.12 10.44 -1.66
-5.09 47.38 5.85
-1.45 13.46 -1.66
-5.12 47.67 7.59
-2.02 18.78 -1.65
-5.13 47.79 9.34
-3.15 29.3 -1.54
-3.5 32.62 -0.57
-3.66 35.21 0.62
-0.75 7.26 -1.68
-3.79 36.53 1.92
-0.89 8.58 -1.68
-4.96 47.75 4.2
-1.08 10.44 -1.66
-4.84 46.59 5.75
-1.4 13.46 -1.66
-4.96 47.71 7.6
-1.95 18.74 -1.65
-3.04 29.25 -1.54
-3.41 32.79 -0.58
-3.55 35.42 0.62
-0.73 7.27 -1.69
-4.7 46.84 2.47
-0.86 8.58 -1.68
-3.63 36.2 3.18
-1.05 10.43 -1.66
-4.65 46.37 5.72
-1.35 13.46 -1.66
-4.79 47.75 7.6
-1.88 18.74 -1.65
-2.93 29.24 -1.54
-3.27 32.61 -0.57
-3.34 34.52 0.61
-0.7 7.26 -1.68
-3.54 36.6 1.93
-0.83 8.58 -1.68
-3.49 36.1 3.17
-1.01 10.43 -1.66
-4.49 46.41 5.73
-1.3 13.47 -1.66
-4.62 47.72 7.59
-1.81 18.72 -1.65
-4.63 47.8 9.33
-2.83 29.18 -1.54
-3.21 34.38 0.6
-0.68 7.26 -1.68
-4.34 46.45 2.45
-0.8 8.59 -1.68
-3.36 35.93 3.16
-0.98 10.43 -1.66
-4.4 47.1 5.81
-1.26 13.45 -1.66
-6.04 64.63 10.28
-1.75 18.72 -1.64
-2.73 29.16 -1.53
-3.4 36.41 -0.64
-3.79 42.14 0.74
-0.65 7.27 -1.68
-3.7 41.1 2.16
-0.77 8.59 -1.68
-3.23 35.94 3.16
-0.94 10.44 -1.66
-4.2 46.71 5.76
-1.21 13.45 -1.66
-1.68 18.71 -1.64
-2.62 29.11 -1.53
-3.01 33.43 -0.59
-4.06 46.89 0.82
-0.63 7.27 -1.68
-0.74 8.59 -1.68
-3.14 36.22 3.18
-0.9 10.44 -1.66
-4.05 46.71 5.76
-1.17 13.45 -1.66
-1.62 18.7 -1.64
-2.52 29.13 -1.53
-4.82 55.61 12.89
-2.81 32.48 -0.57
-0.6 7.28 -1.69
-3.01 36.21 1.9
-0.71 8.59 -1.68
-3.01 36.19 3.18
-0.87 10.44 -1.66
-1.12 13.45 -1.66
-3.89 46.84 7.44
-1.55 18.68 -1.64
-2.91 35.06 6.84
-2.42 29.07 -1.53
-2.75 33.14 -0.58
-3.11 39.11 0.68
-0.58 7.27 -1.68
-2.91 36.58 1.92
-0.68 8.6 -1.68
-3.65 45.92 4.03
-0.83 10.44 -1.66
-3.88 48.76 6.01
-1.07 13.47 -1.66
-1.49 18.67 -1.64
-2.3 28.94 -1.52
-2.6 32.69 -0.57
-2.5 32.85 0.58
-0.55 7.26 -1.68
-2.64 34.68 1.82
-0.65 8.6 -1.68
-3.02 39.73 3.49
-0.79 10.44 -1.66
-1.02 13.45 -1.66
-5.11 67.12 10.66
-1.42 18.69 -1.64
-2.19 28.74 -1.51
-2.47 32.43 -0.57
-2.83 39.13 0.68
-0.52 7.27 -1.68
-0.62 8.58 -1.67
-0.75 10.45 -1.66
-3.49 48.4 5.96
-0.97 13.45 -1.66
-1.35 18.68 -1.64
-2.08 28.76 -1.51
-2.56 35.42 8.2
-3.24 47.21 0.83
-0.5 7.28 -1.68
-2.3 33.43 1.76
-0.59 8.59 -1.67
-0.72 10.45 -1.66
-0.92 13.46 -1.66
-1.28 18.66 -1.64
-1.97 28.67 -1.51
-0.47 7.26 -1.68
-0.56 8.58 -1.67
-3.02 46.2 4.05
-0.68 10.45 -1.66
-0.88 13.45 -1.65
-4.29 65.56 10.41
-1.22 18.65 -1.64
-1.87 28.66 -1.5
-2.36 36.04 -0.63
-0.39 6.26 -1.68
-2 32.25 0.56
-0.45 7.25 -1.68
-0.53 8.6 -1.67
-2.85 46.02 4.03
-0.65 10.44 -1.66
-3 48.5 5.97
-0.83 13.45 -1.65
-1.15 18.65 -1.64
-1.76 28.45 -1.49
-2.03 32.83 -0.57
-0.37 6.25 -1.68
-1.91 32.6 0.57
-0.42 7.26 -1.68
-2.72 46.55 2.44
-0.5 8.6 -1.67
-2.71 46.26 4.05
-0.61 10.45 -1.66
-2.12 36.14 4.45
-0.79 13.45 -1.65
-2.11 36.11 5.73
-1.09 18.64 -1.63
-1.66 28.44 -1.49
-2.1 35.95 8.31
-2.11 35.99 9.66
-0.34 6.25 -1.68
-1.86 33.72 0.59
-0.4 7.25 -1.68
-1.74 31.63 1.66
-0.47 8.6 -1.67
-2.6 47.19 4.13
-0.57 10.45 -1.66
-1.99 36.09 4.44
-0.74 13.44 -1.65
-1.98 36.05 5.72
-1.02 18.62 -1.63
-1.98 36.01 7.01
-1.56 28.43 -1.49
-1.97 35.87 8.29
-1.71 31 -0.54
-1.98 35.91 9.64
-0.32 6.25 -1.68
-1.62 31.36 0.55
-0.38 7.27 -1.68
-1.64 31.66 1.66
-0.44 8.59 -1.67
-1.68 32.42 2.84
-0.54 10.45 -1.66
-1.87 36.25 4.46
-0.7 13.45 -1.65
-2.53 48.85 7.75
-0.96 18.6 -1.63
-1.46 28.23 -1.48
-1.6 30.9 -0.54
-0.3 6.26 -1.68
-1.6 33.16 0.58
-0.35 7.26 -1.68
-1.74 36.07 1.89
-0.41 8.59 -1.67
-1.6 33.19 2.91
-0.5 10.45 -1.66
-0.65 13.46 -1.65
-2.37 49.15 7.79
-0.9 18.6 -1.63
-1.36 28.19 -1.48
-1.51 31.29 -0.55
-0.28 6.26 -1.68
-1.47 32.79 0.57
-0.32 7.25 -1.68
-1.49 33.24 1.74
-0.38 8.6 -1.67
-1.47 32.85 2.88
-0.47 10.44 -1.66
-0.6 13.45 -1.65
-2.19 49.08 7.78
-0.83 18.58 -1.63
-1.26 28.14 -1.48
-2.26 50.55 11.68
-1.6 35.88 -0.63
-0.26 6.25 -1.68
-1.33 32.3 0.56
-0.3 7.25 -1.68
-1.33 32.23 1.69
-0.35 8.6 -1.67
-1.35 32.69 2.86
-0.43 10.44 -1.65
-0.55 13.45 -1.65
-2.45 59.53 9.44
-0.77 18.58 -1.63
-1.16 28.2 -1.48
-1.48 36.03 -0.63
-0.24 6.25 -1.68
-1.2 31.92 0.56
-0.27 7.26 -1.68
-0.32 8.58 -1.67
-1.23 32.57 2.85
-0.39 10.44 -1.65
-0.51 13.45 -1.65
-1.89 50.21 7.96
-0.7 18.56 -1.62
-1.05 27.96 -1.47
-1.33 35.34 -0.62
-0.21 6.24 -1.67
-1.09 31.92 0.56
-0.25 7.26 -1.68
-1.1 32.03 1.68
-0.29 8.58 -1.67
-1.12 32.68 2.86
-0.36 10.44 -1.65
-0.46 13.44 -1.65
-0.63 18.55 -1.62
-0.96 28.01 -1.47
-1.71 50.09 11.57
-0.19 6.24 -1.67
-0.97 31.9 0.56
-0.22 7.26 -1.68
-0.98 32 1.68
-0.26 8.59 -1.67
-1.05 34.41 3.01
-0.32 10.45 -1.66
-0.41 13.45 -1.65
-0.57 18.52 -1.62
-0.86 28.05 -1.47
-1.03 33.84 -0.59
-0.17 6.24 -1.67
-0.91 33.76 0.59
-0.2 7.25 -1.67
-0.88 32.35 1.7
-0.23 8.59 -1.67
-0.92 33.91 2.97
-0.28 10.44 -1.65
-1.36 50.19 6.16
-0.36 13.46 -1.65
-1.36 50.28 7.97
-0.5 18.51 -1.62
-1.36 50.25 9.77
-0.76 27.99 -1.47
-1.36 50.33 11.62
-0.83 30.49 -0.53
-0.15 6.25 -1.67
-0.8 33.85 0.59
-0.17 7.25 -1.67
-0.76 32.16 1.69
-0.2 8.6 -1.67
-0.78 32.98 2.89
-0.25 10.43 -1.65
-0.32 13.46 -1.65
-0.44 18.52 -1.62
-0.66 27.99 -1.47
-0.72 30.49 -0.53
-0.13 6.25 -1.68
-0.68 33.81 0.59
-0.15 7.24 -1.67
-0.17 8.58 -1.67
-0.66 33.03 2.89
-0.21 10.44 -1.65
-0.27 13.45 -1.65
-0.37 18.51 -1.62
-0.56 27.74 -1.45
-0.62 30.91 -0.54
-0.1 6.24 -1.67
-0.57 33.95 0.59
-0.12 7.25 -1.67
-0.14 8.58 -1.67
-0.18 10.44 -1.65
-0.23 13.45 -1.65
-0.31 18.52 -1.62
-0.46 27.68 -1.45
-0.08 6.24 -1.67
-0.45 33.86 0.59
-0.1 7.24 -1.67
-0.11 8.59 -1.67
-0.14 10.42 -1.65
-0.18 13.46 -1.65
-0.25 18.51 -1.62
-0.37 27.66 -1.45
-0.06 6.24 -1.67
-0.33 33.84 0.59
-0.07 7.23 -1.67
-0.33 33.26 1.74
-0.08 8.59 -1.67
-0.1 10.41 -1.65
-0.13 13.44 -1.65
-0.18 18.49 -1.62
-0.27 27.55 -1.44
-0.32 32.8 -0.57
-0.04 6.25 -1.68
-0.19 30.61 0.53
-0.05 7.23 -1.67
-0.21 33.3 1.75
-0.05 8.58 -1.67
-0.07 10.41 -1.65
-0.08 13.44 -1.65
-0.12 18.48 -1.62
-0.17 27.44 -1.44
-0.19 29.77 -0.52
-0.26 42.15 11.29
-0.02 6.25 -1.67
-0.09 30.71 0.54
-0.02 7.24 -1.67
-0.1 34.25 1.8
-0.03 8.57 -1.67
-0.1 34.73 3.04
-0.03 10.42 -1.65
-0.04 13.43 -1.65
-0.13 42.19 6.68
-0.05 18.46 -1.62
-0.08 27.27 -1.43
-0.12 41.96 9.69
-0.09 29.69 -0.52
0 6.24 -1.67
0.02 30.52 0.53
0 7.24 -1.67
0 8.57 -1.67
0.01 10.43 -1.65
0.01 13.43 -1.65
0.01 18.41 -1.61
0.02 36.94 7.18
0.01 27.25 -1.43
0.02 33.73 -0.59
0.03 6.24 -1.67
0.14 33.73 0.59
0.03 7.24 -1.67
0.03 8.58 -1.67
0.17 42.16 3.69
0.04 10.41 -1.65
0.17 42.02 5.16
0.05 13.43 -1.65
0.17 41.96 6.65
0.07 18.43 -1.61
0.11 27.08 -1.42
0.12 29.26 -0.51
0.05 6.24 -1.67
0.23 30.09 0.53
0.05 7.23 -1.67
0.32 42.23 2.21
0.06 8.58 -1.67
0.25 33.3 2.91
0.08 10.41 -1.65
0.1 13.42 -1.65
0.14 18.45 -1.61
0.2 27.09 -1.42
0.23 30.19 -0.53
0.07 6.24 -1.67
0.36 33.75 0.59
0.08 7.23 -1.67
0.09 8.58 -1.67
0.11 10.42 -1.65
0.14 13.42 -1.65
0.2 18.42 -1.61
0.29 27.07 -1.42
0.33 30.56 -0.53
0.09 6.24 -1.67
0.42 29.38 0.51
0.1 7.23 -1.67
0.12 8.57 -1.67
0.58 40.69 3.56
0.15 10.42 -1.65
0.19 13.4 -1.65
0.26 18.4 -1.61
0.38 27.1 -1.42
0.5 35.4 8.17
0.42 29.5 -0.51
0.66 46.85 12.55
0.11 6.23 -1.67
0.51 29.16 0.51
0.13 7.23 -1.67
0.15 8.57 -1.67
0.61 34.79 3.04
0.18 10.42 -1.65
0.24 13.4 -1.65
0.32 18.34 -1.6
0.48 26.95 -1.41
0.83 46.84 10.82
0.52 29.59 -0.52
0.13 6.23 -1.67
0.64 30.28 0.53
0.15 7.22 -1.67
0.69 32.61 1.71
0.18 8.57 -1.67
0.22 10.41 -1.65
0.28 13.41 -1.65
0.99 46.75 7.41
0.39 18.35 -1.61
0.99 46.74 9.09
0.57 27.04 -1.42
0.7 32.92 7.6
0.15 6.23 -1.67
0.72 29.2 0.51
0.18 7.22 -1.67
0.21 8.57 -1.67
1.15 46.85 4.1
0.26 10.4 -1.65
1.15 46.77 5.74
0.33 13.4 -1.65
0.45 18.32 -1.6
0.66 26.84 -1.41
0.18 6.24 -1.67
1.31 46.72 0.82
0.2 7.22 -1.67
0.24 8.56 -1.67
1.32 46.84 4.1
0.29 10.41 -1.65
0.38 13.39 -1.64
0.52 18.35 -1.61
0.75 26.7 -1.4
0.92 32.76 7.57
0.83 29.37 -0.51
1.04 37.07 9.94
0.2 6.23 -1.67
0.91 28.99 0.51
0.23 7.22 -1.67
0.27 8.56 -1.66
0.33 10.41 -1.65
0.42 13.39 -1.64
0.58 18.31 -1.6
1.74 55.41 10.77
0.96 30.71 -1.61
1.15 36.73 8.48
0.96 30.44 -0.53
1.01 32.2 8.63
0.22 6.22 -1.67
1.08 30.89 0.54
0.25 7.23 -1.67
0.3 8.56 -1.66
0.36 10.4 -1.65
1.93 55.14 6.77
0.47 13.38 -1.64
1.93 55.25 8.76
0.64 18.28 -1.6
0.99 28.32 -1.49
1.07 30.59 -0.53
1.12 32.21 8.64
0.24 6.22 -1.67
0.28 7.23 -1.67
0.33 8.56 -1.66
1.46 37.95 3.32
0.4 10.39 -1.65
0.51 13.4 -1.65
0.7 18.28 -1.6
1.02 26.61 -1.4
1.25 32.57 7.53
1.41 36.75 9.85
0.26 6.22 -1.67
1.72 41.01 0.72
0.3 7.21 -1.67
1.41 33.55 1.76
0.36 8.55 -1.66
0.44 10.4 -1.65
0.56 13.39 -1.65
1.54 36.74 5.82
0.77 18.26 -1.6
1.54 36.73 7.15
1.11 26.38 -1.38
1.54 36.75 8.49
0.28 6.22 -1.67
1.37 30.25 0.53
0.33 7.2 -1.66
1.52 33.55 1.76
0.39 8.55 -1.66
0.47 10.39 -1.65
1.67 36.85 4.53
0.61 13.37 -1.64
1.67 36.72 5.82
0.83 18.28 -1.6
1.67 36.75 7.15
1.2 26.44 -1.39
0.3 6.22 -1.67
1.48 30.18 0.53
0.35 7.21 -1.67
0.42 8.54 -1.66
1.81 36.95 3.24
0.51 10.39 -1.65
1.8 36.83 4.53
0.65 13.38 -1.64
0.89 18.26 -1.6
1.38 28.12 -1.48
1.4 28.62 -0.5
1.79 36.62 9.82
0.33 6.21 -1.67
1.62 30.96 0.54
0.38 7.21 -1.67
1.94 36.95 1.94
0.45 8.54 -1.66
1.93 36.89 3.23
0.54 10.39 -1.65
1.64 31.25 3.84
0.7 13.38 -1.64
0.95 18.21 -1.6
1.37 26.13 -1.37
1.71 32.72 8.78
0.35 6.21 -1.67
2.07 36.98 0.65
0.4 7.2 -1.67
2.06 36.92 1.94
0.48 8.53 -1.66
0.58 10.38 -1.65
1.75 31.28 3.85
0.75 13.38 -1.64
1.02 18.19 -1.59
1.46 26.14 -1.37
1.84 32.84 7.59
1.6 28.61 -0.5
0.37 6.21 -1.67
2.2 36.99 0.65
0.43 7.19 -1.66
2.33 39.3 2.06
0.51 8.54 -1.66
2.66 44.85 3.93
0.62 10.38 -1.65
1.86 31.25 3.84
0.79 13.38 -1.65
1.08 18.19 -1.59
1.97 33.13 6.45
1.66 27.89 -1.46
2.13 35.9 8.3
1.79 30.12 -0.53
0.39 6.21 -1.67
1.92 30.55 0.53
0.45 7.2 -1.67
1.87 29.73 1.56
0.54 8.53 -1.66
2.82 44.82 3.93
0.65 10.38 -1.65
1.96 31.23 3.84
0.84 13.36 -1.64
1.14 18.19 -1.59
1.74 27.6 -1.45
2.33 37.06 -0.65
0.41 6.21 -1.67
1.94 29.34 0.51
0.48 7.19 -1.66
0.56 8.52 -1.66
0.69 10.38 -1.65
2.05 30.97 3.81
0.89 13.36 -1.64
1.2 18.16 -1.59
2.43 36.64 7.14
1.88 28.35 -1.49
2.15 32.53 7.53
1.88 28.44 -0.5
0.43 6.2 -1.67
0.5 7.19 -1.67
0.59 8.52 -1.66
2.78 39.8 3.49
0.72 10.38 -1.65
0.93 13.36 -1.64
1.27 18.14 -1.59
1.98 28.42 -1.49
2.34 33.59 7.77
0.45 6.2 -1.66
2.18 29.71 0.52
0.53 7.19 -1.66
0.62 8.51 -1.66
2.89 39.39 3.46
0.76 10.37 -1.65
2.31 31.52 3.88
0.98 13.36 -1.64
2.38 32.46 5.16
1.33 18.14 -1.59
2.48 33.92 6.61
2.08 28.42 -1.49
2.46 33.56 7.77
0.48 6.21 -1.67
0.55 7.18 -1.66
0.65 8.52 -1.66
3.03 39.44 3.46
0.8 10.36 -1.65
2.42 31.51 3.88
1.03 13.36 -1.64
2.49 32.45 5.16
1.39 18.12 -1.59
1.98 25.78 -1.36
2.35 30.56 -0.54
2.49 32.44 8.72
0.5 6.2 -1.67
2.39 29.79 0.52
0.58 7.18 -1.66
0.68 8.51 -1.66
3.67 45.75 4.02
0.83 10.36 -1.65
2.51 31.22 3.85
1.07 13.34 -1.64
1.45 18.1 -1.59
2.29 28.48 -1.5
2.42 30.16 6.99
2.29 28.57 -0.5
0.52 6.2 -1.67
2.6 31.03 0.54
0.6 7.18 -1.66
3.14 37.44 1.97
0.71 8.5 -1.66
0.87 10.36 -1.65
2.61 31.2 3.84
1.12 13.33 -1.64
4.04 48.17 7.66
1.52 18.09 -1.59
2.34 27.87 -1.47
2.52 30.1 6.97
0.54 6.19 -1.66
2.93 33.6 0.59
0.63 7.17 -1.66
2.72 31.1 1.64
0.74 8.48 -1.66
0.9 10.36 -1.65
2.73 31.23 3.85
1.16 13.33 -1.64
1.58 18.07 -1.59
2.48 28.4 -1.49
2.62 30.02 6.96
2.63 30.11 -0.53
0.56 6.18 -1.66
2.74 30.15 0.53
0.65 7.17 -1.66
2.94 32.34 1.7
0.77 8.49 -1.66
4.16 45.79 4.02
0.94 10.35 -1.65
2.84 31.22 3.85
1.21 13.33 -1.64
4.33 47.72 7.59
1.64 18.08 -1.59
2.43 26.8 -1.41
2.74 30.14 6.99
2.75 30.26 -0.53
0.58 6.19 -1.66
0.68 7.16 -1.66
0.8 8.49 -1.66
3.29 34.91 3.07
0.98 10.34 -1.64
3.29 34.87 4.3
1.26 13.33 -1.64
3.21 34.02 5.41
1.7 18.05 -1.59
2.56 27.09 -1.43
3.25 34.44 7.99
2.62 27.82 -0.49
3.06 32.47 8.74
0.61 6.19 -1.67
3.46 35.32 0.62
0.7 7.15 -1.66
3.43 35.05 1.85
0.83 8.48 -1.66
3.41 34.83 3.06
1.01 10.35 -1.65
3.4 34.75 4.29
1.3 13.31 -1.64
3.4 34.75 5.53
1.77 18.04 -1.59
3.38 34.56 6.75
2.45 25.03 -1.32
2.95 30.16 7
2.71 27.66 -0.49
0.63 6.19 -1.67
3.15 31.11 0.55
0.73 7.15 -1.66
3.56 35.12 1.85
0.86 8.46 -1.65
1.05 10.34 -1.65
3.51 34.59 4.27
1.35 13.33 -1.64
3.41 33.68 5.36
1.83 18.03 -1.59
3.51 34.6 6.76
2.77 27.31 -1.44
3.05 30.13 6.99
2.78 27.42 -0.48
3.28 32.3 8.7
0.65 6.18 -1.66
3.44 32.74 0.57
0.75 7.15 -1.66
0.89 8.46 -1.65
3.12 29.78 2.62
1.09 10.34 -1.65
3.55 33.86 4.18
1.4 13.31 -1.64
3.58 34.12 5.43
1.89 18.04 -1.59
3.54 33.77 6.6
2.81 26.82 -1.41
3.16 30.14 7
0.67 6.17 -1.66
0.77 7.15 -1.66
4.23 39.09 2.06
0.92 8.46 -1.65
4.29 39.59 3.48
1.12 10.33 -1.65
1.44 13.3 -1.64
1.95 18.01 -1.59
2.85 26.33 -1.39
2.94 27.18 -0.48
4.59 42.43 11.44
0.69 6.17 -1.66
3.51 31.42 0.55
0.8 7.13 -1.66
0.95 8.46 -1.65
1.15 10.32 -1.64
3.41 30.46 3.76
1.49 13.31 -1.64
2.01 18.01 -1.59
2.97 26.6 -1.4
2.98 26.65 -0.47
0.71 6.18 -1.67
4.52 39.16 0.69
0.82 7.13 -1.66
3.66 31.72 1.67
0.98 8.46 -1.66
4.39 38.05 3.35
1.19 10.32 -1.65
3.58 31.02 3.83
1.53 13.29 -1.64
3.58 31.01 4.94
2.08 18 -1.59
4.9 42.52 8.32
3 25.98 -1.37
3.47 30.06 6.99
3.16 27.4 -0.48
0.73 6.18 -1.67
5.13 43.13 0.76
0.85 7.13 -1.66
5.1 42.93 2.27
1 8.44 -1.65
5.1 42.86 3.78
1.23 10.31 -1.65
3.98 33.45 4.14
1.58 13.29 -1.64
3.69 31.05 4.95
2.14 18 -1.59
3.16 26.62 -1.4
3.14 26.42 -0.46
0.75 6.16 -1.66
3.37 27.56 0.48
0.87 7.13 -1.66
1.03 8.45 -1.65
3.88 31.72 2.8
1.26 10.31 -1.65
1.63 13.3 -1.65
4.58 37.4 5.97
2.2 17.99 -1.59
3.11 25.43 -1.34
3.67 29.97 6.97
3.42 27.95 -0.49
0.78 6.16 -1.66
0.9 7.12 -1.66
1.06 8.44 -1.65
4.14 32.87 2.9
1.3 10.3 -1.64
3.89 30.88 3.82
1.67 13.3 -1.65
4.7 37.29 5.95
2.27 18.01 -1.59
3.92 31.1 6.09
3.2 25.42 -1.34
3.77 29.95 6.97
3.66 29.08 -0.51
5.33 42.29 11.42
0.8 6.16 -1.67
4.91 37.88 0.67
0.92 7.12 -1.66
4.82 37.24 1.97
1.09 8.44 -1.65
4.11 31.71 2.8
1.33 10.3 -1.64
3.85 29.76 3.68
1.72 13.28 -1.64
3.97 30.65 4.89
2.33 18 -1.59
4.04 31.16 6.11
3.28 25.36 -1.34
3.9 30.12 7.01
3.57 27.53 -0.48
0.82 6.16 -1.66
5.04 37.89 0.67
0.95 7.11 -1.66
4.69 35.27 1.86
1.12 8.43 -1.65
4.79 36.01 3.18
1.37 10.29 -1.64
4.1 30.84 3.82
1.77 13.28 -1.64
4.26 32.04 5.12
2.39 17.96 -1.59
3.66 27.52 -1.45
4.01 30.14 7.02
3.89 29.24 -0.51
0.84 6.15 -1.66
5.87 42.99 0.76
0.97 7.12 -1.66
5.04 36.91 1.95
1.15 8.41 -1.65
1.41 10.29 -1.64
4.18 30.56 3.79
1.81 13.26 -1.64
4.44 32.48 5.19
2.45 17.96 -1.59
3.68 26.91 -0.47
0.86 6.14 -1.66
5.45 38.89 0.69
1 7.1 -1.66
4.47 31.87 1.69
1.18 8.41 -1.65
5.04 35.96 3.18
1.44 10.27 -1.64
4.29 30.57 3.79
1.86 13.26 -1.64
4.51 32.2 5.15
2.5 17.86 -1.58
3.58 25.53 -1.35
4.13 29.47 -0.52
0.88 6.14 -1.66
5.56 38.7 0.68
1.02 7.1 -1.66
1.21 8.41 -1.65
1.47 10.27 -1.64
1.91 13.27 -1.65
4.62 32.21 5.15
2.55 17.74 -1.57
5.51 38.36 10.38
0.9 6.14 -1.66
5.71 38.83 0.69
1.04 7.09 -1.65
5.69 38.67 2.05
1.24 8.41 -1.65
4.69 31.84 2.82
1.51 10.26 -1.64
4.48 30.44 3.78
1.95 13.25 -1.64
4.73 32.18 5.15
2.6 17.67 -1.56
3.66 24.88 -1.32
4.56 30.97 7.23
3.88 26.35 -0.46
0.93 6.14 -1.66
4.81 31.93 0.56
1.07 7.09 -1.65
1.27 8.4 -1.65
5.5 36.5 3.23
1.55 10.26 -1.64
2 13.24 -1.64
4.91 32.57 5.22
2.65 17.59 -1.56
4.38 29.06 5.71
3.54 23.5 -1.25
4.04 26.78 -0.47
0.95 6.14 -1.67
6.63 43 0.76
1.09 7.09 -1.66
5.14 33.29 1.77
1.29 8.38 -1.65
1.58 10.25 -1.64
4.97 32.2 4
2.04 13.23 -1.64
5.03 32.63 5.23
2.7 17.47 -1.55
6.19 40.15 7.9
4.73 30.67 7.17
4.14 26.81 -0.47
0.97 6.13 -1.66
4.48 28.41 0.5
1.12 7.08 -1.65
5.14 32.59 1.73
1.32 8.37 -1.65
5.7 36.17 3.2
1.62 10.25 -1.64
5.06 32.07 3.99
2.09 13.23 -1.64
5.14 32.58 5.22
2.73 17.33 -1.53
3.94 24.97 -1.32
5.21 33.07 7.73
5.06 32.12 -0.57
0.99 6.12 -1.66
4.5 27.91 0.49
1.14 7.08 -1.66
5.29 32.78 1.74
1.35 8.38 -1.65
4.57 28.33 2.51
1.65 10.23 -1.64
5.17 32.08 3.99
2.13 13.24 -1.65
6.74 41.81 6.71
2.77 17.18 -1.52
3.89 24.14 -1.28
4.93 30.55 7.14
4.3 26.7 -0.47
1.01 6.12 -1.66
4.75 28.76 0.51
1.17 7.06 -1.65
6.27 38 2.02
1.38 8.38 -1.65
4.66 28.27 2.51
1.69 10.23 -1.64
5.3 32.1 4
2.18 13.21 -1.64
6.91 41.87 6.72
2.81 17.05 -1.51
4.72 28.6 5.63
4.13 25.06 -1.33
6 36.36 8.51
5.25 31.79 8.63
1.03 6.12 -1.66
1.19 7.06 -1.65
4.78 28.38 1.51
1.41 8.37 -1.65
5.37 31.88 2.83
1.72 10.22 -1.64
5.4 32.07 3.99
2.22 13.21 -1.64
7.04 41.77 6.71
2.85 16.92 -1.5
6.39 37.97 7.48
3.92 23.3 -1.24
6.11 36.27 8.49
4.78 28.36 -0.5
5.35 31.76 8.63
1.05 6.12 -1.66
4.93 28.71 0.51
1.21 7.05 -1.65
5.53 32.17 1.71
1.44 8.35 -1.65
5.14 29.94 2.66
1.76 10.22 -1.64
5.51 32.08 4
2.27 13.2 -1.64
7.16 41.64 6.69
2.9 16.86 -1.5
5.48 31.92 6.3
4 23.26 -1.24
5.48 31.9 7.47
1.07 6.1 -1.66
4.6 26.28 0.47
1.24 7.06 -1.65
5.37 30.62 1.63
1.46 8.34 -1.65
5.26 30.02 2.67
1.79 10.21 -1.64
5.62 32.05 4
2.31 13.2 -1.65
5.6 31.93 5.13
2.93 16.73 -1.49
5.58 31.87 6.29
4.17 23.79 -1.27
5.59 31.9 7.48
4.55 25.98 -0.46
5.55 31.66 8.61
1.09 6.09 -1.66
5.04 28.15 0.5
1.26 7.05 -1.65
5.82 32.49 1.73
1.49 8.34 -1.65
5.39 30.13 2.68
1.82 10.19 -1.64
5.73 31.98 3.99
2.36 13.2 -1.65
5.71 31.9 5.13
2.99 16.71 -1.49
4.23 23.64 -1.26
6.47 36.14 8.48
4.94 27.62 -0.49
5.73 32.01 8.71
1.11 6.1 -1.66
5.82 31.88 0.57
1.28 7.03 -1.65
4.58 25.13 1.34
1.52 8.34 -1.65
5.5 30.15 2.68
1.86 10.18 -1.64
5.79 31.71 3.96
2.41 13.2 -1.65
7.57 41.47 6.68
3.04 16.65 -1.48
4.4 24.13 -1.29
6.56 35.93 8.43
5.89 32.26 -0.57
7.12 39.01 10.63
1.14 6.1 -1.66
5.26 28.21 0.5
1.31 7.03 -1.65
4.68 25.11 1.34
1.55 8.34 -1.65
5.61 30.08 2.68
1.9 10.18 -1.64
5.86 31.44 3.93
2.45 13.17 -1.64
3.1 16.63 -1.48
4.43 23.74 -1.27
5.12 27.48 -0.49
1.16 6.1 -1.66
5.94 31.28 0.56
1.34 7.03 -1.65
4.78 25.19 1.34
1.58 8.32 -1.65
5.79 30.51 2.72
1.93 10.17 -1.64
6.02 31.69 3.96
2.5 13.17 -1.65
3.14 16.52 -1.47
4.5 23.72 -1.27
6.83 35.96 8.45
4.98 26.23 -0.47
5.33 28.09 7.66
1.18 6.08 -1.66
4.93 25.44 0.45
1.36 7.03 -1.65
4.89 25.25 1.35
1.61 8.31 -1.65
5.85 30.2 2.69
1.97 10.17 -1.64
6.16 31.79 3.98
2.55 13.15 -1.64
3.2 16.51 -1.47
4.55 23.5 -1.25
7.56 39.03 9.18
4.9 25.32 -0.45
1.2 6.08 -1.66
4.99 25.3 0.45
1.38 7.02 -1.65
4.96 25.15 1.34
1.64 8.31 -1.65
6.03 30.61 2.73
2 10.15 -1.64
6.24 31.67 3.96
2.59 13.16 -1.65
3.25 16.47 -1.47
7.7 39.07 7.74
4.64 23.57 -1.26
7.98 40.5 9.53
4.97 25.19 -0.45
1.22 6.08 -1.66
5.01 24.94 0.44
1.41 7 -1.65
5.56 27.7 1.48
1.67 8.31 -1.65
5.2 25.93 2.31
2.04 10.14 -1.64
6.38 31.77 3.98
2.64 13.15 -1.65
3.31 16.48 -1.47
7.83 39.01 7.73
4.69 23.37 -1.25
8.2 40.86 9.62
5.15 25.67 -0.46
1.24 6.08 -1.66
5.14 25.18 0.45
1.43 6.99 -1.65
5.16 25.28 1.35
1.69 8.3 -1.65
5.25 25.7 2.29
2.07 10.14 -1.64
6.48 31.75 3.98
2.68 13.12 -1.64
7.99 39.12 6.32
3.35 16.42 -1.47
4.76 23.32 -1.25
7.9 38.72 9.12
5.37 26.31 -0.47
1.26 6.07 -1.66
5.23 25.13 0.45
1.46 7 -1.65
5.78 27.8 1.49
1.72 8.27 -1.64
5.31 25.53 2.28
2.11 10.13 -1.64
6.49 31.22 3.92
2.73 13.11 -1.64
8.12 39.02 6.31
3.41 16.4 -1.47
7.34 35.28 7
4.84 23.29 -1.25
5.28 25.37 -0.45
7.82 37.61 10.29
1.28 6.06 -1.66
5.04 23.85 0.43
1.48 6.99 -1.65
5.44 25.71 1.38
1.75 8.27 -1.64
5.41 25.58 2.29
2.14 10.12 -1.64
6.62 31.32 3.93
2.77 13.11 -1.64
3.46 16.36 -1.46
7.46 35.28 7.01
4.96 23.43 -1.26
8.7 41.15 9.71
4.97 23.51 -0.42
7.95 37.58 10.29
1.3 6.06 -1.66
5.51 25.6 0.46
1.5 6.99 -1.65
5.5 25.57 1.37
1.78 8.27 -1.65
5.51 25.57 2.29
2.18 10.1 -1.64
8.41 39.06 4.91
2.82 13.11 -1.65
6.21 28.85 4.67
3.52 16.34 -1.46
5.05 23.44 -1.26
8 37.14 8.77
5.5 25.57 -0.46
1.32 6.06 -1.66
5.06 23.15 0.41
1.52 6.97 -1.65
5.56 25.42 1.36
1.81 8.26 -1.64
5.6 25.59 2.29
2.21 10.09 -1.64
8.55 39.1 4.91
2.87 13.1 -1.65
3.58 16.34 -1.46
5.2 23.77 -1.28
8.12 37.11 8.77
8.12 37.1 10.18
1.35 6.05 -1.66
5.2 23.36 0.42
1.55 6.96 -1.65
1.84 8.26 -1.64
5.7 25.59 2.29
2.25 10.09 -1.64
2.91 13.08 -1.64
3.63 16.3 -1.46
5.7 25.59 -1.37
8.23 36.98 8.75
5.62 25.24 -0.45
1.37 6.05 -1.66
5.28 23.37 0.42
1.57 6.96 -1.65
5.8 25.63 1.38
1.86 8.23 -1.64
6.39 28.27 2.54
2.28 10.08 -1.64
2.95 13.06 -1.64
6.6 29.18 4.74
3.68 16.26 -1.46
5.12 22.63 -1.22
5.67 25.06 -0.45
1.39 6.03 -1.66
5.34 23.25 0.42
1.6 6.96 -1.65
6.57 28.62 1.54
1.89 8.23 -1.64
6.94 30.22 2.71
2.31 10.07 -1.64
7.43 32.34 4.07
3 13.07 -1.65
7 30.45 4.95
3.72 16.19 -1.45
5.21 22.67 -1.22
5.28 22.98 -0.41
1.41 6.03 -1.66
5.39 23.11 0.41
1.62 6.95 -1.65
5.41 23.2 1.25
1.92 8.22 -1.64
6.56 28.14 2.53
2.34 10.05 -1.63
7.54 32.33 4.08
3.05 13.06 -1.65
6.97 29.89 4.86
3.79 16.23 -1.46
7.34 31.45 6.28
6 25.71 -1.38
5.39 23.12 -0.41
8.65 37.08 10.2
1.43 6.03 -1.66
5.35 22.56 0.4
1.64 6.93 -1.64
6.42 27.11 1.46
1.95 8.21 -1.64
6.85 28.9 2.6
2.38 10.04 -1.63
7.59 32.01 4.04
3.09 13.05 -1.65
7.19 30.36 4.94
3.84 16.22 -1.46
7.78 32.82 6.56
5.26 22.21 -1.2
6.02 25.4 6.03
5.37 22.67 -0.41
1.45 6.03 -1.66
5.43 22.6 0.41
1.67 6.93 -1.64
6.07 25.23 1.36
1.97 8.21 -1.64
7.22 30.03 2.7
2.41 10.04 -1.64
7.51 31.22 3.94
3.14 13.04 -1.65
7.31 30.4 4.95
3.9 16.2 -1.46
7.55 31.39 6.28
5.34 22.21 -1.2
6.09 25.34 6.02
5.34 22.22 -0.4
1.47 6.02 -1.66
5.48 22.42 0.4
1.69 6.93 -1.65
6.13 25.1 1.35
2 8.19 -1.64
7.26 29.73 2.68
2.45 10.03 -1.64
7.55 30.92 3.91
3.19 13.04 -1.65
7.19 29.42 4.8
3.95 16.16 -1.46
5.43 22.23 -1.2
5.99 24.52 5.83
5.52 22.58 -0.41
1.49 6.01 -1.66
5.46 22.05 0.4
1.72 6.92 -1.65
6.13 24.75 1.34
2.03 8.18 -1.64
7.39 29.8 2.69
2.48 10.02 -1.64
7.66 30.89 3.91
3.23 13.03 -1.65
7.56 30.5 4.98
4 16.13 -1.45
7.51 30.29 6.07
5.57 22.46 -1.21
6.34 25.58 6.08
5.47 22.09 -0.4
1.51 6.01 -1.66
7.55 29.98 0.54
1.74 6.91 -1.65
6.24 24.78 1.34
2.06 8.18 -1.64
7.52 29.87 2.69
2.52 10.01 -1.63
7.9 31.37 3.97
3.28 13.02 -1.65
7.72 30.67 5.01
4.05 16.1 -1.45
7.91 31.42 6.3
5.51 21.91 -1.18
7.63 30.31 7.22
5.49 21.79 -0.39
6.07 24.13 6.67
1.53 6 -1.66
5.65 22.12 0.4
1.76 6.9 -1.65
6.3 24.64 1.33
2.09 8.17 -1.64
7.48 29.26 2.64
2.55 9.99 -1.63
8.01 31.36 3.97
3.32 13.01 -1.65
7.85 30.74 5.02
4.11 16.08 -1.45
5.38 21.07 -1.14
5.56 21.78 -0.39
6.07 23.78 6.58
1.55 6 -1.66
5.74 22.15 0.4
1.79 6.9 -1.65
6.47 24.98 1.35
2.12 8.16 -1.64
7.59 29.3 2.65
2.59 9.98 -1.63
8.12 31.32 3.97
3.37 13 -1.65
7.94 30.64 5.01
4.16 16.05 -1.45
5.64 21.76 -1.18
8.09 31.2 7.44
5.91 22.8 -0.41
6.17 23.82 6.59
1.58 6 -1.66
5.83 22.17 0.4
1.81 6.89 -1.65
2.14 8.14 -1.64
6.61 25.13 2.27
2.62 9.98 -1.63
8.23 31.29 3.97
3.41 12.98 -1.65
8.04 30.59 5.01
4.21 16.01 -1.45
5.56 21.14 -1.15
8.2 31.19 7.45
6.65 25.3 -0.46
1.6 5.98 -1.66
5.87 22.03 0.4
1.84 6.9 -1.65
9.72 36.44 1.98
2.17 8.14 -1.64
6.79 25.48 2.31
2.66 9.97 -1.63
8.31 31.17 3.96
3.46 12.99 -1.65
8.14 30.52 5
4.26 15.99 -1.45
8.08 30.32 6.1
5.6 20.99 -1.14
10.23 38.36 9.17
5.8 21.74 -0.39
6.5 24.39 6.76
1.62 5.98 -1.66
5.91 21.87 0.4
1.86 6.88 -1.65
7.01 25.94 1.41
2.2 8.13 -1.64
6.94 25.65 2.32
2.69 9.95 -1.63
8.41 31.11 3.96
3.51 12.99 -1.65
9.55 35.3 5.79
4.32 15.97 -1.45
5.65 20.9 -1.13
10.34 38.23 9.14
5.83 21.57 -0.39
6.46 23.87 6.63
1.64 5.98 -1.66
6.83 24.91 0.45
1.88 6.87 -1.64
7.94 28.97 1.57
2.23 8.13 -1.64
8.15 29.73 2.7
2.73 9.94 -1.63
8.52 31.1 3.96
3.57 13 -1.66
8.34 30.44 5
4.37 15.94 -1.45
5.69 20.75 -1.13
10.48 38.22 9.15
5.96 21.75 -0.39
6.57 23.97 6.66
1.66 5.97 -1.66
7.33 26.37 0.48
1.91 6.86 -1.64
7.31 26.31 1.43
2.26 8.12 -1.64
8.26 29.72 2.7
2.76 9.93 -1.63
8.63 31.05 3.96
3.61 12.98 -1.65
8.42 30.32 4.98
4.42 15.91 -1.45
5.73 20.64 -1.12
8.38 30.15 7.22
6.17 22.2 -0.4
6.93 24.95 6.94
1.68 5.96 -1.66
6.83 24.27 0.44
1.93 6.86 -1.65
8.4 29.86 1.63
2.28 8.1 -1.64
8.47 30.09 2.73
2.79 9.93 -1.63
8.73 31.01 3.96
3.65 12.97 -1.65
8.46 30.05 4.94
4.47 15.89 -1.44
8.08 28.69 5.79
5.81 20.66 -1.12
8.45 30.03 7.2
5.92 21.04 -0.38
1.7 5.95 -1.66
6.06 21.23 0.39
1.95 6.85 -1.64
7.1 24.91 1.36
2.31 8.09 -1.64
8.6 30.13 2.74
2.83 9.91 -1.63
8.82 30.92 3.95
3.7 12.96 -1.65
8.88 31.12 5.13
4.52 15.85 -1.44
8.14 28.54 5.77
5.88 20.62 -1.12
8.52 29.85 7.17
6 21.03 -0.38
8.38 29.37 8.18
1.72 5.94 -1.66
6.15 21.29 0.39
1.98 6.84 -1.64
7.31 25.31 1.38
2.34 8.08 -1.64
8.72 30.18 2.75
2.86 9.89 -1.63
8.83 30.56 3.91
3.75 12.96 -1.66
9.28 32.1 5.29
4.57 15.82 -1.44
5.97 20.66 -1.13
6.2 21.44 -0.39
8.52 29.49 8.23
1.74 5.94 -1.66
6.22 21.24 0.39
2 6.83 -1.64
8.9 30.39 1.66
2.36 8.08 -1.64
8.87 30.3 2.76
2.89 9.88 -1.63
7.51 25.66 3.28
3.8 12.99 -1.66
8.97 30.65 5.06
4.62 15.78 -1.44
6 20.49 -1.12
6.2 21.17 -0.39
7.28 24.87 6.94
1.76 5.94 -1.66
6.27 21.13 0.38
2.02 6.82 -1.64
8.47 28.56 1.56
2.39 8.07 -1.64
8.92 30.08 2.75
2.93 9.87 -1.63
7.6 25.63 3.28
3.85 12.98 -1.66
8.86 29.88 4.94
4.67 15.75 -1.44
8.73 29.44 5.97
6.08 20.49 -1.12
6.2 20.91 -0.38
9.09 30.64 8.56
1.78 5.93 -1.66
6.32 21.04 0.38
2.05 6.82 -1.64
6.29 20.95 1.15
2.42 8.05 -1.63
8.99 29.93 2.73
2.97 9.87 -1.63
8.92 29.71 3.81
3.89 12.97 -1.66
8.86 29.5 4.88
4.72 15.7 -1.43
8.84 29.44 5.97
6.15 20.47 -1.12
8.75 29.14 7.02
6.21 20.69 -0.38
6.1 20.3 5.68
1.8 5.91 -1.66
6.45 21.21 0.39
2.07 6.81 -1.64
7.36 24.21 1.33
2.45 8.04 -1.63
9.12 29.99 2.74
3 9.85 -1.63
9.32 30.64 3.93
3.93 12.93 -1.66
8.92 29.31 4.85
4.77 15.67 -1.43
8.87 29.16 5.93
6.16 20.25 -1.11
8.84 29.07 7.01
6.25 20.54 -0.37
7.36 24.2 6.78
1.82 5.9 -1.66
6.49 21.07 0.38
2.1 6.81 -1.64
7.71 25.04 1.37
2.48 8.04 -1.63
9.39 30.47 2.79
3.03 9.83 -1.63
9.44 30.66 3.94
3.98 12.91 -1.66
8.83 28.68 4.75
4.81 15.63 -1.43
8.86 28.76 5.85
6.2 20.12 -1.1
8.95 29.07 7.02
6.27 20.34 -0.37
6.27 20.36 5.71
1.84 5.9 -1.66
6.34 20.32 0.37
2.12 6.79 -1.64
7.88 25.26 1.39
2.5 8.03 -1.64
9.5 30.46 2.79
3.07 9.83 -1.63
9.64 30.91 3.98
4.01 12.87 -1.66
9.54 30.58 5.07
4.87 15.61 -1.43
9.6 30.8 6.27
6.4 20.52 -1.13
7.38 23.66 5.72
6.43 20.62 -0.38
7.48 23.98 6.73
1.86 5.9 -1.66
6.49 20.57 0.38
2.14 6.79 -1.64
7.95 25.18 1.38
2.53 8.02 -1.63
9.54 30.21 2.77
3.1 9.82 -1.63
7.96 25.22 3.25
4.05 12.82 -1.65
9.63 30.51 5.07
4.91 15.57 -1.43
8.92 28.27 5.76
6.3 19.96 -1.1
7.42 23.51 5.69
6.37 20.18 -0.37
6.42 20.33 5.71
1.88 5.9 -1.66
6.59 20.65 0.38
2.16 6.78 -1.64
8.03 25.15 1.38
2.56 8.01 -1.63
8.4 26.32 2.42
3.13 9.81 -1.63
8.03 25.18 3.24
4.07 12.77 -1.65
4.96 15.53 -1.43
8.91 27.9 5.69
6.32 19.81 -1.09
7.48 23.43 5.68
6.39 20.03 -0.37
7.62 23.86 6.71
1.9 5.88 -1.66
6.59 20.39 0.37
2.19 6.77 -1.64
7.89 24.44 1.35
2.58 8 -1.63
8.44 26.12 2.4
3.16 9.79 -1.63
8.12 25.13 3.24
4.11 12.71 -1.64
9.79 30.3 5.04
5 15.48 -1.42
9 27.87 5.69
6.44 19.94 -1.1
9.11 28.2 6.84
6.57 20.33 -0.37
8.19 25.36 7.14
1.92 5.88 -1.66
6.66 20.36 0.37
2.21 6.76 -1.64
7.93 24.25 1.34
2.61 7.99 -1.63
8.14 24.88 2.29
3.2 9.77 -1.63
8.3 25.37 3.28
4.15 12.68 -1.64
9.85 30.12 5.02
5.06 15.46 -1.42
10.06 30.76 6.29
6.5 19.87 -1.1
9.19 28.09 6.82
6.54 20.01 -0.37
9.21 28.16 7.94
1.94 5.87 -1.66
8.08 24.4 0.45
2.23 6.75 -1.64
8.02 24.25 1.34
2.64 7.99 -1.64
8.27 24.98 2.3
3.23 9.75 -1.63
10.37 31.32 4.05
4.18 12.62 -1.63
10 30.23 5.04
5.11 15.43 -1.42
6.54 19.75 -1.09
9.29 28.08 6.83
6.66 20.12 -0.37
9.34 28.21 7.96
1.97 5.87 -1.66
6.65 19.86 0.37
2.26 6.74 -1.64
8.12 24.26 1.34
2.67 7.97 -1.63
8.39 25.08 2.31
3.26 9.75 -1.63
8.43 25.19 3.26
4.21 12.56 -1.63
7.97 23.81 3.98
5.16 15.4 -1.42
6.59 19.68 -1.09
9.37 27.99 6.81
7.46 22.28 6.29
1.98 5.86 -1.66
6.66 19.67 0.36
2.28 6.74 -1.64
8.22 24.28 1.34
2.69 7.96 -1.63
8.5 25.1 2.32
3.3 9.75 -1.63
8.12 23.96 3.11
4.24 12.51 -1.62
8.03 23.71 3.96
5.2 15.34 -1.42
6.43 18.98 -1.05
9.46 27.92 6.81
6.95 20.51 -0.38
2 5.85 -1.66
6.76 19.74 0.36
2.31 6.73 -1.64
2.72 7.95 -1.63
8.71 25.43 2.35
3.33 9.73 -1.63
8.19 23.91 3.1
4.27 12.46 -1.62
8.13 23.74 3.97
5.24 15.3 -1.41
7 20.46 4.2
6.51 19.01 -1.05
9.55 27.89 6.81
6.65 19.42 -0.36
7.53 21.99 6.23
2.02 5.84 -1.66
8.07 23.29 0.43
2.33 6.73 -1.64
8.93 25.78 1.43
2.75 7.94 -1.63
8.63 24.92 2.31
3.36 9.71 -1.63
10.86 31.35 4.07
4.3 12.41 -1.61
5.29 15.29 -1.42
7.07 20.43 4.2
6.63 19.16 -1.06
9.66 27.9 6.82
6.79 19.61 -0.36
7.65 22.09 6.26
2.05 5.85 -1.66
7.01 20.02 0.37
2.35 6.71 -1.64
8.74 24.96 1.39
2.78 7.93 -1.63
8.73 24.94 2.31
3.4 9.69 -1.63
8.36 23.86 3.1
4.33 12.37 -1.61
8.68 24.78 4.16
5.34 15.25 -1.41
12.25 34.99 7.21
6.66 19.03 -1.06
7.19 20.53 5.02
6.9 19.69 -0.36
8.07 23.03 6.54
2.07 5.84 -1.66
6.97 19.68 0.36
2.37 6.7 -1.64
8.36 23.61 1.31
2.8 7.92 -1.63
8.88 25.08 2.33
3.43 9.68 -1.63
8.38 23.66 3.08
4.36 12.31 -1.6
8.73 24.64 4.14
5.39 15.22 -1.41
8.53 24.08 4.96
6.81 19.24 -1.07
15.04 42.47 10.4
7.23 20.41 -0.38
7.7 21.75 6.18
2.09 5.83 -1.66
8.34 23.29 0.43
2.4 6.69 -1.64
8.46 23.62 1.31
2.83 7.9 -1.63
8.93 24.93 2.32
3.46 9.68 -1.63
8.58 23.95 3.12
4.39 12.27 -1.6
8.8 24.57 4.13
5.44 15.19 -1.41
8.67 24.22 5
6.9 19.26 -1.07
7.11 19.85 4.87
7.17 20.02 -0.37
7.77 21.69 6.17
2.1 5.81 -1.65
8.47 23.39 0.43
2.42 6.69 -1.64
8.52 23.54 1.31
2.86 7.89 -1.63
8.35 23.07 2.15
3.5 9.67 -1.63
8.19 22.63 2.96
4.42 12.22 -1.6
8.93 24.67 4.16
5.48 15.14 -1.41
6.97 19.25 -1.07
7.01 19.36 4.75
7.11 19.65 -0.36
2.12 5.8 -1.66
8.59 23.49 0.44
2.45 6.69 -1.64
8.65 23.64 1.32
2.88 7.88 -1.63
8.4 22.97 2.14
3.53 9.64 -1.63
8.26 22.58 2.95
4.45 12.18 -1.59
9.06 24.78 4.18
5.53 15.11 -1.41
6.96 19.04 -1.06
7.16 19.57 4.81
8.42 23.02 -0.43
7.57 20.69 5.9
2.14 5.8 -1.66
8.75 23.67 0.44
2.46 6.66 -1.64
8.72 23.59 1.32
2.91 7.88 -1.63
8.55 23.14 2.16
3.56 9.64 -1.63
8.87 23.98 3.14
4.49 12.13 -1.59
8.8 23.81 4.02
5.57 15.08 -1.41
9.02 24.41 5.06
6.98 18.88 -1.05
7.34 19.86 4.89
7.1 19.2 -0.36
2.16 5.8 -1.66
9.22 24.69 0.46
2.49 6.66 -1.64
8.89 23.79 1.33
2.94 7.87 -1.63
8.62 23.07 2.15
3.59 9.62 -1.63
8.99 24.08 3.16
4.51 12.09 -1.58
8.91 23.85 4.03
5.61 15.03 -1.4
9.12 24.43 5.07
6.98 18.68 -1.04
7.01 18.77 -0.35
8.42 22.55 6.45
2.19 5.79 -1.66
9.04 23.96 0.45
2.51 6.65 -1.64
9.01 23.87 1.34
2.96 7.85 -1.63
8.69 23.01 2.15
3.63 9.62 -1.63
9.11 24.15 3.17
4.55 12.06 -1.58
9.05 23.98 4.06
5.65 14.98 -1.4
9.12 24.16 5.02
7.08 18.75 -1.05
7.09 18.79 -0.35
8.48 22.46 6.43
2.2 5.77 -1.65
7.95 20.85 0.39
2.54 6.65 -1.64
9.09 23.82 1.34
2.99 7.84 -1.63
8.83 23.15 2.17
3.66 9.61 -1.63
9.3 24.39 3.2
4.59 12.03 -1.58
9.08 23.79 4.03
5.71 14.96 -1.4
9.16 24.02 5
7.16 18.77 -1.05
7.47 19.58 4.84
7.11 18.63 -0.35
2.22 5.76 -1.66
7.2 18.68 0.35
2.56 6.64 -1.64
9.12 23.67 1.33
3.02 7.83 -1.63
8.92 23.13 2.17
3.69 9.58 -1.63
8.51 22.08 2.91
4.63 12.01 -1.58
9.18 23.82 4.04
5.76 14.93 -1.4
9.27 24.04 5.01
7.26 18.83 -1.06
9.41 24.41 6.04
7.14 18.53 -0.35
6.51 16.89 4.85
2.24 5.76 -1.66
7.29 18.72 0.35
2.58 6.62 -1.64
9.19 23.6 1.33
3.05 7.82 -1.63
9.05 23.24 2.18
3.73 9.57 -1.63
8.58 22.02 2.9
4.66 11.98 -1.58
9.56 24.55 4.17
5.82 14.93 -1.4
9.35 24 5.01
7.17 18.41 -1.04
9.58 24.59 6.09
7.28 18.68 -0.35
8.67 22.25 6.4
2.27 5.76 -1.66
9.05 23 0.43
2.6 6.61 -1.64
7.18 18.25 1.03
3.07 7.81 -1.63
9.2 23.39 2.2
3.77 9.57 -1.63
9.64 24.5 3.23
4.7 11.95 -1.58
9.66 24.55 4.18
5.86 14.9 -1.4
9.38 23.84 4.98
7.39 18.77 -1.06
9.76 24.81 6.15
7.16 18.2 -0.34
8.73 22.19 6.39
2.29 5.75 -1.66
9 22.63 0.43
2.63 6.61 -1.64
7.53 18.93 1.07
3.1 7.79 -1.63
9.39 23.61 2.22
3.8 9.57 -1.63
9.44 23.76 3.14
4.74 11.93 -1.58
11.15 28.05 4.78
5.91 14.87 -1.4
7.48 18.8 -1.06
7.93 19.95 -0.37
7.98 20.07 5.79
2.3 5.73 -1.65
8.48 21.12 0.4
2.65 6.6 -1.64
7.27 18.09 1.02
3.12 7.77 -1.63
9.27 23.09 2.18
3.84 9.55 -1.63
9.76 24.31 3.22
4.79 11.92 -1.58
9.54 23.76 4.06
5.96 14.84 -1.4
11.04 27.48 5.76
7.69 19.14 -1.08
9.43 23.47 5.84
7.38 18.37 -0.35
8.05 20.05 5.79
2.32 5.72 -1.65
7.99 19.7 0.37
2.67 6.58 -1.64
9.57 23.6 1.33
3.15 7.77 -1.63
9.72 23.96 2.26
3.86 9.52 -1.63
9.95 24.53 3.25
4.83 11.9 -1.58
9.6 23.66 4.04
6.01 14.81 -1.4
8.22 20.27 4.25
7.6 18.74 -1.06
7.91 19.51 -0.37
8.13 20.05 5.8
2.34 5.72 -1.66
9.33 22.76 0.43
2.69 6.57 -1.64
8.06 19.66 1.11
3.18 7.76 -1.63
9.89 24.15 2.28
3.9 9.53 -1.63
10.9 26.61 3.53
4.86 11.86 -1.57
9.74 23.77 4.07
6.06 14.79 -1.4
10.71 26.14 5.49
7.65 18.67 -1.06
7.6 18.54 -0.35
8.2 20.01 5.79
2.36 5.71 -1.66
7.78 18.81 0.36
2.72 6.57 -1.64
9.56 23.11 1.31
3.21 7.76 -1.63
10.96 26.5 2.51
3.93 9.51 -1.63
9.51 23 3.06
4.89 11.82 -1.57
11.11 26.85 4.6
6.11 14.76 -1.4
7.77 18.78 -1.06
7.65 18.48 -0.35
12.07 29.17 8.46
2.38 5.7 -1.66
9.65 23.1 0.44
2.74 6.56 -1.64
8.07 19.31 1.1
3.23 7.73 -1.63
9.28 22.22 2.11
3.98 9.52 -1.63
9.59 22.95 3.05
4.93 11.79 -1.57
11.22 26.87 4.61
6.15 14.74 -1.4
7.76 18.58 -1.06
7.78 18.62 -0.35
2.4 5.69 -1.65
7.88 18.69 0.35
2.77 6.56 -1.64
8.05 19.09 1.09
3.26 7.72 -1.63
9.39 22.26 2.11
4.01 9.5 -1.63
9.66 22.91 3.05
4.98 11.8 -1.57
11.4 27.03 4.65
6.2 14.7 -1.4
8.83 20.92 4.41
7.98 18.91 -1.08
7.74 18.36 -0.35
2.42 5.69 -1.66
8.06 18.91 0.36
2.79 6.54 -1.64
9.76 22.9 1.3
3.28 7.71 -1.63
9.5 22.3 2.12
4.04 9.49 -1.63
9.76 22.9 3.06
5.01 11.77 -1.57
10.27 24.12 4.15
6.25 14.66 -1.39
8.92 20.95 4.43
7.86 18.46 -1.05
7.82 18.37 -0.35
2.44 5.68 -1.66
11.62 27.04 0.51
2.8 6.52 -1.64
7.97 18.53 1.06
3.32 7.71 -1.63
10.32 24 2.29
4.08 9.48 -1.63
10.29 23.94 3.2
5.05 11.74 -1.57
8.9 20.71 3.57
6.29 14.64 -1.39
8.45 19.65 -1.12
8.4 19.53 -0.37
9.82 22.84 6.66
2.46 5.67 -1.66
8.16 18.8 0.36
2.83 6.51 -1.64
9.79 22.55 1.29
3.34 7.7 -1.63
11.36 26.18 2.5
4.11 9.47 -1.64
10.36 23.88 3.2
5.07 11.69 -1.56
10.42 24 4.14
6.34 14.61 -1.39
11.41 26.29 5.57
7.83 18.04 -1.03
7.91 18.22 -0.35
14.35 33.07 9.66
2.48 5.66 -1.65
8.16 18.64 0.36
2.85 6.51 -1.64
9.75 22.26 1.27
3.36 7.68 -1.63
10.53 24.04 2.3
4.15 9.47 -1.64
10.41 23.77 3.19
5.11 11.66 -1.56
10.95 25 4.32
6.39 14.58 -1.39
11.99 27.37 5.81
8.26 18.87 -1.08
8.77 20.03 5.05
8.44 19.27 -0.37
7.55 17.24 5.04
2.49 5.64 -1.65
7.98 18.05 0.34
2.88 6.5 -1.64
8.29 18.76 1.08
3.39 7.67 -1.63
10.61 24.01 2.3
4.18 9.46 -1.64
10.49 23.73 3.19
5.14 11.63 -1.56
11.08 25.07 4.34
6.42 14.53 -1.39
7.6 17.19 3.65
8.71 19.69 -1.13
8.37 18.94 -0.36
8.32 18.81 5.51
2.51 5.63 -1.65
8 17.93 0.34
2.9 6.49 -1.64
9.94 22.27 1.28
3.42 7.67 -1.63
9.52 21.33 2.04
4.21 9.44 -1.64
10.41 23.33 3.14
5.18 11.61 -1.56
12.07 27.05 4.69
6.47 14.5 -1.39
11.92 26.71 5.68
7.98 17.88 -1.03
9.57 21.44 5.42
8.4 18.82 -0.36
2.54 5.63 -1.65
8.18 18.17 0.35
2.91 6.47 -1.64
11.11 24.66 1.42
3.45 7.66 -1.63
10.71 23.78 2.28
4.25 9.43 -1.64
10.46 23.22 3.13
5.22 11.58 -1.56
12.2 27.08 4.7
6.53 14.49 -1.39
9.49 21.07 4.49
8.03 17.82 -1.02
9.61 21.33 5.4
9.48 21.05 -0.4
2.56 5.63 -1.66
8.46 18.58 0.36
2.94 6.46 -1.64
11.16 24.53 1.41
3.48 7.65 -1.63
8.47 18.61 1.79
4.29 9.42 -1.64
10.53 23.14 3.12
5.25 11.53 -1.56
9.35 20.55 3.58
6.58 14.46 -1.39
8.23 18.09 3.86
8.73 19.18 -1.1
9.69 21.29 5.4
8.15 17.9 -0.34
2.58 5.61 -1.65
8.09 17.6 0.34
2.97 6.46 -1.64
11.29 24.58 1.42
3.5 7.63 -1.63
8.47 18.45 1.78
4.32 9.41 -1.64
10.6 23.08 3.12
5.29 11.51 -1.56
6.62 14.41 -1.39
8.28 18.03 3.86
8.23 17.93 -1.03
11.9 25.91 6.58
8.23 17.93 -0.34
2.59 5.6 -1.65
8.66 18.71 0.36
2.99 6.46 -1.64
7.94 17.14 0.99
3.53 7.63 -1.63
10.9 23.54 2.27
4.34 9.38 -1.64
12.26 26.48 3.58
5.31 11.47 -1.55
8.56 18.48 3.23
6.66 14.37 -1.39
11.97 25.85 5.54
8.36 18.05 -1.04
7.76 16.75 4.26
8.14 17.58 -0.34
13.54 29.24 8.63
2.61 5.59 -1.65
8.38 17.92 0.35
3.01 6.44 -1.64
9.91 21.2 1.23
3.56 7.62 -1.63
10.99 23.51 2.27
4.38 9.37 -1.64
12.33 26.39 3.58
5.35 11.45 -1.55
6.71 14.35 -1.39
8.42 18.02 -1.04
8.44 18.06 -0.35
7.53 16.11 4.76
2.63 5.58 -1.65
8.51 18.05 0.35
3.03 6.43 -1.64
12 25.45 1.47
3.59 7.62 -1.64
11.1 23.53 2.28
4.42 9.36 -1.64
12.44 26.38 3.58
5.39 11.43 -1.55
12.45 26.4 4.62
6.75 14.31 -1.38
8.48 17.97 3.86
8.43 17.88 -1.04
7.87 16.69 4.26
8.45 17.91 -0.35
7.44 15.77 4.67
2.65 5.58 -1.65
8.67 18.23 0.35
3.06 6.42 -1.64
9.79 20.57 1.19
3.62 7.6 -1.64
12.8 26.9 2.61
4.45 9.34 -1.64
5.42 11.39 -1.55
6.79 14.27 -1.38
8.45 17.75 -1.03
8.25 17.33 -0.33
12.27 25.79 7.65
2.67 5.57 -1.65
8.75 18.22 0.35
3.08 6.42 -1.64
12.32 25.65 1.49
3.64 7.57 -1.63
11.35 23.62 2.29
4.48 9.33 -1.64
5.46 11.37 -1.55
6.84 14.23 -1.38
9.44 19.64 4.24
8.81 18.34 -0.36
12.35 25.71 7.64
2.69 5.55 -1.65
8.71 17.98 0.35
3.11 6.41 -1.64
10.1 20.84 1.21
3.67 7.57 -1.64
13 26.83 2.61
4.52 9.33 -1.64
8.08 16.67 2.27
5.49 11.34 -1.55
8.86 18.28 3.22
6.88 14.19 -1.38
8.85 18.27 3.95
7.64 15.75 -0.92
12.46 25.71 6.6
8.67 17.9 -0.35
2.71 5.55 -1.65
9 18.41 0.36
3.13 6.4 -1.64
10.15 20.78 1.21
3.7 7.57 -1.64
11.38 23.28 2.27
4.55 9.3 -1.64
5.53 11.32 -1.55
6.92 14.16 -1.38
8.29 16.97 3.67
7.69 15.73 -0.92
12.55 25.68 6.6
8.97 18.35 -0.36
2.73 5.53 -1.65
8.84 17.94 0.35
3.14 6.38 -1.64
12.38 25.12 1.47
3.73 7.56 -1.64
9.78 19.85 1.94
4.57 9.27 -1.64
5.56 11.28 -1.54
6.95 14.09 -1.37
12.64 25.64 5.56
7.77 15.76 -0.92
8.86 17.98 -0.35
7.75 15.73 4.7
2.75 5.53 -1.66
8.15 16.39 0.32
3.17 6.37 -1.64
8.43 16.95 0.99
3.75 7.54 -1.64
9.28 18.66 1.82
4.61 9.26 -1.64
8.31 16.7 2.29
5.6 11.25 -1.54
12.78 25.69 4.54
6.99 14.05 -1.37
9.02 18.13 3.94
7.83 15.73 -0.92
16.1 32.36 8.35
8.95 18 -0.35
7.82 15.71 4.7
2.77 5.52 -1.65
13.25 26.4 0.52
3.19 6.36 -1.64
12.62 25.14 1.47
3.78 7.53 -1.64
14.78 29.45 2.88
4.64 9.25 -1.64
5.63 11.23 -1.54
12.87 25.64 4.54
7.04 14.04 -1.37
9.34 18.6 4.05
7.9 15.73 -0.92
8.95 17.84 -0.35
16.6 33.08 9.92
2.78 5.5 -1.65
8.06 15.93 0.31
3.21 6.35 -1.64
14.84 29.34 1.72
3.8 7.52 -1.64
15.12 29.88 2.93
4.67 9.24 -1.64
12.97 25.64 3.53
5.67 11.2 -1.54
8.51 16.81 2.98
7.07 13.97 -1.37
10.28 20.31 4.42
7.94 15.68 -0.92
9.94 19.65 5.08
9.09 17.96 -0.35
16.67 32.94 9.89
2.8 5.49 -1.65
8.02 15.71 0.31
3.23 6.34 -1.64
8.06 15.8 0.93
3.84 7.52 -1.64
14.9 29.19 2.87
4.7 9.2 -1.64
13.07 25.6 3.53
5.71 11.19 -1.54
8.58 16.81 2.99
7.11 13.92 -1.37
10.34 20.26 4.42
8.04 15.75 -0.93
10.05 19.69 5.1
8.95 17.54 -0.34
2.82 5.48 -1.65
8.05 15.65 0.31
3.25 6.32 -1.64
10.39 20.19 1.19
3.87 7.51 -1.64
13.16 25.57 2.52
4.73 9.2 -1.64
9.92 19.27 2.66
5.74 11.15 -1.54
7.14 13.87 -1.37
9.2 17.87 3.91
8.11 15.75 -0.93
16.83 32.7 8.49
8.02 15.58 -0.31
14.86 28.86 8.7
2.84 5.47 -1.65
8.11 15.62 0.31
3.28 6.31 -1.64
9.11 17.54 1.04
3.89 7.5 -1.64
13.25 25.52 2.52
4.76 9.17 -1.64
16.73 32.21 4.46
5.77 11.12 -1.54
16.78 32.31 5.77
7.19 13.85 -1.37
9.38 18.07 3.96
8.15 15.69 -0.93
8.08 15.56 -0.31
8.33 16.03 4.84
2.86 5.46 -1.65
8.26 15.79 0.31
13.32 25.44 1.5
3.91 7.48 -1.64
8.21 15.69 1.55
4.79 9.16 -1.64
16.81 32.11 4.45
5.8 11.09 -1.54
8.45 16.14 2.89
7.22 13.8 -1.36
9.04 17.27 3.79
8.1 15.48 -0.92
8.14 15.55 -0.31
8.49 16.22 4.91
2.88 5.45 -1.65
8.27 15.67 0.31
3.33 6.31 -1.65
13.42 25.43 1.51
3.94 7.46 -1.64
8.24 15.61 1.54
4.83 9.15 -1.64
8.41 15.94 2.21
5.84 11.06 -1.54
9.01 17.08 3.06
7.25 13.74 -1.36
14.93 28.28 6.22
7.94 15.04 -0.89
8.56 16.22 4.23
8.22 15.58 -0.31
8.76 16.59 5.03
2.9 5.44 -1.65
8.31 15.6 0.31
3.35 6.29 -1.65
8.29 15.57 0.92
3.98 7.47 -1.64
8.3 15.59 1.55
4.85 9.12 -1.64
15.41 28.94 4.03
5.87 11.02 -1.53
8.91 16.74 3
7.28 13.68 -1.36
9.12 17.13 3.77
7.97 14.98 -0.89
10 18.78 4.91
8.27 15.53 -0.31
10.45 19.64 5.96
2.92 5.44 -1.65
8.27 15.4 0.31
3.37 6.28 -1.64
9.76 18.19 1.08
4.01 7.47 -1.65
8.36 15.57 1.55
4.89 9.11 -1.64
8.56 15.94 2.22
5.91 11 -1.53
10.13 18.87 3.39
7.32 13.64 -1.35
16.2 30.17 6.66
8.04 14.98 -0.89
10.11 18.83 4.93
8.34 15.53 -0.31
8.96 16.7 5.08
2.94 5.43 -1.66
8.31 15.35 0.3
3.39 6.25 -1.64
8.25 15.24 0.91
4.03 7.44 -1.64
15.74 29.07 2.89
4.92 9.09 -1.64
10.59 19.56 2.73
5.94 10.97 -1.53
10.57 19.53 3.52
7.36 13.59 -1.35
10.55 19.48 4.31
8.4 15.52 -0.93
10.19 18.82 4.94
8.38 15.49 -0.31
10.47 19.35 5.89
2.96 5.42 -1.66
8.36 15.31 0.3
3.41 6.24 -1.64
14.26 26.12 1.56
4.04 7.41 -1.64
10.06 18.44 1.84
4.95 9.07 -1.64
8.63 15.81 2.21
5.98 10.95 -1.53
10.59 19.4 3.5
7.4 13.56 -1.35
10.59 19.39 4.29
8.41 15.4 -0.92
10.58 19.38 5.1
8.42 15.43 -0.31
10.59 19.39 5.92
2.97 5.4 -1.65
8.38 15.23 0.3
3.43 6.24 -1.64
10.71 19.47 1.16
4.08 7.41 -1.64
10.66 19.36 1.93
4.98 9.05 -1.64
10.65 19.34 2.71
6.02 10.94 -1.53
10.66 19.36 3.5
7.43 13.51 -1.35
10.65 19.35 4.29
8.49 15.42 -0.92
10.66 19.37 5.1
8.48 15.41 -0.31
9.97 18.11 5.54
2.99 5.39 -1.65
8.43 15.19 0.3
3.46 6.23 -1.65
8.59 15.48 0.93
4.1 7.39 -1.64
10.71 19.29 1.93
5.01 9.02 -1.63
10.71 19.31 2.71
6.05 10.91 -1.53
9.08 16.36 2.96
7.47 13.46 -1.35
10.19 18.36 4.08
8.5 15.31 -0.92
10.75 19.36 5.11
8.5 15.32 -0.31
10.03 18.08 5.54
3.01 5.37 -1.65
8.58 15.33 0.31
3.47 6.21 -1.64
5.21 9.31 0.56
4.12 7.37 -1.64
10.79 19.28 1.93
5.04 9 -1.63
10.79 19.29 2.71
6.09 10.89 -1.53
10.81 19.31 3.51
7.51 13.43 -1.35
10.81 19.33 4.31
8.55 15.27 -0.92
10.88 19.44 5.14
8.46 15.13 -0.3
16.13 28.82 8.85
8.53 15.11 0.3
3.5 6.21 -1.65
4.15 7.35 -1.64
10.88 19.28 1.94
5.07 8.98 -1.63
10.89 19.31 2.72
6.13 10.86 -1.53
10.93 19.38 3.52
7.55 13.39 -1.34
16.61 29.44 6.57
8.56 15.17 -0.91
15.86 28.12 7.45
8.5 15.07 -0.3
10.79 19.13 5.88
3.05 5.37 -1.65
8.57 15.07 0.3
3.52 6.19 -1.64
5.36 9.43 0.57
4.17 7.33 -1.64
9.19 16.15 1.63
5.11 8.98 -1.64
16.51 29.02 4.1
6.16 10.82 -1.53
15.6 27.43 5
7.59 13.34 -1.34
16.53 29.06 6.5
8.64 15.18 -0.92
10.34 18.18 4.83
8.53 14.99 -0.3
10.86 19.09 5.88
3.07 5.35 -1.65
10.95 19.1 0.38
3.55 6.18 -1.65
5.39 9.4 0.57
4.2 7.32 -1.64
9.25 16.14 1.63
5.14 8.96 -1.64
9.4 16.4 2.32
6.19 10.8 -1.53
9.19 16.03 2.93
7.62 13.29 -1.34
16.31 28.44 6.37
4.84 8.45 -0.51
10.44 18.2 4.84
8.61 15.02 -0.3
9.48 16.54 5.11
3.09 5.34 -1.65
11.01 19.05 0.38
3.57 6.17 -1.65
11.05 19.12 1.16
4.21 7.3 -1.64
9.29 16.08 1.62
5.15 8.92 -1.63
11.05 19.13 2.71
5.11 8.84 -1.25
10.78 18.67 3.42
4.84 8.38 -0.85
10.56 18.29 4.11
4.68 8.1 -0.49
9.35 16.18 4.31
4.73 8.19 -0.17
3.11 5.33 -1.65
3.59 6.16 -1.65
9.58 16.45 1
4.24 7.28 -1.64
11.1 19.06 1.93
5.19 8.91 -1.63
11.09 19.04 2.71
4.66 8.01 -1.14
10.82 18.59 3.41
4.71 8.09 -0.82
10.61 18.22 4.1
4.59 7.88 -0.48
10.06 17.28 4.62
4.63 7.94 -0.16
3.13 5.33 -1.66
4.85 8.27 0.17
3.61 6.14 -1.64
9.61 16.38 1
4.26 7.26 -1.64
11.18 19.04 1.93
5.22 8.89 -1.63
11.16 19.02 2.71
4.63 7.89 -1.12
11.18 19.05 3.5
4.65 7.92 -0.8
16.64 28.36 6.39
4.53 7.71 -0.47
4.61 7.85 -0.16
9.38 15.97 4.96
3.14 5.32 -1.65
3.63 6.13 -1.64
5.18 8.76 0.53
4.28 7.24 -1.63
9.7 16.4 1.67
5.25 8.87 -1.63
9.53 16.11 2.3
4.61 7.79 -1.11
11.23 18.99 3.49
4.49 7.58 -0.77
4.51 7.63 -0.46
9.89 16.72 4.49
4.56 7.71 -0.16
9.89 16.72 5.21
3.16 5.29 -1.65
5.57 9.34 0.19
3.66 6.13 -1.65
4.94 8.28 0.51
4.31 7.22 -1.63
11.46 19.21 1.96
5.28 8.85 -1.63
9.51 15.94 2.28
4.63 7.76 -1.11
16.96 28.43 5.24
4.49 7.53 -0.77
12.09 20.28 4.59
4.54 7.62 -0.46
9.53 15.99 4.3
4.55 7.63 -0.16
7.9 13.24 4.13
3.18 5.29 -1.65
5.61 9.33 0.19
3.67 6.11 -1.65
4.34 7.22 -1.64
11.49 19.12 1.95
5.31 8.83 -1.63
11.51 19.15 2.74
11.55 19.22 3.55
4.5 7.49 -0.76
7.94 13.2 2.99
4.53 7.54 -0.46
7.94 13.21 3.56
4.55 7.57 -0.15
7.92 13.17 4.12
3.2 5.28 -1.65
5.61 9.26 0.19
3.69 6.09 -1.64
5.61 9.26 0.57
4.36 7.2 -1.64
4.66 7.7 0.79
5.33 8.8 -1.63
8 13.2 1.89
4.59 7.57 -1.09
7.99 13.19 2.44
4.52 7.47 -0.76
7.98 13.17 2.99
4.54 7.5 -0.46
7.98 13.18 3.56
4.57 7.54 -0.15
7.97 13.16 4.12
3.22 5.28 -1.66
4.63 7.58 0.15
3.7 6.07 -1.64
5.61 9.19 0.56
4.38 7.18 -1.63
4.69 7.67 0.79
5.36 8.78 -1.63
8.04 13.17 1.89
4.55 7.45 -1.07
8.04 13.17 2.44
4.54 7.44 -0.76
8.03 13.16 3
4.57 7.49 -0.46
11.65 19.08 5.16
4.58 7.51 -0.15
11.7 19.15 6.01
3.24 5.26 -1.66
4.61 7.49 0.15
3.73 6.05 -1.64
5.29 8.59 0.53
4.4 7.15 -1.63
4.71 7.65 0.79
5.39 8.76 -1.63
11.72 19.05 2.75
4.57 7.43 -1.07
11.7 19.02 3.54
4.57 7.42 -0.76
11.7 19.01 4.34
4.6 7.47 -0.46
11.71 19.03 5.16
4.6 7.48 -0.15
11.71 19.03 5.99
3.26 5.25 -1.66
4.64 7.47 0.15
3.75 6.05 -1.64
4.67 7.53 0.46
4.43 7.14 -1.63
5.43 8.75 0.9
5.42 8.74 -1.63
11.85 19.1 2.76
4.6 7.42 -1.07
11.81 19.04 3.55
4.58 7.39 -0.76
11.78 19 4.35
4.63 7.46 -0.46
11.8 19.02 5.17
4.63 7.47 -0.15
11.77 18.98 5.98
3.27 5.24 -1.66
4.66 7.46 0.15
3.78 6.04 -1.64
4.68 7.48 0.46
4.45 7.12 -1.63
5.58 8.92 0.92
5.44 8.71 -1.63
10.26 16.42 2.38
4.62 7.4 -1.07
11.96 19.13 3.57
4.65 7.44 -0.77
11.89 19.03 4.36
4.66 7.45 -0.46
10.25 16.4 4.46
4.66 7.45 -0.15
11.85 18.97 5.99
3.3 5.23 -1.66
4.68 7.44 0.15
3.79 6.02 -1.64
4.71 7.47 0.46
4.48 7.11 -1.63
4.82 7.65 0.79
5.48 8.7 -1.63
