# .PCD v0.7 - Point Cloud Data file format
VERSION 0.7
FIELDS x y z
SIZE 4 4 4
TYPE F F F
COUNT 1 1 1
WIDTH 2826
HEIGHT 1
VIEWPOINT 0 0 0 1 0 0 0
POINTS 2826
DATA ascii
37.8 22.23 3.84
8.49 4.99 -1.56
37.71 22.18 5.37
10.72 6.3 -1.53
14.31 8.42 -1.45
21.39 12.58 -1.3
38.2 22.47 -0.77
5.26 3.07 -1.63
6.04 3.53 -1.62
7.06 4.12 -1.59
8.5 4.96 -1.56
10.74 6.26 -1.53
14.34 8.36 -1.45
21.53 12.56 -1.31
38.22 22.3 -0.77
5.27 3.05 -1.63
41.02 23.74 0.83
6.05 3.5 -1.61
7.07 4.09 -1.59
8.52 4.93 -1.56
10.75 6.22 -1.52
14.37 8.32 -1.45
21.65 12.53 -1.31
38.47 22.26 -0.78
5.28 3.03 -1.63
6.07 3.48 -1.61
7.09 4.07 -1.59
8.53 4.9 -1.56
10.77 6.19 -1.53
14.4 8.27 -1.45
21.77 12.5 -1.32
5.3 3.02 -1.63
6.08 3.46 -1.61
7.11 4.05 -1.59
8.56 4.88 -1.56
10.79 6.15 -1.52
14.43 8.22 -1.45
21.82 12.43 -1.32
5.31 3 -1.64
6.09 3.44 -1.62
7.11 4.02 -1.59
8.58 4.85 -1.56
10.82 6.11 -1.53
14.46 8.17 -1.45
21.9 12.38 -1.32
5.31 2.98 -1.63
6.11 3.42 -1.62
7.12 3.99 -1.59
8.6 4.82 -1.56
10.84 6.07 -1.53
14.48 8.12 -1.45
21.98 12.32 -1.32
5.32 2.96 -1.63
6.13 3.41 -1.62
7.15 3.97 -1.59
8.6 4.78 -1.56
10.85 6.03 -1.52
14.52 8.07 -1.45
22.05 12.26 -1.32
5.34 2.94 -1.63
6.13 3.38 -1.62
7.15 3.94 -1.59
8.62 4.75 -1.56
10.88 6 -1.53
14.55 8.02 -1.45
22.08 12.18 -1.32
5.36 2.93 -1.64
6.15 3.36 -1.62
7.18 3.93 -1.59
8.65 4.73 -1.56
10.9 5.96 -1.52
14.6 7.98 -1.46
22.17 12.13 -1.32
5.36 2.91 -1.64
6.17 3.34 -1.62
7.18 3.89 -1.59
8.67 4.7 -1.56
10.91 5.92 -1.52
14.62 7.93 -1.45
22.2 12.04 -1.32
5.36 2.88 -1.63
6.19 3.33 -1.62
7.2 3.87 -1.59
8.67 4.66 -1.56
10.94 5.88 -1.53
14.64 7.87 -1.45
22.26 11.97 -1.32
5.38 2.87 -1.63
6.19 3.3 -1.62
7.22 3.85 -1.59
8.69 4.64 -1.56
10.97 5.85 -1.53
14.67 7.83 -1.45
22.37 11.94 -1.33
5.39 2.85 -1.63
6.19 3.28 -1.62
7.24 3.83 -1.59
8.71 4.61 -1.56
10.99 5.81 -1.53
14.71 7.78 -1.46
22.34 11.82 -1.32
5.41 2.84 -1.64
6.21 3.26 -1.62
7.25 3.81 -1.59
8.73 4.58 -1.56
11.01 5.78 -1.53
14.74 7.73 -1.46
22.42 11.76 -1.33
5.42 2.82 -1.64
6.23 3.24 -1.62
7.25 3.77 -1.59
8.75 4.55 -1.56
11.03 5.74 -1.53
14.78 7.69 -1.46
22.49 11.7 -1.33
5.41 2.79 -1.63
47.8 24.66 0.94
6.24 3.22 -1.62
7.27 3.75 -1.59
8.76 4.52 -1.56
11.06 5.71 -1.53
14.81 7.64 -1.46
22.53 11.63 -1.33
5.43 2.78 -1.64
6.26 3.2 -1.62
7.29 3.73 -1.59
8.77 4.49 -1.56
11.11 5.68 -1.53
14.83 7.59 -1.46
22.58 11.55 -1.33
5.44 2.76 -1.63
6.26 3.18 -1.62
7.3 3.71 -1.59
8.79 4.46 -1.56
11.11 5.64 -1.53
14.87 7.54 -1.46
22.61 11.47 -1.33
5.45 2.74 -1.64
6.28 3.16 -1.62
7.32 3.68 -1.59
8.8 4.42 -1.56
11.14 5.6 -1.53
14.9 7.49 -1.46
22.66 11.39 -1.33
5.46 2.72 -1.64
6.29 3.14 -1.62
7.33 3.65 -1.59
8.82 4.39 -1.56
11.16 5.56 -1.53
14.92 7.43 -1.46
22.73 11.32 -1.33
5.47 2.7 -1.63
6.31 3.11 -1.62
7.35 3.63 -1.59
8.84 4.36 -1.56
11.18 5.52 -1.53
14.95 7.38 -1.46
22.83 11.27 -1.33
5.47 2.68 -1.63
6.32 3.1 -1.62
7.37 3.61 -1.59
8.84 4.33 -1.56
11.21 5.49 -1.53
15 7.35 -1.46
22.82 11.18 -1.33
5.48 2.66 -1.63
6.32 3.07 -1.62
7.39 3.58 -1.6
8.86 4.3 -1.56
11.22 5.45 -1.53
15.02 7.29 -1.46
22.99 11.16 -1.34
5.5 2.64 -1.64
6.33 3.05 -1.62
7.4 3.56 -1.6
8.88 4.27 -1.56
11.24 5.41 -1.53
15.07 7.25 -1.46
5.51 2.63 -1.64
6.35 3.03 -1.62
7.41 3.53 -1.6
8.9 4.24 -1.56
11.25 5.36 -1.53
15.1 7.19 -1.46
5.51 2.6 -1.63
6.37 3.01 -1.63
7.43 3.51 -1.6
8.91 4.21 -1.56
11.29 5.33 -1.53
15.11 7.14 -1.46
23.11 10.91 -1.34
5.52 2.58 -1.63
6.38 2.98 -1.63
7.44 3.48 -1.6
8.92 4.17 -1.56
11.32 5.29 -1.53
15.14 7.08 -1.46
23.15 10.83 -1.34
5.54 2.57 -1.64
6.38 2.96 -1.62
7.46 3.46 -1.6
8.94 4.15 -1.56
11.33 5.26 -1.53
15.17 7.04 -1.46
5.56 2.55 -1.64
6.39 2.94 -1.62
7.47 3.43 -1.6
8.96 4.12 -1.56
11.34 5.21 -1.53
15.21 6.99 -1.46
5.56 2.53 -1.64
6.41 2.92 -1.63
7.48 3.41 -1.6
8.98 4.09 -1.56
11.37 5.18 -1.53
15.23 6.94 -1.46
5.56 2.51 -1.63
6.43 2.9 -1.63
7.49 3.38 -1.6
8.99 4.06 -1.56
11.4 5.14 -1.54
15.26 6.89 -1.46
5.56 2.49 -1.63
6.44 2.88 -1.63
7.51 3.36 -1.6
9 4.03 -1.56
11.41 5.1 -1.54
15.3 6.84 -1.47
5.58 2.47 -1.64
6.43 2.85 -1.62
7.53 3.33 -1.6
9.02 3.99 -1.56
11.44 5.06 -1.54
15.33 6.78 -1.47
5.59 2.45 -1.64
6.45 2.83 -1.63
7.53 3.31 -1.6
9.03 3.96 -1.56
11.44 5.02 -1.53
15.37 6.75 -1.47
5.6 2.43 -1.64
6.46 2.81 -1.63
7.55 3.28 -1.6
9.05 3.93 -1.56
11.47 4.98 -1.54
15.39 6.69 -1.47
5.59 2.41 -1.63
6.47 2.79 -1.63
28.8 12.4 1.64
7.56 3.26 -1.6
9.06 3.9 -1.56
11.49 4.95 -1.54
15.41 6.63 -1.47
5.6 2.39 -1.63
6.49 2.76 -1.63
7.58 3.23 -1.6
9.08 3.87 -1.56
11.51 4.91 -1.54
15.44 6.58 -1.47
5.62 2.37 -1.63
29.05 12.27 0.55
6.48 2.74 -1.62
7.59 3.21 -1.6
9.1 3.84 -1.56
11.54 4.87 -1.54
15.48 6.54 -1.47
5.64 2.36 -1.64
6.5 2.72 -1.63
7.61 3.18 -1.6
9.12 3.81 -1.57
11.54 4.82 -1.54
15.51 6.49 -1.47
5.64 2.34 -1.64
6.51 2.7 -1.63
7.61 3.15 -1.6
9.13 3.79 -1.57
11.56 4.79 -1.54
15.53 6.44 -1.47
5.63 2.31 -1.63
6.52 2.68 -1.63
7.63 3.13 -1.6
9.15 3.75 -1.57
11.58 4.75 -1.54
15.54 6.37 -1.47
5.65 2.29 -1.63
6.53 2.65 -1.63
7.64 3.1 -1.6
9.16 3.72 -1.57
11.6 4.71 -1.54
15.57 6.32 -1.47
5.67 2.28 -1.64
6.53 2.62 -1.62
29.29 11.77 1.65
7.66 3.08 -1.61
9.18 3.69 -1.57
11.62 4.67 -1.54
15.62 6.28 -1.47
5.69 2.26 -1.64
6.54 2.6 -1.63
29.4 11.7 1.66
7.67 3.05 -1.6
9.2 3.66 -1.57
11.63 4.63 -1.54
15.61 6.21 -1.47
5.69 2.24 -1.64
6.55 2.58 -1.63
7.66 3.02 -1.6
9.21 3.63 -1.57
11.65 4.59 -1.54
15.62 6.15 -1.47
5.69 2.22 -1.64
6.57 2.56 -1.63
7.68 3 -1.6
9.23 3.6 -1.57
11.67 4.55 -1.54
15.64 6.1 -1.47
5.7 2.2 -1.64
6.57 2.54 -1.63
7.7 2.97 -1.6
9.24 3.56 -1.57
11.69 4.51 -1.54
15.69 6.06 -1.47
5.72 2.18 -1.64
6.58 2.51 -1.63
7.71 2.95 -1.61
9.25 3.53 -1.57
11.7 4.47 -1.54
5.72 2.16 -1.64
6.58 2.49 -1.63
7.72 2.92 -1.6
9.28 3.51 -1.57
11.71 4.43 -1.54
15.79 5.97 -1.48
5.73 2.14 -1.64
6.59 2.46 -1.62
7.72 2.89 -1.6
9.3 3.48 -1.57
11.72 4.39 -1.54
15.82 5.92 -1.48
5.73 2.12 -1.64
6.6 2.44 -1.63
7.74 2.87 -1.61
9.31 3.45 -1.57
11.75 4.35 -1.54
15.82 5.86 -1.48
5.74 2.1 -1.64
6.6 2.42 -1.62
7.75 2.84 -1.6
9.31 3.41 -1.57
11.78 4.32 -1.54
15.86 5.81 -1.48
5.76 2.09 -1.64
6.61 2.4 -1.62
7.76 2.81 -1.61
9.33 3.38 -1.57
11.8 4.27 -1.54
15.9 5.76 -1.48
5.77 2.07 -1.64
6.62 2.37 -1.62
7.78 2.79 -1.61
9.36 3.35 -1.57
11.81 4.23 -1.54
15.93 5.71 -1.48
5.78 2.05 -1.64
6.64 2.35 -1.63
7.78 2.76 -1.6
9.37 3.32 -1.58
11.83 4.19 -1.54
15.95 5.65 -1.48
24.65 8.74 -1.37
5.78 2.03 -1.64
6.65 2.33 -1.63
7.78 2.73 -1.6
9.38 3.29 -1.57
11.85 4.15 -1.54
15.97 5.59 -1.48
5.78 2 -1.64
6.67 2.31 -1.63
7.8 2.7 -1.6
9.39 3.25 -1.57
11.88 4.12 -1.54
15.99 5.54 -1.48
5.8 1.99 -1.64
6.67 2.28 -1.63
7.82 2.68 -1.61
9.4 3.22 -1.57
11.89 4.08 -1.54
16.02 5.49 -1.48
5.81 1.97 -1.64
6.68 2.26 -1.63
7.82 2.65 -1.6
9.43 3.2 -1.58
11.9 4.03 -1.54
16.04 5.44 -1.48
5.82 1.95 -1.64
6.69 2.24 -1.63
7.82 2.62 -1.6
9.44 3.16 -1.58
11.92 3.99 -1.54
16.07 5.38 -1.48
5.82 1.93 -1.64
6.71 2.22 -1.63
7.83 2.59 -1.6
9.45 3.13 -1.58
11.93 3.95 -1.54
16.08 5.32 -1.48
24.83 8.22 -1.37
5.83 1.91 -1.64
6.72 2.2 -1.63
7.84 2.57 -1.6
9.46 3.1 -1.58
11.95 3.91 -1.54
16.12 5.27 -1.48
24.86 8.13 -1.37
5.83 1.88 -1.64
6.71 2.17 -1.63
7.85 2.54 -1.6
9.47 3.06 -1.58
11.98 3.87 -1.55
16.14 5.22 -1.48
5.86 1.87 -1.65
6.72 2.15 -1.63
7.87 2.51 -1.61
9.49 3.03 -1.58
12 3.84 -1.55
16.17 5.17 -1.48
5.83 1.84 -1.64
6.74 2.13 -1.63
7.86 2.48 -1.6
9.51 3 -1.58
12.01 3.79 -1.55
16.19 5.11 -1.49
5.84 1.82 -1.64
6.75 2.11 -1.63
7.87 2.46 -1.6
9.51 2.97 -1.58
12.04 3.76 -1.55
16.2 5.06 -1.48
5.86 1.81 -1.64
6.76 2.09 -1.63
7.89 2.43 -1.6
9.52 2.93 -1.58
12.06 3.72 -1.55
16.24 5.01 -1.49
5.87 1.79 -1.64
6.76 2.06 -1.63
7.9 2.41 -1.61
9.53 2.9 -1.58
12.09 3.68 -1.55
16.25 4.95 -1.49
5.88 1.77 -1.65
6.77 2.04 -1.63
7.93 2.38 -1.61
9.54 2.87 -1.58
12.09 3.63 -1.55
16.26 4.89 -1.49
5.89 1.75 -1.65
6.79 2.02 -1.63
7.92 2.35 -1.61
9.56 2.84 -1.58
12.11 3.6 -1.55
16.3 4.84 -1.49
5.87 1.72 -1.64
6.8 1.99 -1.63
7.93 2.33 -1.61
9.56 2.8 -1.58
12.15 3.56 -1.55
16.3 4.78 -1.49
5.89 1.71 -1.64
6.81 1.97 -1.64
7.95 2.3 -1.61
9.58 2.77 -1.58
12.16 3.52 -1.55
16.32 4.73 -1.49
5.9 1.69 -1.64
6.79 1.94 -1.63
7.96 2.28 -1.61
9.58 2.74 -1.58
12.18 3.48 -1.56
16.35 4.67 -1.49
5.92 1.67 -1.65
6.81 1.92 -1.63
7.97 2.25 -1.61
9.6 2.71 -1.58
12.19 3.44 -1.55
16.38 4.62 -1.49
5.92 1.65 -1.65
6.81 1.9 -1.63
7.98 2.22 -1.61
9.61 2.67 -1.58
12.2 3.39 -1.56
16.41 4.57 -1.49
5.92 1.63 -1.65
6.82 1.87 -1.63
7.98 2.19 -1.61
9.61 2.64 -1.58
12.22 3.35 -1.56
16.41 4.51 -1.49
5.93 1.61 -1.65
6.83 1.85 -1.63
8 2.16 -1.61
9.6 2.6 -1.57
12.24 3.31 -1.56
16.45 4.45 -1.49
5.94 1.59 -1.65
6.83 1.82 -1.63
8.02 2.14 -1.61
9.62 2.57 -1.58
12.26 3.27 -1.56
16.47 4.4 -1.49
5.95 1.57 -1.65
6.85 1.8 -1.63
8.02 2.11 -1.61
9.64 2.54 -1.58
12.26 3.23 -1.56
16.5 4.34 -1.49
5.95 1.55 -1.65
6.87 1.78 -1.64
8.02 2.08 -1.61
9.67 2.51 -1.58
12.28 3.19 -1.56
16.54 4.29 -1.49
25.41 6.6 -1.38
5.95 1.52 -1.64
6.87 1.76 -1.64
8.04 2.06 -1.61
12.29 3.14 -1.56
16.55 4.23 -1.49
25.56 6.54 -1.38
5.97 1.5 -1.65
6.89 1.74 -1.64
8.05 2.03 -1.61
9.67 2.44 -1.58
12.31 3.1 -1.56
16.57 4.18 -1.5
25.71 6.48 -1.39
5.97 1.48 -1.65
6.88 1.71 -1.64
8.05 2 -1.61
9.7 2.41 -1.58
12.33 3.06 -1.56
16.59 4.12 -1.5
5.98 1.46 -1.65
6.9 1.69 -1.64
8.04 1.97 -1.61
9.71 2.38 -1.58
12.34 3.02 -1.56
16.61 4.07 -1.5
5.99 1.44 -1.65
6.9 1.66 -1.64
8.06 1.94 -1.61
9.72 2.34 -1.58
12.35 2.97 -1.56
16.65 4.01 -1.5
5.99 1.42 -1.65
6.91 1.64 -1.64
8.08 1.92 -1.61
9.73 2.31 -1.58
12.37 2.93 -1.56
16.67 3.95 -1.5
5.99 1.4 -1.65
6.92 1.61 -1.64
8.1 1.89 -1.62
9.74 2.27 -1.58
12.4 2.89 -1.56
16.7 3.9 -1.5
6 1.38 -1.65
6.91 1.59 -1.64
8.1 1.86 -1.62
9.74 2.24 -1.58
12.39 2.85 -1.56
16.72 3.85 -1.5
6.01 1.36 -1.65
6.92 1.57 -1.64
8.12 1.84 -1.62
9.77 2.21 -1.59
12.39 2.8 -1.56
16.74 3.79 -1.5
6.02 1.34 -1.65
6.93 1.54 -1.64
8.11 1.81 -1.62
9.77 2.18 -1.59
12.38 2.76 -1.56
16.76 3.73 -1.5
6.02 1.32 -1.65
6.94 1.52 -1.64
8.13 1.78 -1.62
9.79 2.14 -1.59
12.42 2.72 -1.56
16.77 3.67 -1.5
6.02 1.3 -1.65
6.95 1.5 -1.64
8.13 1.75 -1.62
9.79 2.11 -1.59
12.43 2.68 -1.56
16.8 3.62 -1.5
6.03 1.28 -1.65
6.94 1.47 -1.64
8.15 1.72 -1.62
9.8 2.07 -1.59
12.45 2.63 -1.56
16.83 3.56 -1.5
6.04 1.26 -1.65
6.95 1.45 -1.64
8.15 1.7 -1.62
9.81 2.04 -1.59
16.84 3.51 -1.51
26.19 5.45 -1.4
6.05 1.24 -1.66
6.97 1.42 -1.64
8.15 1.67 -1.62
9.82 2.01 -1.59
12.49 2.55 -1.57
16.87 3.45 -1.51
6.05 1.21 -1.65
6.97 1.4 -1.64
8.17 1.64 -1.62
9.84 1.98 -1.59
12.53 2.51 -1.57
16.89 3.39 -1.51
26.23 5.26 -1.4
6.05 1.19 -1.65
6.98 1.38 -1.64
8.18 1.61 -1.62
9.85 1.94 -1.59
12.54 2.47 -1.57
16.92 3.33 -1.51
26.25 5.17 -1.4
6.06 1.17 -1.65
6.97 1.35 -1.64
8.2 1.59 -1.62
12.56 2.43 -1.57
16.93 3.28 -1.51
26.26 5.09 -1.4
6.07 1.15 -1.66
6.98 1.33 -1.64
8.2 1.56 -1.62
9.88 1.88 -1.59
12.57 2.39 -1.57
16.96 3.22 -1.51
6.07 1.13 -1.66
6.99 1.3 -1.64
8.2 1.53 -1.62
9.9 1.85 -1.6
12.61 2.35 -1.57
17 3.17 -1.51
6.07 1.11 -1.65
7 1.28 -1.64
8.2 1.5 -1.62
9.9 1.81 -1.59
12.63 2.31 -1.58
16.97 3.1 -1.51
6.08 1.09 -1.65
7.01 1.26 -1.64
8.22 1.48 -1.62
9.9 1.78 -1.59
12.65 2.27 -1.58
17.01 3.05 -1.51
32.58 5.84 -0.58
6.09 1.07 -1.66
7 1.23 -1.64
8.24 1.45 -1.63
9.92 1.74 -1.6
12.61 2.22 -1.57
16.98 2.98 -1.51
32.55 5.72 -0.58
6.1 1.05 -1.66
7.01 1.21 -1.64
8.24 1.42 -1.63
9.94 1.71 -1.6
12.62 2.17 -1.57
17 2.92 -1.51
32.52 5.59 -0.58
6.11 1.03 -1.66
7.02 1.18 -1.64
8.24 1.39 -1.62
9.95 1.67 -1.6
12.62 2.12 -1.57
17.03 2.87 -1.51
32.5 5.47 -0.58
6.1 1.01 -1.66
7.03 1.16 -1.64
8.25 1.36 -1.63
9.96 1.64 -1.6
12.64 2.09 -1.57
32.5 5.36 -0.57
6.1 0.98 -1.66
7.03 1.13 -1.64
8.26 1.33 -1.63
9.95 1.61 -1.6
17.09 2.76 -1.51
32.53 5.25 -0.58
6.11 0.96 -1.66
7.03 1.11 -1.64
8.27 1.3 -1.63
9.96 1.57 -1.6
12.7 2 -1.58
17.11 2.7 -1.52
32.56 5.14 -0.58
6.12 0.94 -1.66
7.04 1.09 -1.64
8.27 1.27 -1.63
9.97 1.54 -1.6
12.7 1.96 -1.58
17.14 2.64 -1.52
32.6 5.03 -0.58
6.12 0.92 -1.66
7.04 1.06 -1.64
8.26 1.25 -1.62
9.99 1.51 -1.6
12.71 1.92 -1.58
17.19 2.59 -1.52
32.66 4.92 -0.58
6.11 0.9 -1.66
7.05 1.04 -1.65
8.28 1.22 -1.63
10 1.47 -1.6
12.74 1.87 -1.58
17.19 2.53 -1.52
32.81 4.82 -0.58
6.12 0.88 -1.66
7.06 1.01 -1.65
8.29 1.19 -1.63
10 1.44 -1.6
12.74 1.83 -1.58
17.23 2.47 -1.52
6.13 0.86 -1.66
7.05 0.99 -1.64
8.3 1.16 -1.63
10.01 1.4 -1.6
12.76 1.79 -1.58
17.21 2.41 -1.52
6.13 0.84 -1.66
7.05 0.96 -1.64
8.3 1.13 -1.63
10.02 1.37 -1.6
12.76 1.74 -1.58
17.23 2.35 -1.52
6.14 0.82 -1.66
7.07 0.94 -1.65
8.3 1.1 -1.63
10.03 1.33 -1.6
12.77 1.7 -1.58
17.3 2.3 -1.53
6.14 0.79 -1.66
7.07 0.91 -1.65
8.31 1.07 -1.63
10.04 1.3 -1.6
12.77 1.65 -1.58
17.31 2.24 -1.53
6.14 0.77 -1.66
7.08 0.89 -1.65
8.31 1.05 -1.63
10.04 1.26 -1.6
12.79 1.61 -1.58
17.32 2.18 -1.53
26.83 3.38 -1.42
6.14 0.75 -1.66
7.07 0.86 -1.64
8.32 1.02 -1.63
10.05 1.23 -1.6
12.8 1.57 -1.58
17.34 2.12 -1.53
26.93 3.29 -1.42
6.16 0.73 -1.66
7.07 0.84 -1.64
8.33 0.99 -1.63
10.06 1.19 -1.6
12.8 1.52 -1.58
17.36 2.06 -1.53
6.15 0.71 -1.66
7.08 0.82 -1.65
8.33 0.96 -1.63
10.06 1.16 -1.6
12.82 1.48 -1.58
17.4 2 -1.53
6.15 0.69 -1.66
7.09 0.79 -1.65
8.33 0.93 -1.63
10.07 1.12 -1.61
12.83 1.43 -1.59
17.39 1.94 -1.53
6.15 0.67 -1.66
7.09 0.77 -1.65
8.34 0.9 -1.63
10.07 1.09 -1.6
12.84 1.39 -1.59
17.4 1.89 -1.53
6.16 0.65 -1.66
7.09 0.74 -1.65
8.35 0.88 -1.63
10.08 1.06 -1.6
12.86 1.35 -1.59
17.43 1.83 -1.53
27.11 2.84 -1.43
6.16 0.62 -1.66
7.1 0.72 -1.65
8.35 0.85 -1.63
10.08 1.02 -1.61
12.86 1.3 -1.59
17.44 1.77 -1.53
27.2 2.76 -1.43
6.17 0.6 -1.66
7.1 0.69 -1.65
8.35 0.82 -1.63
10.1 0.99 -1.61
12.87 1.26 -1.59
17.45 1.71 -1.53
6.16 0.58 -1.66
7.11 0.67 -1.65
8.35 0.79 -1.63
10.09 0.95 -1.61
12.89 1.22 -1.59
17.46 1.65 -1.53
6.16 0.56 -1.66
7.11 0.65 -1.65
8.36 0.76 -1.63
10.09 0.92 -1.61
12.9 1.17 -1.59
17.47 1.59 -1.53
6.17 0.54 -1.66
7.11 0.62 -1.65
8.36 0.73 -1.63
10.1 0.88 -1.61
12.91 1.13 -1.59
17.49 1.53 -1.54
6.18 0.52 -1.66
7.11 0.6 -1.65
8.37 0.7 -1.63
10.1 0.85 -1.61
12.89 1.08 -1.59
17.52 1.47 -1.54
6.18 0.5 -1.66
7.12 0.57 -1.65
8.36 0.67 -1.63
10.11 0.81 -1.61
12.89 1.03 -1.59
17.52 1.41 -1.54
6.18 0.47 -1.66
7.12 0.55 -1.65
8.37 0.64 -1.63
10.11 0.78 -1.61
12.91 0.99 -1.59
17.53 1.35 -1.54
6.18 0.45 -1.66
7.12 0.52 -1.65
8.37 0.61 -1.63
10.11 0.74 -1.61
12.92 0.95 -1.59
17.53 1.28 -1.54
6.18 0.43 -1.66
7.11 0.5 -1.65
8.38 0.58 -1.63
10.12 0.71 -1.61
12.93 0.9 -1.59
17.55 1.22 -1.54
6.19 0.41 -1.66
7.12 0.47 -1.65
8.39 0.56 -1.63
10.12 0.67 -1.61
12.92 0.86 -1.59
17.55 1.16 -1.54
6.19 0.39 -1.66
7.13 0.45 -1.65
8.37 0.53 -1.63
10.13 0.64 -1.61
12.93 0.81 -1.59
17.57 1.1 -1.54
6.18 0.37 -1.66
7.14 0.42 -1.65
8.38 0.5 -1.63
10.14 0.6 -1.61
12.94 0.77 -1.59
17.56 1.04 -1.54
6.19 0.35 -1.66
7.13 0.4 -1.65
8.39 0.47 -1.63
10.13 0.57 -1.61
12.94 0.72 -1.59
17.58 0.98 -1.54
6.19 0.32 -1.66
7.13 0.37 -1.65
8.4 0.44 -1.63
10.13 0.53 -1.61
12.95 0.68 -1.59
17.59 0.92 -1.54
6.2 0.3 -1.66
7.14 0.35 -1.65
8.4 0.41 -1.64
10.14 0.5 -1.61
12.95 0.63 -1.59
17.61 0.86 -1.54
6.19 0.28 -1.66
7.14 0.32 -1.65
8.39 0.38 -1.63
10.15 0.46 -1.61
12.95 0.59 -1.59
17.63 0.8 -1.54
6.19 0.26 -1.66
7.15 0.3 -1.65
8.39 0.35 -1.63
10.15 0.43 -1.61
12.96 0.54 -1.59
17.62 0.74 -1.54
6.19 0.24 -1.66
7.15 0.27 -1.65
8.4 0.32 -1.63
10.14 0.39 -1.61
12.98 0.5 -1.6
17.63 0.68 -1.54
6.2 0.22 -1.66
7.14 0.25 -1.65
8.41 0.29 -1.64
10.15 0.36 -1.61
12.98 0.45 -1.59
17.66 0.62 -1.55
6.21 0.2 -1.66
7.14 0.22 -1.65
8.41 0.26 -1.64
10.16 0.32 -1.61
12.98 0.41 -1.59
17.68 0.56 -1.55
6.21 0.17 -1.66
7.15 0.2 -1.65
8.4 0.24 -1.63
10.16 0.28 -1.61
12.98 0.36 -1.59
17.67 0.5 -1.55
6.2 0.15 -1.66
7.16 0.17 -1.65
8.41 0.21 -1.63
10.16 0.25 -1.61
12.99 0.32 -1.6
17.68 0.43 -1.55
6.2 0.13 -1.66
7.16 0.15 -1.65
8.42 0.18 -1.64
10.16 0.21 -1.61
13 0.27 -1.6
17.7 0.37 -1.55
6.21 0.11 -1.66
7.14 0.13 -1.65
8.42 0.15 -1.64
10.17 0.18 -1.61
13 0.23 -1.6
17.71 0.31 -1.55
6.21 0.09 -1.66
7.15 0.1 -1.65
8.42 0.12 -1.64
10.17 0.14 -1.61
13.01 0.19 -1.6
17.73 0.25 -1.55
6.21 0.07 -1.66
7.15 0.07 -1.65
8.41 0.09 -1.64
10.18 0.11 -1.61
13 0.14 -1.6
17.74 0.19 -1.55
6.21 0.04 -1.66
7.16 0.05 -1.65
8.41 0.06 -1.64
10.17 0.07 -1.61
13.02 0.09 -1.6
17.74 0.13 -1.55
6.21 0.02 -1.66
7.16 0.02 -1.65
8.42 0.03 -1.64
10.18 0.04 -1.61
13.04 0.05 -1.6
17.74 0.06 -1.55
6.22 0 -1.67
7.15 0 -1.65
8.43 0 -1.64
10.18 0 -1.61
13.03 0 -1.6
17.76 0 -1.55
6.21 -0.02 -1.66
7.16 -0.02 -1.65
8.42 -0.03 -1.64
10.19 -0.03 -1.61
13.03 -0.04 -1.6
17.76 -0.06 -1.55
6.21 -0.04 -1.66
7.17 -0.05 -1.65
8.42 -0.06 -1.64
10.2 -0.07 -1.62
13.03 -0.09 -1.6
17.77 -0.12 -1.55
6.21 -0.06 -1.66
114.61 -1.18 2
7.17 -0.07 -1.66
8.43 -0.09 -1.64
10.2 -0.11 -1.62
13.04 -0.13 -1.6
17.76 -0.18 -1.55
6.21 -0.09 -1.66
114.63 -1.57 2
7.16 -0.1 -1.65
8.43 -0.12 -1.64
10.19 -0.14 -1.61
13.05 -0.18 -1.6
17.76 -0.24 -1.55
6.21 -0.11 -1.66
7.16 -0.12 -1.65
8.43 -0.15 -1.64
10.2 -0.18 -1.62
13.05 -0.23 -1.6
17.77 -0.31 -1.55
6.22 -0.13 -1.67
7.16 -0.15 -1.65
8.43 -0.17 -1.64
10.21 -0.21 -1.62
13.05 -0.27 -1.6
17.76 -0.37 -1.55
6.21 -0.15 -1.67
7.18 -0.17 -1.66
8.42 -0.2 -1.64
10.22 -0.25 -1.62
13.05 -0.32 -1.6
17.76 -0.43 -1.55
6.21 -0.17 -1.67
7.18 -0.2 -1.66
8.43 -0.23 -1.64
10.22 -0.28 -1.62
13.06 -0.36 -1.6
17.75 -0.49 -1.55
38.05 -1.05 -0.66
6.21 -0.19 -1.66
7.17 -0.22 -1.66
8.43 -0.26 -1.64
10.22 -0.32 -1.62
13.06 -0.41 -1.6
17.76 -0.56 -1.55
38.03 -1.19 -0.66
6.22 -0.22 -1.67
7.17 -0.25 -1.66
8.44 -0.29 -1.64
10.22 -0.36 -1.62
13.07 -0.45 -1.61
17.79 -0.62 -1.56
38.05 -1.32 -0.66
6.22 -0.24 -1.67
7.16 -0.27 -1.65
8.43 -0.32 -1.64
10.22 -0.39 -1.62
13.05 -0.5 -1.6
17.8 -0.68 -1.56
38.05 -1.46 -0.66
6.22 -0.26 -1.67
7.17 -0.3 -1.66
8.43 -0.35 -1.64
10.23 -0.43 -1.62
13.05 -0.54 -1.6
17.79 -0.74 -1.56
6.21 -0.28 -1.66
7.18 -0.32 -1.66
8.43 -0.38 -1.64
10.23 -0.46 -1.62
13.07 -0.59 -1.61
17.79 -0.8 -1.56
6.22 -0.3 -1.67
7.18 -0.35 -1.66
8.44 -0.41 -1.64
10.21 -0.5 -1.62
13.06 -0.63 -1.61
17.81 -0.86 -1.56
6.21 -0.32 -1.67
7.16 -0.37 -1.66
8.44 -0.44 -1.64
10.22 -0.53 -1.62
13.06 -0.68 -1.61
17.83 -0.93 -1.56
6.22 -0.35 -1.67
7.17 -0.4 -1.66
8.44 -0.47 -1.64
10.22 -0.57 -1.62
13.06 -0.73 -1.61
17.82 -0.99 -1.56
6.22 -0.37 -1.67
7.17 -0.42 -1.66
8.43 -0.5 -1.64
10.22 -0.6 -1.62
13.06 -0.77 -1.61
17.84 -1.05 -1.56
6.21 -0.39 -1.67
7.18 -0.45 -1.66
8.43 -0.53 -1.64
10.22 -0.64 -1.62
13.05 -0.82 -1.61
17.84 -1.12 -1.56
6.21 -0.41 -1.67
7.18 -0.47 -1.66
8.44 -0.56 -1.64
10.21 -0.67 -1.62
13.05 -0.86 -1.61
17.86 -1.18 -1.57
6.21 -0.43 -1.67
7.16 -0.5 -1.66
8.44 -0.59 -1.64
10.21 -0.71 -1.62
13.05 -0.91 -1.61
17.86 -1.24 -1.57
6.22 -0.45 -1.67
7.17 -0.52 -1.66
8.44 -0.62 -1.64
10.22 -0.75 -1.62
13.04 -0.95 -1.61
17.88 -1.31 -1.57
6.22 -0.48 -1.67
7.17 -0.55 -1.66
8.43 -0.65 -1.64
10.21 -0.78 -1.62
13.04 -1 -1.61
17.9 -1.37 -1.57
6.21 -0.5 -1.67
7.18 -0.58 -1.66
8.43 -0.68 -1.64
10.21 -0.82 -1.62
13.05 -1.05 -1.61
17.89 -1.43 -1.57
6.21 -0.52 -1.67
7.18 -0.6 -1.66
8.43 -0.71 -1.64
10.2 -0.85 -1.62
13.04 -1.09 -1.61
17.89 -1.5 -1.57
21.18 -1.77 -1.11
6.21 -0.54 -1.67
7.17 -0.62 -1.66
8.44 -0.74 -1.65
10.2 -0.89 -1.62
13.05 -1.14 -1.61
17.91 -1.56 -1.57
6.22 -0.56 -1.67
7.17 -0.65 -1.66
8.43 -0.76 -1.64
10.2 -0.92 -1.62
13.04 -1.18 -1.61
17.91 -1.62 -1.57
6.21 -0.59 -1.67
7.17 -0.68 -1.66
8.42 -0.79 -1.64
10.2 -0.96 -1.62
13.04 -1.23 -1.61
17.92 -1.69 -1.57
6.21 -0.61 -1.67
7.18 -0.7 -1.67
8.42 -0.82 -1.64
10.2 -1 -1.62
13.04 -1.27 -1.61
17.9 -1.75 -1.57
6.2 -0.63 -1.67
7.18 -0.73 -1.67
8.43 -0.85 -1.65
10.19 -1.03 -1.62
13.04 -1.32 -1.61
17.91 -1.81 -1.58
18.97 -1.92 -1
6.21 -0.65 -1.67
7.17 -0.75 -1.66
8.43 -0.88 -1.65
10.19 -1.07 -1.62
13.04 -1.37 -1.61
17.93 -1.88 -1.58
18.67 -1.96 -0.98
6.21 -0.67 -1.67
7.16 -0.77 -1.66
8.42 -0.91 -1.65
10.19 -1.1 -1.62
13.02 -1.41 -1.61
17.93 -1.93 -1.58
18.26 -1.97 -0.96
6.21 -0.69 -1.67
7.17 -0.8 -1.66
8.41 -0.94 -1.64
10.19 -1.14 -1.62
13.04 -1.45 -1.61
17.9 -2 -1.58
18.06 -2.01 -0.95
6.2 -0.72 -1.67
7.17 -0.83 -1.67
8.41 -0.97 -1.65
10.17 -1.17 -1.62
13.05 -1.51 -1.61
17.9 -2.06 -1.58
18.02 -2.08 -0.95
6.2 -0.74 -1.67
7.17 -0.85 -1.67
8.41 -1 -1.65
10.16 -1.21 -1.62
13.05 -1.55 -1.61
17.89 -2.12 -1.58
17.95 -2.13 -0.95
18.04 -2.14 -0.32
6.2 -0.76 -1.67
7.15 -0.87 -1.66
8.41 -1.03 -1.65
10.16 -1.24 -1.62
13.06 -1.59 -1.62
17.87 -2.18 -1.58
17.94 -2.19 -0.95
18.02 -2.2 -0.32
6.2 -0.78 -1.67
7.16 -0.9 -1.67
8.41 -1.05 -1.65
10.14 -1.27 -1.62
13.06 -1.64 -1.62
17.89 -2.24 -1.58
17.94 -2.25 -0.95
6.2 -0.8 -1.67
7.16 -0.92 -1.67
8.4 -1.08 -1.65
10.18 -1.31 -1.63
13.05 -1.69 -1.62
17.91 -2.31 -1.58
17.93 -2.32 -0.95
6.19 -0.82 -1.67
7.16 -0.95 -1.67
8.4 -1.11 -1.65
10.17 -1.35 -1.62
13.07 -1.73 -1.62
17.89 -2.37 -1.58
17.93 -2.38 -0.95
6.18 -0.84 -1.67
7.15 -0.97 -1.67
8.4 -1.14 -1.65
10.16 -1.38 -1.62
13.07 -1.78 -1.62
17.88 -2.44 -1.58
17.91 -2.44 -0.95
6.19 -0.86 -1.67
7.14 -1 -1.66
8.4 -1.17 -1.65
10.15 -1.42 -1.62
13.07 -1.83 -1.62
17.87 -2.5 -1.58
17.89 -2.5 -0.95
6.19 -0.89 -1.67
7.14 -1.02 -1.66
8.4 -1.2 -1.65
10.15 -1.46 -1.62
13.07 -1.87 -1.62
17.9 -2.57 -1.58
17.89 -2.57 -0.95
6.19 -0.91 -1.68
7.15 -1.05 -1.67
8.37 -1.23 -1.64
10.15 -1.49 -1.63
13.06 -1.92 -1.62
17.9 -2.63 -1.58
17.9 -2.63 -0.95
6.18 -0.93 -1.67
7.14 -1.08 -1.67
8.37 -1.26 -1.64
10.16 -1.53 -1.63
13.06 -1.97 -1.62
17.88 -2.69 -1.58
17.9 -2.7 -0.95
6.17 -0.95 -1.67
7.13 -1.1 -1.67
8.38 -1.29 -1.65
10.15 -1.56 -1.63
13.06 -2.01 -1.62
17.88 -2.76 -1.58
17.88 -2.76 -0.95
6.17 -0.97 -1.67
7.12 -1.12 -1.66
8.36 -1.32 -1.65
10.15 -1.6 -1.63
13.07 -2.06 -1.62
17.88 -2.82 -1.58
17.89 -2.82 -0.95
6.17 -0.99 -1.68
7.13 -1.15 -1.67
10.15 -1.63 -1.63
13.04 -2.1 -1.62
17.89 -2.88 -1.59
17.91 -2.88 -0.95
6.17 -1.02 -1.68
7.13 -1.18 -1.67
8.35 -1.38 -1.65
10.16 -1.68 -1.63
13.04 -2.15 -1.62
17.89 -2.95 -1.59
17.91 -2.96 -0.95
6.16 -1.04 -1.68
7.13 -1.2 -1.67
8.37 -1.41 -1.65
10.16 -1.71 -1.63
13.04 -2.2 -1.62
17.89 -3.01 -1.59
17.92 -3.02 -0.95
6.15 -1.06 -1.67
7.13 -1.22 -1.67
8.36 -1.44 -1.65
10.15 -1.74 -1.63
13.03 -2.24 -1.62
17.88 -3.07 -1.59
17.94 -3.08 -0.95
6.16 -1.08 -1.67
7.11 -1.25 -1.67
8.36 -1.47 -1.65
10.16 -1.78 -1.63
13.02 -2.28 -1.62
17.9 -3.14 -1.59
17.93 -3.14 -0.95
6.16 -1.1 -1.68
7.11 -1.28 -1.67
8.36 -1.5 -1.65
10.15 -1.82 -1.63
13 -2.33 -1.62
17.92 -3.22 -1.59
17.95 -3.22 -0.96
6.16 -1.13 -1.68
7.11 -1.3 -1.67
8.35 -1.53 -1.65
10.16 -1.86 -1.64
13.01 -2.38 -1.62
17.94 -3.28 -1.6
17.96 -3.28 -0.96
6.14 -1.14 -1.67
7.11 -1.33 -1.67
8.35 -1.56 -1.65
10.16 -1.89 -1.64
12.99 -2.42 -1.62
17.94 -3.34 -1.6
18.03 -3.36 -0.96
6.13 -1.16 -1.67
7.1 -1.35 -1.67
8.34 -1.58 -1.65
10.14 -1.93 -1.64
13 -2.47 -1.63
17.95 -3.41 -1.6
18.05 -3.43 -0.96
6.14 -1.19 -1.68
7.09 -1.37 -1.67
8.34 -1.62 -1.65
10.14 -1.96 -1.64
13 -2.52 -1.63
17.95 -3.48 -1.6
18.02 -3.49 -0.96
18.14 -3.51 -0.32
6.14 -1.21 -1.68
7.09 -1.4 -1.67
8.34 -1.64 -1.65
10.14 -2 -1.64
12.98 -2.56 -1.62
17.96 -3.54 -1.6
18.22 -3.59 -0.97
6.14 -1.23 -1.68
7.09 -1.42 -1.67
8.33 -1.67 -1.65
10.14 -2.04 -1.64
12.98 -2.61 -1.63
17.95 -3.61 -1.6
29.85 -6 -1.6
6.12 -1.25 -1.68
7.09 -1.45 -1.67
8.33 -1.7 -1.65
10.14 -2.07 -1.64
12.98 -2.65 -1.63
17.92 -3.66 -1.6
29.71 -6.07 -1.59
6.12 -1.27 -1.68
7.08 -1.47 -1.67
8.33 -1.73 -1.65
10.12 -2.11 -1.64
12.98 -2.7 -1.63
17.92 -3.73 -1.6
29.64 -6.17 -1.59
6.12 -1.3 -1.68
7.07 -1.5 -1.67
8.33 -1.76 -1.66
10.11 -2.14 -1.64
12.97 -2.74 -1.63
17.91 -3.79 -1.6
29.5 -6.24 -1.58
6.12 -1.32 -1.68
7.06 -1.52 -1.67
8.34 -1.8 -1.66
10.11 -2.18 -1.64
12.96 -2.79 -1.63
17.9 -3.86 -1.6
29.4 -6.34 -1.58
6.11 -1.34 -1.68
7.06 -1.55 -1.67
8.33 -1.82 -1.66
10.11 -2.21 -1.64
12.95 -2.84 -1.63
17.88 -3.92 -1.6
29.38 -6.44 -1.58
6.11 -1.36 -1.68
7.06 -1.57 -1.67
8.32 -1.85 -1.66
10.1 -2.25 -1.64
12.94 -2.88 -1.63
17.84 -3.98 -1.6
29.29 -6.53 -1.57
6.11 -1.38 -1.68
7.06 -1.6 -1.67
8.33 -1.88 -1.66
10.09 -2.28 -1.64
12.94 -2.93 -1.63
17.83 -4.04 -1.6
29.19 -6.61 -1.57
6.1 -1.4 -1.68
7.05 -1.62 -1.67
8.33 -1.92 -1.66
10.08 -2.32 -1.64
12.93 -2.97 -1.63
17.81 -4.1 -1.6
29.07 -6.69 -1.56
6.1 -1.42 -1.68
7.05 -1.65 -1.67
8.33 -1.95 -1.66
10.08 -2.35 -1.64
12.92 -3.02 -1.63
17.81 -4.16 -1.6
29.04 -6.78 -1.56
6.09 -1.45 -1.68
7.04 -1.67 -1.67
8.31 -1.97 -1.66
10.07 -2.39 -1.64
12.92 -3.07 -1.63
17.82 -4.23 -1.6
31.56 -7.5 -1.7
6.08 -1.47 -1.68
7.04 -1.7 -1.67
8.31 -2 -1.66
10.06 -2.43 -1.64
12.91 -3.11 -1.63
17.81 -4.29 -1.6
31.55 -7.61 -1.7
6.09 -1.49 -1.68
7.04 -1.72 -1.67
8.32 -2.03 -1.66
10.05 -2.46 -1.64
12.91 -3.16 -1.63
17.81 -4.35 -1.6
33.23 -8.13 -1.79
6.07 -1.51 -1.68
7.02 -1.74 -1.67
8.31 -2.06 -1.66
10.05 -2.49 -1.64
12.9 -3.2 -1.63
17.8 -4.42 -1.6
33.13 -8.22 -1.79
6.07 -1.53 -1.68
7.02 -1.77 -1.67
8.32 -2.1 -1.67
10.03 -2.53 -1.64
12.9 -3.25 -1.63
17.81 -4.49 -1.61
32.73 -8.25 -1.77
6.07 -1.55 -1.68
7.02 -1.79 -1.67
8.3 -2.12 -1.67
10.03 -2.56 -1.64
12.9 -3.3 -1.63
17.8 -4.55 -1.61
6.05 -1.57 -1.68
7.02 -1.82 -1.67
8.29 -2.15 -1.66
10.02 -2.6 -1.64
12.9 -3.35 -1.64
17.87 -4.64 -1.61
6.05 -1.59 -1.68
7.02 -1.85 -1.68
8.29 -2.18 -1.67
10.01 -2.63 -1.64
12.9 -3.4 -1.64
17.89 -4.71 -1.62
50.9 -13.4 -0.92
6.05 -1.62 -1.68
7 -1.87 -1.67
8.28 -2.21 -1.67
10 -2.67 -1.64
12.9 -3.44 -1.64
17.89 -4.78 -1.62
34.03 -9.09 -1.85
6.05 -1.64 -1.68
7 -1.9 -1.67
8.28 -2.24 -1.67
10 -2.71 -1.64
12.88 -3.49 -1.64
17.91 -4.85 -1.62
34.14 -9.24 -1.85
6.05 -1.66 -1.68
7 -1.92 -1.68
8.26 -2.27 -1.67
9.99 -2.74 -1.64
12.88 -3.53 -1.64
17.93 -4.92 -1.63
34.07 -9.35 -1.85
6.03 -1.68 -1.68
7.01 -1.95 -1.68
8.26 -2.3 -1.67
9.98 -2.77 -1.64
12.89 -3.58 -1.64
17.95 -4.99 -1.63
34.68 -9.64 -1.89
6.03 -1.7 -1.68
7 -1.97 -1.68
8.25 -2.33 -1.67
9.97 -2.81 -1.64
12.89 -3.64 -1.64
17.96 -5.07 -1.63
34.51 -9.73 -1.88
6.02 -1.72 -1.68
49.41 -14.12 0.9
6.98 -2 -1.68
8.25 -2.36 -1.67
9.96 -2.85 -1.64
12.88 -3.68 -1.64
17.98 -5.14 -1.64
6.03 -1.74 -1.68
6.99 -2.02 -1.68
8.25 -2.39 -1.67
9.96 -2.88 -1.64
12.87 -3.72 -1.64
18.02 -5.22 -1.64
39.31 -11.38 -2.14
6.02 -1.76 -1.68
6.98 -2.05 -1.68
8.23 -2.41 -1.67
9.96 -2.92 -1.64
12.86 -3.77 -1.65
18.08 -5.3 -1.65
6 -1.78 -1.68
6.98 -2.07 -1.68
8.22 -2.44 -1.67
9.95 -2.96 -1.64
12.85 -3.82 -1.65
18.12 -5.38 -1.65
6 -1.8 -1.68
6.97 -2.1 -1.68
8.22 -2.47 -1.67
9.94 -2.99 -1.64
12.84 -3.86 -1.65
18.17 -5.46 -1.66
39.57 -11.9 -2.17
6 -1.83 -1.68
6.97 -2.12 -1.68
8.21 -2.5 -1.67
9.93 -3.02 -1.64
12.84 -3.91 -1.65
18.19 -5.54 -1.66
6 -1.85 -1.68
6.96 -2.15 -1.68
8.2 -2.53 -1.67
9.92 -3.06 -1.64
12.8 -3.95 -1.65
18.24 -5.63 -1.67
6 -1.87 -1.68
6.96 -2.17 -1.68
8.19 -2.56 -1.67
9.92 -3.1 -1.65
12.81 -4 -1.65
18.29 -5.71 -1.68
5.98 -1.89 -1.68
6.96 -2.2 -1.68
8.18 -2.58 -1.67
9.91 -3.13 -1.65
12.78 -4.04 -1.65
18.32 -5.79 -1.68
5.98 -1.91 -1.68
6.95 -2.22 -1.68
8.18 -2.61 -1.67
9.9 -3.16 -1.65
12.78 -4.09 -1.65
18.38 -5.88 -1.69
5.98 -1.93 -1.68
6.94 -2.24 -1.68
8.17 -2.64 -1.67
9.89 -3.2 -1.65
12.77 -4.13 -1.65
18.43 -5.96 -1.7
5.98 -1.96 -1.69
6.93 -2.27 -1.68
8.16 -2.67 -1.67
9.88 -3.23 -1.65
12.74 -4.17 -1.65
18.51 -6.06 -1.7
5.97 -1.98 -1.69
6.93 -2.3 -1.68
8.14 -2.7 -1.67
9.87 -3.27 -1.65
12.72 -4.22 -1.65
18.55 -6.15 -1.71
5.96 -2 -1.68
6.92 -2.32 -1.68
8.13 -2.72 -1.67
9.87 -3.31 -1.65
12.73 -4.27 -1.65
18.59 -6.23 -1.72
5.96 -2.02 -1.69
6.92 -2.35 -1.69
8.13 -2.75 -1.67
9.86 -3.34 -1.65
12.73 -4.32 -1.65
18.63 -6.32 -1.72
5.96 -2.05 -1.69
6.9 -2.37 -1.68
8.12 -2.79 -1.67
9.85 -3.38 -1.65
12.68 -4.35 -1.65
18.68 -6.41 -1.73
43.61 -14.96 -2.42
5.96 -2.07 -1.69
6.9 -2.39 -1.68
8.11 -2.81 -1.67
9.85 -3.42 -1.65
12.67 -4.39 -1.65
18.75 -6.5 -1.74
43.56 -15.11 -2.42
5.95 -2.09 -1.69
6.89 -2.42 -1.69
8.1 -2.84 -1.67
9.84 -3.45 -1.65
12.66 -4.44 -1.65
18.8 -6.59 -1.74
43.7 -15.33 -2.43
5.93 -2.1 -1.69
6.89 -2.44 -1.69
8.1 -2.87 -1.67
9.83 -3.49 -1.65
12.68 -4.5 -1.65
18.83 -6.68 -1.75
5.94 -2.13 -1.69
6.88 -2.47 -1.69
8.09 -2.9 -1.67
9.83 -3.52 -1.65
12.67 -4.54 -1.65
18.89 -6.77 -1.76
5.94 -2.15 -1.69
6.86 -2.49 -1.68
8.09 -2.93 -1.67
9.82 -3.56 -1.65
12.66 -4.59 -1.65
18.93 -6.86 -1.76
5.94 -2.18 -1.69
6.86 -2.51 -1.69
8.07 -2.96 -1.67
9.81 -3.6 -1.66
12.64 -4.63 -1.65
19.01 -6.96 -1.77
5.93 -2.2 -1.69
6.86 -2.54 -1.69
8.05 -2.98 -1.67
9.81 -3.63 -1.66
12.64 -4.68 -1.65
19.05 -7.06 -1.78
5.91 -2.21 -1.69
6.85 -2.56 -1.69
8.05 -3.01 -1.67
9.8 -3.67 -1.66
12.65 -4.73 -1.66
19.08 -7.14 -1.78
5.91 -2.24 -1.69
6.84 -2.59 -1.69
8.04 -3.04 -1.67
9.79 -3.7 -1.66
12.65 -4.79 -1.66
19.13 -7.24 -1.79
5.91 -2.26 -1.69
6.82 -2.61 -1.69
8.04 -3.07 -1.67
9.78 -3.74 -1.66
12.69 -4.85 -1.67
19.18 -7.33 -1.8
5.9 -2.28 -1.69
6.82 -2.63 -1.69
8.03 -3.1 -1.67
9.78 -3.78 -1.66
12.71 -4.91 -1.67
19.24 -7.43 -1.8
5.89 -2.3 -1.69
6.81 -2.66 -1.69
8.02 -3.13 -1.67
9.77 -3.81 -1.66
12.7 -4.96 -1.67
19.27 -7.52 -1.81
5.87 -2.32 -1.69
6.8 -2.68 -1.69
8 -3.16 -1.67
9.76 -3.85 -1.66
12.7 -5.01 -1.68
19.29 -7.61 -1.81
5.87 -2.34 -1.69
6.8 -2.71 -1.69
8 -3.19 -1.67
9.74 -3.88 -1.66
12.7 -5.05 -1.68
19.34 -7.7 -1.82
5.87 -2.36 -1.69
6.78 -2.73 -1.69
7.99 -3.22 -1.67
9.73 -3.91 -1.66
12.69 -5.11 -1.68
19.37 -7.79 -1.83
5.87 -2.38 -1.7
6.77 -2.75 -1.69
7.98 -3.25 -1.68
9.73 -3.95 -1.66
12.69 -5.16 -1.68
19.43 -7.9 -1.83
5.85 -2.4 -1.7
6.76 -2.78 -1.69
7.97 -3.27 -1.67
9.72 -3.99 -1.66
12.7 -5.22 -1.69
19.46 -7.99 -1.84
5.84 -2.42 -1.69
6.76 -2.8 -1.69
7.96 -3.3 -1.67
9.71 -4.02 -1.66
12.71 -5.27 -1.69
19.47 -8.07 -1.84
5.84 -2.44 -1.7
6.75 -2.82 -1.69
7.95 -3.33 -1.68
9.68 -4.05 -1.66
12.73 -5.33 -1.69
19.51 -8.17 -1.85
5.83 -2.46 -1.7
6.73 -2.84 -1.69
7.95 -3.36 -1.68
9.67 -4.09 -1.66
12.74 -5.39 -1.7
19.55 -8.27 -1.86
34.66 -14.66 -0.66
5.83 -2.49 -1.7
6.72 -2.87 -1.69
7.93 -3.39 -1.68
9.66 -4.12 -1.66
12.74 -5.44 -1.7
19.59 -8.36 -1.86
42.59 -18.18 -2.43
34.32 -14.65 -0.65
5.82 -2.51 -1.7
6.72 -2.9 -1.69
7.92 -3.41 -1.68
9.65 -4.16 -1.66
12.77 -5.5 -1.71
19.58 -8.44 -1.87
34.27 -14.77 -0.65
5.8 -2.52 -1.69
6.71 -2.92 -1.69
7.91 -3.44 -1.68
9.63 -4.19 -1.66
12.8 -5.57 -1.71
19.6 -8.53 -1.87
34.21 -14.89 -0.65
5.79 -2.55 -1.7
6.7 -2.94 -1.69
7.9 -3.47 -1.68
9.62 -4.23 -1.66
12.83 -5.64 -1.72
19.64 -8.63 -1.88
34.21 -15.03 -1.96
34.2 -15.03 -0.65
5.79 -2.57 -1.7
6.68 -2.96 -1.69
32.68 -14.49 1.87
7.89 -3.5 -1.68
9.6 -4.26 -1.66
12.84 -5.7 -1.73
19.66 -8.72 -1.88
42.15 -18.7 -2.42
5.78 -2.59 -1.7
6.68 -2.99 -1.69
32.7 -14.63 1.88
7.88 -3.53 -1.68
9.6 -4.29 -1.67
12.85 -5.75 -1.73
19.66 -8.8 -1.88
33.56 -15.02 -1.93
34.17 -15.29 -0.65
5.77 -2.61 -1.7
6.67 -3.01 -1.69
7.87 -3.56 -1.68
9.58 -4.33 -1.67
12.88 -5.82 -1.74
19.68 -8.89 -1.89
33.48 -15.12 -1.93
5.76 -2.62 -1.7
6.66 -3.04 -1.69
7.86 -3.58 -1.68
9.57 -4.36 -1.67
12.95 -5.9 -1.75
19.68 -8.97 -1.89
33.29 -15.17 -0.64
5.75 -2.64 -1.7
33.05 -15.2 0.63
6.65 -3.06 -1.69
7.85 -3.61 -1.68
9.54 -4.39 -1.66
12.96 -5.96 -1.75
19.72 -9.07 -1.9
33.27 -15.3 -1.92
34.03 -15.65 -0.65
5.74 -2.67 -1.7
32.94 -15.3 0.63
6.64 -3.08 -1.69
7.84 -3.64 -1.68
9.52 -4.42 -1.66
13 -6.04 -1.76
19.73 -9.16 -1.9
33.23 -15.43 -1.92
33.04 -15.35 -0.64
5.74 -2.69 -1.7
32.93 -15.43 0.63
6.64 -3.11 -1.69
7.83 -3.67 -1.68
9.52 -4.46 -1.66
13.02 -6.1 -1.77
19.78 -9.27 -1.91
33.13 -15.53 -1.92
33.06 -15.49 -0.64
5.73 -2.71 -1.7
32.64 -15.43 0.63
6.63 -3.13 -1.69
7.82 -3.7 -1.68
9.5 -4.49 -1.66
13.06 -6.17 -1.77
19.79 -9.35 -1.91
33.08 -15.64 -1.92
33.55 -15.86 -0.65
5.71 -2.72 -1.69
32.68 -15.59 0.63
6.62 -3.16 -1.69
32.83 -15.66 1.91
7.81 -3.72 -1.68
9.48 -4.52 -1.66
13.08 -6.24 -1.78
19.8 -9.44 -1.92
33.26 -15.86 -1.93
32.44 -15.47 -0.63
5.7 -2.74 -1.69
32.38 -15.59 0.63
6.6 -3.18 -1.69
32.9 -15.84 1.91
7.81 -3.76 -1.68
9.46 -4.55 -1.66
13.12 -6.32 -1.79
19.81 -9.54 -1.92
33.01 -15.89 -0.64
5.69 -2.77 -1.7
32.57 -15.82 0.63
6.59 -3.2 -1.69
32.76 -15.91 1.91
7.8 -3.79 -1.69
9.45 -4.59 -1.66
13.15 -6.38 -1.79
19.83 -9.63 -1.93
32.63 -15.85 -1.9
32.83 -15.94 -0.64
5.69 -2.79 -1.7
32.74 -16.04 0.64
6.57 -3.22 -1.69
32.78 -16.06 1.91
7.79 -3.81 -1.69
9.45 -4.63 -1.67
13.15 -6.44 -1.8
19.85 -9.72 -1.93
32.55 -15.94 -1.9
33.67 -16.49 -0.65
5.68 -2.81 -1.7
6.57 -3.25 -1.69
7.77 -3.84 -1.69
9.45 -4.67 -1.67
13.18 -6.51 -1.81
19.84 -9.81 -1.94
5.66 -2.82 -1.69
6.57 -3.27 -1.69
32.14 -16.02 1.88
7.76 -3.87 -1.69
9.43 -4.7 -1.67
13.2 -6.58 -1.81
19.83 -9.89 -1.94
5.66 -2.85 -1.7
31.33 -15.75 0.61
6.56 -3.3 -1.69
32.21 -16.19 1.89
7.75 -3.9 -1.69
9.41 -4.73 -1.67
13.23 -6.65 -1.82
19.79 -9.95 -1.94
41.55 -20.89 -2.44
32.59 -16.39 -0.64
5.65 -2.87 -1.7
32.96 -16.72 0.65
6.53 -3.31 -1.69
32.16 -16.32 1.89
7.75 -3.93 -1.69
9.41 -4.77 -1.67
13.24 -6.72 -1.82
19.78 -10.03 -1.94
32.57 -16.52 -0.64
5.64 -2.89 -1.7
32.97 -16.87 0.65
6.52 -3.34 -1.69
7.74 -3.96 -1.69
9.39 -4.8 -1.67
13.25 -6.78 -1.83
19.78 -10.12 -1.94
32.33 -16.54 -0.63
5.63 -2.91 -1.7
6.52 -3.36 -1.69
7.71 -3.98 -1.69
9.39 -4.84 -1.67
13.28 -6.85 -1.83
19.81 -10.22 -1.95
32.45 -16.75 -0.64
5.61 -2.92 -1.7
6.51 -3.39 -1.69
7.7 -4.01 -1.69
9.37 -4.88 -1.67
13.3 -6.92 -1.84
19.97 -10.4 -1.97
5.61 -2.95 -1.7
6.5 -3.41 -1.7
7.7 -4.04 -1.69
9.35 -4.91 -1.67
13.31 -6.99 -1.85
19.96 -10.48 -1.97
5.61 -2.97 -1.7
6.48 -3.43 -1.69
7.69 -4.07 -1.69
9.35 -4.95 -1.68
13.33 -7.05 -1.85
19.9 -10.53 -1.97
5.61 -2.99 -1.7
6.47 -3.45 -1.69
7.68 -4.1 -1.69
9.36 -4.99 -1.68
13.32 -7.11 -1.85
19.86 -10.6 -1.97
5.59 -3.01 -1.7
6.46 -3.48 -1.69
7.65 -4.12 -1.69
9.36 -5.03 -1.68
13.35 -7.18 -1.86
19.97 -10.75 -1.98
5.57 -3.02 -1.7
6.46 -3.5 -1.7
7.65 -4.15 -1.69
9.35 -5.07 -1.69
13.37 -7.25 -1.87
19.96 -10.83 -1.99
5.56 -3.04 -1.7
6.45 -3.53 -1.7
7.64 -4.18 -1.69
9.34 -5.11 -1.69
13.37 -7.31 -1.87
19.91 -10.89 -1.99
5.55 -3.07 -1.7
6.43 -3.55 -1.7
7.62 -4.21 -1.69
9.34 -5.15 -1.69
13.37 -7.38 -1.88
19.88 -10.97 -1.99
5.55 -3.09 -1.7
6.42 -3.57 -1.7
7.61 -4.23 -1.69
9.33 -5.19 -1.69
13.39 -7.45 -1.88
20.05 -11.15 -2.01
5.54 -3.11 -1.7
6.41 -3.6 -1.7
7.59 -4.25 -1.69
22.35 -12.54 2.24
9.33 -5.23 -1.69
13.4 -7.51 -1.89
19.96 -11.19 -2
5.52 -3.12 -1.7
21.95 -12.41 0.44
6.41 -3.62 -1.7
7.57 -4.28 -1.69
9.32 -5.27 -1.7
21.85 -12.36 3.08
13.41 -7.58 -1.89
20.32 -11.49 -2.04
5.52 -3.14 -1.7
6.4 -3.65 -1.7
7.56 -4.31 -1.69
21.35 -12.17 2.15
9.31 -5.31 -1.7
13.43 -7.65 -1.9
20.28 -11.56 -2.04
5.51 -3.16 -1.7
6.37 -3.66 -1.7
7.55 -4.34 -1.69
22.22 -12.76 2.24
9.31 -5.35 -1.7
22.05 -12.67 3.12
13.44 -7.72 -1.9
20.24 -11.63 -2.04
22.26 -12.79 -0.45
5.5 -3.19 -1.7
21.8 -12.63 0.44
6.37 -3.69 -1.7
7.54 -4.37 -1.69
22.14 -12.82 2.24
9.31 -5.39 -1.7
13.45 -7.79 -1.91
20.3 -11.76 -2.05
5.49 -3.21 -1.7
6.36 -3.71 -1.7
21.42 -12.51 1.3
7.51 -4.38 -1.69
21.56 -12.58 2.18
9.32 -5.44 -1.71
21.92 -12.79 3.12
13.47 -7.86 -1.91
20.19 -11.78 -2.05
5.47 -3.22 -1.7
6.35 -3.74 -1.7
21.86 -12.87 1.33
7.5 -4.41 -1.69
9.31 -5.48 -1.71
21.39 -12.59 3.05
13.47 -7.93 -1.92
20.24 -11.91 -2.05
5.47 -3.24 -1.7
22.15 -13.14 0.45
6.34 -3.76 -1.7
7.48 -4.44 -1.69
21.74 -12.9 2.21
9.31 -5.52 -1.71
13.48 -8 -1.92
19.77 -11.73 -2.01
21.82 -12.94 -0.44
5.46 -3.26 -1.7
21.83 -13.05 0.44
6.33 -3.78 -1.7
21.76 -13.01 1.33
7.47 -4.47 -1.69
21.6 -12.92 2.2
9.29 -5.55 -1.71
21.59 -12.91 3.09
13.48 -8.06 -1.93
19.67 -11.77 -2.01
21.82 -13.05 -0.44
5.45 -3.29 -1.71
21.74 -13.11 0.44
6.31 -3.8 -1.7
21.72 -13.09 1.33
7.46 -4.49 -1.69
21.75 -13.11 2.22
9.31 -5.61 -1.72
21.49 -12.96 3.08
13.5 -8.13 -1.93
19.57 -11.8 -2
22.06 -13.3 -1.35
21.82 -13.15 -0.44
5.44 -3.31 -1.71
22.34 -13.57 0.46
6.31 -3.83 -1.7
22.51 -13.68 1.38
7.43 -4.52 -1.69
22.57 -13.71 2.31
9.31 -5.65 -1.72
21.23 -12.9 3.05
13.5 -8.2 -1.94
19.55 -11.88 -2
21.9 -13.3 -1.34
22.14 -13.45 -0.45
5.42 -3.32 -1.7
6.3 -3.86 -1.71
21.41 -13.11 1.32
7.43 -4.55 -1.69
21.58 -13.21 2.21
9.31 -5.7 -1.73
21.11 -12.93 3.04
13.52 -8.28 -1.95
21.53 -13.19 4
19.97 -12.23 -2.05
5.41 -3.34 -1.7
6.3 -3.88 -1.71
7.41 -4.57 -1.69
21.32 -13.16 2.19
9.3 -5.74 -1.73
21.46 -13.24 3.1
13.52 -8.35 -1.95
19.91 -12.29 -2.05
5.41 -3.36 -1.71
20.23 -12.58 0.42
6.26 -3.9 -1.7
21.75 -13.53 1.34
7.4 -4.6 -1.69
21.5 -13.37 2.22
9.32 -5.79 -1.74
13.52 -8.41 -1.95
19.57 -12.17 -2.02
20.13 -12.52 -0.41
5.4 -3.39 -1.71
23.54 -14.76 0.49
6.26 -3.93 -1.71
7.38 -4.63 -1.69
21.33 -13.37 2.2
9.32 -5.84 -1.74
20.93 -13.12 3.03
13.52 -8.47 -1.96
19.4 -12.16 -2
21.82 -13.68 -1.35
19.86 -12.45 -0.41
5.39 -3.4 -1.71
6.25 -3.95 -1.71
20.98 -13.25 1.3
7.35 -4.65 -1.69
20.72 -13.09 2.14
9.31 -5.88 -1.74
13.54 -8.55 -1.97
19.35 -12.22 -2
20.3 -12.82 -1.26
19.52 -12.33 -0.4
5.37 -3.41 -1.7
6.25 -3.97 -1.71
21.69 -13.8 1.35
7.34 -4.67 -1.69
20.74 -13.19 2.15
9.32 -5.93 -1.75
13.55 -8.62 -1.97
19.29 -12.27 -2
20.32 -12.92 -1.26
19.58 -12.46 -0.41
5.36 -3.44 -1.71
6.23 -4 -1.71
7.34 -4.71 -1.7
9.31 -5.97 -1.75
13.57 -8.7 -1.98
19.31 -12.38 -2.01
19.94 -12.78 -1.24
19.57 -12.55 -0.41
5.36 -3.46 -1.71
6.21 -4.01 -1.71
7.34 -4.74 -1.7
22.82 -14.74 2.38
9.31 -6.01 -1.76
13.58 -8.77 -1.98
19.41 -12.54 -2.02
19.84 -12.82 -1.24
5.34 -3.48 -1.71
22.76 -14.81 0.47
6.2 -4.04 -1.71
7.32 -4.77 -1.7
9.33 -6.08 -1.76
13.59 -8.85 -1.99
19.41 -12.63 -2.03
22.75 -14.81 -1.42
22.81 -14.85 -0.48
5.33 -3.49 -1.71
20.5 -13.45 0.43
7.31 -4.79 -1.7
22.82 -14.96 2.39
9.35 -6.13 -1.77
13.59 -8.91 -2
19.37 -12.71 -2.03
19.93 -13.07 -1.25
3.9 -2.57 -1.25
20.23 -13.37 0.42
3.89 -2.57 -1.08
7.29 -4.82 -1.7
22.66 -14.98 2.38
9.35 -6.18 -1.78
13.59 -8.98 -2
19.34 -12.78 -2.03
19.37 -12.8 -0.41
3.84 -2.56 -1.24
3.85 -2.56 -1.07
7.28 -4.85 -1.7
22.77 -15.17 2.39
9.38 -6.24 -1.78
13.59 -9.05 -2
19.4 -12.92 -2.04
19.95 -13.29 -1.26
19.72 -13.13 -0.41
3.8 -2.55 -1.23
19.57 -13.13 0.41
3.8 -2.55 -1.06
7.27 -4.88 -1.7
9.42 -6.32 -1.8
13.59 -9.12 -2.01
19.46 -13.06 -2.05
19.59 -13.15 -1.24
3.76 -2.54 -1.22
3.76 -2.54 -1.05
20.06 -13.56 1.27
7.25 -4.9 -1.7
9.45 -6.39 -1.81
13.58 -9.18 -2.01
19.61 -13.26 -2.07
19.48 -13.17 -1.23
18.12 -12.25 -0.38
3.72 -2.53 -1.21
19.72 -13.44 0.42
3.73 -2.54 -1.04
20.17 -13.75 1.28
3.87 -2.63 -0.91
9.52 -6.49 -1.82
13.6 -9.26 -2.02
18.98 -12.93 -2.01
19.3 -13.15 -1.22
19.48 -13.27 -0.41
3.66 -2.51 -1.19
20.24 -13.89 0.43
3.7 -2.54 -1.04
3.79 -2.6 -0.89
9.6 -6.59 -1.84
13.61 -9.34 -2.03
18.92 -12.98 -2.01
19.52 -13.39 -1.24
18.32 -12.57 -0.39
3.64 -2.52 -1.19
19.36 -13.39 0.41
3.67 -2.54 -1.03
20.16 -13.94 1.28
3.75 -2.6 -0.89
9.65 -6.67 -1.86
13.64 -9.43 -2.04
18.86 -13.04 -2.01
19.53 -13.51 -1.24
18.25 -12.62 -0.39
3.65 -2.54 -1.19
19.3 -13.44 0.41
3.62 -2.52 -1.02
19.54 -13.61 1.25
3.71 -2.59 -0.88
9.69 -6.75 -1.87
13.63 -9.49 -2.04
19.07 -13.28 -2.03
19.49 -13.57 -1.24
3.65 -2.56 -1.19
19.44 -13.64 0.41
3.6 -2.53 -1.02
19.41 -13.62 1.24
3.69 -2.59 -0.88
9.71 -6.81 -1.88
13.63 -9.56 -2.04
17.93 -12.57 -1.92
19.49 -13.67 -1.25
17.85 -12.52 -0.38
3.65 -2.58 -1.2
19.89 -14.07 0.43
3.57 -2.52 -1.01
19.21 -13.59 1.23
3.65 -2.58 -0.87
9.73 -6.88 -1.89
13.63 -9.64 -2.05
17.88 -12.65 -1.92
17.92 -12.67 -0.38
3.65 -2.6 -1.2
19.29 -13.74 0.41
3.53 -2.51 -1
19.38 -13.8 1.25
3.6 -2.56 -0.86
20.56 -14.65 2.21
9.73 -6.93 -1.89
13.63 -9.71 -2.05
18.72 -13.34 -2.01
19.56 -13.93 -1.26
17.46 -12.44 -0.37
3.62 -2.59 -1.19
17.63 -12.65 0.38
3.51 -2.52 -1
19.45 -13.95 1.25
3.57 -2.56 -0.85
20.5 -14.7 2.21
9.72 -6.97 -1.9
13.64 -9.78 -2.06
18.55 -13.31 -2
19.41 -13.92 -1.25
20.23 -14.51 -0.43
3.5 -2.52 -1.16
19.15 -13.83 0.41
3.47 -2.51 -0.99
20.68 -14.94 1.34
3.54 -2.56 -0.85
20.63 -14.9 2.23
9.72 -7.02 -1.9
20.55 -14.85 3.11
13.63 -9.84 -2.06
18.34 -13.25 -1.98
19.57 -14.13 -1.27
18.07 -13.05 -0.39
3.46 -2.52 -1.15
19.13 -13.92 0.41
3.47 -2.53 -0.99
19.78 -14.4 1.28
3.52 -2.56 -0.85
20.49 -14.91 2.22
9.7 -7.06 -1.9
13.62 -9.91 -2.07
18.22 -13.26 -1.97
19.24 -14.01 -1.25
17.39 -12.66 -0.38
3.43 -2.51 -1.14
18.94 -13.88 0.41
3.53 -2.59 -1.01
18.61 -13.64 1.21
3.48 -2.55 -0.84
20.54 -15.06 2.23
9.69 -7.1 -1.9
13.63 -9.99 -2.07
18.16 -13.31 -1.97
19.25 -14.11 -1.25
17.64 -12.93 -0.38
3.4 -2.51 -1.13
17.8 -13.14 0.39
3.54 -2.62 -1.02
19.69 -14.55 1.28
3.46 -2.55 -0.84
9.68 -7.15 -1.91
13.64 -10.07 -2.08
18.12 -13.39 -1.97
19.24 -14.21 -1.25
17.6 -13 -0.38
3.38 -2.52 -1.13
17.67 -13.14 0.38
3.55 -2.64 -1.02
19.92 -14.82 1.3
3.42 -2.55 -0.83
9.78 -7.27 -1.93
13.64 -10.15 -2.09
18.16 -13.51 -1.98
19.04 -14.16 -1.24
17.46 -12.98 -0.38
3.36 -2.52 -1.13
18.89 -14.16 0.41
3.54 -2.66 -1.02
18.62 -13.95 1.22
3.41 -2.55 -0.83
3.73 -2.8 -0.74
13.64 -10.22 -2.09
17.91 -13.42 -1.96
19.3 -14.46 -1.26
18.57 -13.92 -0.41
3.34 -2.52 -1.12
19.64 -14.82 0.43
3.56 -2.68 -1.03
18.17 -13.71 1.19
3.38 -2.55 -0.82
3.69 -2.79 -0.73
13.63 -10.29 -2.1
17.79 -13.42 -1.95
18.87 -14.24 -0.41
3.32 -2.53 -1.12
16.57 -12.61 0.36
3.56 -2.71 -1.03
3.35 -2.54 -0.82
3.7 -2.82 -0.74
13.65 -10.38 -2.11
17.61 -13.4 -1.94
17.5 -13.31 -1.15
17.96 -13.66 -0.39
3.29 -2.52 -1.11
18.49 -14.16 0.41
3.56 -2.73 -1.04
18.16 -13.91 1.2
3.33 -2.55 -0.82
3.61 -2.77 -0.72
13.66 -10.46 -2.11
17.52 -13.42 -1.93
18.82 -14.42 -1.24
17.96 -13.76 -0.39
3.27 -2.53 -1.11
18.37 -14.17 0.4
3.54 -2.73 -1.03
18.22 -14.06 1.21
3.32 -2.56 -0.81
18.39 -14.19 2.03
3.6 -2.78 -0.72
13.66 -10.53 -2.12
17.42 -13.44 -1.92
17.9 -13.81 -1.18
17.86 -13.78 -0.39
3.26 -2.53 -1.11
16.52 -12.83 0.37
3.29 -2.56 -0.96
18.11 -14.07 1.2
3.3 -2.57 -0.81
13.68 -10.63 -2.13
17.43 -13.54 -1.93
17.43 -13.54 -1.16
17.12 -13.3 -0.38
3.23 -2.53 -1.1
3.21 -2.52 -0.94
18.02 -14.11 1.2
3.28 -2.57 -0.81
3.58 -2.81 -0.72
13.69 -10.72 -2.13
17.35 -13.59 -1.93
17.92 -14.03 -1.19
17.38 -13.61 -0.39
3.22 -2.54 -1.1
16.27 -12.82 0.36
3.2 -2.52 -0.94
18.59 -14.65 1.24
3.25 -2.56 -0.8
13.7 -10.8 -2.14
17.3 -13.64 -1.93
17.43 -13.74 -1.16
18.07 -14.25 -0.4
3.19 -2.53 -1.09
19.38 -15.39 0.43
3.17 -2.52 -0.94
18.68 -14.83 1.25
3.23 -2.56 -0.8
18.87 -14.97 2.11
13.69 -10.87 -2.15
17.31 -13.74 -1.93
17.14 -13.6 -1.15
17.84 -14.16 -0.4
3.17 -2.53 -1.09
16.09 -12.86 0.36
3.15 -2.52 -0.93
18.24 -14.58 1.22
3.21 -2.57 -0.8
17.88 -14.29 2
13.68 -10.94 -2.15
17.33 -13.85 -1.94
17.62 -14.08 -1.18
18.22 -14.56 -0.41
3.16 -2.54 -1.09
16.37 -13.18 0.37
3.13 -2.52 -0.93
18.27 -14.71 1.23
3.2 -2.58 -0.8
17.93 -14.44 2.01
13.67 -11.01 -2.16
17.53 -14.11 -1.97
17.36 -13.98 -1.17
18.61 -14.99 -0.42
3.14 -2.54 -1.08
18.73 -15.18 0.42
3.11 -2.52 -0.92
18.19 -14.75 1.23
3.17 -2.57 -0.79
13.67 -11.08 -2.16
17.48 -14.17 -1.97
17.18 -13.93 -1.16
17.55 -14.22 -0.39
3.13 -2.56 -1.08
18.29 -14.94 0.41
3.1 -2.54 -0.93
18.45 -15.07 1.25
3.14 -2.56 -0.79
3.37 -2.75 -0.69
13.67 -11.17 -2.17
17.38 -14.19 -1.96
17.66 -14.42 -1.19
16.75 -13.68 -0.38
3.1 -2.55 -1.08
16.2 -13.32 0.37
3.09 -2.54 -0.92
3.12 -2.57 -0.79
13.68 -11.25 -2.17
17.39 -14.3 -1.97
17.56 -14.44 -1.19
16.72 -13.75 -0.38
3.09 -2.56 -1.08
18.69 -15.48 0.42
3.06 -2.53 -0.92
18.4 -15.24 1.25
3.1 -2.57 -0.78
13.69 -11.34 -2.18
17.33 -14.35 -1.97
17.72 -14.68 -1.21
16.8 -13.91 -0.38
3.09 -2.58 -1.08
18.51 -15.44 0.42
3.04 -2.54 -0.91
3.09 -2.58 -0.78
13.68 -11.41 -2.19
17.14 -14.29 -1.95
17.75 -14.8 -1.21
3.09 -2.6 -1.08
18.13 -15.24 0.41
3.02 -2.54 -0.91
18.46 -15.51 1.26
3.07 -2.58 -0.78
18.36 -15.43 2.1
13.66 -11.48 -2.19
17.11 -14.38 -1.96
17.33 -14.57 -1.19
3.09 -2.61 -1.08
18.1 -15.32 0.41
3.01 -2.55 -0.91
18.67 -15.81 1.28
3.06 -2.59 -0.78
18.1 -15.32 2.07
13.66 -11.57 -2.2
17.21 -14.57 -1.97
17.18 -14.54 -1.18
16.59 -14.04 -0.38
3.06 -2.61 -1.08
17.81 -15.19 0.41
2.99 -2.55 -0.91
18.21 -15.53 1.25
3.04 -2.59 -0.78
18.06 -15.4 2.08
13.66 -11.65 -2.2
17.11 -14.58 -1.97
17.32 -14.77 -1.19
18.34 -15.63 -0.42
2.94 -2.53 -1.04
16.05 -13.78 0.37
2.98 -2.56 -0.91
18.22 -15.64 1.26
3.02 -2.59 -0.77
13.66 -11.73 -2.21
17.1 -14.68 -1.97
17.35 -14.9 -1.2
17.9 -15.37 -0.41
2.94 -2.54 -1.04
17.57 -15.18 0.41
2.95 -2.55 -0.9
17.07 -14.75 1.18
3 -2.59 -0.77
13.67 -11.81 -2.22
17.05 -14.73 -1.97
18.2 -15.73 -1.26
17 -14.69 -0.39
2.92 -2.54 -1.04
2.94 -2.56 -0.9
18.4 -16.01 1.28
2.98 -2.59 -0.77
18.31 -15.94 2.12
13.66 -11.89 -2.22
17.41 -15.15 -2.02
18.15 -15.79 -1.26
17.33 -15.08 -0.4
2.91 -2.55 -1.04
17.58 -15.41 0.41
2.93 -2.57 -0.9
18.23 -15.98 1.27
2.95 -2.58 -0.76
13.66 -11.98 -2.23
17.42 -15.27 -2.03
17.57 -15.4 -1.22
17.18 -15.06 -0.4
2.89 -2.55 -1.03
18.31 -16.16 0.43
2.91 -2.57 -0.9
18.39 -16.24 1.29
2.92 -2.58 -0.76
48.81 -43.1 8
13.65 -12.05 -2.24
16.84 -14.87 -1.97
17.03 -15.03 -1.19
18 -15.89 -0.42
2.86 -2.55 -1.03
17.68 -15.72 0.41
2.9 -2.58 -0.9
18.89 -16.8 1.32
2.92 -2.59 -0.76
18.63 -16.56 2.18
13.64 -12.13 -2.24
16.79 -14.93 -1.97
18.18 -16.16 -0.42
2.85 -2.55 -1.03
17.77 -15.91 0.42
2.87 -2.57 -0.89
18.47 -16.54 1.3
2.9 -2.59 -0.76
17.76 -15.9 2.09
13.64 -12.21 -2.25
16.77 -15.02 -1.97
18.24 -16.33 -1.28
18.45 -16.52 -0.43
2.84 -2.56 -1.02
21.79 -19.65 0.51
2.86 -2.58 -0.89
17.59 -15.86 1.24
2.88 -2.6 -0.75
13.63 -12.29 -2.25
17.21 -15.52 -2.03
18.43 -16.61 -0.43
2.82 -2.56 -1.02
17.81 -16.17 0.42
2.84 -2.58 -0.89
17.43 -15.83 1.23
2.86 -2.6 -0.75
13.62 -12.37 -2.26
17.12 -15.55 -2.02
2.8 -2.56 -1.02
18.46 -16.88 0.44
2.83 -2.59 -0.88
17.42 -15.93 1.24
2.84 -2.6 -0.75
13.64 -12.47 -2.27
17.31 -15.83 -2.05
17.76 -16.24 -1.26
18.18 -16.62 -0.43
2.79 -2.57 -1.02
18.41 -16.95 0.44
2.81 -2.59 -0.88
17.74 -16.33 1.26
2.83 -2.61 -0.75
13.63 -12.55 -2.28
17.27 -15.9 -2.05
17.71 -16.31 -1.26
17.77 -16.36 -0.42
2.77 -2.57 -1.01
18 -16.69 0.43
2.78 -2.57 -0.87
17.84 -16.54 1.28
2.82 -2.61 -0.75
13.62 -12.63 -2.28
17.4 -16.13 -2.08
18.17 -16.84 -0.43
2.76 -2.57 -1.01
18.12 -16.92 0.43
2.77 -2.58 -0.87
17.83 -16.64 1.28
2.8 -2.61 -0.74
13.59 -12.69 -2.28
18.88 -17.63 -2.26
17.77 -16.59 -0.42
2.75 -2.58 -1.01
18.1 -17.01 0.43
2.75 -2.59 -0.87
17.85 -16.78 1.28
2.77 -2.61 -0.74
13.58 -12.76 -2.29
16.36 -15.38 -1.97
17.28 -16.25 -1.24
2.72 -2.57 -1
17.39 -16.47 0.42
2.74 -2.59 -0.87
2.76 -2.61 -0.74
17.89 -16.93 2.16
13.56 -12.83 -2.29
18.79 -17.79 -2.26
17.4 -16.47 -1.26
17.77 -16.82 -0.43
2.71 -2.58 -1
17.56 -16.74 0.42
2.72 -2.59 -0.87
17.71 -16.88 1.28
2.75 -2.62 -0.74
13.54 -12.91 -2.3
18.78 -17.9 -2.27
19.51 -18.6 -1.41
2.69 -2.58 -1
2.7 -2.59 -0.86
2.73 -2.63 -0.74
20.17 -19.36 2.45
13.52 -12.97 -2.3
45.41 -43.59 9.97
16.6 -15.94 -2.01
20.97 -20.13 -0.51
2.68 -2.59 -1
19.2 -18.56 0.47
2.68 -2.59 -0.86
19.33 -18.69 1.41
2.72 -2.63 -0.74
13.49 -13.04 -2.3
16.47 -15.92 -2
17.25 -16.68 -1.26
2.66 -2.59 -0.99
18.2 -17.72 0.44
2.67 -2.6 -0.86
19.35 -18.83 1.42
2.69 -2.61 -0.73
19.46 -18.95 2.38
13.46 -13.1 -2.31
45.86 -44.64 10.14
16.36 -15.92 -2
17.26 -16.8 -1.26
17.04 -16.59 -0.42
2.64 -2.59 -0.99
16.97 -16.63 0.41
2.65 -2.6 -0.86
19.28 -18.9 1.42
2.68 -2.63 -0.73
13.44 -13.18 -2.31
16.24 -15.92 -1.99
17.28 -16.94 -1.27
2.62 -2.59 -0.99
16.78 -16.57 0.41
2.64 -2.61 -0.86
19.59 -19.34 1.44
2.66 -2.63 -0.73
13.43 -13.25 -2.32
16.14 -15.93 -1.98
17.56 -17.33 -1.29
17.15 -16.93 -0.42
2.6 -2.59 -0.98
18.05 -17.94 0.44
2.62 -2.6 -0.85
19.38 -19.27 1.43
2.65 -2.64 -0.73
13.42 -13.34 -2.32
16.07 -15.97 -1.98
17.43 -17.33 -1.29
17.05 -16.94 -0.42
2.6 -2.6 -0.98
19.4 -19.42 0.48
2.6 -2.61 -0.85
2.63 -2.63 -0.72
13.44 -13.45 -2.33
16.11 -16.12 -1.99
17.35 -17.37 -1.29
20.97 -20.98 -0.52
2.58 -2.6 -0.98
16.95 -17.07 0.42
2.59 -2.61 -0.85
19.68 -19.82 1.46
2.61 -2.63 -0.72
44.72 -45.05 7.79
13.42 -13.52 -2.34
17.05 -17.18 -2.12
16.62 -16.75 -1.24
17.1 -17.22 -0.42
2.55 -2.59 -0.97
17.05 -17.29 0.42
2.58 -2.61 -0.85
18.96 -19.23 1.42
2.6 -2.64 -0.72
13.4 -13.59 -2.34
16.35 -16.58 -2.04
16.64 -16.88 -1.24
17.41 -17.66 -0.43
2.54 -2.6 -0.97
16.99 -17.37 0.42
2.56 -2.62 -0.85
18.47 -18.88 1.38
2.58 -2.63 -0.72
19.69 -20.13 2.46
13.4 -13.7 -2.35
44.57 -45.56 10.09
16.26 -16.62 -2.03
17.47 -17.86 -1.31
17.45 -17.84 -0.44
2.52 -2.6 -0.97
16.74 -17.23 0.42
2.53 -2.61 -0.84
2.56 -2.64 -0.71
2.66 -2.74 -0.61
40.82 -42.01 7.19
13.4 -13.79 -2.36
16.91 -17.4 -2.12
19.32 -19.88 -1.45
17.32 -17.83 -0.43
2.52 -2.61 -0.97
17.09 -17.71 0.43
2.53 -2.62 -0.84
17.23 -17.85 1.3
2.55 -2.64 -0.71
18.52 -19.18 2.33
2.65 -2.74 -0.6
41.3 -42.78 7.3
13.4 -13.88 -2.37
16.85 -17.46 -2.12
16.39 -16.97 -1.24
18.57 -19.24 -0.47
2.5 -2.61 -0.97
17.34 -18.08 0.44
2.51 -2.62 -0.84
18.97 -19.78 1.44
2.53 -2.64 -0.71
2.62 -2.73 -0.6
13.39 -13.97 -2.38
16.8 -17.52 -2.12
19.33 -20.16 -1.46
2.47 -2.6 -0.96
19.9 -20.9 0.5
2.49 -2.62 -0.83
2.52 -2.65 -0.71
2.59 -2.72 -0.6
13.38 -14.05 -2.38
16.73 -17.57 -2.12
16.38 -17.21 -1.25
18.39 -19.31 -0.47
2.46 -2.6 -0.96
19.46 -20.57 0.49
2.47 -2.61 -0.83
17.02 -18 1.3
2.51 -2.65 -0.71
18.44 -19.5 2.35
2.57 -2.72 -0.59
13.36 -14.13 -2.39
18.81 -19.89 -2.4
16.37 -17.31 -1.25
16.61 -17.57 -0.42
2.45 -2.61 -0.96
16.54 -17.62 0.42
2.45 -2.61 -0.83
16.94 -18.05 1.3
2.5 -2.66 -0.71
2.54 -2.71 -0.59
13.34 -14.21 -2.39
16.59 -17.68 -2.12
16.3 -17.36 -1.25
16.52 -17.59 -0.42
2.43 -2.61 -0.96
2.44 -2.61 -0.82
16.98 -18.21 1.3
2.48 -2.66 -0.71
2.53 -2.72 -0.59
39.74 -42.62 7.16
13.32 -14.29 -2.4
16.54 -17.73 -2.12
16.6 -17.8 -1.28
20.64 -22.13 -0.53
2.42 -2.61 -0.95
17.87 -19.31 0.46
2.42 -2.62 -0.82
18.46 -19.94 1.42
2.46 -2.66 -0.7
39.59 -42.76 7.16
13.32 -14.39 -2.41
16.49 -17.82 -2.12
18.95 -20.47 -1.46
16.51 -17.84 -0.42
2.39 -2.6 -0.95
16.33 -17.75 0.42
2.41 -2.62 -0.82
16.64 -18.1 1.29
2.45 -2.66 -0.7
2.31 -2.51 -0.54
13.3 -14.46 -2.41
16.44 -17.87 -2.12
16.42 -17.85 -1.27
