# .PCD v0.7 - Point Cloud Data file format
VERSION 0.7
FIELDS x y z
SIZE 4 4 4
TYPE F F F
COUNT 1 1 1
WIDTH 2723
HEIGHT 1
VIEWPOINT 0 0 0 1 0 0 0
POINTS 2723
DATA ascii
-15.94 3.39 -0.85
-1.13 0.24 -0.31
-1.08 0.23 -0.21
-10.96 2.37 -1.78
-1.61 0.35 -0.2
-15.84 3.43 -1.42
-53.65 11.61 10.67
-15.85 3.43 -0.85
-1.12 0.25 -0.31
-31.91 7.02 -7.54
-1.08 0.24 -0.21
-10.93 2.41 -1.77
-1.61 0.35 -0.2
-15.89 3.5 -1.42
-15.85 3.49 -0.85
-1.13 0.25 -0.31
-31.92 7.14 -7.55
-1.08 0.24 -0.22
-10.92 2.44 -1.77
-62.67 14.02 7.89
-1.61 0.36 -0.2
-53.84 12.05 8.74
-1.15 0.26 -0.32
-31.93 7.26 -7.56
-1.08 0.25 -0.22
-10.91 2.48 -1.77
-62.24 14.15 7.84
-1.6 0.36 -0.2
-20.56 4.68 -1.84
-31.5 7.16 -1.69
-1.15 0.26 -0.32
-31.95 7.38 -7.57
-1.07 0.25 -0.21
-10.9 2.52 -1.77
-1.6 0.37 -0.2
-53.83 12.44 8.75
-20.53 4.74 -1.84
-31.48 7.27 -1.69
-1.15 0.27 -0.32
-31.96 7.5 -7.58
-1.09 0.25 -0.22
-1.8 0.42 -0.29
-1.6 0.38 -0.2
-53.82 12.63 8.76
-20.48 4.81 -1.84
-32.87 7.71 -0.59
-1.11 0.26 -0.31
-31.98 7.63 -7.59
-1.09 0.26 -0.22
-32.62 7.78 2.93
-1.78 0.42 -0.29
-53.85 12.84 6.8
-1.61 0.38 -0.2
-20.43 4.87 -1.84
-32.68 7.79 -1.76
-1.13 0.27 -0.31
-32.63 7.9 0.59
-31.98 7.74 -7.6
-32.65 7.9 1.76
-1.09 0.26 -0.22
-32.62 7.9 2.94
-10.85 2.63 -1.77
-1.61 0.39 -0.2
-20.4 4.94 -1.84
-1.13 0.28 -0.31
-32.65 8.02 0.59
-32 7.87 -7.61
-1.09 0.27 -0.22
-53.92 13.25 4.86
-10.85 2.67 -1.77
-1.6 0.39 -0.2
-20.36 5.01 -1.83
-38.96 9.58 -2.1
-1.16 0.29 -0.32
-32.65 8.15 0.59
-32.02 7.99 -7.62
-1.07 0.27 -0.22
-10.84 2.7 -1.77
-1.61 0.4 -0.2
-20.32 5.07 -1.83
-39.02 9.74 -2.11
-1.13 0.29 -0.31
-32.66 8.27 0.59
-32.04 8.11 -7.63
-1.08 0.27 -0.22
-10.83 2.74 -1.77
-1.61 0.41 -0.2
-20.3 5.14 -1.83
-38.89 9.85 -2.1
-1.12 0.29 -0.31
-32.67 8.39 0.59
-32.06 8.24 -7.64
-1.09 0.28 -0.22
-55 14.13 4.97
-10.81 2.78 -1.77
-1.62 0.42 -0.21
-20.27 5.21 -1.83
-1.12 0.29 -0.31
-32.69 8.52 0.59
-32.07 8.36 -7.65
-54.43 14.19 2.95
-1.09 0.28 -0.22
-10.8 2.82 -1.77
-54.95 14.32 6.97
-1.62 0.42 -0.21
-20.26 5.28 -1.83
-1.14 0.3 -0.32
-32.71 8.65 0.59
-1.09 0.29 -0.22
-10.79 2.85 -1.77
-55 14.54 6.98
-1.64 0.43 -0.21
-36.91 9.76 6.05
-20.24 5.35 -1.83
-54.21 14.33 -0.98
-1.14 0.31 -0.32
-32.72 8.77 0.59
-1.45 0.39 -0.35
-1.08 0.29 -0.22
-10.77 2.89 -1.77
-36.56 9.8 4.65
-1.62 0.43 -0.21
-20.21 5.42 -1.83
-54.65 14.65 13.06
-54.31 14.56 -0.98
-1.12 0.3 -0.31
-32.73 8.9 0.59
-1.46 0.4 -0.35
-1.08 0.29 -0.22
-38.79 10.55 3.52
-10.77 2.93 -1.77
-1.61 0.44 -0.2
-20.19 5.49 -1.83
-33.29 9.05 -1.81
-1.12 0.31 -0.31
-32.74 9.02 0.59
-1.45 0.4 -0.35
-1.08 0.3 -0.22
-37.75 10.4 3.43
-10.74 2.96 -1.76
-1.62 0.45 -0.21
-35.57 9.8 5.84
-20.21 5.57 -1.83
-32.89 9.07 -0.6
-1.13 0.31 -0.31
-32.75 9.15 0.59
-1.45 0.4 -0.35
-42.42 11.85 2.31
-1.09 0.31 -0.22
-38.43 10.74 3.49
-10.73 3 -1.76
-42.75 11.94 5.45
-1.63 0.45 -0.21
-36.19 10.11 5.95
-1.69 0.47 -0.15
-38.13 10.65 7.7
-1.12 0.32 -0.31
-32.76 9.28 0.59
-1.44 0.41 -0.35
-1.09 0.31 -0.22
-10.72 3.03 -1.76
-1.61 0.45 -0.2
-1.68 0.47 -0.15
-42.35 11.99 -0.77
-1.16 0.33 -0.32
-32.78 9.41 0.6
-1.44 0.41 -0.35
-1.08 0.31 -0.22
-10.71 3.07 -1.76
-1.62 0.46 -0.21
-1.65 0.47 -0.15
-38.82 11.14 -2.12
-1.13 0.33 -0.32
-1.43 0.42 -0.34
-1.08 0.31 -0.22
-38.1 11.08 3.47
-10.69 3.11 -1.76
-35.6 10.35 4.55
-1.63 0.47 -0.21
-38.4 11.16 6.33
-1.62 0.47 -0.15
-38.57 11.21 -2.11
-36.13 10.5 8.69
-1.14 0.33 -0.32
-1.43 0.42 -0.34
-38.92 11.46 2.13
-1.09 0.32 -0.22
-10.66 3.14 -1.76
-35.55 10.47 4.55
-1.63 0.48 -0.21
-35.36 10.41 5.84
-1.67 0.49 -0.15
-38.29 11.28 -2.09
-1.13 0.34 -0.32
-1.4 0.42 -0.34
-1.09 0.32 -0.22
-37.09 11.06 3.39
-10.65 3.18 -1.76
-35.61 10.62 4.56
-14.01 4.18 -1.8
-20.07 5.99 -1.83
-37.95 11.32 -2.08
-1.15 0.35 -0.32
-1.4 0.42 -0.34
-39.16 11.83 2.14
-1.09 0.33 -0.22
-37.5 11.33 3.43
-10.64 3.21 -1.76
-13.96 4.22 -1.79
-38.53 11.64 6.38
-20.03 6.05 -1.83
-37.68 11.38 -2.06
-36.52 11.03 8.81
-1.15 0.35 -0.32
-44.17 13.51 0.81
-1.38 0.42 -0.33
-37.8 11.56 2.07
-1.07 0.33 -0.22
-37.9 11.6 3.47
-10.64 3.25 -1.76
-1.61 0.49 -0.21
-36.71 11.23 6.08
-20 6.12 -1.83
-36.02 11.02 7.32
-37.4 11.44 -2.05
-1.12 0.35 -0.31
-1.39 0.43 -0.34
-1.07 0.33 -0.22
-37.86 11.73 3.47
-10.62 3.29 -1.76
-1.6 0.5 -0.21
-36.44 11.29 6.04
-19.97 6.19 -1.83
-37.11 11.5 -2.04
-44.17 13.68 -0.81
-1.12 0.35 -0.32
-42.72 13.4 0.78
-1.37 0.43 -0.33
-1.08 0.34 -0.22
-37.69 11.82 3.46
-10.61 3.33 -1.76
-39.69 12.45 5.11
-1.58 0.5 -0.2
-36.24 11.36 6.02
-19.93 6.25 -1.83
-35.84 11.24 7.3
-36.96 11.59 -2.03
-35.48 11.13 8.58
-1.13 0.36 -0.32
-41.02 13.02 0.75
-1.35 0.43 -0.33
-1.09 0.35 -0.22
-10.59 3.36 -1.76
-33.37 10.59 4.3
-1.59 0.5 -0.2
-19.91 6.32 -1.83
-36.75 11.66 -2.02
-35.56 11.29 8.61
-1.13 0.36 -0.32
-42.46 13.64 0.78
-1.34 0.43 -0.32
-35.3 11.34 1.94
-8.63 2.77 -1.76
-38.22 12.28 3.51
-10.58 3.4 -1.76
-36.49 11.72 4.71
-1.57 0.5 -0.2
-33.86 10.88 5.63
-19.9 6.39 -1.83
-39.36 12.64 8.03
-36.49 11.72 -2.01
-37.45 12.03 9.08
-36.16 11.62 10.18
-1.14 0.37 -0.32
-42.85 13.93 0.79
-1.34 0.43 -0.32
-34.74 11.29 1.91
-8.61 2.8 -1.76
-10.56 3.43 -1.76
-33.16 10.78 4.28
-1.57 0.51 -0.2
-19.86 6.46 -1.83
-39.44 12.82 8.06
-36.96 12.02 -2.04
-35.43 11.52 8.6
-1.13 0.37 -0.32
-1.33 0.44 -0.32
-1.08 0.36 -0.22
-10.55 3.47 -1.76
-32.63 10.73 4.22
-13.83 4.55 -1.79
-19.83 6.52 -1.83
-37.42 12.31 7.66
-37.26 12.26 -2.06
-40.79 13.42 -0.75
-1.13 0.38 -0.32
-43.27 14.39 0.8
-1.33 0.44 -0.32
-1.08 0.36 -0.22
-10.54 3.51 -1.76
-32.64 10.86 4.22
-13.84 4.61 -1.79
-19.79 6.58 -1.83
-36.63 12.19 7.5
-37.06 12.33 -2.05
-41.03 13.65 -0.75
-1.14 0.38 -0.32
-1.32 0.44 -0.32
-41.29 13.89 2.28
-1.09 0.37 -0.22
-10.52 3.54 -1.76
-32.68 11 4.23
-1.57 0.53 -0.2
-35.72 12.02 5.97
-19.74 6.64 -1.82
-37.13 12.49 -2.05
-40.04 13.48 -0.74
-1.15 0.39 -0.32
-1.31 0.45 -0.32
-38.86 13.23 2.15
-1.11 0.38 -0.23
-37.4 12.73 3.46
-10.51 3.58 -1.76
-32.78 11.16 4.25
-1.54 0.52 -0.2
-42.96 14.63 7.19
-19.73 6.72 -1.82
-37.48 12.76 -2.07
-36.2 12.32 8.83
-35.95 12.24 10.18
-1.14 0.39 -0.32
-38.89 13.39 0.72
-1.3 0.45 -0.32
-1.1 0.38 -0.23
-10.49 3.61 -1.76
-33.62 11.58 4.37
-1.52 0.52 -0.2
-19.66 6.77 -1.82
-36.49 12.56 7.5
-36.98 12.73 -2.05
-35.8 12.33 10.15
-1.13 0.39 -0.32
-43.06 15 0.8
-1.32 0.46 -0.32
-1.09 0.38 -0.22
-10.49 3.65 -1.76
-33.66 11.73 4.38
-1.53 0.53 -0.2
-19.63 6.84 -1.82
-35.58 12.4 7.32
-37.4 13.03 -2.08
-38.61 13.45 9.44
-38.01 13.24 -0.7
-1.12 0.39 -0.32
-42.06 14.82 0.78
-1.31 0.46 -0.32
-1.11 0.39 -0.23
-37.31 13.15 3.46
-10.47 3.69 -1.76
-33.64 11.85 4.38
-1.52 0.53 -0.2
-19.57 6.9 -1.82
-37.31 13.15 -2.07
-1.14 0.41 -0.33
-7.23 2.57 -1.77
-1.1 0.39 -0.23
-37.27 13.27 3.46
-10.46 3.72 -1.76
-33.63 11.97 4.38
-1.49 0.53 -0.19
-37.88 13.49 6.37
-19.54 6.96 -1.81
-37.06 13.2 -2.06
-39.71 14.14 -0.74
-1.14 0.41 -0.32
-7.23 2.6 -1.77
-1.1 0.4 -0.23
-42.79 15.4 3.98
-10.44 3.76 -1.76
-44.07 15.87 5.75
-1.48 0.53 -0.19
-37.76 13.59 6.36
-19.5 7.02 -1.81
-43.16 15.54 8.92
-36.85 13.27 -2.05
-42.4 15.27 -0.79
-1.14 0.41 -0.32
-39.21 14.27 0.73
-38.49 14.01 2.15
-1.09 0.4 -0.23
-10.43 3.8 -1.76
-44.02 16.02 5.75
-1.48 0.54 -0.19
-38.13 13.88 6.43
-19.47 7.09 -1.81
-34.25 12.47 7.09
-36.48 13.28 -2.03
-42.52 15.47 -0.79
-1.13 0.42 -0.32
-39.8 14.64 2.22
-1.1 0.4 -0.23
-36.43 13.4 3.4
-10.42 3.83 -1.76
-39.24 14.44 5.13
-1.48 0.54 -0.19
-37.94 13.96 6.4
-19.43 7.15 -1.81
-36.89 13.57 7.64
-36.34 13.37 -2.03
-36.62 13.47 9.01
-41.76 15.37 -0.78
-37.53 13.81 10.71
-1.13 0.42 -0.32
-40.86 15.2 0.76
-1.26 0.47 -0.31
-1.1 0.41 -0.23
-36.36 13.52 3.39
-10.39 3.86 -1.76
-33.59 12.49 4.4
-1.47 0.55 -0.19
-34.6 12.87 5.85
-19.39 7.21 -1.81
-36.17 13.45 -2.02
-36.47 13.56 8.98
-1.13 0.43 -0.32
-38.79 14.58 0.72
-1.18 0.44 -0.29
-1.1 0.42 -0.23
-40.42 15.19 3.78
-10.38 3.9 -1.76
-33.49 12.59 4.39
-1.46 0.55 -0.19
-34.63 13.02 5.86
-19.38 7.28 -1.81
-37.83 14.22 7.86
-35.94 13.51 -2.01
-38.66 14.53 -0.72
-35.49 13.34 10.16
-1.14 0.43 -0.33
-42.06 15.98 0.79
-1.16 0.44 -0.29
-34.18 12.99 1.92
-1.11 0.42 -0.23
-32.97 12.52 3.09
-10.37 3.94 -1.76
-33.33 12.66 4.38
-1.44 0.55 -0.19
-35.73 13.57 6.05
-19.37 7.36 -1.81
-36.24 13.77 7.54
-35.65 13.54 -2
-36.01 13.68 8.89
-41.55 15.78 -0.78
-36.59 13.9 10.49
-1.13 0.43 -0.32
-37.97 14.57 0.71
-1.14 0.44 -0.28
-34.2 13.13 1.92
-1.1 0.42 -0.23
-36.32 13.94 3.4
-10.35 3.97 -1.76
-33.21 12.75 4.37
-1.44 0.55 -0.19
-34.9 13.4 5.92
-1.53 0.59 -0.14
-35.42 13.6 -1.99
-38.73 14.87 -0.72
-1.13 0.44 -0.32
-38.77 15.04 0.73
-1.14 0.44 -0.28
-34.19 13.26 1.92
-1.1 0.43 -0.23
-10.33 4.01 -1.76
-33.69 13.07 4.44
-1.43 0.56 -0.19
-19.32 7.49 -1.81
-35.19 13.65 -1.98
-1.11 0.44 -0.32
-1.13 0.44 -0.28
-34.23 13.41 1.93
-1.11 0.43 -0.23
-32.58 12.77 3.06
-10.31 4.04 -1.75
-32.84 12.87 4.33
-1.43 0.56 -0.19
-39.68 15.55 6.75
-19.26 7.55 -1.81
-35.98 14.1 7.51
-35.08 13.75 -1.97
-38.82 15.21 -0.73
-35 13.72 10.07
-1.12 0.44 -0.32
-1.12 0.44 -0.28
-34.28 13.57 1.93
-1.11 0.44 -0.23
-32.52 12.88 3.06
-10.29 4.07 -1.75
-32.72 12.95 4.32
-1.41 0.56 -0.19
-35.86 14.2 6.11
-19.19 7.6 -1.81
-35.91 14.22 7.51
-35 13.86 -1.97
-37.42 14.82 9.29
-38.45 15.22 -0.72
-1.11 0.44 -0.32
-38.32 15.33 0.72
-1.1 0.44 -0.27
-31.35 12.54 1.77
-1.11 0.44 -0.23
-32.66 13.06 3.08
-10.27 4.11 -1.75
-32.81 13.12 4.34
-1.4 0.56 -0.18
-19.14 7.66 -1.8
-37.19 14.87 7.79
-34.73 13.89 -1.96
-35.97 14.39 8.94
-34.78 13.91 -0.65
-35.17 14.07 10.15
-1.1 0.45 -0.32
-41.47 16.75 0.78
-1.1 0.44 -0.27
-31.34 12.66 1.77
-1.1 0.44 -0.23
-32.61 13.18 3.08
-10.27 4.15 -1.75
-36.87 14.9 4.88
-1.38 0.56 -0.18
-43.9 17.74 7.5
-19.1 7.72 -1.8
-34.37 13.89 -1.94
-1.09 0.44 -0.31
-1.1 0.45 -0.27
-31.24 12.75 1.77
-1.11 0.45 -0.23
-31.99 13.05 3.02
-10.24 4.18 -1.75
-33.3 13.59 4.42
-1.37 0.56 -0.18
-19.03 7.77 -1.8
-35.82 14.62 7.52
-34.27 13.99 -1.94
-34.68 14.15 -0.65
-1.09 0.45 -0.32
-37.26 15.36 0.7
-1.09 0.45 -0.27
-31.15 12.84 1.77
-1.11 0.46 -0.23
-32.03 13.2 3.03
-10.22 4.21 -1.75
-33.08 13.63 4.39
-1.36 0.56 -0.18
-18.99 7.83 -1.8
-33.92 13.98 -1.92
-36.81 15.17 9.19
-36.68 15.12 10.63
-1.08 0.45 -0.31
-1.07 0.44 -0.27
-31.16 12.97 1.77
-1.13 0.47 -0.24
-32.15 13.38 3.05
-10.21 4.25 -1.75
-32.98 13.73 4.39
-1.35 0.56 -0.18
-35.89 14.94 6.16
-18.95 7.89 -1.8
-33.67 14.02 -1.91
-36.75 15.3 9.19
-34.45 14.34 -0.65
-34.82 14.5 10.11
-1.08 0.45 -0.31
-34.18 14.37 0.65
-1.07 0.45 -0.27
-33.29 13.99 1.89
-1.11 0.47 -0.23
-32 13.45 3.04
-10.19 4.28 -1.75
-32.65 13.73 4.35
-1.35 0.57 -0.18
-18.91 7.95 -1.79
-33.77 14.2 -1.92
-34.21 14.38 -0.65
-1.08 0.46 -0.31
-1.08 0.46 -0.27
-30.95 13.14 1.76
-1.1 0.47 -0.23
-32.03 13.59 3.04
-10.18 4.32 -1.75
-35.88 15.23 4.79
-1.3 0.55 -0.17
-18.88 8.01 -1.79
-36.51 15.5 7.71
-33.97 14.42 -1.93
-36.36 15.44 9.12
-1.05 0.45 -0.3
-37.78 16.19 0.72
-1.09 0.47 -0.27
-31.07 13.32 1.77
-8.28 3.55 -1.75
-31.94 13.69 3.04
-10.16 4.36 -1.75
-33.33 14.28 4.45
-1.3 0.56 -0.17
-36.36 15.58 6.27
-18.84 8.07 -1.79
-36.29 15.56 7.68
-33.89 14.53 -1.93
-33.69 14.44 -0.64
-1.04 0.45 -0.3
-1.09 0.47 -0.27
-30.53 13.21 1.74
-8.28 3.58 -1.75
-31.73 13.73 3.02
-10.13 4.38 -1.75
-33.44 14.47 4.47
-1.29 0.56 -0.17
-36.27 15.69 6.26
-18.8 8.13 -1.79
-33.9 14.67 -1.94
-43.59 18.86 10.96
-33.78 14.61 -0.64
-1.04 0.45 -0.3
-34.63 15.12 0.66
-1.08 0.47 -0.27
-30.56 13.34 1.75
-8.26 3.61 -1.75
-31.11 13.58 2.97
-10.13 4.42 -1.75
-36.15 15.78 4.84
-1.28 0.56 -0.17
-36.14 15.78 6.25
-18.78 8.2 -1.79
-43.48 18.99 9.22
-32.57 14.22 -1.86
-33.54 14.64 -0.64
-1.04 0.46 -0.3
-32.27 14.22 0.62
-1.08 0.48 -0.27
-30.55 13.46 1.75
-8.25 3.64 -1.75
-31.22 13.76 2.98
-10.16 4.48 -1.76
-36.05 15.89 4.84
-1.26 0.56 -0.17
-43.56 19.2 7.54
-18.76 8.27 -1.79
-33.61 14.82 -0.64
-1.04 0.46 -0.3
-35.84 15.95 0.68
-1.08 0.48 -0.27
-30.44 13.55 1.75
-8.23 3.66 -1.75
-31.2 13.89 2.99
-1.19 0.53 -0.21
-31.49 14.01 4.23
-1.26 0.56 -0.17
-36.02 16.03 6.25
-18.73 8.34 -1.79
-50.68 22.56 10.78
-32.28 14.36 -1.85
-42.77 19.03 10.81
-33.67 14.98 -0.64
-1.03 0.46 -0.3
-35.76 16.06 0.68
-6.92 3.11 -1.75
-30.6 13.74 1.76
-8.22 3.69 -1.75
-31.18 14 2.99
-1.19 0.53 -0.21
-31.37 14.09 4.22
-1.26 0.56 -0.17
-18.67 8.38 -1.79
-32.38 14.54 -1.86
-34.85 15.65 -0.67
-1.03 0.47 -0.3
-32.14 14.58 0.62
-6.91 3.14 -1.75
-30.02 13.62 1.73
-8.21 3.72 -1.75
-31.2 14.15 3
-1.19 0.54 -0.21
-31.33 14.21 4.22
-1.24 0.56 -0.17
-18.64 8.46 -1.79
-31.84 14.44 -1.83
-35.84 16.26 -0.69
-1.01 0.46 -0.3
-32.1 14.69 0.62
-6.89 3.16 -1.75
-30.74 14.07 1.77
-8.2 3.75 -1.75
-31.28 14.32 3.01
-1.2 0.55 -0.21
-1.24 0.57 -0.17
-18.6 8.51 -1.79
-35.19 16.11 -2.03
-33.33 15.26 -0.64
-1.03 0.47 -0.3
-35.78 16.53 0.69
-6.87 3.17 -1.75
-31.87 14.72 1.84
-8.18 3.78 -1.75
-31.14 14.38 3
-1.2 0.55 -0.21
-31.06 14.35 4.2
-1.21 0.56 -0.16
-18.57 8.58 -1.79
-31.6 14.6 -1.82
-50.51 23.33 -0.97
-1.03 0.48 -0.31
-35.75 16.66 0.69
-6.86 3.2 -1.75
-31.95 14.89 1.85
-8.16 3.8 -1.75
-30.95 14.42 2.99
-1.2 0.56 -0.21
-1.22 0.57 -0.16
-18.55 8.64 -1.79
-31.31 14.59 -1.81
-35.76 16.66 -0.69
-1.01 0.47 -0.3
-31.75 14.93 0.61
-6.85 3.22 -1.75
-30.64 14.41 1.77
-8.15 3.83 -1.75
-31.81 14.96 3.08
-1.21 0.57 -0.21
-1.2 0.57 -0.16
-42.72 20.09 7.48
-18.49 8.7 -1.79
-31.55 14.84 -1.83
-35.69 16.79 -0.69
-42.3 19.89 12.52
-1.02 0.48 -0.3
-31.82 15.1 0.61
-6.84 3.24 -1.75
-30.79 14.61 1.79
-8.14 3.86 -1.75
-31.84 15.11 3.08
-1.19 0.56 -0.21
-29.71 14.1 4.04
-1.21 0.57 -0.16
-44.07 20.91 7.73
-18.46 8.76 -1.79
-31.69 15.04 -1.84
-44.23 20.99 11.3
-43.58 20.68 -0.84
-5.89 2.82 -1.75
-31.72 15.19 0.61
-6.82 3.27 -1.75
-30.68 14.69 1.78
-8.12 3.89 -1.75
-31.19 14.94 3.03
-1.17 0.56 -0.21
-29.66 14.21 4.04
-1.21 0.58 -0.17
-43.9 21.03 7.71
-18.43 8.82 -1.79
-42.57 20.39 9.17
-30.94 14.82 -1.8
-42.66 20.43 10.92
-32.01 15.33 -0.62
-27.03 12.94 8.03
-5.88 2.84 -1.75
-31.22 15.08 0.61
-6.8 3.29 -1.74
-30.31 14.64 1.76
-8.11 3.92 -1.75
-27.53 13.3 2.67
-1.16 0.56 -0.2
-29.64 14.32 4.04
-1.2 0.58 -0.16
-42.56 20.56 7.49
-18.38 8.88 -1.79
-31.77 15.35 -1.85
-31.86 15.39 -0.62
-5.87 2.86 -1.75
-31.1 15.16 0.6
-6.79 3.31 -1.75
-29.61 14.44 1.73
-8.09 3.94 -1.75
-27.95 13.62 2.72
-1.15 0.56 -0.2
-28.69 13.99 3.92
-1.19 0.58 -0.16
-18.34 8.94 -1.78
-31.77 15.49 -1.85
-31.88 15.54 -0.62
-27.27 13.29 8.13
-5.86 2.88 -1.75
-31.02 15.26 0.6
-6.78 3.34 -1.75
-29.7 14.6 1.73
-8.07 3.97 -1.75
-27.79 13.66 2.71
-1.14 0.56 -0.2
-28.78 14.15 3.94
-1.19 0.59 -0.16
-18.28 8.99 -1.78
-31.69 15.58 -1.85
-39.41 19.38 -0.77
-27.15 13.35 8.11
-5.85 2.9 -1.75
-30.94 15.35 0.6
-6.77 3.36 -1.75
-29.87 14.82 1.75
-8.07 4 -1.75
-27.38 13.58 2.67
-1.12 0.56 -0.2
-28.6 14.19 3.92
-1.19 0.59 -0.16
-26.62 13.21 4.71
-18.25 9.06 -1.78
-30.63 15.2 -1.79
-28.44 14.11 7.33
-35.19 17.46 -0.69
-26.87 13.33 8.04
-5.84 2.92 -1.75
-31.94 15.98 0.62
-6.75 3.38 -1.74
-29.61 14.82 1.74
-8.05 4.03 -1.75
-29.48 14.75 2.88
-1.12 0.56 -0.2
-28.39 14.21 3.9
-1.18 0.59 -0.16
-26.47 13.24 4.69
-18.23 9.12 -1.78
-31.6 15.81 -1.85
-35.28 17.65 -0.69
-5.83 2.94 -1.75
-31.64 15.98 0.62
-6.73 3.4 -1.74
-39.33 19.87 2.31
-8.04 4.06 -1.75
-29.4 14.85 2.88
-1.12 0.56 -0.2
-25.14 12.7 3.46
-1.14 0.57 -0.16
-26.3 13.28 4.67
-18.24 9.22 -1.79
-24.99 12.62 5.44
-32.04 16.19 -1.88
-27.23 13.75 8.17
-5.82 2.96 -1.75
-32.38 16.49 0.63
-6.73 3.43 -1.74
-39.62 20.18 2.33
-8 4.08 -1.75
-39.06 19.9 3.84
-1.12 0.57 -0.2
-25.12 12.8 3.46
-1.14 0.58 -0.16
-26.24 13.37 4.66
-18.19 9.27 -1.79
-24.91 12.69 5.43
-33.8 17.22 -1.99
-5.79 2.98 -1.74
-28.7 14.74 0.56
-6.73 3.46 -1.75
-39.52 20.3 2.33
-7.99 4.11 -1.75
-39.29 20.18 3.86
-1.11 0.57 -0.2
-25.04 12.86 3.46
-1.14 0.59 -0.16
-26.17 13.44 4.66
-18.14 9.32 -1.78
-25.13 12.91 5.49
-33.61 17.27 -1.98
-27.77 14.27 8.37
-5.78 2.99 -1.74
-32.77 16.98 0.64
-6.71 3.47 -1.74
-39.32 20.37 2.32
-7.98 4.13 -1.75
-39.53 20.48 3.89
-1.09 0.57 -0.2
-24.96 12.93 3.45
-1.14 0.59 -0.16
-26.16 13.55 4.67
-18.09 9.37 -1.78
-25.04 12.97 5.48
-31.61 16.37 -1.87
-27.81 14.41 8.39
-5.77 3.02 -1.74
-6.69 3.5 -1.74
-7.96 4.16 -1.75
-39.44 20.61 3.89
-1.09 0.57 -0.19
-25.11 13.12 3.48
-1.13 0.59 -0.16
-25.78 13.47 4.61
-18.02 9.42 -1.78
-24.28 12.69 5.33
-30.09 15.72 -1.78
-25.29 13.22 6.59
-29.73 15.54 -0.59
-5.76 3.04 -1.75
-6.67 3.52 -1.74
-38.86 20.48 2.3
-7.95 4.19 -1.75
-39.9 21.02 3.95
-1.08 0.57 -0.19
-25.28 13.32 3.51
-1.14 0.6 -0.16
-25.5 13.44 4.57
-18.03 9.5 -1.78
-25.02 13.18 5.5
-30.12 15.87 -1.78
-25.07 13.21 6.54
-5.75 3.05 -1.74
-38.48 20.45 0.76
-6.67 3.55 -1.75
-38.63 20.53 2.29
-7.92 4.21 -1.74
-30.59 16.26 3.03
-1.08 0.57 -0.19
-25.23 13.41 3.51
-12.71 6.75 -1.77
-17.98 9.56 -1.78
-25.01 13.29 5.5
-30.14 16.02 -1.79
-24.91 13.24 6.51
-32.24 17.13 -0.64
-5.73 3.07 -1.74
-32.97 17.67 0.65
-6.66 3.57 -1.75
-27.07 14.51 1.61
-7.9 4.24 -1.74
-30.3 16.24 3.01
-1.07 0.57 -0.19
-25.42 13.62 3.54
-12.68 6.79 -1.77
-25.63 13.74 4.61
-17.93 9.61 -1.78
-24.56 13.16 5.42
-28.67 15.36 -1.7
-24.45 13.11 6.41
-5.71 3.09 -1.74
-31.88 17.23 0.63
-6.65 3.59 -1.74
-26.99 14.59 1.61
-7.89 4.26 -1.74
-30.05 16.24 2.99
-1.04 0.56 -0.19
-25.97 14.03 3.62
-12.65 6.84 -1.77
-23.56 12.74 4.24
-17.89 9.67 -1.78
-24.41 13.19 5.39
-33.48 18.09 -1.99
-24.55 13.27 6.44
-32.15 17.38 -0.64
-24.39 13.18 7.43
-5.71 3.11 -1.74
-6.63 3.61 -1.74
-26.94 14.68 1.61
-7.88 4.29 -1.74
-30.3 16.51 3.02
-1.04 0.57 -0.19
-25.29 13.78 3.54
-1.12 0.61 -0.16
-23.49 12.8 4.24
-17.84 9.73 -1.78
-29.6 16.13 6.55
-32.36 17.64 -1.93
-24.43 13.31 6.42
-27.89 15.2 -0.55
-24.82 13.53 7.57
-5.7 3.13 -1.74
-32.51 17.87 0.65
-6.61 3.63 -1.74
-26.5 14.56 1.58
-7.85 4.32 -1.74
-41.42 22.76 4.14
-1.04 0.57 -0.19
-25.64 14.09 3.59
-1.1 0.6 -0.15
-25.1 13.79 4.54
-17.8 9.78 -1.78
-24.31 13.36 5.39
-31.31 17.21 -1.87
-24.44 13.43 6.44
-32.21 17.7 -0.64
-25.22 13.86 7.71
-5.69 3.15 -1.74
-28.78 15.94 0.57
-6.61 3.66 -1.74
-26.47 14.67 1.59
-7.83 4.34 -1.74
-26.08 14.45 2.61
-1.04 0.57 -0.19
-25.12 13.92 3.53
-1.08 0.6 -0.15
-23.69 13.12 4.29
-17.75 9.83 -1.78
-24.14 13.38 5.36
-31.43 17.41 -1.88
-24.27 13.45 6.41
-24.74 13.71 7.58
-5.67 3.17 -1.74
-35.73 19.96 0.71
-6.6 3.69 -1.75
-26.62 14.87 1.6
-7.82 4.37 -1.74
-25.9 14.47 2.6
-1.02 0.57 -0.19
-25.11 14.03 3.53
-1.06 0.59 -0.15
-29.39 16.42 5.33
-17.71 9.89 -1.77
-22.88 12.78 5.09
-31.02 17.33 -1.86
-24.18 13.51 6.4
-27.46 15.34 -0.55
-24.69 13.79 7.58
-5.66 3.19 -1.74
-29.84 16.81 0.6
-6.58 3.71 -1.74
-26.56 14.96 1.6
-7.81 4.4 -1.74
-25.73 14.49 2.58
-1.02 0.57 -0.19
-24.95 14.06 3.52
-1.06 0.6 -0.15
-17.65 9.94 -1.77
-22.86 12.88 5.1
-31.78 17.9 -1.91
-24.5 13.8 6.49
-25.06 14.12 7.71
-5.65 3.21 -1.74
-29.09 16.52 0.58
-6.56 3.72 -1.74
-32.34 18.36 1.95
-7.79 4.42 -1.74
-29.74 16.89 2.99
-1.02 0.58 -0.19
-24.8 14.08 3.5
-1.05 0.6 -0.15
-42.29 24.02 7.7
-17.62 10 -1.77
-23.06 13.09 5.15
-31.46 17.86 -1.9
-24.2 13.74 6.42
-29.79 16.92 -0.6
-25.4 14.42 7.83
-5.64 3.23 -1.74
-29.05 16.63 0.58
-6.55 3.75 -1.74
-26.47 15.16 1.6
-7.78 4.45 -1.74
-25.72 14.72 2.59
-1.01 0.58 -0.18
-1.05 0.6 -0.15
-23.46 13.43 4.28
-17.57 10.06 -1.77
-23.02 13.18 5.16
-31.58 18.08 -1.91
-23.63 13.53 6.29
-27.43 15.7 -0.55
-23.92 13.69 7.38
-5.64 3.25 -1.74
-26.84 15.49 0.54
-6.54 3.77 -1.74
-29.88 17.25 1.81
-7.75 4.47 -1.74
-25.68 14.82 2.59
-1 0.58 -0.18
-29.24 16.87 4.15
-12.42 7.17 -1.76
-23.18 13.38 4.24
-17.52 10.11 -1.77
-23.11 13.34 5.19
-26.86 15.5 -1.63
-23.58 13.61 6.29
-27.44 15.84 -0.55
-23.82 13.74 7.37
-5.61 3.26 -1.74
-26.57 15.46 0.54
-6.53 3.8 -1.74
-25.96 15.1 1.57
-7.73 4.5 -1.74
-29.49 17.16 2.98
-1 0.58 -0.18
-29.17 16.97 4.14
-12.39 7.21 -1.76
-23.37 13.59 4.28
-17.46 10.16 -1.77
-22.47 13.07 5.05
-26.27 15.28 -1.59
-23.53 13.69 6.28
-30.23 17.59 -0.61
-23.71 13.79 7.35
-5.6 3.28 -1.74
-26.33 15.44 0.53
-6.52 3.82 -1.74
-26.23 15.38 1.59
-7.72 4.53 -1.74
-29.46 17.28 2.99
-0.98 0.57 -0.18
-40.65 23.84 5.79
-12.34 7.24 -1.76
-22.85 13.4 4.19
-17.41 10.21 -1.77
-22.43 13.15 5.05
-30.16 17.69 -1.83
-22.72 13.32 6.08
-30.15 17.68 -0.61
-23.67 13.88 7.35
-5.6 3.31 -1.74
-26.29 15.54 0.53
-6.5 3.84 -1.74
-25.47 15.06 1.55
-7.7 4.55 -1.74
-29.11 17.21 2.96
-0.97 0.57 -0.18
-23.64 13.97 3.37
-12.3 7.27 -1.75
-22.42 13.26 4.13
-17.37 10.27 -1.77
-23.56 13.93 5.32
-30.14 17.82 -1.83
-22.61 13.37 6.06
-29.89 17.67 -0.61
-5.58 3.32 -1.74
-26.32 15.69 0.53
-6.47 3.86 -1.74
-25.13 14.97 1.53
-7.69 4.58 -1.74
-31.33 18.67 3.19
-0.95 0.57 -0.18
-40.33 24.03 5.76
-12.26 7.31 -1.75
-22.54 13.43 4.15
-17.31 10.32 -1.76
-25.76 15.35 5.83
-30.04 17.9 -1.83
-22.45 13.38 6.03
-29.91 17.82 -0.61
-5.56 3.34 -1.74
-26.33 15.81 0.54
-6.47 3.88 -1.74
-25.57 15.36 1.56
-7.66 4.6 -1.74
-35.43 21.28 3.62
-0.96 0.57 -0.18
-40.51 24.33 5.8
-12.23 7.35 -1.75
-22.4 13.45 4.14
-17.26 10.37 -1.76
-24.91 14.96 5.65
-30 18.02 -1.83
-22.87 13.74 6.16
-5.54 3.36 -1.74
-6.46 3.91 -1.74
-26.01 15.75 1.59
-7.65 4.63 -1.74
-35.34 21.4 3.61
-0.95 0.58 -0.18
-28.38 17.18 4.07
-12.2 7.39 -1.75
-22.35 13.53 4.14
-17.22 10.43 -1.76
-25.13 15.21 5.71
-30.16 18.26 -1.85
-22.63 13.7 6.11
-25.26 15.29 7.91
-5.53 3.37 -1.74
-6.44 3.93 -1.74
-24.97 15.23 1.53
-7.64 4.66 -1.74
-35.34 21.56 3.62
-0.94 0.58 -0.17
-25.61 15.63 3.68
-12.18 7.43 -1.75
-17.18 10.48 -1.76
-24.53 14.97 5.58
-28.12 17.16 -1.73
-22.59 13.79 6.11
-28.87 17.61 -0.59
-22.41 13.67 7.03
-5.52 3.4 -1.74
-28.65 17.62 0.59
-6.42 3.95 -1.74
-30.88 18.99 1.9
-7.62 4.68 -1.74
-27.36 16.82 2.81
-0.94 0.58 -0.18
-25.68 15.79 3.7
-12.14 7.47 -1.75
-23.25 14.3 4.32
-17.14 10.54 -1.76
-25.54 15.71 5.83
-25.65 15.77 -1.58
-22.79 14.02 6.18
-22.79 14.02 7.17
-5.51 3.42 -1.74
-25.63 15.89 0.53
-6.41 3.97 -1.74
-24.43 15.14 1.51
-7.59 4.71 -1.74
-22.13 13.72 2.28
-0.94 0.58 -0.18
-21.54 13.35 3.11
-12.1 7.5 -1.75
-23.04 14.28 4.29
-17.09 10.59 -1.76
-30.6 18.96 7
-25.15 15.59 -1.55
-22.89 14.18 6.22
-28.61 17.73 -0.59
-22.8 14.13 7.19
-5.5 3.43 -1.74
-28.34 17.7 0.58
-6.4 4 -1.74
-24.45 15.27 1.51
-7.58 4.73 -1.74
-34.4 21.48 3.55
-0.93 0.58 -0.17
-21.45 13.4 3.11
-12.08 7.54 -1.75
-21.72 13.57 4.06
-17.06 10.66 -1.76
-30.58 19.1 7.01
-25.02 15.63 -1.55
-22.7 14.18 6.18
-32.14 20.08 -0.66
-22.73 14.2 7.18
-5.48 3.45 -1.73
-25.16 15.84 0.52
-6.39 4.02 -1.74
-24.33 15.32 1.51
-7.56 4.76 -1.74
-21.94 13.81 2.27
-0.92 0.58 -0.17
-21.47 13.52 3.12
-12.05 7.58 -1.75
-21.77 13.71 4.07
-17.01 10.71 -1.76
-28.36 17.85 6.51
-31.29 19.69 -1.94
-25.69 16.17 7.01
-31.99 20.14 -0.66
-22.62 14.24 7.16
-5.47 3.47 -1.74
-25.12 15.93 0.52
-6.37 4.04 -1.74
-31.3 19.86 1.94
-7.54 4.78 -1.74
-21.94 13.92 2.27
-0.91 0.58 -0.17
-21.31 13.52 3.1
-12.02 7.63 -1.75
-21.9 13.9 4.11
-16.97 10.76 -1.76
-27.39 17.37 6.3
-24.51 15.55 -1.52
-22.69 14.39 6.2
-33.99 21.56 -0.7
-22.6 14.34 7.17
-5.46 3.49 -1.74
-25.15 16.08 0.52
-6.35 4.06 -1.74
-24.46 15.64 1.52
-7.52 4.81 -1.74
-21.92 14.01 2.28
-0.9 0.58 -0.17
-21.4 13.68 3.12
-11.99 7.67 -1.75
-22.67 14.49 4.26
-16.92 10.82 -1.76
-21.93 14.02 5.06
-23.15 14.8 6.34
-28.86 18.45 -0.6
-22.75 14.55 7.24
-5.45 3.51 -1.74
-25 16.1 0.52
-6.34 4.08 -1.74
-24.47 15.76 1.53
-7.51 4.84 -1.74
-21.63 13.94 2.25
-0.9 0.58 -0.17
-21.32 13.73 3.11
-11.96 7.7 -1.75
-21.66 13.96 4.08
-16.87 10.87 -1.76
-24.23 15.61 -1.51
-22.1 14.24 6.07
-28.23 18.19 -0.59
-22.42 14.45 7.15
-5.43 3.53 -1.74
-25.1 16.29 0.52
-6.32 4.11 -1.74
-28.9 18.76 1.81
-7.49 4.86 -1.73
-21.8 14.15 2.27
-0.9 0.58 -0.17
-21.22 13.77 3.11
-11.91 7.73 -1.74
-20.82 13.52 3.93
-16.77 10.89 -1.75
-21.93 14.24 5.08
-28.82 18.71 -1.8
-22.14 14.37 6.09
-28.23 18.33 -0.59
-23.37 15.17 7.47
-5.41 3.54 -1.73
-25.62 16.76 0.53
-6.31 4.13 -1.74
-28.79 18.83 1.8
-7.46 4.88 -1.73
-23.67 15.48 2.47
-0.89 0.58 -0.17
-21.18 13.86 3.11
-11.86 7.76 -1.74
-21.64 14.15 4.1
-16.73 10.94 -1.75
-21.92 14.34 5.09
-28.79 18.83 -1.8
-22.09 14.45 6.09
-25.28 16.54 -0.53
-21.91 14.33 7.01
-5.41 3.56 -1.73
-25.52 16.82 0.53
-6.3 4.15 -1.74
-28.35 18.68 1.78
-7.45 4.91 -1.73
-21.38 14.09 2.24
-0.88 0.58 -0.17
-21.13 13.93 3.11
-11.83 7.8 -1.74
-21.66 14.28 4.11
-16.68 10.99 -1.75
-21.61 14.24 5.03
-23.88 15.74 -1.5
-26.44 17.42 7.31
-24.79 16.34 -0.52
-21.88 14.42 7.02
-5.4 3.59 -1.74
-28.33 18.82 0.59
-6.28 4.17 -1.74
-28.75 19.1 1.81
-7.42 4.93 -1.73
-21.24 14.11 2.23
-0.87 0.58 -0.17
-21.14 14.04 3.12
-11.81 7.84 -1.74
-21.75 14.45 4.14
-16.65 11.06 -1.75
-21.77 14.46 5.08
-24.96 16.58 -1.57
-22.35 14.84 6.19
-28.45 18.9 -0.6
-22.79 15.13 7.33
-5.38 3.6 -1.74
-26.51 17.74 0.56
-6.26 4.19 -1.74
-27.53 18.42 1.74
-7.42 4.96 -1.74
-23.82 15.94 2.51
-0.87 0.58 -0.17
-25.71 17.2 3.8
-11.76 7.87 -1.74
-21.64 14.48 4.12
-16.6 11.11 -1.75
-21.56 14.43 5.04
-23.64 15.82 -1.49
-21.42 14.33 5.95
-27.54 18.43 -0.58
-21.88 14.64 7.06
-5.38 3.63 -1.74
-25.19 16.99 0.53
-6.24 4.21 -1.74
-22.93 15.46 1.45
-7.39 4.98 -1.73
-21.05 14.19 2.22
-0.87 0.59 -0.17
-20.91 14.1 3.1
-11.72 7.9 -1.74
-21.54 14.52 4.11
-16.56 11.16 -1.75
-22.17 14.95 5.2
-27.04 18.23 -1.71
-21.09 14.22 5.87
-27.37 18.45 -0.58
-21.88 14.75 7.07
-5.35 3.63 -1.73
-23.96 16.28 0.51
-6.23 4.23 -1.74
-22.91 15.56 1.45
-7.37 5.01 -1.73
-27.03 18.36 2.86
-0.86 0.58 -0.16
-20.81 14.14 3.09
-11.69 7.94 -1.74
-21.3 14.47 4.08
-16.5 11.21 -1.74
-22.14 15.04 5.2
-26.97 18.32 -1.71
-21.04 14.29 5.87
-21.69 14.74 7.03
-5.34 3.66 -1.73
-27.39 18.75 0.58
-6.21 4.25 -1.74
-22.73 15.56 1.44
-0.85 0.58 -0.2
-24.55 16.8 2.6
-0.85 0.58 -0.16
-20.94 14.33 3.11
-11.66 7.98 -1.73
-21.2 14.51 4.07
-16.44 11.25 -1.74
-34.51 23.62 8.13
-27.04 18.51 -1.72
-21.33 14.6 5.97
-27.21 18.63 -0.58
-21.33 14.6 6.93
-5.33 3.68 -1.74
-24.6 16.96 0.52
-6.19 4.27 -1.73
-22.67 15.63 1.44
-0.84 0.58 -0.2
-26.71 18.42 2.84
-0.84 0.58 -0.16
-20.92 14.43 3.12
-11.68 8.05 -1.74
-21.15 14.58 4.07
-16.4 11.31 -1.74
-24.59 16.96 5.81
-27.69 19.09 -1.76
-21.14 14.58 5.93
-27.01 18.62 -0.57
-20.9 14.41 6.8
-5.32 3.69 -1.73
-25.11 17.45 0.53
-6.17 4.29 -1.73
-22.6 15.7 1.44
-0.84 0.58 -0.2
-26.45 18.38 2.82
-0.84 0.58 -0.16
-20.9 14.52 3.12
-11.64 8.09 -1.74
-21.19 14.72 4.09
-16.33 11.35 -1.74
-24.51 17.03 5.8
-27.77 19.29 -1.77
-20.8 14.45 5.85
-26.75 18.58 -0.57
-21.18 14.71 6.91
-5.31 3.72 -1.74
-23.67 16.57 0.5
-6.17 4.32 -1.74
-22.6 15.82 1.45
-0.82 0.57 -0.19
-20.91 14.63 2.23
-0.85 0.59 -0.16
-22.42 15.69 3.36
-11.6 8.12 -1.74
-21.23 14.86 4.1
-16.28 11.4 -1.74
-24.48 17.13 5.81
-24.64 17.25 -1.58
-20.56 14.39 5.79
-24.67 17.27 -0.53
-23.53 16.47 7.7
-5.29 3.73 -1.73
-24.27 17.11 0.52
-6.15 4.34 -1.74
-22.33 15.74 1.43
-0.82 0.58 -0.2
-20.8 14.66 2.23
-0.83 0.58 -0.16
-22.38 15.78 3.36
-11.57 8.16 -1.74
-21.62 15.24 4.19
-16.22 11.43 -1.74
-20.98 14.79 4.99
-23.5 16.56 -1.51
-20.54 14.48 5.8
-25.2 17.76 -0.54
-21.24 14.97 6.96
-5.27 3.74 -1.73
-24.21 17.19 0.52
-6.14 4.36 -1.74
-22.25 15.8 1.43
-0.81 0.58 -0.19
-22.58 16.04 2.42
-0.82 0.58 -0.16
-20.34 14.44 3.06
-11.55 8.2 -1.74
-21.08 14.97 4.09
-16.15 11.47 -1.73
-20.89 14.83 4.98
-23.93 16.99 -1.54
-20.5 14.56 5.81
-25.08 17.81 -0.54
-21.3 15.12 7
-5.26 3.77 -1.73
-24.24 17.34 0.52
-6.11 4.37 -1.73
-22.11 15.82 1.42
-0.82 0.58 -0.2
-26.85 19.21 2.89
-0.82 0.59 -0.16
-22.35 15.99 3.37
-11.51 8.23 -1.74
-21.06 15.07 4.1
-16.09 11.51 -1.73
-21.04 15.06 5.03
-26.34 18.85 -1.7
-21.99 15.73 6.24
-25.06 17.93 -0.54
-21.31 15.25 7.02
-5.26 3.79 -1.74
-23.19 16.71 0.5
-6.1 4.39 -1.73
-22.17 15.98 1.43
-0.81 0.59 -0.19
-22.34 16.1 2.41
-0.82 0.59 -0.16
-22.27 16.05 3.37
-11.47 8.27 -1.74
-21.67 15.61 4.23
-16.07 11.58 -1.73
-20.92 15.07 5.01
-23.71 17.09 -1.53
-21.21 15.29 6.04
-26.17 18.86 -0.56
-21.21 15.29 7.01
-5.24 3.81 -1.74
-23.32 16.93 0.5
-6.08 4.41 -1.73
-16.48 11.97 1.07
-22.19 16.11 2.4
-0.85 0.62 -0.17
-22.04 16 3.34
-11.44 8.3 -1.74
-21.04 15.28 4.12
-16.02 11.63 -1.73
-21.01 15.25 5.05
-26.19 19.01 -1.7
-21.15 15.35 6.03
-26.03 18.9 -0.56
-5.22 3.82 -1.73
-16.54 12.09 0.36
-6.07 4.44 -1.74
-16.52 12.08 1.07
-20.58 15.05 2.23
-0.81 0.59 -0.16
-20.92 15.3 3.18
-11.41 8.34 -1.74
-21.16 15.47 4.15
-15.95 11.66 -1.73
-20.98 15.34 5.05
-24.81 18.15 -1.61
-21.06 15.4 6.02
-25.82 18.89 -0.56
-5.21 3.84 -1.73
-16.47 12.14 0.36
-6.06 4.46 -1.74
-20 14.74 2.17
-0.81 0.6 -0.16
-20.93 15.43 3.19
-11.38 8.39 -1.74
-20.93 15.43 4.12
-15.9 11.72 -1.73
-21.29 15.69 5.14
-16.54 12.19 -1.08
-20.73 15.28 5.94
-16.53 12.18 -0.36
-5.2 3.86 -1.73
-24.65 18.3 0.54
-6.03 4.48 -1.73
-16.67 12.38 1.09
-0.79 0.59 -0.19
-20.03 14.87 2.18
-0.81 0.6 -0.16
-21.29 15.81 3.26
-11.34 8.42 -1.73
-20.6 15.3 4.06
-15.83 11.75 -1.72
-27.11 20.13 6.56
-24.61 18.27 -1.61
-20.77 15.42 5.97
-24.7 18.34 -0.54
-21.74 16.14 7.25
-5.19 3.88 -1.74
-23.34 17.45 0.51
-6.02 4.5 -1.73
-24.31 18.17 1.59
-20.32 15.19 2.22
-0.8 0.6 -0.16
-21.43 16.02 3.28
-11.3 8.45 -1.73
-20.53 15.35 4.06
-15.78 11.8 -1.72
-20.84 15.58 5.06
-24.61 18.4 -1.61
-20.51 15.33 5.91
-24.65 18.43 -0.54
-5.17 3.89 -1.73
-24.35 18.34 0.53
-6.01 4.52 -1.74
-21.7 16.34 1.42
-19.85 14.95 2.17
-0.82 0.61 -0.16
-20.84 15.69 3.2
-11.27 8.48 -1.73
-20.43 15.38 4.05
-15.71 11.83 -1.72
-27.08 20.39 6.59
-21.88 16.48 -1.44
-20.66 15.56 5.97
-24.65 18.56 -0.54
-20.64 15.54 6.92
-5.15 3.91 -1.73
-22.86 17.34 0.5
-5.99 4.54 -1.74
-21.66 16.43 1.42
-20.12 15.26 2.21
-0.8 0.61 -0.16
-20.68 15.69 3.19
-11.23 8.51 -1.73
-20.3 15.4 4.04
-15.68 11.9 -1.72
-28.12 21.33 -1.85
-22.14 16.79 6.42
-23.29 17.67 -0.51
-20.47 15.52 6.88
-5.14 3.92 -1.73
-22 16.81 0.48
-5.97 4.56 -1.74
-21.55 16.47 1.42
-21.02 16.06 2.31
-0.8 0.61 -0.16
-20.53 15.69 3.17
-11.19 8.55 -1.73
-20.25 15.47 4.04
-15.63 11.94 -1.72
-27.75 21.2 -1.83
-21.92 16.74 6.37
-25.79 19.71 -0.57
-5.12 3.94 -1.73
-23.1 17.78 0.51
-5.95 4.58 -1.73
-21.52 16.56 1.42
-20.32 15.64 2.24
-0.79 0.61 -0.16
-22.33 17.19 3.46
-11.16 8.59 -1.73
-20.39 15.69 4.07
-15.59 11.99 -1.72
-22.03 16.95 5.4
-28.67 22.07 -1.9
-23.7 18.24 -0.52
-26.8 20.62 9.06
-5.12 3.96 -1.73
-23.67 18.35 0.52
-5.93 4.6 -1.73
-21.23 16.45 1.41
-21.02 16.29 2.33
-0.79 0.61 -0.16
-22.25 17.25 3.46
-11.12 8.62 -1.73
-20.42 15.83 4.09
-15.56 12.06 -1.72
-39.97 30.98 9.83
-23.28 18.05 -1.54
-25 19.38 7.3
-22.68 17.58 -0.5
-5.1 3.98 -1.73
-22.94 17.91 0.51
-5.92 4.63 -1.74
-21.11 16.48 1.4
-20.88 16.3 2.32
-0.78 0.61 -0.16
-22.97 17.93 3.58
-11.08 8.65 -1.73
-26.88 20.99 5.4
-15.5 12.1 -1.72
-23.1 18.04 -1.54
-20.98 16.38 6.14
-22.74 17.75 -0.5
-21.38 16.69 7.27
-5.08 3.99 -1.73
-38.35 30.16 0.85
-5.91 4.65 -1.74
-21.05 16.55 1.4
-21.06 16.56 2.34
-8.55 6.72 -1.72
-22.9 18.01 3.58
-11.05 8.69 -1.73
-26.8 21.08 5.4
-15.44 12.14 -1.72
-21.7 17.07 5.37
-22.44 17.65 -1.5
-21.31 16.75 6.26
-23.03 18.11 -0.51
-21.16 16.64 7.21
-5.06 4.01 -1.73
-22.63 17.92 0.5
-5.89 4.66 -1.73
-20.96 16.6 1.4
-20.98 16.62 2.34
-8.52 6.75 -1.72
-21.16 16.76 3.31
-11.03 8.73 -1.73
-26.78 21.21 5.41
-15.39 12.19 -1.72
-21.87 17.32 -1.46
-25.87 20.49 7.62
-21.53 17.05 -0.48
-5.05 4.03 -1.73
-21.96 17.52 0.49
-5.87 4.68 -1.73
-20.79 16.59 1.39
-20.12 16.05 2.25
-8.49 6.77 -1.72
-21.06 16.8 3.31
-11 8.78 -1.73
-37.63 30.02 7.62
-15.35 12.25 -1.72
-21.33 17.02 5.3
-21.94 17.5 -1.47
-26 20.74 7.68
-21.06 16.8 -0.47
-20.33 16.22 6.97
-5.04 4.05 -1.73
-21.51 17.28 0.48
-5.85 4.7 -1.73
-20.77 16.68 1.4
-20.85 16.75 2.34
-8.46 6.8 -1.72
-20.97 16.85 3.3
-10.97 8.81 -1.73
-15.29 12.29 -1.72
-20.08 16.13 5.01
-27.74 22.29 -1.86
-26.19 21.04 7.75
-21.96 17.64 -0.49
-5.02 4.06 -1.73
-21.62 17.5 0.49
-5.84 4.72 -1.73
-20.73 16.77 1.4
-20.75 16.79 2.33
-8.44 6.83 -1.72
-20.89 16.91 3.3
-10.93 8.84 -1.73
-15.24 12.34 -1.72
-20.01 16.19 5
-21.03 17.02 -1.42
-28.32 22.91 8.41
-21.5 17.4 -0.48
-20.45 16.55 7.05
-5 4.08 -1.73
-21.75 17.73 0.49
-5.82 4.74 -1.73
-20.69 16.87 1.4
-8.41 6.86 -1.72
-20.78 16.93 3.29
-10.9 8.88 -1.73
-15.16 12.36 -1.71
-19.97 16.28 5.01
-27.46 22.38 -1.86
-28.07 22.88 8.36
-4.99 4.1 -1.73
-21.69 17.8 0.49
-5.8 4.76 -1.73
-20.77 17.04 1.41
-25.61 21.02 2.9
-8.39 6.88 -1.72
-20.77 17.05 3.3
-10.86 8.92 -1.73
-35.15 28.85 7.2
-15.11 12.41 -1.71
-19.92 16.35 5.01
-27.37 22.47 -1.86
-28.04 23.02 8.37
-22.27 18.28 -0.5
-27.19 22.32 9.43
-4.98 4.11 -1.73
-21.93 18.13 0.5
-5.78 4.78 -1.73
-26.33 21.77 1.79
-8.36 6.91 -1.72
-20.54 16.98 3.27
-10.83 8.95 -1.73
-23.37 19.32 4.8
-15.05 12.44 -1.71
-20.51 16.96 5.17
-21.55 17.82 -1.47
-21.85 18.06 6.54
-4.96 4.13 -1.73
-27.19 22.64 0.62
-5.76 4.79 -1.73
-21.01 17.49 1.43
-8.33 6.94 -1.72
-20.66 17.2 3.3
-10.79 8.98 -1.72
-23.36 19.45 4.81
-14.99 12.48 -1.71
-20.45 17.03 5.17
-20.49 17.06 -1.4
-4.95 4.15 -1.73
-20.29 17 0.46
-5.75 4.81 -1.73
-20.53 17.2 1.4
-8.31 6.96 -1.72
-20.73 17.37 3.32
-10.75 9.01 -1.72
-25.63 21.47 5.3
-14.94 12.51 -1.7
-20.2 16.93 5.12
-21.33 17.88 -1.46
-21.26 17.81 6.4
-26.89 22.53 -0.61
-4.93 4.16 -1.73
-20.28 17.11 0.46
-5.74 4.84 -1.73
-25.53 21.55 2.92
-8.29 6.99 -1.72
-21.36 18.03 3.43
-10.72 9.04 -1.72
-20.62 17.4 4.27
-14.91 12.58 -1.71
-19.85 16.75 5.05
-20.44 17.25 -1.4
-21.34 18.01 6.45
-26.64 22.48 -0.61
-4.91 4.18 -1.73
-26.63 22.64 0.61
-5.72 4.87 -1.73
-20.15 17.13 1.39
-8.25 7.01 -1.72
-10.68 9.08 -1.72
-25.48 21.66 5.3
-14.85 12.62 -1.7
-20.41 17.35 5.21
-20.44 17.38 -1.41
-22.06 18.76 6.69
-26.56 22.58 -0.61
-24.25 20.62 8.53
-4.9 4.2 -1.73
-19.95 17.08 0.46
-5.7 4.88 -1.73
-20.11 17.22 1.39
-25.52 21.85 2.94
-8.22 7.04 -1.71
-10.63 9.1 -1.72
-14.79 12.66 -1.7
-20.39 17.46 5.22
-21.07 18.04 -1.45
-4.89 4.22 -1.73
-19.96 17.22 0.46
-5.68 4.9 -1.73
-20.08 17.32 1.39
-20.57 17.74 2.38
-8.2 7.07 -1.72
-10.59 9.13 -1.72
-14.75 12.72 -1.7
-35.92 30.98 9.22
-20.29 17.5 -1.4
-20.41 17.6 6.22
-26.35 22.73 -0.61
-4.87 4.23 -1.73
-20.47 17.78 0.47
-5.7 4.95 -1.74
-20.07 17.43 1.39
-21.28 18.48 2.47
-8.18 7.11 -1.72
-24.98 21.7 4.06
-10.55 9.16 -1.72
-19.92 17.31 4.18
-14.68 12.75 -1.7
-26.17 22.73 -0.6
-19.58 17.01 6.95
-4.85 4.24 -1.73
-25.15 21.98 0.58
-5.68 4.96 -1.74
-19.9 17.39 1.38
-21.25 18.58 2.47
-8.16 7.13 -1.72
-10.52 9.2 -1.72
-19.46 17.01 4.09
-14.62 12.78 -1.7
-20.71 18.11 -1.44
-27.46 24 8.42
-26.22 22.92 -0.61
-23.12 20.21 8.23
-4.84 4.26 -1.73
-20.54 18.08 0.48
-5.66 4.98 -1.74
-20.13 17.73 1.41
-21.28 18.74 2.48
-8.12 7.15 -1.71
-10.49 9.23 -1.72
-19.43 17.11 4.1
-14.57 12.83 -1.7
-25.14 22.13 6.51
-20.74 18.26 -1.45
-20.23 17.81 6.22
-21.47 18.9 -0.5
-19.47 17.15 6.95
-4.82 4.28 -1.73
-20.35 18.05 0.47
-5.62 4.99 -1.74
-19.61 17.39 1.37
-21.08 18.69 2.46
-8.1 7.18 -1.71
-10.44 9.26 -1.71
-18.79 16.66 3.98
-14.51 12.87 -1.7
-24.34 21.59 6.32
-20.64 18.31 -1.45
-21.37 18.95 -0.5
-19.37 17.18 6.94
-4.81 4.3 -1.73
-20.19 18.03 0.47
-5.6 5 -1.73
-19.58 17.49 1.38
-20.8 18.58 2.44
-8.08 7.21 -1.72
-21.61 19.3 3.56
-10.4 9.29 -1.71
-18.69 16.69 3.97
-14.48 12.93 -1.7
-19.73 17.63 5.14
-20.51 18.32 -1.44
-28.52 25.48 8.83
-21.32 19.04 -0.5
-19.26 17.2 6.92
-4.8 4.32 -1.73
-20.12 18.1 0.47
-5.59 5.03 -1.74
-19.42 17.47 1.37
-20.78 18.69 2.44
-8.05 7.24 -1.71
-21.51 19.35 3.55
-10.37 9.32 -1.71
-18.53 16.67 3.95
-14.43 12.97 -1.7
-19.7 17.72 5.15
-19.81 17.81 -1.4
-20.18 18.15 6.27
-21.43 19.28 -0.5
-4.77 4.32 -1.72
-20.11 18.21 0.47
-5.56 5.04 -1.73
-19.3 17.49 1.37
-20.91 18.94 2.47
-8.02 7.27 -1.71
-19.1 17.3 3.16
-10.34 9.36 -1.71
-18.6 16.85 3.98
-14.37 13.02 -1.7
-19.66 17.81 -1.39
-21.38 19.37 -0.5
-20.49 18.56 7.41
-4.76 4.34 -1.73
-20.01 18.25 0.47
-19.24 17.55 1.36
-19.82 18.08 2.35
-7.99 7.29 -1.71
-18.94 17.28 3.15
-10.3 9.4 -1.71
-18.56 16.93 3.98
-14.32 13.06 -1.7
-19.48 17.77 -1.38
-19.59 17.87 6.12
-20.85 19.02 -0.49
-23.1 21.07 8.38
-4.75 4.36 -1.73
-19.33 17.76 1.38
-20.68 19 2.46
-7.96 7.32 -1.71
-18.85 17.32 3.14
-10.27 9.43 -1.71
-18.46 16.95 3.97
-14.28 13.12 -1.7
-19.53 17.94 5.15
-19.28 17.71 -1.37
-21.75 19.98 6.82
-20.79 19.09 -0.49
-23.35 21.45 8.5
-4.74 4.38 -1.73
-19.08 17.65 1.36
-20.62 19.07 2.46
-7.94 7.34 -1.71
-18.66 17.26 3.12
-10.23 9.46 -1.71
-19.67 18.19 4.24
-14.2 13.13 -1.69
-19.5 18.04 5.16
-19.33 17.88 -1.38
-24.46 22.62 7.69
-19.52 18.05 -0.46
-23.12 21.39 8.44
-4.71 4.39 -1.73
-18.91 17.61 1.35
-20.59 19.18 2.46
-7.92 7.38 -1.71
-18.6 17.32 3.12
-10.19 9.5 -1.71
-19.68 18.34 4.26
-14.12 13.16 -1.69
-19.41 18.08 5.16
-19.25 17.93 -1.38
-24.42 22.75 7.71
-19.4 18.07 -0.46
-22.87 21.3 8.37
-4.69 4.4 -1.72
-17.51 16.43 0.42
-21.76 20.41 1.56
-18.14 17.01 2.18
-7.89 7.4 -1.71
-18.61 17.45 3.13
-10.15 9.52 -1.71
-19.33 18.13 4.2
-14.03 13.16 -1.68
-19.19 18 5.11
-17.51 16.43 -1.26
-23.92 22.43 7.57
-23.97 22.48 8.81
-4.68 4.42 -1.73
-17.48 16.51 0.42
-18.07 17.07 2.17
-7.86 7.42 -1.71
-18.5 17.48 3.13
-10.15 9.59 -1.71
-18.23 17.22 3.97
-13.98 13.21 -1.68
-19.18 18.12 5.13
-19.18 18.12 -1.38
-23.91 22.59 7.59
-19.39 18.32 -0.47
-21.18 20.01 7.81
-4.67 4.44 -1.73
-17.47 16.61 0.42
-18.78 17.86 1.36
-18.05 17.17 2.18
-7.83 7.45 -1.71
-18.62 17.71 3.15
-10.12 9.63 -1.72
-20.19 19.2 4.41
-13.96 13.27 -1.69
-18.01 17.13 4.83
-18.41 17.51 -1.33
-23.83 22.66 7.59
-18.6 17.69 -0.45
-23.79 22.62 8.8
-4.66 4.46 -1.73
-18.93 18.13 1.37
-18.23 17.46 2.21
-7.81 7.47 -1.71
-18.61 17.82 3.16
-10.09 9.67 -1.72
-18.53 17.74 4.06
-13.85 13.26 -1.68
-17.98 17.21 4.84
-18.82 18.02 -1.37
-18.63 17.84 -0.45
-4.64 4.47 -1.73
-23.96 23.1 1.74
-18.24 17.59 2.22
-7.78 7.5 -1.71
-18.56 17.9 3.17
-10.06 9.7 -1.72
-18.35 17.7 4.04
-13.78 13.29 -1.67
-18.87 18.19 5.09
-18.85 18.18 -1.37
-21.57 20.8 6.92
-19.37 18.68 -0.47
-20.41 19.68 7.6
-4.62 4.48 -1.72
-19 18.45 0.46
-19.04 18.49 1.39
-18.22 17.69 2.22
-7.75 7.52 -1.71
-18.46 17.93 3.16
-10.02 9.73 -1.72
-18.35 17.82 4.05
-13.72 13.33 -1.67
-18.8 18.26 5.09
-18.27 17.75 -1.33
-19.38 18.82 -0.47
-20.21 19.62 7.55
-4.6 4.5 -1.72
-18.99 18.57 0.46
-19.01 18.59 1.39
-18.21 17.8 2.23
-7.72 7.55 -1.71
-18.45 18.05 3.17
-9.97 9.75 -1.71
-18.18 17.77 4.03
-13.66 13.36 -1.67
-18.96 18.55 5.16
-19.3 18.87 -1.41
-19.71 19.27 -0.48
-19.92 19.48 7.47
-4.59 4.52 -1.73
-19.05 18.76 0.47
-18.52 18.24 1.36
-18.21 17.93 2.24
-7.69 7.57 -1.71
-17.39 17.12 3
-9.93 9.78 -1.71
-18.22 17.94 4.05
-13.6 13.4 -1.67
-20.04 19.73 5.47
-18.35 18.07 -1.35
-18.55 18.27 6.01
-19.41 19.11 -0.48
-19.11 18.82 7.19
-4.58 4.54 -1.73
-18.86 18.71 0.46
-22 21.83 1.62
-18.25 18.1 2.25
-7.66 7.6 -1.71
-17.32 17.18 3
-9.88 9.8 -1.71
-18.39 18.24 4.1
-13.54 13.43 -1.67
-18.29 18.15 5.01
-18.93 18.78 -1.4
-20.1 19.94 6.54
-19.41 19.25 -0.48
-20.39 20.22 7.69
-4.56 4.55 -1.73
-18.65 18.63 0.46
-19.87 19.85 1.47
-18.22 18.2 2.25
-7.63 7.63 -1.71
-17.3 17.28 3
-9.84 9.83 -1.71
-18.63 18.61 4.17
-13.48 13.47 -1.67
-19.86 19.84 5.46
-18.78 18.76 -1.39
-18.28 18.26 5.97
-19.43 19.41 -0.48
-19.74 19.72 7.48
-4.53 4.56 -1.72
-18.5 18.59 0.46
-19.83 19.93 1.47
-17.8 17.89 2.21
-7.61 7.65 -1.71
-17.41 17.5 3.03
-9.81 9.86 -1.71
-18.19 18.28 4.08
-13.42 13.49 -1.67
-18.27 18.36 5.03
-18.02 18.11 -1.34
-18.26 18.35 5.98
-19.17 19.27 -0.47
-24.74 24.87 9.4
-4.52 4.58 -1.72
-18.61 18.84 0.46
-18.49 18.72 1.38
-17.66 17.87 2.2
-7.57 7.66 -1.71
-17.42 17.63 3.04
-9.78 9.9 -1.71
-19.15 19.38 4.32
-13.39 13.55 -1.67
-18.16 18.38 5.02
-17.95 18.17 -1.34
-18.21 18.43 5.98
-18.79 19.02 -0.47
-4.5 4.59 -1.72
-18.54 18.91 0.46
-18.75 19.12 1.4
-17.5 17.85 2.19
-7.54 7.69 -1.71
-17.28 17.63 3.03
-9.74 9.93 -1.71
-17.86 18.22 4.04
-13.34 13.61 -1.67
-18.09 18.45 5.02
-19.64 20.03 -1.47
-20.26 20.66 6.68
-18.59 18.95 -0.46
-19.52 19.9 7.47
-4.5 4.62 -1.73
-18.51 19.01 0.46
-18.61 19.11 1.4
-17.63 18.1 2.21
-7.51 7.71 -1.71
-17.29 17.75 3.04
-9.69 9.95 -1.71
-18.98 19.49 4.31
-13.27 13.63 -1.66
-17.97 18.45 5.01
-19.74 20.27 -1.48
-23.94 24.58 7.92
-18.06 18.55 -0.45
-4.47 4.63 -1.72
-18.41 19.04 0.46
-18.64 19.28 1.41
-17.52 18.13 2.21
-7.48 7.74 -1.71
-17.17 17.76 3.03
-9.65 9.99 -1.71
-18.96 19.61 4.32
-13.21 13.66 -1.66
-18.17 18.79 5.08
-17.9 18.52 -1.35
-19.51 20.18 6.48
-18.02 18.64 -0.45
-20 20.69 7.71
-4.45 4.64 -1.72
-18.36 19.12 0.46
-18.39 19.15 1.39
-17.33 18.05 2.19
-7.46 7.77 -1.71
-17.03 17.74 3.02
-9.61 10.02 -1.7
-18.04 18.79 4.13
-13.14 13.69 -1.66
-17.67 18.41 4.96
-19.65 20.47 -1.49
-19.75 20.57 6.58
-17.99 18.74 -0.45
-4.44 4.65 -1.72
-17.99 18.86 0.45
-18.44 19.33 1.4
-17.38 18.22 2.2
-7.43 7.79 -1.7
-16.88 17.7 3
-9.58 10.04 -1.7
-19.86 20.82 4.56
-13.09 13.72 -1.66
-17.64 18.49 4.97
-19.56 20.51 -1.49
-19.93 20.89 6.66
-17.82 18.68 -0.45
-19.17 20.1 7.44
-4.43 4.67 -1.73
-18.01 19.01 0.46
-18.45 19.47 1.41
-7.4 7.81 -1.7
-16.79 17.73 3
-9.55 10.08 -1.7
-17.28 18.24 3.98
-13.03 13.75 -1.66
-16.84 17.78 4.76
-18.35 19.37 -1.4
-17.71 18.7 5.95
-17.74 18.73 -0.45
-18.37 19.39 7.16
-4.42 4.7 -1.73
-17.89 19.01 0.46
-18.41 19.57 1.41
-17.92 19.05 2.29
-7.37 7.83 -1.7
-17.92 19.05 3.21
-9.5 10.1 -1.7
-17.29 18.38 4
-12.96 13.78 -1.66
-16.74 17.79 4.75
-18.62 19.8 -1.42
-19.32 20.54 6.51
-20.18 21.45 -0.51
-19.22 20.43 7.52
-17.9 19.16 0.46
-18.77 20.09 1.44
-18.35 19.65 2.35
-7.34 7.86 -1.7
-15.66 16.76 2.82
-9.46 10.12 -1.7
-15.64 16.74 3.63
-12.91 13.82 -1.65
-15.62 16.72 4.45
-18.57 19.88 -1.43
-17.79 19.05 6.02
-19.02 20.36 -0.49
-17.71 18.96 6.95
-17.85 19.25 0.46
-18.74 20.21 1.44
-15.59 16.81 2.01
-7.32 7.89 -1.7
-15.57 16.8 2.81
-9.42 10.16 -1.7
-15.56 16.78 3.63
-12.83 13.83 -1.65
-15.56 16.78 4.45
-16.45 17.74 -1.27
-17.68 19.06 6
-20 21.57 -0.51
-18.45 19.9 7.27
-4.36 4.74 -1.73
-15.54 16.88 0.4
-15.53 16.86 1.2
-15.52 16.85 2
-7.28 7.9 -1.7
-15.53 16.86 2.81
-9.39 10.2 -1.7
-17.05 18.52 3.99
-12.77 13.87 -1.65
-17.81 19.34 5.11
-17.21 18.68 -1.33
-17.74 19.26 6.04
-15.58 16.91 -0.4
-18.43 20.01 7.29
-4.35 4.75 -1.73
-15.47 16.92 0.4
-15.48 16.92 1.2
-17.04 18.63 2.21
-7.25 7.93 -1.7
-17.04 18.62 3.1
-9.35 10.22 -1.7
-16.86 18.44 3.96
-12.73 13.91 -1.65
-17.65 19.29 5.08
-15.49 16.94 -1.2
-18.66 20.4 6.38
-15.49 16.94 -0.4
-18.34 20.05 7.28
-4.33 4.76 -1.72
-17.74 19.53 0.46
-19.31 21.25 1.5
-17 18.71 2.21
-7.23 7.96 -1.7
-16.97 18.67 3.1
-9.3 10.24 -1.7
-16.69 18.37 3.93
-12.67 13.95 -1.65
-17.5 19.27 5.06
-15.44 17 -1.2
-18.58 20.45 6.38
-15.47 17.02 -0.4
-18.32 20.16 7.3
-4.31 4.78 -1.72
-17.84 19.8 0.47
-19.33 21.44 1.51
-17.23 19.11 2.25
-7.2 7.99 -1.7
-17.26 19.15 3.17
-9.26 10.27 -1.7
-16.6 18.42 3.93
-12.62 14 -1.65
-17.27 19.16 5.01
-18.18 20.17 -1.42
-18.57 20.6 6.4
-17.66 19.59 -0.46
-17.36 19.26 6.95
-4.28 4.78 -1.72
-17.36 19.39 0.45
-21.09 23.56 1.66
-17.12 19.13 2.25
-7.16 8 -1.7
-17.07 19.07 3.14
-9.22 10.3 -1.7
-16.98 18.97 4.03
-12.53 14 -1.64
-17.47 19.52 5.09
-18.84 21.05 -1.48
-17.88 19.97 6.19
-17.56 19.61 -0.46
-17.37 19.4 6.98
-4.27 4.8 -1.72
-17.33 19.5 0.46
-16.91 19.03 1.33
-17.15 19.3 2.26
-7.13 8.02 -1.7
-18.16 20.43 3.36
-9.19 10.34 -1.7
-16.86 18.97 4.02
-12.47 14.03 -1.64
-17.35 19.52 5.08
-16.93 19.05 -1.34
-17.83 20.06 6.2
-21.13 23.77 -0.56
-17.93 20.17 7.23
-4.26 4.82 -1.72
-17.18 19.46 0.45
-21.12 23.92 1.67
-17.04 19.3 2.25
-7.1 8.04 -1.7
-22.18 25.12 4.11
-9.15 10.37 -1.7
-17.77 20.13 4.25
-12.42 14.07 -1.64
-17.45 19.77 5.13
-17.24 19.53 -1.37
-17.19 19.48 6
-21.08 23.89 -0.56
-17.71 20.07 7.17
-4.24 4.84 -1.72
-16.74 19.1 0.44
-19.03 21.72 1.51
-17.56 20.03 2.33
-7.07 8.07 -1.7
-17.36 19.81 3.23
-9.11 10.39 -1.7
-17.62 20.11 4.24
-12.37 14.11 -1.64
-17.44 19.9 5.14
-18.12 20.68 -1.44
-17.08 19.49 5.98
-21.16 24.14 -0.56
-17.64 20.12 7.17
-4.21 4.84 -1.72
-16.69 19.17 0.44
-21.07 24.21 1.68
-17.55 20.16 2.34
-7.04 8.09 -1.7
-17.46 20.06 3.27
-9.07 10.42 -1.7
-17.45 20.05 4.21
-12.32 14.15 -1.64
-17.47 20.07 5.17
-16.71 19.19 -1.33
-17.09 19.64 6.01
-17.54 20.15 7.16
-4.2 4.85 -1.72
-16.63 19.23 0.44
-20.96 24.24 1.68
-17.42 20.14 2.33
-7.01 8.11 -1.7
-17.47 20.21 3.28
-9.05 10.46 -1.7
-17.4 20.12 4.21
-12.26 14.18 -1.64
-17.17 19.85 5.1
-17.81 20.6 -1.43
-17.06 19.73 6.02
-17.27 19.97 -0.46
-17.49 20.22 7.16
-4.18 4.87 -1.72
-16.55 19.28 0.44
-19.17 22.33 1.54
-17.37 20.23 2.33
-6.97 8.12 -1.69
-17.38 20.24 3.28
-9.01 10.49 -1.7
-17.35 20.2 4.22
-12.2 14.21 -1.64
-17.05 19.85 5.09
-16 18.63 -1.29
-17.03 19.83 6.03
-17.07 19.88 -0.46
-17.54 20.43 7.21
-4.16 4.88 -1.72
-16.65 19.53 0.45
-20.72 24.31 1.67
-19.74 23.15 2.66
-6.94 8.14 -1.7
-17.29 20.28 3.27
-8.97 10.52 -1.7
-17.48 20.51 4.27
-12.13 14.23 -1.64
-16.83 19.74 5.04
-15.93 18.68 -1.29
-16.95 19.88 6.03
-16.97 19.91 -0.46
-17.8 20.87 7.35
-4.15 4.9 -1.72
-16.63 19.64 0.45
-20.61 24.34 1.67
-19.63 23.19 2.66
-6.92 8.17 -1.7
-17.19 20.3 3.27
-8.93 10.55 -1.7
-17.39 20.53 4.26
-12.08 14.27 -1.64
-16.81 19.85 5.06
-16.09 19 -1.3
-16.83 19.87 6.01
-17.02 20.1 -0.46
-16.71 19.73 6.93
-4.13 4.91 -1.72
-16.41 19.53 0.45
-17.26 20.54 1.41
-17.56 20.9 2.39
-6.89 8.2 -1.7
-17.22 20.49 3.29
-8.88 10.57 -1.7
-17.26 20.54 4.25
-12.02 14.3 -1.63
-16.53 19.67 4.99
-15.85 18.87 -1.29
-16.8 20 6.03
-16.92 20.14 -0.46
-16.66 19.82 6.94
-4.1 4.92 -1.72
-16.51 19.78 0.45
-17.15 20.55 1.4
-17.31 20.74 2.36
-6.86 8.22 -1.7
-17.17 20.58 3.29
-8.85 10.6 -1.7
-17.1 20.49 4.23
-11.94 14.31 -1.63
-16.48 19.75 5
-17.91 21.46 -1.46
-16.8 20.13 6.05
-16.93 20.28 -0.46
-16.52 19.79 6.91
-4.09 4.94 -1.72
-16.61 20.04 0.45
-21.17 25.56 1.74
-17.26 20.83 2.37
-6.83 8.24 -1.69
-17.11 20.66 3.29
-8.82 10.64 -1.7
-17.05 20.58 4.23
-11.88 14.35 -1.63
-16.31 19.69 4.97
-16.15 19.5 -1.33
-16.71 20.17 6.05
-16.82 20.3 -0.46
-16.46 19.87 6.91
-4.07 4.95 -1.72
-16.58 20.15 0.46
-19.61 23.83 1.62
-16.99 20.65 2.34
-6.8 8.27 -1.7
-16.75 20.35 3.24
-8.78 10.67 -1.7
-16.98 20.64 4.23
-11.82 14.36 -1.63
-18.15 22.07 5.55
-16.14 19.61 -1.33
-16.76 20.37 6.09
-17.08 20.76 -0.47
-16.42 19.96 6.92
-4.05 4.96 -1.71
-16.53 20.23 0.46
-18.43 22.55 1.53
-17.14 20.98 2.37
-6.78 8.29 -1.7
-16.64 20.37 3.23
-8.73 10.68 -1.69
-22.83 27.94 5.71
-11.77 14.4 -1.63
-18.1 22.15 5.56
-15.92 19.48 -1.32
-17.12 20.95 6.25
-17.03 20.84 -0.47
-16.26 19.9 6.89
-4.04 4.98 -1.72
-16.51 20.34 0.46
-17.06 21.02 1.42
-16.88 20.8 2.34
-6.75 8.32 -1.7
-16.64 20.51 3.24
-8.68 10.7 -1.69
-22.75 28.04 5.72
-11.7 14.42 -1.62
-17.2 21.2 5.31
-16.1 19.84 -1.34
-17.04 21 6.24
-16.94 20.88 -0.47
-16.23 20 6.9
-4.01 4.98 -1.71
-16.65 20.68 0.46
-16.98 21.08 1.42
-16.77 20.83 2.34
-6.74 8.37 -1.7
-16.53 20.53 3.24
-8.63 10.72 -1.69
-23.97 29.77 6.05
-11.64 14.45 -1.62
-17.08 21.22 5.29
-17.71 22 -1.48
-16.97 21.08 6.25
-17.02 21.14 -0.47
-16.18 20.1 6.91
-4 5 -1.72
-16.31 20.39 0.46
-17.2 21.52 1.44
-16.67 20.85 2.34
-6.71 8.39 -1.7
-16.62 20.79 3.27
-8.59 10.74 -1.69
-17.62 22.03 4.47
-11.58 14.48 -1.62
-16.89 21.13 5.26
-15.76 19.71 -1.32
-16.77 20.97 6.2
-16.96 21.21 -0.47
-3.99 5.02 -1.72
-16.31 20.53 0.46
-17.16 21.61 1.45
-5.47 6.89 -1.71
-16.63 20.93 2.34
-6.68 8.41 -1.7
-16.83 21.19 3.32
-8.56 10.77 -1.69
-24.12 30.36 6.14
-11.53 14.52 -1.62
-16.91 21.28 5.28
-15.75 19.82 -1.33
-16.76 21.1 6.22
-15.38 19.37 -0.43
-19.25 24.24 8.3
-3.97 5.04 -1.72
-16.53 20.96 0.47
-15.68 19.88 1.33
-5.46 6.92 -1.71
-16.57 21.01 2.34
-6.64 8.42 -1.7
-16.79 21.28 3.33
-8.51 10.79 -1.69
-23.98 30.4 6.13
-11.47 14.54 -1.62
-16.73 21.22 5.25
-15.62 19.81 -1.32
-16.79 21.28 6.26
-16.72 21.2 -0.47
-3.95 5.05 -1.72
-16.36 20.9 0.46
-15.57 19.9 1.32
-5.41 6.92 -1.71
-16.6 21.21 2.36
-6.61 8.44 -1.7
-16.87 21.55 3.36
-8.46 10.81 -1.69
-17.52 22.38 4.5
-11.4 14.57 -1.62
-16.6 21.21 5.23
-15.51 19.82 -1.32
-16.55 21.14 6.2
-16.77 21.43 -0.47
-16.44 21.01 7.15
-3.95 5.08 -1.72
-16.33 21.02 0.46
-15.49 19.94 1.32
-5.39 6.94 -1.71
-23.17 29.82 3.3
-6.57 8.45 -1.7
-16.12 20.74 3.23
-8.42 10.84 -1.69
-18.66 24.02 4.82
-11.34 14.6 -1.62
-16.58 21.33 5.25
-15.32 19.72 -1.31
-20.96 26.97 7.89
-16.7 21.49 -0.48
-16.34 21.03 7.14
-17.84 23.13 0.51
-15.44 20.02 1.32
-5.37 6.96 -1.71
-17.86 23.16 2.56
-6.53 8.47 -1.69
-15.98 20.72 3.21
-8.37 10.86 -1.68
-18.03 23.38 4.68
-11.27 14.62 -1.61
-17.72 22.98 5.64
-15.26 19.78 -1.31
-16.62 21.55 -0.48
-16.78 21.92 1.45
-5.34 6.98 -1.71
-22.76 29.73 3.28
-6.49 8.48 -1.69
-16.57 21.65 3.35
-8.33 10.88 -1.68
-15.83 20.68 4.12
-11.22 14.65 -1.61
-16.42 21.45 5.25
-15.28 19.96 -1.32
-15.23 19.9 -0.44
-21.83 28.51 9.62
-3.88 5.11 -1.72
-17.01 22.38 0.49
-16.89 22.22 1.46
-5.32 7 -1.71
-16.24 21.37 2.35
-6.46 8.5 -1.69
-16.15 21.25 3.28
-8.29 10.91 -1.68
-17.49 23.02 4.58
-11.17 14.69 -1.61
-16.32 21.47 5.24
-15.27 20.09 -1.32
-24.2 31.84 9.23
-15.14 19.92 -0.44
-3.86 5.12 -1.72
-18.02 23.88 0.52
-15.82 20.97 1.38
-5.29 7.01 -1.71
-16.42 21.76 2.39
-6.43 8.53 -1.69
-16.4 21.73 3.34
-8.25 10.93 -1.68
-16.18 21.44 4.25
-11.11 14.73 -1.61
-16.97 22.49 5.48
-15.36 20.36 -1.34
-19.77 26.2 7.58
-18.83 24.96 -0.55
-20.59 27.29 9.16
-3.85 5.13 -1.72
-17.47 23.3 0.51
-16.5 22 1.44
-5.27 7.03 -1.71
-16.45 21.95 2.4
-6.4 8.54 -1.69
-16.57 22.11 3.39
-8.21 10.95 -1.68
-16.09 21.46 4.25
-11.05 14.74 -1.61
-16.63 22.18 5.39
-15.27 20.36 -1.33
-16.85 22.47 6.48
-15.31 20.42 -0.45
-20.97 27.97 9.37
-17.44 23.44 0.51
-17.64 23.7 1.55
-5.24 7.04 -1.7
-17.56 23.6 2.57
-6.37 8.56 -1.69
-16 21.51 3.29
-8.17 10.98 -1.68
-16 21.5 4.25
-11 14.78 -1.61
-15.56 20.91 5.07
-15.12 20.32 -1.33
-20.94 28.13 8.1
