# .PCD v0.7 - Point Cloud Data file format
VERSION 0.7
FIELDS x y z
SIZE 4 4 4
TYPE F F F
COUNT 1 1 1
WIDTH 2931
HEIGHT 1
VIEWPOINT 0 0 0 1 0 0 0
POINTS 2931
DATA ascii
4.19 7.68 -1.7
7.39 13.53 1.35
4.99 9.14 -1.65
7.51 13.75 1.92
6.31 11.56 -1.62
7.38 13.52 2.44
12.42 22.74 -2.27
9.14 16.74 3.71
13.92 25.49 -1.52
7.13 13.06 3.44
7.14 13.08 -0.26
14.79 27.07 8.27
3.28 5.97 -1.82
7.69 13.97 0.28
3.62 6.58 -1.73
7.5 13.62 0.82
4.22 7.66 -1.7
7.41 13.46 1.34
5.03 9.13 -1.65
7.59 13.78 1.93
6.36 11.54 -1.62
7.43 13.49 2.44
12.46 22.63 -2.26
9.68 17.58 3.9
14.25 25.88 -1.55
14.63 26.57 7
14.88 27.03 8.27
3.31 5.95 -1.82
7.39 13.3 0.27
3.64 6.56 -1.73
7.24 13.04 0.78
4.25 7.65 -1.7
8.25 14.86 1.49
5.05 9.1 -1.65
13.19 23.75 3.34
6.4 11.52 -1.62
7.67 13.81 2.5
12.48 22.47 -2.25
8.2 14.76 3.28
7.65 13.77 3.64
7.3 13.14 -0.26
14.99 26.98 8.27
3.33 5.94 -1.82
7.42 13.25 0.27
3.66 6.54 -1.73
7.6 13.57 0.82
4.28 7.65 -1.7
7.45 13.31 1.33
5.09 9.08 -1.65
12.99 23.2 3.26
6.44 11.49 -1.62
8.22 14.67 -1.47
8.28 14.79 3.3
14.33 25.58 -1.54
7.74 13.82 3.66
18.31 32.69 -0.65
12.8 22.86 7.02
3.35 5.93 -1.82
17.56 31.11 0.62
3.69 6.53 -1.73
8.03 14.23 0.86
4.31 7.63 -1.7
7.49 13.27 1.33
5.12 9.07 -1.65
8.19 14.52 2.05
6.47 11.46 -1.62
7.72 13.67 2.49
12.55 22.23 -2.23
8.32 14.75 3.29
7.84 13.89 -0.84
7.77 13.77 3.65
7.44 13.19 -0.26
15.04 26.65 8.2
3.36 5.91 -1.82
8.28 14.55 0.29
3.71 6.53 -1.73
7.74 13.6 0.82
4.33 7.61 -1.7
7.61 13.37 1.35
5.15 9.05 -1.65
13.09 23 3.25
6.5 11.43 -1.62
12.13 21.32 3.88
12.6 22.15 -2.23
8.36 14.69 3.28
8.17 14.36 -0.87
10.11 17.77 4.72
7.46 13.11 -0.26
15.11 26.56 8.19
3.38 5.89 -1.82
17.33 30.21 0.61
3.74 6.52 -1.74
7.79 13.58 0.82
4.36 7.6 -1.7
7.77 13.54 1.37
5.18 9.04 -1.65
7.68 13.38 1.89
6.55 11.41 -1.62
7.78 13.57 2.48
7.47 13.02 -1.31
7.58 13.21 2.96
8.15 14.2 -0.86
7.91 13.79 3.67
18.52 32.29 -0.65
15.43 26.91 8.31
3.4 5.87 -1.82
8.04 13.91 0.28
3.77 6.52 -1.74
4.39 7.59 -1.7
7.81 13.51 1.37
5.21 9.01 -1.65
7.72 13.35 1.89
6.58 11.39 -1.62
7.75 13.39 2.45
12.77 22.09 -2.23
7.71 13.34 3
8.02 13.88 -0.84
7.92 13.7 3.65
18.8 32.5 -0.66
15.55 26.88 8.32
3.42 5.87 -1.82
12.85 22.03 0.45
3.78 6.49 -1.73
12.84 22.01 1.34
4.41 7.57 -1.7
7.86 13.47 1.36
5.25 9 -1.65
12.82 21.99 3.13
6.62 11.36 -1.61
19.28 33.06 6.06
12.78 21.92 -2.22
19.05 32.67 7.35
12.84 22.02 -1.34
7.94 13.62 3.64
12.87 22.06 -0.45
15.86 27.19 8.44
3.44 5.86 -1.82
8.17 13.89 0.28
3.81 6.47 -1.73
12.91 21.97 1.34
4.44 7.55 -1.7
7.94 13.51 1.37
5.28 8.98 -1.65
7.8 13.27 1.89
6.65 11.32 -1.61
12.88 21.91 4.03
12.9 21.94 -2.23
12.95 22.02 4.97
12.91 21.96 -1.34
10.25 17.43 4.67
8.15 13.87 -0.28
17.53 29.83 9.27
3.46 5.84 -1.82
8.29 13.99 0.28
3.83 6.46 -1.73
19.41 32.78 2
4.46 7.54 -1.7
8.12 13.71 1.39
5.31 8.96 -1.65
13.46 22.73 3.24
6.69 11.3 -1.61
7.88 13.3 2.45
9.3 15.71 -1.6
7.87 13.29 3
8.24 13.91 -0.85
8.07 13.62 3.65
7.84 13.23 -0.27
3.47 5.82 -1.81
8.08 13.53 0.28
3.85 6.45 -1.73
8.03 13.46 0.82
4.49 7.51 -1.7
8.06 13.49 1.37
5.34 8.95 -1.65
7.99 13.38 1.91
6.73 11.27 -1.61
13.17 22.05 4.07
9.88 16.54 -1.69
12.99 21.76 4.93
8.33 13.95 -0.85
13.11 21.95 5.9
7.92 13.27 -0.27
13.12 21.98 6.86
3.49 5.8 -1.81
8.07 13.4 0.27
3.88 6.45 -1.74
4.52 7.51 -1.7
8.22 13.65 1.39
5.37 8.92 -1.65
8.5 14.12 2.02
6.76 11.24 -1.61
10.69 17.76 -1.81
7.92 13.16 2.99
8.41 13.98 -0.85
8.06 13.4 3.61
7.99 13.28 -0.27
13.24 22 6.88
3.51 5.79 -1.82
8.1 13.36 0.27
3.9 6.43 -1.74
4.54 7.49 -1.7
8.27 13.64 1.4
5.4 8.9 -1.65
13.62 22.45 3.22
6.8 11.21 -1.61
8.08 13.32 2.47
9.65 15.91 -1.63
12.35 20.35 5.5
8.03 13.23 -0.27
15.39 25.37 7.95
3.54 5.78 -1.82
8.15 13.32 0.27
3.94 6.44 -1.74
8.11 13.26 0.81
4.57 7.47 -1.7
8.32 13.6 1.4
5.43 8.88 -1.65
8.63 14.11 2.03
6.83 11.17 -1.61
13.19 21.57 4.01
8.22 13.45 -1.38
8.79 14.37 3.27
8.48 13.87 -0.85
16.83 27.52 7.45
8.29 13.55 -0.28
3.55 5.76 -1.81
8.26 13.41 0.27
3.98 6.45 -1.75
8.39 13.62 0.84
4.59 7.45 -1.7
8.31 13.48 1.39
5.46 8.87 -1.65
8.73 14.16 2.04
6.87 11.14 -1.61
13.28 21.55 4.01
8.61 13.97 -1.44
12.79 20.75 4.74
8.26 13.39 -0.82
8.21 13.31 3.61
8.33 13.51 -0.28
3.56 5.74 -1.81
8.28 13.33 0.27
4.01 6.46 -1.76
8.53 13.73 0.85
4.61 7.43 -1.7
13.41 21.59 2.22
5.5 8.85 -1.65
8.73 14.05 2.03
6.91 11.13 -1.61
13.29 21.39 3.99
8.66 13.94 -1.44
8.08 13.02 2.98
8.67 13.96 -0.86
8.26 13.3 3.61
8.35 13.45 -0.28
13.69 22.04 6.95
3.58 5.73 -1.81
8.39 13.41 0.28
4.05 6.47 -1.76
8.65 13.82 0.85
4.64 7.41 -1.7
8.46 13.52 1.4
5.52 8.82 -1.65
8.85 14.13 2.05
6.95 11.11 -1.61
13.37 21.36 3.99
8.69 13.89 -1.43
13.43 21.46 4.92
9.57 15.29 -0.95
20.26 32.37 8.82
9.5 15.19 -0.31
10 15.98 5.05
3.6 5.71 -1.81
4.07 6.46 -1.76
8.67 13.75 0.85
4.67 7.41 -1.7
8.65 13.71 1.42
5.55 8.8 -1.65
8.84 14.02 2.04
6.99 11.09 -1.61
10.12 16.05 3.01
8.74 13.86 -1.43
10.16 16.1 3.7
9.59 15.21 -0.94
8.38 13.28 3.62
9.51 15.08 -0.31
8.73 13.84 4.38
3.62 5.69 -1.81
8.56 13.47 0.28
4.11 6.47 -1.77
8.69 13.68 0.85
4.7 7.39 -1.7
8.68 13.66 1.42
5.58 8.79 -1.65
8.87 13.95 2.03
7.02 11.05 -1.61
10.17 15.99 3
8.61 13.54 -1.4
10.18 16.02 3.69
9.65 15.18 -0.94
19.97 31.42 8.6
9.56 15.04 -0.31
9.04 14.23 4.52
3.64 5.68 -1.81
8.71 13.6 0.28
4.14 6.46 -1.77
8.76 13.68 0.85
4.71 7.36 -1.7
9.37 14.62 1.52
5.62 8.77 -1.65
9.3 14.51 2.12
7.06 11.02 -1.61
9.28 14.49 2.72
8.57 13.38 -1.39
8.15 12.71 2.94
8.52 13.3 -0.83
9.16 14.3 3.92
9.61 15 -0.31
9.06 14.14 4.5
3.65 5.66 -1.8
4.18 6.48 -1.78
9.46 14.65 0.91
4.74 7.35 -1.7
8.83 13.67 1.42
5.65 8.75 -1.65
8.88 13.75 2.01
7.1 11 -1.61
9.3 14.41 2.72
8.67 13.43 -1.4
9.29 14.4 3.33
10.78 16.69 -1.04
9.21 14.26 3.92
8.63 13.36 -0.28
9.12 14.13 4.51
3.67 5.64 -1.8
9.64 14.82 0.31
4.21 6.48 -1.78
8.82 13.57 0.85
4.77 7.33 -1.7
9.01 13.86 1.45
5.67 8.72 -1.65
8.92 13.71 2.01
7.14 10.98 -1.61
9.35 14.38 2.72
9.3 14.3 -1.49
9.32 14.33 3.32
10.58 16.27 -1.02
9.28 14.26 3.93
8.67 13.34 -0.28
9.2 14.15 4.52
3.69 5.63 -1.8
10.22 15.59 0.33
4.24 6.47 -1.79
4.8 7.32 -1.7
5.7 8.7 -1.65
8.97 13.69 2.01
7.18 10.95 -1.61
9.41 14.35 2.72
8.98 13.7 -1.43
9.28 14.16 3.29
10.91 16.65 -1.04
8.78 13.39 -0.28
13.89 21.19 6.79
3.71 5.62 -1.8
4.28 6.49 -1.8
4.82 7.3 -1.7
13.94 21.11 2.21
5.73 8.69 -1.65
14.87 22.53 3.31
7.21 10.92 -1.61
9.43 14.29 -1.5
8.98 13.61 3.76
9.61 14.56 -0.3
7.25 10.99 3.53
3.73 5.6 -1.8
4.33 6.5 -1.8
4.84 7.27 -1.7
9.12 13.71 1.44
5.77 8.68 -1.65
19.42 29.2 4.31
7.24 10.89 -1.61
9.37 14.09 -1.48
13.49 20.28 4.73
9.2 13.83 -0.87
9.02 13.57 3.76
13.97 21 6.76
3.74 5.58 -1.8
4.36 6.5 -1.81
9.18 13.69 0.86
4.87 7.26 -1.7
14.18 21.14 2.23
5.8 8.66 -1.65
10.08 15.04 2.22
7.28 10.85 -1.6
11.26 16.79 3.2
9.23 13.77 -1.45
11.31 16.88 3.95
9.38 13.99 -0.88
9.41 14.04 -0.3
14.67 21.89 7.06
3.76 5.56 -1.8
19.77 29.26 0.62
4.4 6.51 -1.81
9.18 13.59 0.86
4.9 7.25 -1.7
14.13 20.92 2.21
5.83 8.63 -1.65
15.28 22.62 3.35
7.32 10.83 -1.61
11.3 16.72 3.2
10.21 15.11 -1.6
9.41 13.93 -0.88
11.86 17.56 5.68
3.77 5.54 -1.8
19.87 29.2 0.62
4.43 6.5 -1.82
19.8 29.1 1.84
4.92 7.24 -1.7
5.86 8.62 -1.65
7.35 10.8 -1.6
11.33 16.65 3.19
10.21 15.01 -1.59
8.46 12.44 2.92
9.62 14.15 -0.9
10.29 15.13 -0.32
7.33 10.77 3.49
3.79 5.53 -1.8
10.3 15.02 0.32
4.46 6.51 -1.82
9.25 13.49 0.86
4.95 7.21 -1.7
5.89 8.6 -1.65
14.71 21.45 3.19
7.38 10.76 -1.6
11.29 16.47 3.16
15.17 22.13 5.22
9.37 13.66 -0.87
13.62 19.87 5.56
10.1 14.74 -0.31
11.75 17.15 5.57
3.81 5.51 -1.79
10.14 14.68 0.31
4.5 6.51 -1.83
9.29 13.44 0.86
4.96 7.18 -1.7
20.13 29.14 3.1
5.92 8.58 -1.65
7.41 10.73 -1.6
19.19 27.79 5.35
9.75 14.12 -1.5
8.56 12.4 2.93
9.32 13.5 -0.86
10.13 14.67 -0.31
8.44 12.22 3.98
3.82 5.49 -1.79
10.09 14.5 0.31
4.53 6.51 -1.83
9.36 13.45 0.86
4.99 7.17 -1.7
10.3 14.81 1.58
5.96 8.56 -1.65
9.55 13.73 2.05
7.45 10.71 -1.6
10.35 14.88 2.87
9.64 13.85 -1.48
10.51 15.1 3.58
9.39 13.49 -0.86
10.2 14.65 -0.31
11.36 16.32 5.33
3.83 5.47 -1.79
4.54 6.48 -1.83
10.06 14.35 0.92
5.02 7.16 -1.7
10.03 14.31 1.53
5.98 8.53 -1.65
9.89 14.11 2.12
7.48 10.68 -1.6
11.57 16.5 3.19
9.67 13.8 -1.47
9.4 13.41 -0.86
3.86 5.46 -1.79
10.22 14.47 0.31
4.55 6.45 -1.82
10.1 14.3 0.92
5.05 7.15 -1.7
10.03 14.2 1.52
6.01 8.51 -1.65
9.91 14.04 2.11
7.52 10.64 -1.6
13.68 19.38 3.76
9.76 13.82 -1.48
9.47 13.41 -0.86
12.33 17.47 5.73
3.87 5.45 -1.79
10.34 14.53 0.31
4.58 6.44 -1.82
10.16 14.28 0.92
5.07 7.13 -1.7
10.09 14.18 1.52
6.04 8.49 -1.65
9.96 14.01 2.11
7.55 10.61 -1.6
9.88 13.88 2.7
9.59 13.49 -1.45
9.75 13.7 3.27
9.95 13.99 -0.9
11.45 16.09 4.56
10.71 15.06 -0.32
3.89 5.43 -1.79
9.82 13.7 0.29
4.59 6.41 -1.82
5.09 7.1 -1.7
10.18 14.21 1.53
6.07 8.48 -1.65
7.58 10.58 -1.6
9.91 13.82 2.69
9.86 13.75 -1.48
9.76 13.62 3.26
9.68 13.51 -0.87
10.19 14.22 4.04
9.78 13.65 -0.29
9.61 13.41 4.42
3.9 5.4 -1.78
10.74 14.89 0.32
4.61 6.4 -1.82
10.5 14.55 0.94
5.12 7.09 -1.7
10.25 14.21 1.53
6.1 8.46 -1.65
19.53 27.07 4.1
7.62 10.56 -1.6
9.97 13.81 2.7
10.07 13.95 -1.51
9.8 13.58 3.26
9.81 13.59 -0.88
9.75 13.51 3.85
9.79 13.57 -0.29
9.65 13.37 4.42
3.91 5.38 -1.78
10.74 14.78 0.32
4.63 6.36 -1.82
5.15 7.09 -1.7
6.12 8.42 -1.65
19.68 27.08 4.11
7.65 10.53 -1.6
10.14 13.95 -1.51
9.85 13.55 3.26
9.73 13.38 -0.87
9.78 13.46 3.84
10.86 14.94 -0.32
3.93 5.37 -1.78
10.79 14.72 0.32
4.64 6.33 -1.81
5.18 7.06 -1.7
10.34 14.11 1.53
6.16 8.41 -1.65
7.69 10.49 -1.6
19.64 26.8 5.26
10.18 13.89 -1.51
10.26 14.01 3.38
9.89 13.5 -0.88
9.84 13.43 3.84
11.53 15.73 -0.34
10.2 13.93 4.63
3.95 5.36 -1.78
10.85 14.7 0.32
4.66 6.31 -1.81
10.6 14.35 0.94
5.21 7.05 -1.7
10.4 14.08 1.53
6.19 8.39 -1.65
7.72 10.46 -1.6
10.54 14.28 2.81
9.91 13.43 -1.46
10.78 14.61 3.53
10.06 13.63 -0.89
9.92 13.44 3.86
11.61 15.73 -0.34
10.29 13.94 4.64
3.97 5.33 -1.78
10.36 13.94 0.3
4.68 6.29 -1.81
10.89 14.65 0.96
5.22 7.02 -1.7
6.22 8.37 -1.65
20.66 27.79 4.25
7.76 10.44 -1.6
10.6 14.26 2.81
10.01 13.46 -1.47
10.87 14.63 -0.96
10.81 14.54 -0.32
10.03 13.48 4.5
3.98 5.31 -1.78
11.68 15.6 0.34
4.69 6.27 -1.81
10.95 14.63 0.96
5.25 7.01 -1.7
22.12 29.55 3.23
6.25 8.35 -1.65
20.78 27.76 4.26
7.79 10.41 -1.6
12.43 16.61 -1.81
10.69 14.28 3.47
10.07 13.45 -0.88
10.49 14.01 -0.31
9.95 13.29 4.45
3.99 5.3 -1.78
10.37 13.75 0.3
4.71 6.25 -1.81
11.06 14.67 0.96
5.27 6.99 -1.7
11.03 14.63 1.6
6.27 8.32 -1.65
7.82 10.38 -1.6
22.44 29.77 5.91
10.54 13.98 -1.53
10.22 13.56 -0.89
12.47 16.55 4.78
22.66 30.06 -0.66
10.03 13.31 4.46
4.01 5.28 -1.78
10.5 13.83 0.3
4.73 6.23 -1.8
11.03 14.53 0.96
5.29 6.97 -1.7
11.04 14.54 1.6
6.3 8.3 -1.65
10.48 13.81 2.13
7.85 10.35 -1.59
10.37 13.66 -1.5
10.77 14.19 -0.31
4.03 5.27 -1.78
4.74 6.2 -1.8
11.84 15.47 1.02
5.32 6.95 -1.7
11.1 14.51 1.6
6.33 8.27 -1.65
11.09 14.49 2.24
7.89 10.31 -1.59
11.9 15.55 -1.71
13.17 17.22 -1.14
12.74 16.65 4.84
10.83 14.15 -0.31
4.05 5.25 -1.78
11.13 14.45 0.32
4.77 6.19 -1.8
11.92 15.47 1.02
5.34 6.93 -1.7
11.18 14.52 1.6
6.36 8.26 -1.65
11.05 14.35 2.22
7.91 10.27 -1.59
11.22 14.57 -1.61
10.86 14.1 -0.93
10.14 13.16 3.84
10.76 13.96 -0.31
4.06 5.23 -1.77
11.2 14.43 0.32
4.79 6.17 -1.8
22.55 29.06 1.93
5.36 6.9 -1.7
12 15.46 1.71
6.4 8.24 -1.65
11.13 14.35 2.23
7.95 10.24 -1.59
12.02 15.49 3.1
12.17 15.68 -1.74
12 15.47 3.81
12.52 16.13 -1.07
10.15 13.08 3.82
10.82 13.94 -0.31
12.49 16.1 5.46
4.08 5.22 -1.77
10.68 13.66 0.3
4.79 6.14 -1.8
5.38 6.89 -1.7
11.85 15.17 1.68
6.42 8.22 -1.65
10.73 13.74 2.14
7.98 10.22 -1.59
11.21 14.34 2.88
11.44 14.65 -1.63
11.59 14.84 -0.99
10.19 13.04 3.82
12.82 16.41 -0.36
4.09 5.19 -1.77
4.81 6.11 -1.79
10.83 13.76 0.92
5.41 6.88 -1.7
13.84 17.58 1.96
6.45 8.2 -1.65
10.77 13.69 2.14
8.02 10.19 -1.59
11.24 14.28 2.88
11.53 14.65 -1.63
12.18 15.47 3.83
12.65 16.07 -1.07
10.28 13.06 3.84
12.33 15.66 -0.35
12.78 16.23 5.53
4.11 5.18 -1.77
10.95 13.81 0.31
4.82 6.09 -1.79
5.44 6.86 -1.7
21.87 27.59 3.08
6.48 8.18 -1.65
21.98 27.73 4.34
8.04 10.14 -1.59
11.32 14.28 2.89
11.68 14.74 -1.65
12.22 15.41 3.82
12.64 15.95 -1.07
10.32 13.02 3.84
10.94 13.8 -0.31
4.13 5.17 -1.77
4.85 6.07 -1.79
11.12 13.93 0.93
5.46 6.84 -1.7
21.94 27.47 3.08
6.51 8.15 -1.65
14.33 17.95 2.82
8.07 10.11 -1.59
11.73 14.69 -1.65
11.32 14.18 3.53
10.36 12.97 3.83
13.07 16.36 -0.37
9.18 11.49 3.94
4.14 5.14 -1.77
4.86 6.05 -1.79
11.15 13.86 0.93
5.5 6.84 -1.71
6.54 8.13 -1.65
13.69 17.03 2.68
8.1 10.08 -1.59
11.38 14.15 3.53
12.77 15.88 -1.07
10.4 12.93 3.83
11.2 13.93 -0.31
9.16 11.39 3.92
4.16 5.13 -1.77
22.01 27.17 0.61
4.88 6.03 -1.79
22.03 27.19 1.83
5.53 6.82 -1.71
6.57 8.11 -1.65
8.14 10.04 -1.59
10.51 12.97 -1.46
11.43 14.12 3.53
12.34 15.23 -1.03
11.5 14.19 4.22
13.15 16.23 -0.36
12.55 15.5 5.34
4.17 5.12 -1.77
22.05 27.04 0.61
4.89 6 -1.79
5.55 6.81 -1.71
21.46 26.31 2.97
6.59 8.08 -1.65
14.38 17.64 2.79
8.17 10.01 -1.59
12.21 14.97 -1.69
12.83 15.74 -1.06
11.44 14.02 4.18
11.22 13.76 -0.31
12.61 15.46 5.35
4.19 5.1 -1.77
4.91 5.98 -1.79
5.57 6.78 -1.71
14.94 18.18 2.06
6.63 8.06 -1.65
18.66 22.71 3.61
8.19 9.97 -1.58
10.69 13.01 -1.47
11.89 14.47 -0.98
11.49 13.98 4.18
11.62 14.15 -0.32
9.77 11.89 4.12
4.21 5.08 -1.77
11.69 14.13 0.32
4.93 5.96 -1.78
5.59 6.76 -1.7
14.94 18.06 2.05
6.66 8.05 -1.65
14.04 16.97 2.7
8.22 9.94 -1.58
10.77 13.02 -1.48
12.47 15.07 -1.03
11.65 14.08 -0.32
9.68 11.7 4.07
4.21 5.06 -1.76
12.42 14.9 0.34
4.95 5.94 -1.79
12.37 14.84 1.01
5.62 6.74 -1.71
6.67 8.01 -1.65
8.26 9.91 -1.58
22.18 26.61 5.49
10.89 13.06 -1.49
11.69 14.03 -0.96
13.72 16.46 4.95
12.64 15.17 -0.34
9.66 11.59 4.04
4.23 5.04 -1.76
12.49 14.89 0.34
4.96 5.91 -1.78
5.66 6.75 -1.71
12.51 14.91 1.7
6.71 7.99 -1.65
8.29 9.88 -1.58
12.93 15.41 3.19
10.93 13.02 -1.49
13.14 15.66 -1.07
17.45 20.79 6.27
12.26 14.61 -0.33
9.67 11.53 4.03
4.25 5.03 -1.76
12.54 14.84 0.34
4.98 5.89 -1.78
12.52 14.81 1.02
5.71 6.75 -1.72
22.04 26.08 2.99
6.74 7.97 -1.65
14.7 17.39 2.8
8.32 9.84 -1.58
13.1 15.5 3.21
11 13.01 -1.49
13.29 15.72 -1.08
12.5 14.79 -0.34
9.78 11.56 4.06
4.27 5.01 -1.76
12.62 14.82 0.34
4.99 5.87 -1.78
12.52 14.71 1.01
5.75 6.76 -1.72
15.67 18.41 2.11
6.76 7.94 -1.65
14.75 17.33 2.79
8.34 9.81 -1.58
13.16 15.46 3.22
11.09 13.03 -1.5
13.42 15.77 -1.09
13.27 15.6 -0.36
10.33 12.14 4.27
4.28 4.99 -1.76
12.65 14.76 0.34
5.02 5.85 -1.78
5.79 6.76 -1.73
12.51 14.6 1.68
6.79 7.93 -1.65
8.39 9.78 -1.58
13.22 15.43 3.22
11.15 13.01 -1.5
12.99 15.16 -1.05
14.01 16.35 4.97
13.36 15.59 -0.36
10.32 12.04 4.25
4.29 4.97 -1.76
12.7 14.72 0.34
5.03 5.83 -1.78
5.85 6.78 -1.74
6.82 7.9 -1.65
15.39 17.84 2.89
8.41 9.75 -1.58
13.3 15.41 3.22
11.23 13.02 -1.5
13.13 15.22 -1.05
17.51 20.29 6.19
13.37 15.5 -0.36
10.29 11.93 4.22
4.3 4.95 -1.76
13.32 15.33 0.35
5.05 5.81 -1.78
12.89 14.83 1.03
5.89 6.77 -1.74
6.84 7.87 -1.65
26.63 30.64 4.98
8.45 9.72 -1.58
22.69 26.11 5.48
11.29 12.99 -1.51
13.18 15.16 -1.05
11.97 13.76 4.21
8.76 10.08 3.58
4.32 4.93 -1.76
12.81 14.64 0.34
5.06 5.78 -1.77
27.13 31 2.16
5.93 6.78 -1.75
15.83 18.09 2.1
6.87 7.85 -1.65
15.04 17.19 2.8
8.48 9.7 -1.58
11.34 12.96 -1.51
13.13 15 -1.04
12 13.71 4.21
9.02 10.3 3.67
4.34 4.92 -1.76
5.08 5.76 -1.77
25.05 28.41 1.98
5.99 6.79 -1.76
15.95 18.09 2.11
6.9 7.83 -1.65
12.57 14.26 2.33
8.51 9.65 -1.58
13.46 15.27 3.22
11.45 12.98 -1.51
17.1 19.4 5.03
13.27 15.06 -1.05
18.1 20.53 6.32
11.63 13.2 4.71
4.35 4.9 -1.76
24.96 28.11 0.66
5.1 5.74 -1.77
17.09 19.25 1.35
6.03 6.79 -1.76
12.66 14.26 1.67
6.93 7.8 -1.65
12.69 14.29 2.35
8.55 9.63 -1.58
13.51 15.21 3.22
11.5 12.96 -1.52
13.28 14.95 -1.05
17.29 19.47 6.01
25 28.15 -0.66
9.6 10.81 3.88
4.36 4.87 -1.75
25.03 27.99 0.66
5.12 5.73 -1.77
6.08 6.8 -1.77
17 19.01 2.23
6.96 7.78 -1.65
13.01 14.55 2.4
8.58 9.6 -1.58
16.49 18.44 3.92
11.55 12.92 -1.52
13.42 15.01 -1.05
24.95 27.9 -0.65
10.64 11.9 4.28
4.37 4.86 -1.75
25.5 28.33 0.67
5.14 5.7 -1.77
25.94 28.81 2.03
6.12 6.8 -1.78
27.76 30.83 3.63
6.98 7.76 -1.65
8.61 9.56 -1.58
24.99 27.75 5.91
11.6 12.88 -1.52
26.22 29.13 7.62
13.58 15.08 -1.06
25.11 27.88 -0.65
10.71 11.89 4.29
4.39 4.84 -1.75
5.15 5.68 -1.77
26.18 28.87 2.04
6.18 6.81 -1.79
16.26 17.93 2.12
7.01 7.73 -1.65
8.65 9.54 -1.58
18.43 20.33 4.35
11.64 12.83 -1.52
17.37 19.16 5.03
13.6 15 -1.06
18.45 20.35 6.34
4.41 4.82 -1.75
5.16 5.66 -1.77
6.22 6.81 -1.79
13.14 14.4 1.71
7.04 7.71 -1.65
8.68 9.5 -1.58
12.98 14.22 3.05
11.7 12.81 -1.52
9.76 10.69 2.81
13.76 15.07 -1.07
26.31 28.81 9.01
19.45 21.3 7.73
4.42 4.81 -1.75
5.18 5.63 -1.77
6.23 6.77 -1.79
13.29 14.45 1.72
7.07 7.69 -1.65
16.77 18.23 3.04
8.72 9.48 -1.58
12.98 14.12 3.04
11.74 12.76 -1.52
9.77 10.63 2.81
13.89 15.11 -1.08
19.52 21.23 7.73
4.42 4.77 -1.74
5.2 5.61 -1.77
6.24 6.74 -1.79
16.96 18.32 2.18
7.1 7.66 -1.65
18.09 19.53 3.27
8.76 9.46 -1.58
11.78 12.72 -1.52
18.37 19.83 5.25
14 15.12 -1.08
19.55 21.11 6.64
14.68 15.86 -0.38
4.44 4.76 -1.74
14.68 15.74 0.38
5.22 5.6 -1.77
6.26 6.72 -1.79
26.47 28.39 3.4
7.11 7.62 -1.65
28.06 30.1 5.05
8.8 9.43 -1.58
19.53 20.95 4.54
11.82 12.68 -1.52
17.59 18.87 5.01
13.85 14.85 -1.06
16.97 18.19 5.74
14.71 15.77 -0.38
10.55 11.32 4.15
4.46 4.74 -1.74
14.74 15.7 0.38
5.23 5.57 -1.76
14.07 14.98 1.08
6.27 6.68 -1.78
17.94 19.11 2.29
7.14 7.61 -1.65
19.54 20.81 3.5
8.84 9.41 -1.58
13.3 14.17 3.08
11.87 12.64 -1.52
13.93 14.83 -1.07
10.41 11.08 4.07
4.47 4.73 -1.74
14.67 15.52 0.37
5.24 5.54 -1.76
14.15 14.96 1.08
6.3 6.66 -1.78
14.86 15.72 1.89
7.18 7.59 -1.65
17.97 19 3.21
8.86 9.37 -1.58
27.79 29.38 6.41
11.91 12.59 -1.52
17.78 18.8 5.03
19.61 20.74 -1.5
17.69 18.71 5.94
10.36 10.95 4.04
4.48 4.71 -1.74
14.69 15.42 0.37
5.26 5.53 -1.76
14.88 15.63 1.13
6.3 6.61 -1.77
14.94 15.68 1.89
7.21 7.57 -1.66
14.93 15.68 2.66
8.9 9.35 -1.59
17.81 18.7 4.09
11.95 12.55 -1.52
19.67 20.66 -1.5
10.02 10.52 3.35
19.64 20.62 -0.5
18.6 19.54 7.23
4.49 4.68 -1.74
19.64 20.48 0.5
5.28 5.51 -1.76
18.07 18.84 1.37
6.31 6.58 -1.77
16.77 17.49 2.12
7.23 7.54 -1.66
15.03 15.68 2.67
8.94 9.32 -1.59
14.97 15.61 3.43
11.98 12.49 -1.51
15.01 15.66 4.22
19.79 20.64 -1.5
10.02 10.45 3.34
19.66 20.51 -0.5
10.42 10.87 4.03
4.51 4.67 -1.74
19.67 20.37 0.49
5.29 5.48 -1.76
17.11 17.72 1.29
6.33 6.55 -1.77
16.85 17.45 2.12
7.26 7.52 -1.66
19.63 20.32 3.47
8.98 9.3 -1.59
14.56 15.08 3.32
12.02 12.45 -1.51
12.71 13.16 3.56
15.23 15.77 5.06
19.75 20.45 -0.5
12.68 13.13 4.89
4.52 4.65 -1.74
19.76 20.32 0.49
5.3 5.45 -1.75
18.14 18.65 1.36
6.35 6.53 -1.77
19.75 20.31 2.48
7.29 7.49 -1.66
19.34 19.88 3.41
9.01 9.27 -1.59
19.65 20.2 4.46
12.06 12.41 -1.51
12.81 13.17 3.57
15.26 15.69 5.05
19.92 20.49 -0.5
15.28 15.71 5.87
4.54 4.63 -1.74
5.31 5.43 -1.75
19.78 20.2 1.48
6.37 6.5 -1.77
19.74 20.16 2.47
7.32 7.47 -1.66
19.72 20.14 3.46
9.04 9.23 -1.59
14.43 14.74 3.27
12.1 12.35 -1.51
19.62 20.03 5.45
9.94 10.15 3.28
10.57 10.79 4.05
4.55 4.61 -1.74
5.33 5.41 -1.75
19.92 20.2 1.49
6.38 6.47 -1.77
19.81 20.09 2.47
7.35 7.45 -1.66
19.83 20.11 3.47
9.07 9.2 -1.59
14.5 14.7 3.27
12.15 12.32 -1.51
15.57 15.79 4.31
19.57 19.84 6.43
10.72 10.87 4.09
4.56 4.59 -1.73
17.9 18.02 0.44
5.35 5.38 -1.75
17.43 17.55 1.3
6.39 6.44 -1.76
19.93 20.07 2.47
7.38 7.43 -1.66
16.53 16.64 2.88
9.12 9.18 -1.59
13.66 13.75 3.07
12.17 12.25 -1.51
20.03 20.17 5.53
10.07 10.14 3.3
4.57 4.57 -1.73
17.62 17.62 0.43
5.36 5.36 -1.75
15.07 15.07 1.12
6.41 6.41 -1.76
25.48 25.49 3.15
7.4 7.41 -1.66
26.2 26.21 4.55
9.15 9.15 -1.59
13.71 13.71 3.07
12.21 12.21 -1.51
19.66 19.66 5.4
17.78 17.79 -1.32
10.04 10.04 3.28
19.42 19.43 7.36
4.58 4.55 -1.73
18.21 18.09 0.45
5.36 5.33 -1.75
6.43 6.39 -1.76
7.43 7.38 -1.66
9.18 9.12 -1.59
17.21 17.1 3.84
12.24 12.16 -1.51
19.67 19.54 5.39
17.83 17.71 -1.32
9.97 9.9 3.24
20.12 19.99 7.6
4.59 4.53 -1.73
5.38 5.31 -1.74
14.95 14.75 1.1
6.45 6.36 -1.76
17.41 17.18 2.14
7.46 7.36 -1.66
19.64 19.38 3.39
9.21 9.09 -1.59
14.23 14.04 3.17
12.29 12.12 -1.51
9.95 9.82 3.23
18.22 17.97 -0.45
12.34 12.17 4.64
4.6 4.51 -1.73
17.44 17.08 0.43
5.4 5.29 -1.74
14.93 14.63 1.1
6.46 6.33 -1.76
16.93 16.58 2.07
7.49 7.34 -1.66
19.78 19.38 3.4
9.24 9.05 -1.59
14.44 14.15 3.2
12.32 12.07 -1.51
18.02 17.65 -1.32
9.93 9.73 3.21
17.99 17.63 -0.44
12.4 12.15 4.65
4.61 4.49 -1.72
5.41 5.26 -1.74
14.98 14.57 1.1
6.48 6.3 -1.76
7.51 7.31 -1.66
17.03 16.57 2.92
9.28 9.03 -1.59
21.72 21.13 4.8
12.35 12.01 -1.51
18.02 17.53 -1.32
9.94 9.67 3.2
17.96 17.48 -0.44
14.01 13.62 5.24
4.63 4.47 -1.72
18.17 17.56 0.44
5.43 5.24 -1.74
17.77 17.16 1.29
6.5 6.28 -1.76
17.53 16.93 2.13
7.53 7.28 -1.66
15.87 15.33 2.71
9.32 9 -1.59
12.39 11.97 -1.51
12.57 12.15 3.4
18.28 17.66 -1.33
10.72 10.35 3.44
4.64 4.45 -1.72
5.43 5.21 -1.74
15.2 14.59 1.1
6.52 6.25 -1.76
17.79 17.07 2.16
7.56 7.25 -1.66
15.91 15.26 2.71
9.35 8.97 -1.59
16.65 15.97 3.65
12.43 11.92 -1.51
12.73 12.21 3.43
18.12 17.38 -1.32
10.71 10.28 3.43
13.25 12.71 4.92
4.66 4.44 -1.72
5.45 5.19 -1.74
17.81 16.97 1.29
6.54 6.23 -1.76
17.57 16.74 2.12
7.59 7.23 -1.66
15.81 15.06 2.68
9.37 8.93 -1.59
16.63 15.84 3.64
12.45 11.86 -1.5
20.47 19.5 5.49
18.24 17.37 -1.32
10.68 10.17 3.4
18 17.15 -0.43
13.28 12.65 4.92
4.67 4.42 -1.72
17.8 16.84 0.43
5.47 5.17 -1.74
6.55 6.19 -1.75
7.62 7.21 -1.66
18.05 17.08 3.05
9.41 8.9 -1.59
12.49 11.82 -1.5
20.48 19.37 5.48
18.56 17.56 -1.34
10.55 9.98 3.35
17.92 16.95 -0.43
13.33 12.61 4.92
4.67 4.39 -1.72
17.36 16.31 0.42
5.48 5.15 -1.74
6.56 6.16 -1.75
7.64 7.18 -1.66
17.32 16.27 2.92
9.44 8.87 -1.59
16.53 15.53 3.59
12.52 11.76 -1.5
20.53 19.29 5.48
18.64 17.51 -1.34
11 10.33 3.48
18.42 17.3 -0.44
12.33 11.59 4.53
4.69 4.37 -1.72
18.35 17.11 0.44
5.49 5.13 -1.73
15.89 14.82 1.14
6.58 6.14 -1.75
7.67 7.15 -1.66
19.16 17.88 3.22
9.48 8.84 -1.59
17.91 16.7 3.88
12.55 11.71 -1.5
18.57 17.33 -1.33
10.63 9.92 3.36
4.71 4.36 -1.72
19.19 17.77 0.46
5.5 5.1 -1.73
6.6 6.11 -1.75
25.98 24.07 3.1
7.69 7.12 -1.66
9.52 8.82 -1.59
20.31 18.82 4.39
12.6 11.67 -1.5
18.83 17.44 -1.34
12.45 11.54 3.92
18.39 17.03 -0.44
13.47 12.48 4.92
4.72 4.34 -1.72
19.18 17.64 0.45
5.52 5.07 -1.73
26.66 24.53 1.9
6.62 6.09 -1.75
26.67 24.54 3.17
7.74 7.12 -1.67
17.92 16.48 2.99
9.55 8.79 -1.59
20.37 18.74 4.38
12.65 11.63 -1.5
18.8 17.3 -1.34
10.6 9.75 3.33
18.82 17.31 -0.45
13.53 12.45 4.93
4.73 4.32 -1.72
5.53 5.05 -1.73
6.63 6.05 -1.74
17.94 16.39 2.13
7.79 7.12 -1.67
17.51 16 2.91
9.58 8.75 -1.59
18.14 16.57 3.89
12.68 11.58 -1.5
18.57 16.97 -1.32
10.5 9.6 3.28
18.87 17.24 -0.45
10.81 9.88 3.92
4.74 4.3 -1.71
18.8 17.06 0.44
5.55 5.04 -1.73
19.48 17.67 1.38
6.65 6.03 -1.74
7.85 7.12 -1.68
16.42 14.9 2.72
9.63 8.74 -1.6
16.6 15.06 3.55
12.7 11.52 -1.5
16.19 14.68 4.25
18.59 16.86 -1.32
11.02 9.99 3.43
18.74 17 -0.44
4.75 4.28 -1.71
19.03 17.14 0.45
5.56 5.01 -1.73
18.85 16.98 1.33
6.66 6 -1.74
19.48 17.55 2.29
7.92 7.13 -1.69
16.33 14.71 2.7
9.65 8.7 -1.6
29.57 26.64 6.3
12.74 11.48 -1.5
11 9.91 3.42
13.73 12.37 4.95
4.77 4.26 -1.71
5.57 4.98 -1.72
6.68 5.98 -1.74
29.41 26.3 3.45
7.99 7.14 -1.7
20.22 18.09 3.33
9.7 8.67 -1.6
12.79 11.44 -1.5
29.21 26.13 7.62
21.33 19.08 -1.5
11.06 9.89 3.42
13.81 12.35 4.96
4.78 4.25 -1.71
5.58 4.96 -1.72
17.5 15.54 1.23
6.7 5.95 -1.74
29.68 26.36 3.47
8.06 7.15 -1.71
9.72 8.63 -1.6
18.38 16.32 3.89
12.83 11.39 -1.5
16.4 14.57 4.26
21.34 18.95 -1.5
10.69 9.5 3.3
13.89 12.34 4.98
4.79 4.22 -1.71
19.08 16.83 0.44
5.6 4.94 -1.72
18.75 16.54 1.31
6.71 5.92 -1.74
29.73 26.22 3.47
8.1 7.14 -1.71
9.75 8.6 -1.6
12.86 11.34 -1.5
16.7 14.73 4.33
10.75 9.48 3.31
13.86 12.23 4.95
4.8 4.2 -1.71
29.83 26.12 0.69
5.62 4.92 -1.72
6.72 5.89 -1.74
8.17 7.15 -1.72
9.78 8.57 -1.6
21.52 18.84 4.53
12.89 11.29 -1.5
16.02 14.03 4.14
10.77 9.43 3.3
4.82 4.19 -1.71
18.94 16.47 0.44
5.63 4.89 -1.72
19.03 16.55 1.32
6.73 5.86 -1.73
8.26 7.18 -1.73
9.82 8.54 -1.6
17.6 15.3 3.69
12.92 11.24 -1.5
12.47 10.85 3.21
14.94 12.99 4.57
29.04 25.26 -0.67
21.38 18.59 7.59
4.83 4.17 -1.71
30.57 26.4 0.71
5.64 4.87 -1.72
19.68 16.99 1.36
6.75 5.83 -1.73
8.28 7.15 -1.73
28.61 24.71 4.64
9.85 8.51 -1.6
17.86 15.42 3.74
12.97 11.2 -1.5
26.81 23.15 -1.86
19.29 16.65 5.88
4.85 4.16 -1.71
5.65 4.84 -1.72
18.84 16.15 1.3
6.77 5.8 -1.73
20.23 17.35 2.33
8.31 7.12 -1.73
20.75 17.79 3.36
9.87 8.47 -1.6
13 11.15 -1.5
16.85 14.45 4.31
11.11 9.52 3.38
15.29 13.11 5.4
4.86 4.14 -1.71
18.29 15.57 0.42
5.66 4.82 -1.72
18.83 16.03 1.3
6.77 5.77 -1.73
19.42 16.53 2.23
8.34 7.1 -1.73
18.2 15.5 2.94
9.91 8.44 -1.6
13.03 11.09 -1.5
13.26 11.29 4.02
19.65 16.73 -0.45
20.6 17.54 7.25
4.86 4.11 -1.71
5.68 4.8 -1.72
18.09 15.29 1.24
6.79 5.74 -1.73
20.2 17.09 2.31
8.36 7.07 -1.73
9.93 8.4 -1.6
17.82 15.07 3.7
13.07 11.05 -1.5
26.82 22.68 -1.84
10.84 9.17 3.28
20.61 17.43 7.23
4.88 4.09 -1.71
5.69 4.78 -1.72
6.8 5.71 -1.73
8.36 7.02 -1.73
21.04 17.66 3.37
9.98 8.38 -1.6
17.91 15.04 3.7
13.1 11 -1.5
19.3 16.2 5.82
4.89 4.08 -1.71
19.66 16.4 0.45
5.69 4.75 -1.71
18.32 15.28 1.25
6.82 5.68 -1.73
19.55 16.3 2.23
8.37 6.98 -1.73
18.31 15.27 2.93
10.01 8.35 -1.6
29.71 24.77 6.13
13.14 10.95 -1.5
16.98 14.16 4.3
14.79 12.33 4.44
4.91 4.06 -1.71
5.7 4.72 -1.71
18.64 15.44 1.27
6.82 5.65 -1.72
19.2 15.9 2.18
8.4 6.95 -1.73
19.53 16.17 3.11
10.04 8.31 -1.6
21.69 17.96 4.46
13.18 10.91 -1.5
4.92 4.04 -1.71
28.9 23.74 0.65
5.72 4.7 -1.71
6.83 5.61 -1.72
8.42 6.92 -1.73
21.42 17.6 3.4
10.07 8.27 -1.6
30.03 24.67 6.16
13.22 10.86 -1.5
17.17 14.11 4.32
22.18 18.22 -1.5
4.92 4.02 -1.7
5.74 4.69 -1.71
20.55 16.77 1.39
6.84 5.58 -1.72
20.66 16.85 2.33
8.44 6.88 -1.72
20.72 16.9 3.28
10.1 8.24 -1.6
18.34 14.96 3.75
13.24 10.8 -1.5
25.67 20.95 -1.74
15.13 12.35 4.51
14.61 11.92 5.05
4.93 3.99 -1.7
5.75 4.66 -1.71
20.67 16.74 1.39
6.86 5.56 -1.72
18.85 15.27 2.12
8.45 6.84 -1.72
19.64 15.91 3.1
10.14 8.21 -1.6
18.39 14.9 3.75
13.27 10.75 -1.49
12.78 10.35 3.2
25.6 20.74 -1.73
14.67 11.89 4.36
25.66 20.79 -0.58
14.46 11.71 4.98
4.94 3.98 -1.7
25.63 20.62 0.57
5.75 4.63 -1.71
6.87 5.53 -1.71
19.04 15.31 2.14
8.46 6.8 -1.72
19.69 15.84 3.1
10.17 8.18 -1.6
13.31 10.71 -1.49
25.75 20.72 -0.58
4.96 3.96 -1.7
5.77 4.61 -1.7
6.88 5.5 -1.71
23.55 18.81 2.64
8.47 6.77 -1.72
25.75 20.57 4.05
10.19 8.14 -1.6
19.16 15.31 3.88
13.33 10.65 -1.49
18.87 15.08 -1.27
15.12 12.08 4.47
18.84 15.05 -0.42
4.97 3.95 -1.7
18.97 15.05 0.42
5.78 4.59 -1.7
6.89 5.46 -1.71
8.48 6.73 -1.72
18.3 14.52 2.87
10.23 8.12 -1.6
25.85 20.51 5.23
13.37 10.6 -1.49
25.83 20.49 6.41
18.75 14.88 -1.25
25.88 20.53 7.63
18.83 14.94 -0.42
14.6 11.59 5
4.97 3.91 -1.69
5.8 4.56 -1.7
6.91 5.44 -1.71
8.5 6.69 -1.71
10.26 8.08 -1.6
13.38 10.54 -1.49
18.91 14.89 -1.26
20.24 15.94 5.95
19.96 15.72 -0.44
14.64 11.53 4.99
4.98 3.9 -1.69
5.81 4.54 -1.7
19.14 14.97 1.27
6.92 5.41 -1.71
19.27 15.07 2.14
8.5 6.65 -1.71
18.87 14.76 2.94
10.3 8.05 -1.61
19.73 15.43 3.97
13.4 10.48 -1.49
21.94 17.16 5.41
18.95 14.82 -1.26
18.88 14.77 -0.42
14.7 11.49 5
5 3.88 -1.7
19.04 14.77 0.42
5.81 4.51 -1.7
19.18 14.88 1.27
6.94 5.38 -1.71
18.96 14.72 2.1
8.52 6.61 -1.71
19.79 15.36 3.08
10.33 8.02 -1.61
20.85 16.18 4.18
13.44 10.43 -1.49
19.03 14.76 -1.26
19.01 14.75 -0.42
14.76 11.45 5
5.01 3.86 -1.7
5.82 4.49 -1.7
20.24 15.6 1.34
6.94 5.35 -1.7
18.89 14.56 2.09
8.54 6.58 -1.71
20.14 15.52 3.12
10.36 7.98 -1.61
30 23.12 6
13.48 10.39 -1.49
19.22 14.81 -1.27
19.04 14.67 -0.42
13.79 10.63 4.66
5.02 3.84 -1.69
19.26 14.74 0.42
5.83 4.46 -1.7
6.95 5.32 -1.7
21.14 16.17 2.33
8.55 6.54 -1.71
19.13 14.64 2.96
10.39 7.95 -1.61
31.07 23.78 6.2
13.51 10.33 -1.49
19.46 14.89 -1.28
20.63 15.78 6
19.01 14.54 -0.42
16.48 12.61 5.56
5.01 3.81 -1.69
19.33 14.68 0.42
5.86 4.45 -1.7
19.53 14.84 1.29
6.96 5.29 -1.7
8.56 6.51 -1.7
19.21 14.59 2.96
10.42 7.92 -1.61
31.89 24.23 6.34
13.54 10.28 -1.49
19.58 14.88 -1.29
14.53 11.04 4.21
19.16 14.56 -0.42
15.03 11.42 5.06
5.03 3.79 -1.69
19.35 14.59 0.42
5.86 4.42 -1.69
6.98 5.26 -1.7
8.57 6.46 -1.7
10.46 7.89 -1.61
13.58 10.24 -1.49
19.58 14.77 -1.29
15.71 11.85 4.54
19.21 14.49 -0.42
5.05 3.78 -1.69
19.48 14.59 0.42
5.86 4.39 -1.69
25.92 19.41 1.7
6.99 5.23 -1.7
8.58 6.43 -1.7
10.49 7.85 -1.61
28.56 21.39 5.65
13.62 10.2 -1.49
19.67 14.73 -1.29
26.2 19.62 7.56
19.49 14.59 -0.42
5.05 3.75 -1.68
19.6 14.57 0.43
5.88 4.37 -1.69
6.99 5.2 -1.69
21.33 15.85 2.32
8.6 6.39 -1.7
21.32 15.85 3.26
10.52 7.82 -1.61
28.68 21.31 5.66
13.69 10.17 -1.49
28.47 21.16 6.89
20.03 14.88 -1.31
16.01 11.9 4.6
19.41 14.43 -0.42
13.98 10.39 4.67
5.06 3.74 -1.69
19.9 14.68 0.43
5.89 4.35 -1.69
6.99 5.16 -1.69
8.61 6.36 -1.7
10.55 7.79 -1.61
28.82 21.27 5.67
13.75 10.14 -1.49
22.22 16.4 5.37
20.17 14.88 -1.31
21.08 15.55 6.05
19.72 14.55 -0.43
14.1 10.4 4.69
5.06 3.71 -1.68
20.08 14.71 0.43
5.91 4.33 -1.69
7.01 5.13 -1.69
8.63 6.32 -1.69
10.6 7.77 -1.61
26.18 19.17 5.14
13.79 10.1 -1.5
28.45 20.84 6.86
20.21 14.8 -1.31
31.05 22.74 8.89
19.96 14.62 -0.43
14.09 10.32 4.68
5.08 3.69 -1.68
20.09 14.61 0.43
5.92 4.31 -1.69
7.02 5.11 -1.69
8.63 6.28 -1.69
10.63 7.73 -1.61
13.81 10.04 -1.49
26.11 18.99 6.28
20.08 14.61 -0.43
14.23 10.35 4.71
5.08 3.67 -1.68
20.26 14.64 0.44
5.92 4.28 -1.69
7.03 5.08 -1.68
8.64 6.24 -1.69
27.3 19.72 4.14
10.66 7.7 -1.62
29.39 21.23 5.74
13.85 10.01 -1.5
20.36 14.7 -1.32
20.19 14.58 -0.43
22.06 15.93 7.29
5.1 3.65 -1.68
20.47 14.68 0.44
5.93 4.26 -1.69
7.04 5.05 -1.68
8.66 6.21 -1.69
10.69 7.67 -1.62
13.9 9.97 -1.5
22.39 16.06 5.36
20.88 14.97 -1.35
29.65 21.27 8.42
20.35 14.59 -0.44
22.55 16.17 7.44
5.11 3.63 -1.68
20.58 14.64 0.44
5.95 4.23 -1.68
7.04 5.01 -1.68
8.68 6.17 -1.69
10.8 7.68 -1.63
13.94 9.92 -1.5
20.96 14.91 -1.35
20.31 14.44 -0.44
22.69 16.14 7.46
5.11 3.61 -1.68
20.87 14.74 0.45
5.97 4.21 -1.69
27.55 19.45 1.77
7.06 4.98 -1.68
8.69 6.13 -1.68
10.89 7.69 -1.64
13.98 9.87 -1.5
21.33 15.06 -1.37
30.39 21.46 8.59
20.83 14.71 -0.45
5.12 3.59 -1.67
21.24 14.88 0.45
5.97 4.19 -1.68
21.52 15.08 1.38
7.07 4.96 -1.68
25.99 18.21 2.78
8.69 6.09 -1.68
11.01 7.71 -1.65
14.03 9.83 -1.5
21.31 14.93 -1.36
30.44 21.33 8.58
20.9 14.65 -0.45
5.14 3.57 -1.68
21.42 14.9 0.46
5.98 4.16 -1.68
26.63 18.52 1.7
7.08 4.93 -1.68
27.6 19.2 2.94
8.71 6.06 -1.68
11.12 7.73 -1.66
14.07 9.79 -1.5
22.71 15.8 5.38
21.49 14.95 -1.37
21.07 14.65 -0.45
15.33 10.67 5
5.14 3.55 -1.67
21.71 14.99 0.46
5.99 4.13 -1.68
26.7 18.43 1.7
7.1 4.9 -1.68
8.72 6.02 -1.68
11.21 7.74 -1.67
14.13 9.75 -1.5
21.45 14.81 -1.37
30.56 21.1 8.57
21.1 14.57 -0.45
30.62 21.14 9.97
5.15 3.53 -1.67
21.83 14.96 0.46
6 4.11 -1.68
7.1 4.87 -1.67
28.26 19.37 3
8.74 5.99 -1.68
11.32 7.76 -1.68
30.35 20.8 5.83
14.17 9.71 -1.5
21.56 14.78 -1.37
30.44 20.86 8.52
30.75 21.08 9.99
5.15 3.51 -1.67
22.03 14.99 0.47
6.02 4.1 -1.68
7.11 4.84 -1.67
8.74 5.95 -1.67
11.4 7.76 -1.69
14.21 9.67 -1.5
21.84 14.86 -1.38
29.77 20.25 8.31
21.59 14.69 -0.46
5.16 3.49 -1.67
22.18 14.98 0.47
6.03 4.07 -1.68
7.12 4.81 -1.67
26.86 18.14 2.84
8.74 5.9 -1.67
11.45 7.73 -1.7
30.78 20.79 5.88
14.26 9.63 -1.51
22.35 15.09 -1.41
29.83 20.14 8.31
21.82 14.74 -0.46
5.18 3.47 -1.67
22.43 15.04 0.47
6.02 4.04 -1.67
7.14 4.79 -1.67
26.36 17.67 2.78
8.75 5.87 -1.67
11.43 7.67 -1.69
28.51 19.12 5.44
14.3 9.59 -1.51
21.82 14.63 -1.38
30.47 20.43 8.47
22.03 14.77 -0.46
5.19 3.46 -1.67
22.57 15.02 0.47
6.03 4.02 -1.67
7.15 4.76 -1.67
8.77 5.83 -1.67
11.46 7.63 -1.69
28.25 18.8 5.37
14.36 9.56 -1.51
21.8 14.51 -1.37
22.12 14.72 -0.46
5.2 3.43 -1.67
22.73 15.01 0.48
6.05 3.99 -1.67
26.6 17.56 1.67
7.15 4.72 -1.67
8.78 5.79 -1.67
29.16 19.25 4.29
11.44 7.55 -1.68
29.47 19.45 5.59
14.4 9.51 -1.51
31.07 20.51 7.24
21.68 14.31 -1.36
22.5 14.85 -0.47
5.2 3.41 -1.67
22.82 14.95 0.48
6.06 3.97 -1.67
29.09 19.06 1.82
7.17 4.7 -1.67
8.79 5.76 -1.66
11.45 7.5 -1.68
32.01 20.98 6.06
14.44 9.46 -1.51
21.72 14.23 -1.36
22.56 14.78 -0.47
5.21 3.39 -1.67
23.05 14.99 0.48
6.06 3.94 -1.67
27.15 17.65 1.7
7.19 4.67 -1.67
8.79 5.71 -1.66
11.48 7.47 -1.68
14.47 9.41 -1.51
21.83 14.19 -1.36
22.68 14.74 -0.47
5.22 3.37 -1.66
23.59 15.22 0.49
6.07 3.91 -1.67
7.2 4.65 -1.67
8.8 5.68 -1.66
25.3 16.33 3.7
11.5 7.42 -1.68
14.51 9.36 -1.51
31.23 20.15 7.22
21.82 14.08 -1.36
23.12 14.92 -0.48
5.23 3.35 -1.66
23.91 15.31 0.5
6.08 3.89 -1.67
28.49 18.25 1.77
7.2 4.61 -1.66
8.81 5.64 -1.66
11.51 7.37 -1.68
14.56 9.33 -1.51
31.35 20.08 7.24
22 14.09 -1.37
23.12 14.81 -0.48
5.24 3.33 -1.66
24.09 15.31 0.5
6.09 3.87 -1.67
7.21 4.58 -1.66
30.48 19.37 3.16
8.82 5.61 -1.66
11.51 7.31 -1.67
14.6 9.28 -1.51
22.13 14.07 -1.37
23.34 14.84 -0.48
31.72 20.17 10.07
5.24 3.31 -1.66
24.12 15.21 0.5
6.1 3.85 -1.67
7.22 4.55 -1.66
8.83 5.57 -1.65
11.52 7.26 -1.67
14.63 9.23 -1.51
22.29 14.06 -1.38
23.58 14.87 -0.49
5.25 3.29 -1.66
24.53 15.35 0.51
6.11 3.83 -1.67
7.23 4.53 -1.66
24.88 15.57 2.57
8.82 5.52 -1.65
11.55 7.23 -1.67
30.18 18.89 5.64
14.68 9.19 -1.52
22.34 13.98 -1.38
23.73 14.85 -0.49
31.88 19.95 10.08
5.26 3.27 -1.66
24.57 15.26 0.5
6.11 3.79 -1.66
7.25 4.5 -1.66
8.83 5.49 -1.65
25.68 15.95 3.71
11.54 7.17 -1.67
30.2 18.76 5.63
14.72 9.14 -1.52
22.43 13.93 -1.38
32.49 20.17 8.83
24.12 14.98 -0.5
5.28 3.25 -1.66
24.72 15.23 0.51
6.12 3.77 -1.66
7.25 4.47 -1.66
8.85 5.45 -1.65
25.94 15.99 3.74
11.54 7.11 -1.66
29.85 18.39 5.55
14.77 9.1 -1.52
22.47 13.85 -1.38
24.33 14.99 -0.5
5.28 3.23 -1.66
24.76 15.14 0.51
6.13 3.75 -1.66
29.68 18.15 1.82
7.25 4.43 -1.65
8.86 5.41 -1.64
11.55 7.06 -1.66
29.85 18.25 5.54
14.82 9.06 -1.52
30.47 18.63 6.94
22.54 13.78 -1.38
32.33 19.76 8.75
32.26 19.72 10.13
5.28 3.21 -1.66
25.07 15.21 0.51
6.14 3.72 -1.66
29.87 18.12 1.83
7.26 4.4 -1.65
8.87 5.38 -1.64
11.56 7.01 -1.66
29.89 18.14 5.54
14.85 9.01 -1.52
22.58 13.7 -1.38
24.88 15.09 -0.51
32.35 19.63 10.14
5.29 3.18 -1.65
25.61 15.41 0.52
6.14 3.7 -1.66
7.27 4.38 -1.65
26.28 15.81 2.68
8.87 5.34 -1.64
30.56 18.39 4.38
11.57 6.96 -1.66
30.17 18.16 5.58
14.89 8.96 -1.52
30.69 18.47 6.96
22.61 13.61 -1.38
25.28 15.22 -0.52
5.3 3.17 -1.65
25.75 15.38 0.52
6.14 3.67 -1.65
7.28 4.35 -1.65
26.9 16.07 2.74
8.88 5.3 -1.64
30.53 18.23 4.37
11.58 6.91 -1.66
30.41 18.16 5.61
14.94 8.92 -1.52
30.69 18.33 6.95
22.62 13.51 -1.38
25.42 15.18 -0.52
5.3 3.14 -1.65
6.15 3.64 -1.65
7.29 4.32 -1.65
8.89 5.26 -1.64
30.51 18.07 4.35
11.58 6.86 -1.65
30.04 17.79 5.53
14.98 8.87 -1.52
30.85 18.28 6.97
22.65 13.41 -1.38
25.71 15.23 -0.52
5.31 3.12 -1.65
26.41 15.52 0.53
6.16 3.62 -1.65
7.29 4.28 -1.64
8.89 5.23 -1.63
30.4 17.87 4.33
11.59 6.81 -1.65
30.77 18.08 5.65
15.02 8.83 -1.52
22.64 13.31 -1.38
25.91 15.23 -0.52
5.31 3.1 -1.65
26.53 15.47 0.54
6.17 3.6 -1.65
7.31 4.26 -1.64
26.45 15.42 2.68
8.91 5.19 -1.63
11.61 6.77 -1.65
30.67 17.88 5.62
15.04 8.77 -1.52
30.98 18.06 6.97
22.69 13.23 -1.38
26.48 15.44 -0.54
5.32 3.08 -1.65
6.18 3.57 -1.65
7.31 4.23 -1.64
29.96 17.33 3.03
8.91 5.15 -1.63
29.85 17.27 4.23
11.62 6.72 -1.65
30.64 17.72 5.61
15.09 8.73 -1.53
22.72 13.14 -1.38
26.8 15.5 -0.54
5.33 3.06 -1.65
27.65 15.85 0.56
6.18 3.54 -1.64
30.52 17.5 1.84
7.32 4.2 -1.64
29.99 17.2 3.02
8.92 5.12 -1.63
29.84 17.11 4.22
11.62 6.66 -1.64
30.67 17.58 5.6
15.14 8.68 -1.53
22.73 13.03 -1.37
26.9 15.42 -0.54
5.34 3.04 -1.65
6.19 3.52 -1.64
7.33 4.17 -1.64
8.93 5.08 -1.63
31.18 17.74 4.4
11.61 6.61 -1.64
15.19 8.64 -1.53
22.73 12.93 -1.37
5.35 3.02 -1.64
29.84 16.83 0.6
6.2 3.5 -1.64
30.67 17.3 1.85
7.34 4.14 -1.64
31.8 17.94 3.19
8.95 5.05 -1.63
31.31 17.66 4.41
11.62 6.55 -1.64
31.24 17.62 5.68
15.23 8.59 -1.53
22.78 12.85 -1.37
27.79 15.68 -0.56
5.35 2.99 -1.64
6.21 3.48 -1.64
31.05 17.37 1.86
7.35 4.11 -1.64
31.7 17.74 3.18
8.96 5.01 -1.63
31.37 17.55 4.41
11.63 6.51 -1.64
15.28 8.55 -1.53
38.21 21.38 8.51
22.82 12.77 -1.37
38.14 21.34 10.09
27.83 15.57 -0.56
5.36 2.97 -1.64
6.22 3.45 -1.64
7.36 4.08 -1.64
31.78 17.64 3.18
8.96 4.97 -1.62
31.43 17.45 4.41
11.64 6.46 -1.63
15.32 8.5 -1.53
22.9 12.71 -1.37
27.9 15.49 -0.56
5.37 2.96 -1.64
6.22 3.42 -1.64
7.37 4.06 -1.63
31.83 17.52 3.18
8.97 4.94 -1.62
31.42 17.3 4.4
11.64 6.41 -1.63
15.41 8.48 -1.54
22.91 12.61 -1.37
5.38 2.94 -1.64
6.22 3.4 -1.64
38.4 20.98 2.29
7.38 4.03 -1.63
32.01 17.49 3.19
8.98 4.91 -1.62
31.4 17.16 4.39
11.64 6.36 -1.63
30.53 16.68 5.51
15.56 8.5 -1.55
22.92 12.52 -1.37
5.38 2.92 -1.64
6.24 3.38 -1.64
7.38 4 -1.63
9 4.88 -1.62
31.42 17.02 4.39
11.65 6.31 -1.63
15.74 8.53 -1.57
22.98 12.45 -1.37
5.38 2.89 -1.64
6.25 3.35 -1.64
7.39 3.97 -1.63
9 4.83 -1.62
11.65 6.26 -1.62
15.93 8.55 -1.58
23.02 12.36 -1.37
5.38 2.87 -1.63
6.25 3.33 -1.64
36.95 19.67 2.19
7.4 3.94 -1.63
31.59 16.82 3.13
9 4.79 -1.62
11.67 6.21 -1.62
16.1 8.57 -1.6
23.08 12.29 -1.37
5.4 2.85 -1.64
6.25 3.3 -1.63
37.11 19.59 2.2
7.41 3.91 -1.63
9.01 4.76 -1.61
11.66 6.16 -1.62
16.26 8.59 -1.61
23.14 12.21 -1.37
38.47 20.31 10.04
29.94 15.8 -0.59
5.41 2.83 -1.64
6.26 3.27 -1.63
36.87 19.3 2.18
7.42 3.89 -1.63
9.02 4.72 -1.61
11.65 6.1 -1.62
16.35 8.56 -1.61
23.15 12.12 -1.37
36.99 19.36 9.64
5.42 2.81 -1.64
6.27 3.26 -1.63
36.89 19.15 2.18
7.42 3.85 -1.62
37.5 19.47 3.7
9.03 4.69 -1.61
11.65 6.05 -1.61
16.33 8.48 -1.61
23.22 12.06 -1.37
5.41 2.79 -1.63
37.52 19.31 0.74
6.28 3.23 -1.63
7.42 3.82 -1.62
9.04 4.66 -1.61
11.67 6.01 -1.61
16.24 8.36 -1.6
23.27 11.98 -1.37
5.43 2.77 -1.63
6.28 3.21 -1.63
37.02 18.9 2.18
7.43 3.79 -1.62
9.03 4.61 -1.61
11.67 5.96 -1.61
16.23 8.29 -1.59
45.86 23.42 10.01
23.3 11.9 -1.37
5.44 2.75 -1.63
6.28 3.18 -1.63
37.44 18.95 2.2
7.44 3.77 -1.62
9.04 4.58 -1.6
11.67 5.91 -1.61
45.99 23.28 8.16
16.23 8.21 -1.59
23.31 11.8 -1.37
5.44 2.73 -1.63
6.29 3.15 -1.62
7.44 3.73 -1.62
46.4 23.28 4.54
9.06 4.54 -1.6
11.67 5.85 -1.6
16.25 8.15 -1.59
23.37 11.73 -1.37
5.45 2.71 -1.63
6.3 3.13 -1.62
37.57 18.69 2.2
7.44 3.7 -1.61
9.06 4.51 -1.6
11.67 5.81 -1.6
16.25 8.08 -1.59
23.41 11.64 -1.37
5.44 2.68 -1.63
6.31 3.11 -1.62
37.46 18.47 2.19
7.45 3.67 -1.61
9.08 4.47 -1.6
46.28 22.81 6.34
11.69 5.76 -1.6
16.23 8 -1.58
22.13 10.91 -1.29
5.46 2.67 -1.63
6.31 3.08 -1.62
7.46 3.64 -1.61
9.07 4.43 -1.6
11.69 5.71 -1.6
16.24 7.94 -1.58
22.16 10.83 -1.29
5.47 2.65 -1.63
6.31 3.06 -1.62
7.47 3.62 -1.61
9.08 4.4 -1.6
11.7 5.67 -1.6
16.26 7.87 -1.58
22.23 10.77 -1.29
5.49 2.63 -1.63
6.32 3.03 -1.62
7.47 3.58 -1.61
9.09 4.36 -1.6
11.69 5.61 -1.59
16.24 7.79 -1.58
22.18 10.64 -1.29
5.49 2.61 -1.63
6.32 3.01 -1.62
7.47 3.55 -1.61
9.09 4.33 -1.59
11.68 5.56 -1.59
16.22 7.72 -1.57
22.28 10.6 -1.29
5.49 2.59 -1.63
6.33 2.98 -1.62
7.47 3.52 -1.6
9.1 4.29 -1.59
11.7 5.52 -1.59
16.2 7.64 -1.57
22.33 10.53 -1.29
35.32 16.65 -0.68
5.5 2.57 -1.63
6.34 2.96 -1.62
7.47 3.49 -1.6
9.11 4.25 -1.59
11.7 5.47 -1.59
16.2 7.57 -1.56
21.77 10.17 -1.26
5.51 2.55 -1.63
6.33 2.93 -1.61
7.49 3.47 -1.6
9.1 4.21 -1.59
11.71 5.42 -1.58
16.22 7.51 -1.56
21.85 10.11 -1.26
5.52 2.53 -1.63
6.34 2.91 -1.61
7.49 3.44 -1.6
9.11 4.18 -1.59
11.7 5.37 -1.58
16.21 7.44 -1.56
21.75 9.98 -1.25
5.52 2.51 -1.62
6.35 2.89 -1.61
7.48 3.4 -1.6
9.12 4.15 -1.59
11.71 5.33 -1.58
16.2 7.37 -1.56
21.58 9.82 -1.24
5.52 2.49 -1.62
6.36 2.86 -1.61
7.49 3.37 -1.6
9.13 4.11 -1.59
43.36 19.53 5.84
11.72 5.28 -1.58
16.18 7.29 -1.55
21.75 9.8 -1.25
5.53 2.47 -1.62
6.37 2.84 -1.61
7.49 3.34 -1.6
9.13 4.07 -1.58
11.73 5.23 -1.58
16.21 7.23 -1.55
5.54 2.45 -1.62
6.36 2.81 -1.61
7.52 3.33 -1.6
9.14 4.04 -1.58
11.73 5.19 -1.58
45.02 19.9 7.8
16.2 7.16 -1.55
22.38 9.89 -1.28
44.82 19.81 11.31
5.54 2.42 -1.62
6.39 2.8 -1.61
7.53 3.3 -1.6
9.15 4 -1.58
11.72 5.13 -1.57
45.22 19.8 7.82
16.19 7.09 -1.55
23 10.07 -1.32
5.55 2.41 -1.62
6.39 2.77 -1.61
7.53 3.26 -1.59
9.15 3.97 -1.58
44 19.08 5.89
11.73 5.08 -1.57
16.17 7.01 -1.54
22.97 9.96 -1.31
5.55 2.38 -1.62
6.41 2.75 -1.61
7.54 3.24 -1.59
9.15 3.93 -1.58
11.74 5.04 -1.57
16.15 6.93 -1.54
23.01 9.88 -1.31
5.55 2.36 -1.62
6.41 2.73 -1.61
7.55 3.21 -1.6
9.14 3.89 -1.57
11.73 4.99 -1.57
16.16 6.88 -1.54
23.22 9.88 -1.32
5.56 2.35 -1.62
6.41 2.7 -1.61
7.55 3.18 -1.59
9.15 3.86 -1.57
11.74 4.95 -1.56
16.13 6.8 -1.53
23.47 9.89 -1.33
5.57 2.33 -1.62
6.42 2.68 -1.61
7.56 3.16 -1.59
9.16 3.82 -1.57
11.73 4.9 -1.56
16.15 6.74 -1.53
23.68 9.88 -1.34
5.58 2.31 -1.62
6.43 2.66 -1.61
7.56 3.12 -1.59
9.16 3.78 -1.57
11.73 4.85 -1.56
16.12 6.66 -1.53
23.74 9.81 -1.35
5.58 2.28 -1.62
6.43 2.63 -1.6
7.56 3.1 -1.59
9.16 3.75 -1.57
11.74 4.81 -1.56
16.11 6.59 -1.52
23.88 9.77 -1.35
5.59 2.26 -1.62
6.43 2.6 -1.6
7.57 3.07 -1.59
45.65 18.49 4.31
9.16 3.71 -1.57
11.75 4.76 -1.56
16.1 6.52 -1.52
24.16 9.79 -1.37
5.61 2.25 -1.62
6.42 2.58 -1.6
7.58 3.04 -1.59
45.9 18.4 4.33
9.17 3.68 -1.57
11.75 4.71 -1.55
16.11 6.46 -1.52
24.33 9.76 -1.37
5.61 2.23 -1.62
6.42 2.55 -1.6
7.58 3.01 -1.59
9.17 3.64 -1.56
11.75 4.66 -1.55
16.11 6.39 -1.52
24.56 9.75 -1.38
5.62 2.21 -1.62
6.44 2.53 -1.6
7.58 2.98 -1.58
9.18 3.61 -1.56
11.74 4.61 -1.55
16.11 6.33 -1.51
5.62 2.18 -1.62
6.45 2.51 -1.6
7.6 2.95 -1.58
46.28 17.99 4.34
9.19 3.57 -1.56
11.75 4.57 -1.55
16.08 6.25 -1.51
5.62 2.17 -1.61
6.46 2.49 -1.6
7.6 2.93 -1.58
9.19 3.54 -1.56
11.76 4.53 -1.55
16.07 6.19 -1.51
5.63 2.15 -1.62
6.46 2.46 -1.59
7.62 2.9 -1.58
9.19 3.5 -1.56
11.75 4.48 -1.54
16.07 6.12 -1.5
5.65 2.13 -1.62
6.46 2.44 -1.59
7.63 2.88 -1.59
9.19 3.47 -1.56
11.74 4.43 -1.54
16.06 6.06 -1.5
5.65 2.11 -1.62
6.48 2.42 -1.6
7.63 2.85 -1.58
9.21 3.44 -1.56
11.74 4.38 -1.54
16.06 5.99 -1.5
5.65 2.08 -1.61
6.49 2.39 -1.6
7.64 2.82 -1.58
9.22 3.4 -1.56
11.74 4.33 -1.54
16.05 5.92 -1.5
5.66 2.06 -1.61
6.49 2.37 -1.6
7.65 2.79 -1.58
9.21 3.36 -1.55
11.74 4.29 -1.54
16.03 5.85 -1.49
5.66 2.04 -1.61
6.49 2.34 -1.59
7.65 2.76 -1.58
9.23 3.33 -1.55
11.74 4.24 -1.53
16.04 5.79 -1.49
5.68 2.03 -1.62
6.5 2.32 -1.59
7.66 2.73 -1.58
9.23 3.3 -1.55
11.72 4.19 -1.53
16.02 5.72 -1.49
5.68 2.01 -1.61
6.51 2.3 -1.59
7.65 2.7 -1.58
9.24 3.27 -1.55
11.73 4.14 -1.53
16.02 5.66 -1.49
5.68 1.98 -1.61
6.52 2.28 -1.59
7.66 2.68 -1.58
9.24 3.23 -1.55
11.73 4.1 -1.53
16.01 5.59 -1.48
5.69 1.97 -1.61
6.53 2.26 -1.59
7.66 2.65 -1.58
9.24 3.19 -1.55
11.76 4.06 -1.53
15.99 5.52 -1.48
5.7 1.95 -1.61
6.53 2.23 -1.59
7.67 2.62 -1.58
9.24 3.16 -1.55
11.75 4.02 -1.52
16 5.47 -1.48
25.69 8.78 -1.42
5.71 1.93 -1.61
6.54 2.21 -1.59
7.66 2.59 -1.57
9.25 3.12 -1.55
11.73 3.96 -1.52
16 5.4 -1.48
5.72 1.91 -1.61
6.54 2.18 -1.59
7.66 2.56 -1.57
9.26 3.09 -1.55
11.74 3.92 -1.52
15.99 5.34 -1.47
5.71 1.88 -1.61
6.56 2.16 -1.59
7.67 2.53 -1.57
9.27 3.06 -1.55
11.74 3.87 -1.52
15.96 5.27 -1.47
5.72 1.86 -1.61
6.56 2.14 -1.59
7.68 2.51 -1.57
9.27 3.02 -1.54
11.74 3.83 -1.52
15.95 5.2 -1.47
5.72 1.84 -1.61
6.56 2.11 -1.59
7.69 2.48 -1.57
9.28 2.99 -1.54
11.75 3.79 -1.52
15.95 5.14 -1.47
5.74 1.83 -1.61
6.57 2.09 -1.59
7.7 2.45 -1.57
9.29 2.96 -1.54
11.74 3.74 -1.51
15.94 5.08 -1.46
5.74 1.81 -1.61
6.58 2.07 -1.59
7.7 2.42 -1.57
9.3 2.92 -1.54
11.74 3.69 -1.51
15.93 5.01 -1.46
5.74 1.78 -1.61
6.58 2.05 -1.59
7.7 2.39 -1.57
9.29 2.89 -1.54
11.74 3.65 -1.51
15.89 4.94 -1.46
5.75 1.76 -1.61
6.6 2.03 -1.59
7.71 2.37 -1.57
9.27 2.85 -1.54
11.75 3.61 -1.51
15.89 4.88 -1.45
5.75 1.75 -1.61
6.59 2 -1.59
7.72 2.34 -1.57
9.28 2.81 -1.54
11.75 3.56 -1.51
15.91 4.83 -1.45
25.22 7.65 -1.38
5.76 1.73 -1.61
6.6 1.98 -1.59
7.73 2.31 -1.57
9.28 2.78 -1.53
11.75 3.52 -1.51
15.89 4.76 -1.45
25.05 7.5 -1.37
5.77 1.71 -1.61
6.61 1.95 -1.59
7.72 2.28 -1.57
9.29 2.75 -1.53
11.75 3.47 -1.5
15.88 4.7 -1.45
24.98 7.39 -1.37
5.77 1.68 -1.61
6.62 1.93 -1.59
7.73 2.26 -1.57
9.29 2.71 -1.53
11.77 3.43 -1.51
15.88 4.63 -1.45
5.77 1.66 -1.61
6.63 1.91 -1.59
7.74 2.23 -1.57
9.29 2.68 -1.53
11.78 3.39 -1.5
15.88 4.58 -1.45
5.78 1.64 -1.61
6.62 1.88 -1.59
7.75 2.2 -1.57
9.29 2.64 -1.53
11.79 3.35 -1.51
15.86 4.51 -1.44
24.77 7.04 -1.35
5.79 1.62 -1.61
6.63 1.86 -1.59
7.75 2.17 -1.57
9.3 2.61 -1.53
11.79 3.31 -1.5
15.85 4.45 -1.44
24.79 6.95 -1.35
5.8 1.6 -1.61
6.64 1.84 -1.59
7.76 2.15 -1.56
9.31 2.58 -1.53
11.8 3.27 -1.5
15.84 4.38 -1.44
24.82 6.87 -1.35
5.79 1.58 -1.61
6.65 1.81 -1.59
7.76 2.12 -1.56
9.31 2.54 -1.53
11.83 3.23 -1.51
15.82 4.32 -1.44
5.8 1.56 -1.61
6.66 1.79 -1.59
7.77 2.09 -1.56
9.31 2.51 -1.53
11.83 3.18 -1.5
15.82 4.26 -1.43
5.8 1.54 -1.61
6.65 1.77 -1.59
7.78 2.07 -1.57
9.32 2.48 -1.53
11.81 3.14 -1.5
15.8 4.2 -1.43
5.81 1.52 -1.61
6.66 1.74 -1.59
7.78 2.04 -1.56
9.33 2.44 -1.53
11.8 3.09 -1.5
15.8 4.13 -1.43
24.52 6.42 -1.33
5.82 1.5 -1.61
6.66 1.72 -1.59
7.78 2.01 -1.56
9.34 2.41 -1.53
11.82 3.05 -1.5
15.79 4.07 -1.43
24.45 6.31 -1.32
5.82 1.48 -1.61
6.68 1.7 -1.59
7.78 1.98 -1.56
9.35 2.38 -1.53
11.82 3.01 -1.5
15.78 4.01 -1.42
24.29 6.18 -1.31
5.82 1.46 -1.61
6.68 1.67 -1.59
7.79 1.95 -1.56
9.35 2.34 -1.53
11.83 2.96 -1.5
15.76 3.95 -1.42
24.28 6.09 -1.31
5.83 1.44 -1.61
6.68 1.65 -1.59
7.79 1.92 -1.56
9.35 2.31 -1.53
11.84 2.92 -1.5
15.75 3.89 -1.42
24.32 6.01 -1.31
5.84 1.42 -1.61
6.68 1.63 -1.59
7.8 1.9 -1.56
9.36 2.28 -1.53
11.83 2.88 -1.49
15.73 3.83 -1.42
24.24 5.9 -1.31
5.84 1.4 -1.61
6.69 1.6 -1.59
7.8 1.87 -1.56
9.37 2.24 -1.53
11.83 2.83 -1.49
15.75 3.77 -1.42
24.2 5.8 -1.3
5.85 1.38 -1.61
6.7 1.58 -1.59
7.81 1.84 -1.56
9.37 2.21 -1.52
11.84 2.79 -1.49
15.73 3.71 -1.41
24.17 5.7 -1.3
5.85 1.36 -1.61
6.7 1.56 -1.59
7.82 1.82 -1.56
9.37 2.18 -1.52
11.86 2.75 -1.49
15.75 3.66 -1.41
24.09 5.59 -1.3
5.86 1.34 -1.61
6.7 1.53 -1.59
7.83 1.79 -1.56
9.38 2.14 -1.52
11.86 2.71 -1.49
15.75 3.6 -1.41
24.03 5.49 -1.29
5.86 1.32 -1.61
6.71 1.51 -1.59
7.83 1.76 -1.56
9.37 2.11 -1.52
11.86 2.67 -1.49
15.75 3.54 -1.41
24.07 5.41 -1.29
5.87 1.3 -1.61
6.71 1.49 -1.59
7.83 1.73 -1.56
9.37 2.07 -1.52
11.87 2.63 -1.49
15.74 3.48 -1.41
24.02 5.32 -1.29
5.86 1.28 -1.61
6.72 1.46 -1.59
7.84 1.71 -1.56
9.38 2.04 -1.52
11.88 2.59 -1.49
15.72 3.42 -1.41
23.99 5.22 -1.29
5.87 1.26 -1.61
6.73 1.44 -1.59
7.84 1.68 -1.56
9.39 2.01 -1.52
11.89 2.54 -1.49
15.73 3.37 -1.41
24.01 5.14 -1.29
5.88 1.24 -1.61
6.72 1.41 -1.59
7.86 1.65 -1.56
9.38 1.97 -1.52
11.89 2.5 -1.49
15.74 3.31 -1.41
23.97 5.04 -1.28
5.88 1.22 -1.61
6.73 1.39 -1.59
7.86 1.63 -1.56
9.41 1.94 -1.52
11.89 2.46 -1.49
15.76 3.26 -1.41
23.93 4.95 -1.28
5.89 1.19 -1.61
6.74 1.37 -1.59
7.85 1.59 -1.56
9.41 1.91 -1.52
11.89 2.41 -1.49
15.76 3.2 -1.41
23.92 4.85 -1.28
5.88 1.17 -1.61
6.75 1.34 -1.59
7.86 1.57 -1.56
9.42 1.88 -1.52
11.92 2.37 -1.49
15.75 3.14 -1.41
23.88 4.76 -1.28
5.89 1.15 -1.61
6.75 1.32 -1.59
7.87 1.54 -1.56
9.41 1.84 -1.52
11.92 2.33 -1.49
15.77 3.09 -1.41
23.9 4.68 -1.28
5.89 1.13 -1.61
6.74 1.3 -1.59
7.89 1.52 -1.56
9.42 1.81 -1.52
11.92 2.29 -1.49
15.78 3.03 -1.41
23.76 4.57 -1.27
5.9 1.11 -1.61
6.75 1.27 -1.59
7.89 1.49 -1.56
9.43 1.78 -1.52
11.91 2.25 -1.49
15.78 2.98 -1.4
23.73 4.48 -1.27
5.89 1.09 -1.61
6.76 1.25 -1.59
7.88 1.46 -1.56
9.45 1.75 -1.52
11.93 2.21 -1.49
15.8 2.92 -1.41
23.8 4.4 -1.27
5.89 1.07 -1.61
6.76 1.23 -1.59
7.88 1.43 -1.56
9.45 1.71 -1.52
11.94 2.17 -1.49
15.79 2.86 -1.4
23.66 4.29 -1.26
5.89 1.05 -1.6
6.77 1.2 -1.59
7.89 1.4 -1.56
9.44 1.68 -1.52
11.95 2.12 -1.49
15.79 2.81 -1.4
23.65 4.2 -1.26
5.91 1.03 -1.61
6.76 1.18 -1.59
7.9 1.38 -1.56
9.44 1.64 -1.52
11.95 2.08 -1.49
15.81 2.75 -1.4
23.64 4.12 -1.26
5.91 1.01 -1.61
6.77 1.16 -1.59
7.91 1.35 -1.56
9.46 1.61 -1.52
11.94 2.04 -1.49
15.81 2.7 -1.4
23.61 4.03 -1.26
5.91 0.99 -1.61
6.78 1.13 -1.59
7.9 1.32 -1.56
9.47 1.58 -1.52
11.95 2 -1.49
15.81 2.64 -1.4
23.63 3.95 -1.26
5.91 0.97 -1.6
6.78 1.11 -1.59
7.91 1.29 -1.56
9.47 1.55 -1.52
11.96 1.95 -1.49
15.81 2.58 -1.4
23.68 3.87 -1.26
5.91 0.95 -1.6
6.79 1.08 -1.59
7.92 1.27 -1.56
9.47 1.51 -1.52
11.97 1.91 -1.49
15.83 2.53 -1.4
23.64 3.78 -1.25
5.92 0.92 -1.61
6.78 1.06 -1.59
7.92 1.24 -1.56
9.47 1.48 -1.52
11.98 1.87 -1.49
15.83 2.47 -1.4
23.61 3.69 -1.25
5.93 0.9 -1.61
6.79 1.04 -1.59
7.93 1.21 -1.56
9.49 1.45 -1.52
11.97 1.83 -1.49
15.84 2.42 -1.4
23.61 3.6 -1.25
5.93 0.88 -1.61
6.79 1.01 -1.59
7.92 1.18 -1.56
9.49 1.42 -1.52
11.97 1.79 -1.49
15.86 2.36 -1.4
23.64 3.52 -1.25
5.92 0.86 -1.6
6.8 0.99 -1.59
7.93 1.15 -1.56
9.49 1.38 -1.52
11.99 1.75 -1.49
15.84 2.31 -1.4
23.63 3.44 -1.25
5.93 0.84 -1.6
6.8 0.97 -1.59
7.93 1.13 -1.56
9.48 1.35 -1.52
12 1.7 -1.49
15.86 2.25 -1.4
23.63 3.35 -1.25
5.94 0.82 -1.61
6.8 0.94 -1.59
7.94 1.1 -1.56
9.49 1.31 -1.52
12 1.66 -1.49
15.87 2.2 -1.4
23.62 3.27 -1.25
5.94 0.8 -1.61
6.8 0.92 -1.58
7.94 1.07 -1.56
9.5 1.28 -1.52
11.99 1.62 -1.49
15.88 2.14 -1.4
23.65 3.19 -1.25
5.95 0.78 -1.61
6.81 0.89 -1.59
7.93 1.04 -1.56
9.5 1.25 -1.52
12 1.58 -1.49
15.89 2.09 -1.4
23.65 3.11 -1.25
5.93 0.76 -1.6
6.81 0.87 -1.59
7.94 1.01 -1.56
9.51 1.21 -1.52
12.01 1.53 -1.49
15.87 2.03 -1.4
23.66 3.02 -1.25
5.94 0.74 -1.6
6.82 0.85 -1.59
7.94 0.99 -1.55
9.5 1.18 -1.52
12.02 1.49 -1.49
15.88 1.97 -1.4
23.68 2.94 -1.25
5.95 0.72 -1.61
6.81 0.82 -1.58
7.96 0.96 -1.56
9.51 1.15 -1.52
12.01 1.45 -1.49
15.88 1.92 -1.4
23.67 2.86 -1.25
5.96 0.7 -1.61
6.81 0.8 -1.58
7.96 0.93 -1.56
9.51 1.11 -1.52
12.01 1.41 -1.48
15.9 1.86 -1.4
23.68 2.77 -1.25
5.95 0.68 -1.61
6.82 0.77 -1.58
7.95 0.9 -1.56
9.52 1.08 -1.52
12.01 1.36 -1.48
15.9 1.81 -1.4
23.69 2.69 -1.25
5.95 0.65 -1.6
6.82 0.75 -1.58
7.96 0.88 -1.56
9.53 1.05 -1.52
12.02 1.32 -1.48
