# .PCD v0.7 - Point Cloud Data file format
VERSION 0.7
FIELDS x y z
SIZE 4 4 4
TYPE F F F
COUNT 1 1 1
WIDTH 2805
HEIGHT 1
VIEWPOINT 0 0 0 1 0 0 0
POINTS 2805
DATA ascii
33.8 0.75 0.59
7.05 0.16 -1.63
8.25 0.18 -1.6
9.9 0.22 -1.57
12.5 0.28 -1.54
16.77 0.37 -1.47
35.7 0.79 -0.62
6.14 0.11 -1.64
33.8 0.63 0.59
7.05 0.13 -1.63
8.24 0.15 -1.6
9.9 0.18 -1.57
12.51 0.23 -1.54
16.77 0.31 -1.47
35.74 0.67 -0.62
6.12 0.09 -1.64
33.81 0.51 0.59
7.06 0.11 -1.63
8.24 0.12 -1.6
9.9 0.15 -1.57
12.51 0.19 -1.54
16.77 0.25 -1.47
35.75 0.54 -0.62
6.13 0.07 -1.64
33.81 0.4 0.59
7.06 0.08 -1.63
8.25 0.1 -1.6
9.89 0.12 -1.57
12.51 0.15 -1.54
16.75 0.2 -1.47
35.77 0.42 -0.62
6.14 0.05 -1.64
33.85 0.27 0.59
7.05 0.06 -1.63
8.25 0.07 -1.6
9.9 0.08 -1.57
12.51 0.1 -1.54
16.73 0.14 -1.46
35.71 0.29 -0.62
6.14 0.03 -1.64
7.05 0.03 -1.63
8.25 0.04 -1.6
9.9 0.05 -1.57
12.5 0.06 -1.53
16.74 0.08 -1.46
35.91 0.17 -0.63
6.13 0.01 -1.64
7.06 0.01 -1.63
8.24 0.01 -1.6
9.9 0.01 -1.57
12.5 0.01 -1.53
16.76 0.02 -1.47
35.65 0.04 -0.62
6.12 -0.01 -1.64
7.06 -0.01 -1.63
8.24 -0.02 -1.6
9.9 -0.02 -1.57
12.5 -0.03 -1.53
16.74 -0.04 -1.46
23.63 -0.05 -0.41
6.12 -0.03 -1.64
23.61 -0.13 0.41
7.06 -0.04 -1.63
8.24 -0.05 -1.6
9.88 -0.06 -1.57
12.5 -0.07 -1.54
16.73 -0.09 -1.46
23.57 -0.13 -0.41
6.14 -0.06 -1.65
7.05 -0.07 -1.63
8.24 -0.08 -1.6
9.88 -0.09 -1.57
12.5 -0.12 -1.53
16.74 -0.15 -1.46
23.5 -0.22 -0.41
6.13 -0.08 -1.64
7.05 -0.09 -1.63
8.24 -0.11 -1.6
9.88 -0.13 -1.57
12.49 -0.16 -1.53
16.73 -0.21 -1.46
23.45 -0.3 -0.41
6.13 -0.1 -1.64
7.05 -0.11 -1.63
8.23 -0.13 -1.6
9.89 -0.16 -1.57
12.49 -0.2 -1.53
16.72 -0.27 -1.46
23.4 -0.38 -0.41
6.13 -0.12 -1.64
23.44 -0.46 0.41
7.06 -0.14 -1.63
8.23 -0.16 -1.6
9.88 -0.19 -1.57
12.49 -0.25 -1.53
16.7 -0.33 -1.46
23.37 -0.46 -0.41
6.13 -0.14 -1.64
23.38 -0.54 0.41
7.05 -0.16 -1.63
8.24 -0.19 -1.6
9.88 -0.23 -1.56
12.48 -0.29 -1.53
16.7 -0.38 -1.46
23.42 -0.54 -1.23
23.32 -0.54 -0.41
6.13 -0.16 -1.64
23.37 -0.62 0.41
7.05 -0.19 -1.63
8.23 -0.22 -1.6
9.88 -0.26 -1.57
12.48 -0.33 -1.53
16.7 -0.44 -1.46
23.38 -0.62 -1.23
23.29 -0.62 -0.41
6.14 -0.18 -1.65
23.26 -0.69 0.41
7.04 -0.21 -1.63
8.23 -0.25 -1.6
9.87 -0.29 -1.56
12.46 -0.37 -1.53
16.69 -0.5 -1.46
23.37 -0.7 -1.23
23.26 -0.69 -0.41
6.12 -0.2 -1.64
23.28 -0.77 0.41
7.05 -0.23 -1.63
8.22 -0.27 -1.6
9.87 -0.33 -1.56
12.46 -0.41 -1.53
16.69 -0.56 -1.46
23.4 -0.78 -1.23
23.21 -0.77 -0.41
6.12 -0.23 -1.64
23.23 -0.86 0.41
7.05 -0.26 -1.63
8.22 -0.3 -1.6
9.88 -0.37 -1.57
12.46 -0.46 -1.53
16.66 -0.62 -1.46
23.42 -0.87 -1.23
23.18 -0.86 -0.4
6.12 -0.25 -1.64
23.23 -0.94 0.41
7.05 -0.28 -1.63
8.23 -0.33 -1.6
9.86 -0.4 -1.56
12.46 -0.5 -1.53
16.66 -0.67 -1.46
23.39 -0.95 -1.23
23.16 -0.94 -0.4
6.13 -0.27 -1.64
23.19 -1.02 0.41
7.03 -0.31 -1.63
8.23 -0.36 -1.6
9.86 -0.43 -1.56
12.46 -0.55 -1.53
16.68 -0.73 -1.46
23.36 -1.03 -1.23
23.13 -1.02 -0.4
6.12 -0.29 -1.64
23.17 -1.1 0.4
7.03 -0.33 -1.63
8.22 -0.39 -1.6
9.85 -0.47 -1.56
12.45 -0.59 -1.53
16.69 -0.79 -1.46
23.29 -1.1 -1.22
23.11 -1.1 -0.4
6.12 -0.31 -1.64
23.15 -1.18 0.4
7.03 -0.36 -1.63
8.21 -0.42 -1.6
9.86 -0.5 -1.56
12.44 -0.63 -1.53
16.67 -0.85 -1.46
23.32 -1.19 -1.22
23.07 -1.18 -0.4
6.11 -0.33 -1.64
23.18 -1.26 0.41
7.04 -0.38 -1.63
8.21 -0.45 -1.6
9.85 -0.54 -1.56
12.44 -0.68 -1.53
16.68 -0.91 -1.46
23.32 -1.27 -1.22
23.05 -1.25 -0.4
6.11 -0.35 -1.64
23.18 -1.34 0.41
7.03 -0.41 -1.63
8.21 -0.48 -1.6
9.84 -0.57 -1.56
12.44 -0.72 -1.53
16.64 -0.97 -1.46
23.31 -1.35 -1.22
23.05 -1.34 -0.4
6.11 -0.38 -1.64
23.1 -1.42 0.4
7.03 -0.43 -1.63
8.21 -0.5 -1.6
9.84 -0.6 -1.56
12.43 -0.76 -1.53
16.65 -1.02 -1.46
23.27 -1.43 -1.22
23.03 -1.41 -0.4
6.12 -0.4 -1.64
23.04 -1.49 0.4
7.03 -0.45 -1.63
8.2 -0.53 -1.6
9.84 -0.64 -1.56
12.41 -0.8 -1.53
16.63 -1.08 -1.46
23.31 -1.51 -1.22
23.01 -1.49 -0.4
6.12 -0.42 -1.64
23.07 -1.57 0.4
7.03 -0.48 -1.63
8.2 -0.56 -1.6
9.84 -0.67 -1.56
12.41 -0.85 -1.53
16.61 -1.13 -1.46
23.3 -1.59 -1.22
23.05 -1.57 -0.4
6.1 -0.44 -1.64
23.13 -1.66 0.4
7.03 -0.51 -1.63
8.2 -0.59 -1.6
19.15 -1.38 1.68
9.83 -0.71 -1.56
12.42 -0.89 -1.53
16.62 -1.19 -1.46
23.07 -1.66 -0.4
6.1 -0.46 -1.64
7.03 -0.53 -1.63
8.2 -0.62 -1.6
19.17 -1.44 1.68
9.82 -0.74 -1.56
12.41 -0.93 -1.53
16.62 -1.25 -1.46
23.19 -1.75 -0.41
6.1 -0.48 -1.64
7.01 -0.55 -1.62
8.19 -0.65 -1.6
19.17 -1.51 1.68
9.82 -0.77 -1.56
12.4 -0.98 -1.53
16.63 -1.31 -1.46
23.37 -1.84 -0.41
6.1 -0.5 -1.64
7.01 -0.58 -1.62
8.19 -0.67 -1.6
19.13 -1.57 1.68
9.82 -0.81 -1.56
12.39 -1.02 -1.53
16.68 -1.37 -1.46
23.49 -1.93 -0.41
6.11 -0.52 -1.64
7.01 -0.6 -1.62
8.18 -0.7 -1.6
19.11 -1.64 1.68
9.82 -0.84 -1.56
12.38 -1.06 -1.53
16.67 -1.43 -1.46
23.65 -2.03 -0.41
6.09 -0.54 -1.64
7.01 -0.63 -1.63
19.18 -1.71 1.01
8.18 -0.73 -1.6
9.82 -0.88 -1.56
12.39 -1.11 -1.53
16.69 -1.49 -1.47
24 -2.14 -0.42
6.09 -0.57 -1.64
7.02 -0.65 -1.63
19.12 -1.78 1.01
8.18 -0.76 -1.6
9.8 -0.91 -1.56
12.38 -1.15 -1.53
16.6 -1.54 -1.46
24.3 -2.26 -0.43
6.09 -0.59 -1.64
6.99 -0.67 -1.62
8.18 -0.79 -1.6
9.79 -0.94 -1.56
12.37 -1.19 -1.53
16.59 -1.6 -1.46
24.58 -2.37 -0.43
6.09 -0.61 -1.64
7 -0.7 -1.62
8.17 -0.82 -1.6
9.8 -0.98 -1.56
19.1 -1.91 2.36
12.35 -1.23 -1.52
16.62 -1.66 -1.46
22.34 -2.23 -1.18
24.84 -2.48 -0.44
6.09 -0.63 -1.64
25.33 -2.61 0.44
7 -0.72 -1.63
8.16 -0.84 -1.59
19.09 -1.97 1.68
9.8 -1.01 -1.56
19.1 -1.97 2.36
12.34 -1.27 -1.52
16.56 -1.71 -1.46
22.21 -2.29 -1.17
25.13 -2.59 -0.44
6.08 -0.65 -1.64
7 -0.75 -1.62
8.16 -0.87 -1.59
19.08 -2.04 1.68
9.79 -1.05 -1.56
19.09 -2.04 2.36
12.35 -1.32 -1.53
16.47 -1.76 -1.45
22.04 -2.36 -1.16
25.41 -2.72 -0.45
6.07 -0.67 -1.64
19.12 -2.11 0.34
7 -0.77 -1.63
19.09 -2.11 1.01
8.16 -0.9 -1.6
19.08 -2.11 1.68
9.78 -1.08 -1.56
19.08 -2.11 2.36
12.36 -1.37 -1.53
16.42 -1.82 -1.45
21.81 -2.41 -1.15
19.16 -2.12 -0.34
6.08 -0.69 -1.64
6.98 -0.8 -1.62
19.08 -2.18 1.01
8.16 -0.93 -1.6
19.08 -2.18 1.68
9.78 -1.12 -1.56
21.98 -2.51 2.72
12.34 -1.41 -1.53
16.4 -1.87 -1.44
19.21 -2.19 -1.01
26.06 -2.97 -0.46
6.08 -0.72 -1.64
6.99 -0.82 -1.62
19.06 -2.24 1.01
8.16 -0.96 -1.6
19.07 -2.24 1.68
9.78 -1.15 -1.56
19.07 -2.24 2.36
12.32 -1.45 -1.52
16.35 -1.92 -1.44
21.83 -2.57 -1.15
6.07 -0.73 -1.64
6.99 -0.84 -1.63
19.05 -2.3 1.01
8.15 -0.98 -1.59
19.07 -2.3 1.68
9.77 -1.18 -1.56
19.06 -2.3 2.36
12.37 -1.49 -1.53
16.31 -1.97 -1.44
21.63 -2.61 -1.14
26.84 -3.24 -0.47
6.06 -0.75 -1.64
6.98 -0.87 -1.62
19.06 -2.37 1.01
8.15 -1.01 -1.6
19.05 -2.37 1.68
9.77 -1.22 -1.56
20.78 -2.58 2.57
12.43 -1.55 -1.54
16.25 -2.02 -1.43
21.73 -2.7 -1.15
6.05 -0.77 -1.63
6.98 -0.89 -1.63
8.14 -1.04 -1.6
19.05 -2.44 1.68
9.76 -1.25 -1.56
12.41 -1.59 -1.54
16.21 -2.07 -1.43
21.65 -2.77 -1.14
6.05 -0.8 -1.64
6.96 -0.91 -1.62
19.02 -2.5 1.01
8.14 -1.07 -1.6
19.06 -2.51 1.68
9.76 -1.28 -1.56
22.08 -2.9 2.73
12.42 -1.63 -1.54
21.58 -2.84 3.45
16.17 -2.13 -1.43
21.58 -2.84 -1.14
6.06 -0.82 -1.64
6.96 -0.94 -1.62
19.01 -2.57 1.01
8.14 -1.1 -1.6
19.06 -2.58 1.68
9.75 -1.32 -1.56
21.83 -2.95 2.7
12.36 -1.67 -1.53
21.55 -2.91 3.44
16.12 -2.18 -1.42
21.46 -2.9 -1.14
6.05 -0.84 -1.64
6.97 -0.97 -1.62
8.13 -1.13 -1.59
19.06 -2.64 1.68
9.75 -1.35 -1.56
20.89 -2.9 2.59
12.17 -1.69 -1.51
16.08 -2.23 -1.42
21.43 -2.97 -1.13
6.04 -0.86 -1.63
6.97 -0.99 -1.63
8.12 -1.16 -1.6
21.51 -3.06 1.9
9.75 -1.39 -1.56
20.93 -2.98 2.6
11.96 -1.7 -1.48
16.03 -2.28 -1.42
21.44 -3.05 -1.14
6.04 -0.88 -1.64
6.96 -1.02 -1.62
8.12 -1.18 -1.6
21.56 -3.14 1.91
9.72 -1.42 -1.56
20.95 -3.06 2.6
11.78 -1.72 -1.46
15.99 -2.33 -1.41
21.43 -3.13 -1.14
6.04 -0.9 -1.64
6.94 -1.04 -1.62
8.12 -1.21 -1.6
22.33 -3.34 1.98
9.72 -1.45 -1.56
11.73 -1.75 -1.46
15.96 -2.38 -1.41
21.36 -3.19 -1.13
6.04 -0.92 -1.64
6.94 -1.06 -1.62
8.11 -1.24 -1.6
21.53 -3.29 1.91
9.71 -1.49 -1.56
20.98 -3.21 2.61
11.7 -1.79 -1.45
15.92 -2.44 -1.41
21.37 -3.27 -1.13
6.04 -0.94 -1.64
97.26 -15.21 1.72
6.94 -1.09 -1.62
8.1 -1.27 -1.59
9.72 -1.52 -1.56
21.24 -3.32 2.64
11.69 -1.83 -1.45
20.92 -3.27 3.35
15.87 -2.48 -1.4
21.13 -3.3 -1.12
6.02 -0.96 -1.63
6.94 -1.11 -1.62
8.1 -1.3 -1.6
9.72 -1.55 -1.56
11.66 -1.87 -1.45
21.67 -3.47 3.48
15.8 -2.53 -1.4
21.16 -3.39 -1.12
6.02 -0.99 -1.63
6.94 -1.14 -1.62
8.1 -1.33 -1.59
21.31 -3.49 1.89
9.7 -1.59 -1.56
21.65 -3.55 2.69
11.64 -1.91 -1.45
21.8 -3.57 3.5
15.75 -2.58 -1.4
21.45 -3.51 4.23
21.1 -3.45 -1.12
6.02 -1.01 -1.64
6.93 -1.16 -1.62
21.59 -3.61 1.15
8.1 -1.36 -1.6
21.38 -3.58 1.9
9.69 -1.62 -1.56
21.49 -3.6 2.67
11.6 -1.94 -1.44
21.48 -3.6 3.45
15.69 -2.63 -1.39
21.44 -3.59 4.23
21.04 -3.52 -1.12
6.02 -1.03 -1.64
21.58 -3.68 0.38
6.92 -1.18 -1.62
21.59 -3.69 1.15
8.09 -1.38 -1.6
21.08 -3.6 1.87
9.76 -1.67 -1.57
20.59 -3.51 2.56
11.54 -1.97 -1.44
21.51 -3.67 3.46
15.63 -2.67 -1.39
21.02 -3.59 -1.12
21.63 -3.69 -0.38
6.03 -1.05 -1.64
6.92 -1.21 -1.62
8.08 -1.41 -1.59
21.48 -3.74 1.91
9.77 -1.7 -1.57
21.37 -3.73 2.66
11.5 -2 -1.43
21.48 -3.75 3.45
15.57 -2.72 -1.38
20.97 -3.66 -1.12
6 -1.07 -1.63
6.92 -1.23 -1.62
8.07 -1.44 -1.59
20.55 -3.66 1.83
9.77 -1.74 -1.57
20.93 -3.72 2.61
11.52 -2.05 -1.44
15.5 -2.76 -1.38
21.46 -3.82 4.24
21.03 -3.74 -1.12
6 -1.09 -1.64
6.91 -1.26 -1.62
22.13 -4.02 1.18
8.07 -1.46 -1.59
9.78 -1.78 -1.57
21.73 -3.95 2.71
11.47 -2.08 -1.43
15.43 -2.8 -1.37
20.91 -3.8 -1.11
6.01 -1.11 -1.64
6.91 -1.28 -1.62
8.07 -1.49 -1.59
9.74 -1.8 -1.57
11.44 -2.12 -1.43
15.37 -2.85 -1.37
20.65 -3.82 -1.1
6.01 -1.13 -1.64
6.9 -1.3 -1.62
8.06 -1.52 -1.6
20.68 -3.9 1.84
9.59 -1.81 -1.55
21.27 -4.02 2.66
11.43 -2.16 -1.43
15.33 -2.89 -1.36
20.66 -3.9 -1.1
6 -1.15 -1.64
6.9 -1.33 -1.62
8.05 -1.55 -1.59
20.67 -3.97 1.84
9.47 -1.82 -1.53
11.42 -2.2 -1.43
15.24 -2.93 -1.36
20.68 -3.98 -1.1
5.99 -1.17 -1.64
6.9 -1.35 -1.62
8.05 -1.58 -1.59
20.66 -4.04 1.84
9.35 -1.83 -1.51
11.4 -2.23 -1.43
15.16 -2.97 -1.35
20.61 -4.04 -1.1
5.99 -1.19 -1.64
6.89 -1.37 -1.62
8.04 -1.6 -1.59
9.23 -1.84 -1.49
11.37 -2.27 -1.42
15.11 -3.01 -1.35
20.58 -4.11 -1.1
5.99 -1.22 -1.64
6.88 -1.4 -1.62
22.78 -4.63 1.22
8.04 -1.63 -1.59
9.21 -1.87 -1.49
11.35 -2.3 -1.42
22.01 -4.47 3.56
15.05 -3.06 -1.34
20.62 -4.19 -1.1
22.65 -4.6 5.34
22.56 -4.58 6.17
5.98 -1.24 -1.64
6.87 -1.42 -1.62
22.77 -4.71 1.22
8.03 -1.66 -1.59
9.2 -1.9 -1.49
21.26 -4.4 2.67
11.31 -2.34 -1.42
22.63 -4.68 3.66
14.98 -3.1 -1.34
22.59 -4.67 4.48
20.75 -4.29 -1.11
22.6 -4.68 5.33
5.98 -1.26 -1.64
22.7 -4.78 0.4
6.87 -1.45 -1.62
22.67 -4.77 1.21
8.09 -1.7 -1.61
22.67 -4.77 2.03
9.18 -1.93 -1.49
21.27 -4.48 2.67
11.3 -2.38 -1.42
22.66 -4.77 3.67
14.91 -3.14 -1.33
20.9 -4.4 -1.12
22.74 -4.79 -0.41
5.97 -1.28 -1.64
22.71 -4.86 0.41
6.87 -1.47 -1.62
22.72 -4.86 1.22
8.08 -1.73 -1.61
9.18 -1.96 -1.49
11.29 -2.42 -1.42
14.85 -3.18 -1.33
20.96 -4.49 -1.12
22.75 -4.87 -0.41
5.96 -1.3 -1.63
6.87 -1.5 -1.62
8.07 -1.76 -1.61
9.13 -1.99 -1.48
11.28 -2.45 -1.42
14.78 -3.22 -1.32
21.04 -4.58 -1.13
5.97 -1.32 -1.64
6.85 -1.52 -1.62
8.08 -1.79 -1.61
21.23 -4.7 1.9
9.12 -2.02 -1.48
21.06 -4.66 2.65
11.25 -2.49 -1.41
14.73 -3.26 -1.32
21.16 -4.68 -1.14
5.96 -1.34 -1.64
6.86 -1.54 -1.62
8.08 -1.82 -1.61
9.08 -2.04 -1.47
11.22 -2.53 -1.41
14.68 -3.3 -1.32
21.26 -4.78 -1.14
5.96 -1.36 -1.64
6.84 -1.57 -1.62
52.44 -11.99 2.82
8.08 -1.85 -1.61
9.05 -2.07 -1.47
11.2 -2.56 -1.41
14.63 -3.35 -1.31
21.4 -4.89 -1.15
5.94 -1.38 -1.63
6.84 -1.59 -1.62
52.41 -12.18 2.82
8.06 -1.87 -1.61
9.02 -2.1 -1.47
11.18 -2.6 -1.41
14.56 -3.38 -1.31
21.53 -5 -1.16
5.94 -1.4 -1.64
88.77 -20.95 1.59
6.84 -1.62 -1.62
52.41 -12.37 2.82
7.98 -1.88 -1.59
9.01 -2.13 -1.47
11.14 -2.63 -1.41
14.51 -3.42 -1.3
21.59 -5.1 -1.16
5.94 -1.42 -1.64
6.83 -1.64 -1.62
52.4 -12.56 2.82
7.87 -1.89 -1.57
8.99 -2.16 -1.46
11.1 -2.66 -1.4
14.45 -3.46 -1.3
21.54 -5.16 -1.16
5.94 -1.44 -1.64
6.82 -1.66 -1.62
52.37 -12.73 2.82
7.78 -1.89 -1.56
8.99 -2.18 -1.46
11.06 -2.69 -1.4
14.42 -3.5 -1.3
21.48 -5.22 -1.16
5.93 -1.46 -1.64
72.05 -17.78 1.3
6.82 -1.68 -1.62
52.36 -12.92 2.83
7.69 -1.9 -1.54
8.99 -2.22 -1.47
11.04 -2.72 -1.4
14.37 -3.55 -1.3
21.43 -5.29 -1.16
5.92 -1.48 -1.63
6.82 -1.71 -1.62
52.34 -13.13 2.83
7.63 -1.91 -1.53
8.97 -2.25 -1.46
11.02 -2.76 -1.4
14.32 -3.59 -1.29
21.39 -5.36 -1.16
5.91 -1.51 -1.64
6.84 -1.74 -1.63
7.63 -1.94 -1.53
8.94 -2.28 -1.46
28.31 -7.21 3.59
11.01 -2.8 -1.39
14.27 -3.63 -1.29
21.33 -5.43 -1.15
5.91 -1.52 -1.64
6.88 -1.77 -1.64
52.31 -13.49 2.83
7.61 -1.96 -1.53
26.72 -6.89 2.41
8.92 -2.3 -1.46
28.18 -7.27 3.57
10.98 -2.83 -1.39
14.25 -3.68 -1.29
27.87 -7.19 5.59
21.28 -5.49 -1.15
5.92 -1.55 -1.64
6.87 -1.8 -1.64
7.6 -1.99 -1.53
8.91 -2.33 -1.46
10.95 -2.87 -1.39
14.2 -3.71 -1.28
21.22 -5.55 -1.15
5.91 -1.57 -1.64
6.86 -1.82 -1.64
7.59 -2.01 -1.53
8.9 -2.36 -1.46
10.93 -2.9 -1.39
14.16 -3.76 -1.28
21.19 -5.62 -1.15
5.89 -1.58 -1.63
6.87 -1.85 -1.64
7.56 -2.03 -1.52
27.69 -7.45 2.51
8.9 -2.39 -1.46
27.95 -7.52 3.55
10.92 -2.94 -1.39
14.11 -3.8 -1.28
21.11 -5.68 -1.15
5.89 -1.61 -1.64
6.87 -1.87 -1.64
7.55 -2.06 -1.52
27.02 -7.38 2.45
8.85 -2.42 -1.45
10.9 -2.98 -1.39
14.07 -3.84 -1.28
21.06 -5.75 -1.14
28.14 -7.68 6.74
5.88 -1.63 -1.64
6.87 -1.9 -1.65
7.54 -2.09 -1.52
27.07 -7.49 2.46
8.84 -2.45 -1.45
28.25 -7.82 3.6
10.87 -3.01 -1.38
14.04 -3.89 -1.27
27.94 -7.73 5.64
21.01 -5.81 -1.14
5.88 -1.65 -1.64
65.72 -18.42 1.19
6.85 -1.92 -1.64
7.52 -2.11 -1.52
27.3 -7.65 2.48
8.83 -2.47 -1.45
27.99 -7.85 3.57
10.85 -3.04 -1.38
28.4 -7.96 4.67
14 -3.93 -1.27
20.95 -5.87 -1.14
27.79 -7.79 6.66
5.88 -1.67 -1.64
65.73 -18.68 1.19
6.79 -1.93 -1.63
7.49 -2.13 -1.51
8.83 -2.51 -1.45
27.72 -7.88 3.54
10.82 -3.08 -1.38
28.49 -8.1 4.69
13.97 -3.97 -1.27
20.89 -5.94 -1.14
27.8 -7.9 6.67
5.86 -1.69 -1.64
65.74 -18.94 1.19
6.72 -1.93 -1.61
7.48 -2.15 -1.51
8.82 -2.54 -1.45
10.8 -3.11 -1.38
28.28 -8.15 4.66
13.92 -4.01 -1.27
20.83 -6 -1.14
5.87 -1.71 -1.64
65.77 -19.2 1.2
6.65 -1.94 -1.6
7.46 -2.18 -1.51
28.81 -8.41 2.63
8.79 -2.57 -1.45
27.63 -8.07 3.53
10.78 -3.15 -1.38
27.51 -8.03 4.54
13.89 -4.06 -1.27
27.78 -8.11 5.63
20.79 -6.07 -1.14
5.86 -1.73 -1.64
65.85 -19.46 1.2
6.58 -1.94 -1.58
7.43 -2.19 -1.51
28.89 -8.54 2.64
8.77 -2.59 -1.45
27.55 -8.14 3.53
10.76 -3.18 -1.38
27.05 -7.99 4.47
13.86 -4.09 -1.26
27.68 -8.18 5.61
20.72 -6.12 -1.13
27.88 -8.24 6.71
5.85 -1.75 -1.64
65.88 -19.72 1.2
6.52 -1.95 -1.57
57.5 -17.21 3.15
7.43 -2.22 -1.51
57.41 -17.19 5.24
8.75 -2.62 -1.45
26.56 -7.95 3.4
10.72 -3.21 -1.37
13.83 -4.14 -1.26
20.64 -6.18 -1.13
28.22 -8.45 -0.51
5.85 -1.77 -1.64
28.02 -8.5 0.51
6.45 -1.96 -1.56
28.04 -8.5 1.54
7.42 -2.25 -1.51
26.7 -8.1 2.44
8.73 -2.65 -1.45
28.02 -8.5 3.59
10.71 -3.25 -1.37
13.79 -4.18 -1.26
27.16 -8.24 5.52
20.61 -6.25 -1.13
28.05 -8.51 -0.51
5.84 -1.79 -1.64
28 -8.6 0.51
6.43 -1.98 -1.55
28 -8.6 1.54
7.35 -2.26 -1.49
27.92 -8.58 2.56
8.71 -2.67 -1.44
26.89 -8.26 3.45
10.69 -3.28 -1.37
28.11 -8.63 4.66
13.76 -4.23 -1.26
28.69 -8.81 5.83
20.55 -6.31 -1.13
28.11 -8.63 -0.51
5.87 -1.82 -1.65
6.43 -2 -1.55
7.38 -2.29 -1.5
8.69 -2.7 -1.44
26.41 -8.2 3.4
10.68 -3.32 -1.37
13.73 -4.26 -1.26
20.5 -6.36 -1.12
37.02 -11.5 -0.68
5.88 -1.85 -1.65
6.41 -2.01 -1.55
57.16 -17.97 3.14
7.38 -2.32 -1.5
28.23 -8.88 2.59
8.66 -2.72 -1.44
26.5 -8.33 3.41
10.64 -3.35 -1.37
13.7 -4.31 -1.26
28.18 -8.86 5.74
20.43 -6.42 -1.12
36.96 -11.62 -0.68
5.88 -1.87 -1.65
6.4 -2.04 -1.55
7.35 -2.34 -1.5
8.64 -2.75 -1.44
26.44 -8.41 3.41
10.63 -3.38 -1.37
28.01 -8.91 4.66
13.67 -4.35 -1.26
20.4 -6.49 -1.12
5.87 -1.89 -1.65
6.4 -2.06 -1.55
7.35 -2.37 -1.5
8.63 -2.78 -1.44
26.2 -8.44 3.38
10.61 -3.42 -1.37
27.08 -8.72 4.51
13.64 -4.39 -1.25
20.35 -6.56 -1.12
5.87 -1.91 -1.65
6.4 -2.08 -1.55
7.33 -2.39 -1.5
27.12 -8.84 2.5
8.61 -2.81 -1.43
10.59 -3.45 -1.37
28.16 -9.18 4.69
13.59 -4.43 -1.25
20.28 -6.61 -1.12
5.86 -1.93 -1.65
6.38 -2.1 -1.55
7.31 -2.41 -1.5
8.59 -2.83 -1.43
10.57 -3.49 -1.37
13.56 -4.47 -1.25
20.24 -6.67 -1.12
5.85 -1.95 -1.65
6.36 -2.12 -1.55
7.29 -2.43 -1.49
8.57 -2.86 -1.43
26.69 -8.9 3.45
10.55 -3.52 -1.36
29.19 -9.74 4.87
13.52 -4.51 -1.25
20.16 -6.73 -1.11
5.86 -1.98 -1.66
6.33 -2.14 -1.54
7.28 -2.46 -1.49
27.33 -9.23 2.52
8.56 -2.89 -1.43
28.36 -9.58 3.68
10.51 -3.55 -1.36
13.5 -4.56 -1.25
16.41 -5.54 -0.91
5.82 -1.99 -1.65
6.34 -2.16 -1.55
7.26 -2.48 -1.49
8.54 -2.92 -1.43
28.51 -9.73 3.7
10.49 -3.58 -1.36
28.38 -9.69 4.75
13.47 -4.6 -1.25
20.09 -6.86 -1.11
5.75 -1.99 -1.63
6.32 -2.18 -1.54
7.24 -2.5 -1.49
8.52 -2.94 -1.43
28.47 -9.83 3.7
10.47 -3.62 -1.36
13.43 -4.64 -1.24
20.05 -6.92 -1.11
34.52 -11.92 -0.64
5.7 -1.99 -1.62
6.32 -2.21 -1.54
66.18 -23.11 3.67
7.23 -2.52 -1.49
27.86 -9.73 2.58
8.5 -2.97 -1.43
26.78 -9.35 3.48
10.45 -3.65 -1.36
13.41 -4.68 -1.24
18.2 -6.36 -1.01
34.64 -12.1 -0.64
5.66 -2 -1.61
6.28 -2.22 -1.54
7.22 -2.55 -1.49
26.73 -9.44 2.48
8.48 -3 -1.42
28.13 -9.94 3.66
10.42 -3.68 -1.36
13.38 -4.73 -1.24
18.17 -6.42 -1.01
34.75 -12.27 -0.64
5.61 -2 -1.6
6.26 -2.24 -1.54
7.21 -2.58 -1.49
26.77 -9.56 2.49
8.47 -3.02 -1.42
10.39 -3.71 -1.35
13.35 -4.77 -1.24
18.05 -6.44 -1
15.16 -5.41 -0.28
5.56 -2.01 -1.59
15.32 -5.53 0.28
6.25 -2.26 -1.53
7.19 -2.6 -1.49
26.7 -9.64 2.48
8.46 -3.05 -1.42
71.03 -25.65 9.27
10.37 -3.74 -1.35
13.32 -4.81 -1.24
17.87 -6.45 -1
15.45 -5.58 -0.29
5.5 -2.01 -1.57
66.29 -24.18 1.23
6.25 -2.28 -1.54
7.17 -2.62 -1.48
26.55 -9.68 2.47
8.44 -3.08 -1.42
10.35 -3.77 -1.35
13.27 -4.84 -1.24
17.86 -6.51 -1
15.51 -5.66 -0.29
5.48 -2.02 -1.56
15.49 -5.71 0.29
6.25 -2.31 -1.54
7.16 -2.64 -1.48
19.3 -7.12 1.8
8.41 -3.1 -1.42
26.9 -9.92 3.52
10.33 -3.81 -1.35
13.24 -4.88 -1.23
15.44 -5.7 -0.86
15.11 -5.57 -0.28
5.47 -2.04 -1.57
15.13 -5.64 0.28
6.21 -2.32 -1.53
7.15 -2.67 -1.48
8.39 -3.13 -1.42
26.77 -9.98 3.51
10.29 -3.84 -1.35
13.21 -4.92 -1.23
15.5 -5.78 -0.87
15.52 -5.79 -0.29
5.47 -2.06 -1.57
15.47 -5.83 0.29
6.2 -2.34 -1.53
7.14 -2.69 -1.48
8.38 -3.16 -1.42
27.25 -10.27 3.58
10.27 -3.87 -1.35
13.18 -4.97 -1.23
15.21 -5.73 -0.85
15.68 -5.91 -0.29
5.46 -2.08 -1.57
15.03 -5.73 0.28
6.19 -2.36 -1.53
7.11 -2.71 -1.48
8.36 -3.18 -1.42
10.25 -3.9 -1.35
13.14 -5.01 -1.23
15.34 -5.84 -0.86
14.89 -5.67 -0.28
5.44 -2.1 -1.56
15.27 -5.88 0.29
6.18 -2.38 -1.53
7.1 -2.73 -1.48
8.34 -3.21 -1.42
10.23 -3.94 -1.35
13.1 -5.04 -1.23
15.29 -5.89 -0.86
15.08 -5.81 -0.28
5.44 -2.11 -1.56
15.36 -5.97 0.29
6.17 -2.4 -1.53
7.09 -2.76 -1.48
8.31 -3.23 -1.41
16.04 -6.24 2.11
10.21 -3.97 -1.35
16.02 -6.23 2.72
13.06 -5.07 -1.23
15.94 -6.2 3.33
13.69 -5.32 -0.77
15.11 -5.87 -0.28
5.43 -2.13 -1.56
15.45 -6.07 0.29
6.14 -2.41 -1.52
7.08 -2.78 -1.48
16.01 -6.29 1.51
8.29 -3.26 -1.41
15.9 -6.25 2.1
10.19 -4 -1.34
15.87 -6.23 2.7
12.97 -5.09 -1.22
15.79 -6.2 3.3
15.17 -5.96 -0.85
14.58 -5.73 -0.27
5.42 -2.15 -1.56
14.9 -5.91 0.28
6.12 -2.43 -1.52
7.05 -2.8 -1.47
15.88 -6.3 1.49
8.28 -3.28 -1.41
15.75 -6.25 2.08
10.16 -4.03 -1.34
15.74 -6.25 2.68
12.86 -5.1 -1.21
15.67 -6.22 3.28
15.22 -6.04 -0.86
14.96 -5.94 -0.28
5.41 -2.17 -1.56
18.07 -7.24 0.34
6.11 -2.45 -1.52
7.02 -2.81 -1.47
15.72 -6.3 1.48
8.27 -3.31 -1.41
15.62 -6.26 2.07
10.13 -4.06 -1.34
15.61 -6.26 2.66
12.71 -5.1 -1.2
15.56 -6.24 3.26
13.41 -5.37 -0.76
14.98 -6.01 -0.28
5.39 -2.18 -1.56
14.89 -6.03 0.28
6.1 -2.47 -1.52
7 -2.83 -1.47
15.6 -6.32 1.47
8.25 -3.34 -1.41
15.6 -6.32 2.07
10.12 -4.1 -1.34
15.6 -6.32 2.67
12.62 -5.11 -1.19
15.59 -6.31 3.27
13.33 -5.4 -0.75
14.86 -6.02 -0.28
5.38 -2.2 -1.56
15.13 -6.19 0.29
6.08 -2.49 -1.52
6.98 -2.86 -1.47
15.61 -6.39 1.48
8.23 -3.37 -1.41
15.61 -6.39 2.07
10.1 -4.13 -1.34
15.61 -6.39 2.67
12.52 -5.12 -1.18
15.58 -6.38 3.27
13.19 -5.4 -0.75
15.53 -6.35 -0.29
5.38 -2.22 -1.56
17.78 -7.34 0.34
6.06 -2.5 -1.51
33.67 -13.9 1.91
6.97 -2.88 -1.47
15.63 -6.45 1.48
8.21 -3.39 -1.41
15.61 -6.45 2.07
10.07 -4.16 -1.34
15.63 -6.45 2.68
12.43 -5.13 -1.18
15.59 -6.44 3.28
13.11 -5.41 -0.74
15.28 -6.31 -0.29
5.37 -2.24 -1.56
17.86 -7.45 0.34
6.05 -2.52 -1.51
6.95 -2.9 -1.46
15.64 -6.53 1.48
8.19 -3.42 -1.41
15.63 -6.52 2.08
10.03 -4.18 -1.33
15.63 -6.52 2.68
12.35 -5.15 -1.17
15.61 -6.51 3.29
13.07 -5.45 -0.74
14.8 -6.17 -0.28
5.34 -2.25 -1.55
17.75 -7.48 0.34
6.04 -2.55 -1.51
6.94 -2.92 -1.46
15.64 -6.59 1.48
8.18 -3.44 -1.41
15.64 -6.59 2.08
10.01 -4.22 -1.33
15.63 -6.58 2.69
12.29 -5.18 -1.17
15.61 -6.57 3.29
13.03 -5.49 -0.74
14.77 -6.22 -0.28
5.32 -2.26 -1.55
17.75 -7.55 0.34
6.03 -2.57 -1.51
19.11 -8.13 1.09
6.92 -2.94 -1.46
15.63 -6.65 1.49
8.16 -3.47 -1.4
15.64 -6.65 2.09
9.99 -4.25 -1.33
15.63 -6.65 2.69
12.08 -5.14 -1.15
15.6 -6.64 3.3
13.03 -5.54 -0.74
14.84 -6.31 -0.28
5.31 -2.28 -1.55
17.75 -7.62 0.34
6.02 -2.59 -1.51
35.76 -15.36 2.04
6.91 -2.97 -1.46
15.65 -6.72 1.49
8.14 -3.5 -1.4
15.64 -6.72 2.09
9.96 -4.28 -1.33
15.63 -6.71 2.69
11.99 -5.15 -1.14
15.61 -6.7 3.3
13.09 -5.62 -0.75
17.9 -7.69 4.5
14.76 -6.34 -0.28
5.3 -2.3 -1.55
17.67 -7.66 0.34
6 -2.6 -1.51
35.71 -15.49 2.04
6.89 -2.99 -1.46
15.66 -6.79 1.49
8.12 -3.52 -1.4
15.64 -6.78 2.09
9.93 -4.31 -1.33
15.64 -6.78 2.7
11.98 -5.2 -1.14
15.6 -6.77 3.31
12.48 -5.41 -0.71
17.94 -7.78 4.51
15.14 -6.57 -0.29
5.3 -2.32 -1.55
17.66 -7.73 0.34
5.99 -2.62 -1.51
19.57 -8.57 1.12
6.88 -3.01 -1.46
15.66 -6.86 1.5
8.11 -3.55 -1.4
15.65 -6.85 2.1
9.89 -4.33 -1.33
15.64 -6.85 2.7
12.01 -5.26 -1.15
15.62 -6.84 3.31
13.14 -5.75 -0.75
14.98 -6.56 -0.29
5.28 -2.34 -1.55
17.76 -7.85 0.34
5.99 -2.65 -1.51
19.53 -8.63 1.12
6.86 -3.03 -1.46
15.66 -6.92 1.5
8.09 -3.58 -1.4
15.66 -6.92 2.1
9.88 -4.37 -1.33
15.64 -6.91 2.71
11.89 -5.26 -1.14
15.63 -6.91 3.32
13.16 -5.82 -0.75
14.62 -6.46 -0.28
5.28 -2.36 -1.55
17.59 -7.84 0.34
5.97 -2.66 -1.51
19.33 -8.62 1.11
6.85 -3.05 -1.46
15.66 -6.98 1.5
8.08 -3.6 -1.4
15.67 -6.99 2.11
9.85 -4.39 -1.32
15.65 -6.98 2.71
11.83 -5.27 -1.13
15.62 -6.97 3.33
12.46 -5.56 -0.72
17.75 -7.91 4.49
15.62 -6.96 -0.3
5.27 -2.37 -1.55
17.59 -7.92 0.34
5.96 -2.68 -1.51
19.34 -8.71 1.11
6.83 -3.08 -1.46
15.66 -7.05 1.5
8.05 -3.63 -1.4
15.67 -7.06 2.11
9.83 -4.43 -1.32
15.65 -7.04 2.72
11.56 -5.2 -1.11
15.61 -7.03 3.33
17.45 -7.85 -1
17.76 -8 4.5
14.73 -6.63 -0.28
5.25 -2.39 -1.55
17.49 -7.94 0.34
5.94 -2.7 -1.51
6.83 -3.1 -1.46
15.67 -7.12 1.51
8.03 -3.65 -1.4
15.67 -7.12 2.11
9.81 -4.46 -1.32
15.66 -7.11 2.72
11.45 -5.2 -1.1
15.62 -7.1 3.33
17.39 -7.9 -1
15.75 -7.15 -0.3
5.25 -2.41 -1.55
15.87 -7.28 0.3
5.92 -2.72 -1.5
15.85 -7.27 0.91
6.81 -3.12 -1.46
15.67 -7.19 1.51
8.02 -3.68 -1.4
15.66 -7.18 2.12
9.78 -4.48 -1.32
15.66 -7.18 2.73
11.54 -5.29 -1.11
15.63 -7.17 3.34
12.75 -5.85 -0.73
15.91 -7.3 -0.31
5.24 -2.42 -1.55
15.82 -7.32 0.3
5.92 -2.74 -1.5
15.8 -7.31 0.91
6.78 -3.14 -1.45
15.67 -7.25 1.51
8 -3.7 -1.4
15.67 -7.25 2.12
9.75 -4.51 -1.32
15.66 -7.24 2.73
11.36 -5.26 -1.1
15.63 -7.23 3.35
15.86 -7.34 -0.92
15.83 -7.33 -0.3
5.22 -2.44 -1.54
15.8 -7.38 0.3
5.9 -2.76 -1.5
15.79 -7.38 0.91
6.77 -3.16 -1.45
15.68 -7.32 1.51
7.99 -3.73 -1.4
15.67 -7.32 2.12
9.73 -4.54 -1.32
15.66 -7.31 2.74
11.28 -5.27 -1.09
15.64 -7.3 3.36
15.84 -7.4 -0.92
15.84 -7.4 -0.31
5.21 -2.45 -1.54
5.89 -2.77 -1.5
6.76 -3.19 -1.45
15.68 -7.39 1.52
7.95 -3.75 -1.39
15.69 -7.39 2.13
9.71 -4.58 -1.32
15.67 -7.39 2.74
11.14 -5.25 -1.08
15.64 -7.37 3.36
17.27 -8.14 -1
18.32 -8.63 4.68
17.3 -8.15 -0.33
5.2 -2.47 -1.54
5.87 -2.79 -1.5
17.53 -8.34 1.02
6.74 -3.21 -1.45
15.69 -7.46 1.52
7.94 -3.77 -1.39
15.68 -7.46 2.13
9.69 -4.61 -1.32
15.68 -7.45 2.75
11.15 -5.3 -1.08
15.64 -7.44 3.37
17.23 -8.19 -1
17.56 -8.35 4.49
17.33 -8.24 -0.33
18.04 -8.58 5.35
5.18 -2.49 -1.54
5.86 -2.81 -1.5
17.53 -8.41 1.02
6.73 -3.23 -1.45
15.69 -7.53 1.52
7.92 -3.8 -1.39
15.69 -7.53 2.14
9.66 -4.63 -1.31
15.68 -7.52 2.75
11.1 -5.33 -1.08
15.64 -7.5 3.37
15.72 -7.54 -0.91
17.53 -8.41 4.49
17.46 -8.37 -0.34
16.84 -8.08 5
5.17 -2.5 -1.54
5.85 -2.83 -1.5
17.77 -8.6 1.03
6.71 -3.25 -1.45
15.69 -7.6 1.53
7.9 -3.82 -1.39
15.69 -7.6 2.14
9.63 -4.66 -1.31
15.67 -7.59 2.76
10.99 -5.32 -1.07
15.65 -7.58 3.38
15.7 -7.6 -0.91
17.54 -8.49 4.5
17.2 -8.33 -0.33
16.81 -8.14 5
5.14 -2.51 -1.53
5.84 -2.85 -1.5
6.7 -3.27 -1.45
15.69 -7.66 1.53
7.88 -3.85 -1.39
15.7 -7.67 2.15
9.61 -4.69 -1.31
15.68 -7.66 2.76
10.99 -5.37 -1.07
15.66 -7.65 3.39
15.69 -7.66 -0.92
19.13 -9.34 4.91
16.9 -8.26 -0.33
5.14 -2.53 -1.53
5.83 -2.87 -1.5
6.69 -3.3 -1.45
15.7 -7.73 1.53
7.85 -3.87 -1.39
15.7 -7.74 2.15
9.59 -4.73 -1.31
15.68 -7.73 2.77
10.91 -5.37 -1.06
15.66 -7.72 3.39
15.7 -7.74 -0.92
17.09 -8.42 -0.33
16.62 -8.19 4.96
5.13 -2.55 -1.53
5.81 -2.89 -1.5
6.67 -3.32 -1.45
15.71 -7.81 1.53
7.83 -3.89 -1.39
15.69 -7.8 2.15
9.55 -4.75 -1.31
15.7 -7.8 2.78
10.61 -5.27 -1.04
15.67 -7.79 3.4
15.69 -7.8 -0.92
16.91 -8.4 -0.33
16.73 -8.32 5.01
5.13 -2.57 -1.54
5.79 -2.9 -1.5
6.66 -3.34 -1.45
15.71 -7.88 1.54
7.81 -3.92 -1.38
15.7 -7.87 2.16
9.52 -4.77 -1.31
15.69 -7.87 2.78
10.59 -5.31 -1.04
15.67 -7.85 3.41
15.72 -7.88 -0.92
16.63 -8.34 -0.32
5.1 -2.58 -1.53
16.83 -8.51 0.33
5.78 -2.92 -1.49
17.97 -9.09 1.06
6.64 -3.36 -1.45
15.71 -7.95 1.54
7.8 -3.94 -1.38
15.71 -7.95 2.16
9.5 -4.81 -1.31
15.69 -7.94 2.78
10.53 -5.33 -1.03
15.68 -7.93 3.42
15.74 -7.96 -0.92
16.75 -8.47 -0.33
16.7 -8.45 5.02
5.09 -2.6 -1.53
5.77 -2.94 -1.5
6.63 -3.38 -1.45
15.7 -8.01 1.54
7.78 -3.97 -1.38
15.71 -8.01 2.17
9.46 -4.83 -1.3
15.7 -8.01 2.79
10.46 -5.33 -1.03
15.68 -8 3.42
15.74 -8.03 -0.93
16.48 -8.41 -0.32
17.5 -8.93 5.26
5.09 -2.62 -1.53
5.76 -2.96 -1.49
6.62 -3.4 -1.45
15.71 -8.08 1.55
7.75 -3.98 -1.38
15.71 -8.08 2.17
9.44 -4.86 -1.3
15.71 -8.08 2.8
10.42 -5.36 -1.02
15.68 -8.06 3.43
15.8 -8.13 -0.93
16.59 -8.53 -0.33
18.5 -9.51 5.57
5.08 -2.64 -1.53
5.74 -2.98 -1.49
6.61 -3.43 -1.45
15.72 -8.15 1.55
7.72 -4.01 -1.38
15.71 -8.14 2.17
9.42 -4.88 -1.3
15.71 -8.14 2.8
10.34 -5.36 -1.02
15.67 -8.13 3.43
15.82 -8.2 -0.93
16.61 -8.61 -0.33
15.87 -8.23 4.79
5.06 -2.64 -1.53
5.72 -2.99 -1.49
6.59 -3.45 -1.45
15.73 -8.22 1.55
7.72 -4.04 -1.38
15.71 -8.22 2.18
9.38 -4.91 -1.3
15.71 -8.22 2.81
10.2 -5.34 -1.01
15.68 -8.2 3.44
15.8 -8.26 -0.93
16.58 -8.67 -0.33
15.77 -8.25 4.77
5.05 -2.67 -1.53
5.71 -3.01 -1.49
6.56 -3.46 -1.44
15.72 -8.29 1.55
7.69 -4.06 -1.38
15.71 -8.29 2.18
9.36 -4.94 -1.3
15.7 -8.28 2.81
10.15 -5.36 -1
15.67 -8.26 3.44
16.54 -8.73 -0.98
15.8 -8.33 4.12
18.74 -9.89 -0.37
5.05 -2.69 -1.53
5.7 -3.03 -1.49
6.56 -3.49 -1.44
15.72 -8.36 1.56
7.68 -4.08 -1.38
15.73 -8.37 2.19
9.34 -4.97 -1.3
10.25 -5.45 -1.02
16.88 -8.98 3.72
16.81 -8.94 -1
15.82 -8.42 4.14
16.66 -8.86 -0.33
5.03 -2.7 -1.53
17.83 -9.57 0.35
5.69 -3.05 -1.49
6.55 -3.51 -1.44
7.65 -4.1 -1.38
18.73 -10.05 2.61
9.32 -5 -1.3
16.43 -8.81 2.95
10.16 -5.45 -1.01
18.45 -9.9 4.07
16.95 -9.09 -1.01
15.79 -8.47 4.14
16.26 -8.72 -0.32
16.82 -9.02 5.11
5.02 -2.72 -1.53
17.69 -9.57 0.35
5.66 -3.06 -1.49
17.71 -9.58 1.05
6.53 -3.53 -1.44
7.63 -4.13 -1.37
67.16 -36.33 9.38
9.29 -5.03 -1.3
9.97 -5.39 -0.99
16.01 -8.66 3.54
16.61 -8.98 -0.99
19.09 -10.33 5.01
16.89 -9.14 -0.34
15.27 -8.26 4.65
5 -2.73 -1.53
17.64 -9.62 0.35
5.66 -3.08 -1.49
17.59 -9.59 1.05
6.51 -3.55 -1.44
17.65 -9.62 1.76
7.62 -4.15 -1.37
67.2 -36.65 9.4
9.26 -5.05 -1.29
17.26 -9.42 3.11
9.92 -5.41 -0.99
17.27 -9.42 3.82
16.47 -8.98 -0.98
18.36 -10.02 4.83
16.39 -8.94 -0.33
16.06 -8.76 4.9
4.99 -2.75 -1.53
17.68 -9.72 0.35
5.64 -3.1 -1.49
17.53 -9.64 1.05
6.49 -3.57 -1.44
17.58 -9.67 1.76
7.6 -4.18 -1.37
67.22 -36.97 9.42
9.24 -5.08 -1.3
17.72 -9.74 3.2
9.89 -5.44 -0.99
16.46 -9.05 -0.98
16.66 -9.16 -0.33
4.98 -2.76 -1.52
5.64 -3.13 -1.49
17.64 -9.78 1.06
6.48 -3.59 -1.44
17.56 -9.74 1.76
7.58 -4.2 -1.37
17.47 -9.69 2.45
9.21 -5.11 -1.29
17.11 -9.49 3.1
9.83 -5.45 -0.98
17 -9.42 3.78
16.36 -9.07 -0.98
15.77 -8.75 4.16
17.04 -9.45 -0.34
4.96 -2.77 -1.52
5.62 -3.14 -1.49
6.46 -3.61 -1.44
17.47 -9.77 1.75
7.56 -4.23 -1.37
17.41 -9.73 2.45
9.2 -5.14 -1.29
17.27 -9.65 3.13
9.54 -5.33 -0.96
16.95 -9.48 3.78
16.3 -9.12 -0.98
16.62 -9.29 -0.33
17.56 -9.82 5.39
4.96 -2.79 -1.52
5.6 -3.16 -1.48
27.69 -15.61 1.67
6.45 -3.63 -1.44
17.78 -10.02 1.79
7.54 -4.25 -1.37
17.44 -9.83 2.46
9.18 -5.17 -1.29
17.26 -9.73 3.14
9.53 -5.37 -0.96
17.2 -9.7 3.84
16.43 -9.26 -0.99
17.04 -9.61 4.52
16.11 -9.08 -0.32
4.93 -2.8 -1.52
5.59 -3.18 -1.48
27.6 -15.69 1.66
6.43 -3.66 -1.44
7.52 -4.27 -1.37
17.45 -9.92 2.46
9.15 -5.2 -1.29
17.92 -10.18 3.26
9.5 -5.4 -0.96
17.15 -9.75 3.83
16.46 -9.36 -0.99
17.07 -9.7 4.53
16.77 -9.53 -0.34
4.93 -2.82 -1.52
29.16 -16.71 0.59
5.58 -3.2 -1.48
6.41 -3.67 -1.44
7.51 -4.3 -1.37
67.36 -38.6 9.53
8.91 -5.1 -1.26
67.3 -38.56 12.28
9.52 -5.45 -0.96
17.16 -9.83 3.84
16.5 -9.46 -1
18.7 -10.71 4.98
16.57 -9.49 -0.33
16.79 -9.62 5.19
4.9 -2.83 -1.52
29.12 -16.81 0.59
5.57 -3.21 -1.48
27.49 -15.87 1.66
6.4 -3.69 -1.44
17.36 -10.02 1.75
7.49 -4.32 -1.37
18.57 -10.72 2.63
9.06 -5.23 -1.28
67.33 -38.87 12.31
9.43 -5.44 -0.95
16.45 -9.5 -1
17.06 -9.85 4.55
16.76 -9.67 -0.34
17.51 -10.11 5.42
4.89 -2.85 -1.52
29.08 -16.93 0.59
5.55 -3.23 -1.48
27.3 -15.89 1.66
6.38 -3.71 -1.43
28.12 -16.36 2.85
7.46 -4.34 -1.37
18.57 -10.81 2.64
9.01 -5.25 -1.28
17.33 -10.09 3.18
9.42 -5.48 -0.95
16.21 -9.43 -0.98
18.76 -10.92 5.01
17.58 -10.23 5.45
4.88 -2.87 -1.52
29.12 -17.08 0.59
5.52 -3.24 -1.48
16.71 -9.8 1.02
6.37 -3.74 -1.44
17.32 -10.16 1.76
7.43 -4.36 -1.37
18.11 -10.63 2.58
8.97 -5.26 -1.28
17.35 -10.18 3.19
9.35 -5.48 -0.95
18.24 -10.7 4.11
16.01 -9.39 -0.97
16.6 -9.74 -0.34
17.35 -10.18 5.39
4.87 -2.88 -1.52
5.51 -3.26 -1.48
6.35 -3.75 -1.43
18.87 -11.16 1.92
7.43 -4.39 -1.37
18.12 -10.72 2.59
8.9 -5.26 -1.27
17.44 -10.31 3.21
9.25 -5.47 -0.94
18.2 -10.76 4.11
15.93 -9.42 -0.97
18.75 -11.09 5.03
16.31 -9.64 -0.33
17.2 -10.17 5.35
4.86 -2.9 -1.52
24.36 -14.52 0.49
5.5 -3.28 -1.48
35.98 -21.45 2.2
6.33 -3.77 -1.43
17.1 -10.2 1.74
7.4 -4.41 -1.37
18.14 -10.81 2.59
8.83 -5.26 -1.26
17.42 -10.38 3.21
9.2 -5.48 -0.94
17.24 -10.28 3.9
15.92 -9.49 -0.97
15.99 -9.53 -0.32
17.14 -10.22 5.35
4.83 -2.9 -1.51
5.49 -3.3 -1.48
6.32 -3.79 -1.43
7.39 -4.44 -1.37
18.17 -10.92 2.6
8.77 -5.27 -1.26
9.17 -5.51 -0.94
17.99 -10.81 4.08
15.91 -9.56 -0.97
16.39 -9.85 -0.33
16.56 -9.95 5.18
4.82 -2.92 -1.51
5.47 -3.31 -1.48
6.3 -3.82 -1.43
7.36 -4.45 -1.36
17.61 -10.67 2.53
8.66 -5.25 -1.24
9.01 -5.46 -0.92
15.93 -9.65 -0.98
27.57 -16.7 -0.56
16.18 -9.8 5.07
4.81 -2.94 -1.51
5.44 -3.32 -1.47
35.71 -21.8 2.19
6.29 -3.84 -1.43
18.85 -11.51 1.93
7.34 -4.48 -1.36
18.73 -11.43 2.69
8.68 -5.3 -1.25
8.92 -5.45 -0.91
17.25 -10.53 3.93
15.92 -9.72 -0.98
16.11 -9.83 5.06
4.8 -2.95 -1.51
5.43 -3.34 -1.47
6.27 -3.85 -1.43
17.88 -11 1.84
7.32 -4.5 -1.36
16.69 -10.27 2.41
8.62 -5.31 -1.24
17.83 -10.97 3.32
8.99 -5.53 -0.92
17.22 -10.59 3.93
15.91 -9.79 -0.98
16.85 -10.36 5.3
4.79 -2.97 -1.51
5.42 -3.36 -1.47
26.72 -16.57 1.65
6.24 -3.87 -1.43
7.3 -4.53 -1.36
17.23 -10.68 2.49
8.59 -5.33 -1.24
17.82 -11.05 3.32
8.83 -5.48 -0.91
15.93 -9.88 -0.98
17.25 -10.69 4.69
31.19 -19.34 -0.64
4.77 -2.98 -1.51
5.41 -3.38 -1.47
26.62 -16.63 1.64
6.22 -3.89 -1.43
17.19 -10.74 1.77
7.28 -4.55 -1.36
16.75 -10.46 2.42
8.55 -5.34 -1.24
17.83 -11.14 3.33
8.69 -5.43 -0.9
15.95 -9.96 -0.99
31.17 -19.47 -0.64
4.76 -2.99 -1.51
67.99 -42.82 1.4
5.4 -3.4 -1.47
6.21 -3.91 -1.43
17.62 -11.1 1.82
7.25 -4.57 -1.36
16.39 -10.32 2.38
8.51 -5.36 -1.23
8.67 -5.46 -0.9
15.95 -10.05 -0.99
17.06 -10.74 4.65
4.74 -3.01 -1.51
5.37 -3.41 -1.47
37.69 -23.92 2.34
6.2 -3.93 -1.43
15.95 -10.12 1.65
7.22 -4.58 -1.36
16.48 -10.46 2.4
8.47 -5.37 -1.23
8.63 -5.47 -0.89
15.94 -10.12 -0.99
4.74 -3.03 -1.51
68.03 -43.51 1.41
5.36 -3.43 -1.47
37.45 -23.95 2.33
6.18 -3.95 -1.42
16.17 -10.34 1.68
7.21 -4.61 -1.35
16.41 -10.49 2.39
8.38 -5.36 -1.22
17.87 -11.43 3.36
8.58 -5.49 -0.89
15.95 -10.2 -0.99
4.72 -3.04 -1.51
5.35 -3.45 -1.47
37.22 -23.99 2.32
6.15 -3.96 -1.42
16.16 -10.41 1.68
7.19 -4.63 -1.35
16.41 -10.58 2.4
8.35 -5.38 -1.22
8.54 -5.5 -0.89
16.33 -10.52 5.2
4.71 -3.06 -1.5
68.06 -44.2 1.42
5.34 -3.47 -1.47
36.99 -24.02 2.31
6.13 -3.98 -1.42
68.01 -44.17 7.1
7.17 -4.66 -1.35
16.31 -10.59 2.39
8.31 -5.4 -1.22
8.49 -5.51 -0.89
16.75 -10.87 4.61
29.19 -18.95 -0.61
16.28 -10.57 5.2
4.7 -3.07 -1.5
68.07 -44.55 1.42
5.32 -3.48 -1.47
6.12 -4 -1.42
16.49 -10.79 1.72
7.14 -4.67 -1.35
16.8 -10.99 2.46
8.26 -5.41 -1.21
8.42 -5.51 -0.88
16.67 -10.91 4.6
29.19 -19.1 -0.61
4.69 -3.09 -1.5
68.08 -44.89 1.42
5.3 -3.49 -1.47
31.54 -20.79 1.98
6.11 -4.03 -1.42
31.58 -20.82 3.31
7.12 -4.69 -1.35
16.75 -11.04 2.46
8.24 -5.43 -1.21
16.56 -10.92 3.14
8.39 -5.53 -0.88
16.65 -10.98 4.6
29.26 -19.29 -0.61
4.67 -3.11 -1.5
68.13 -45.26 1.43
5.28 -3.51 -1.46
31.43 -20.88 1.98
6.09 -4.05 -1.42
31.37 -20.85 3.3
7.1 -4.72 -1.35
31.69 -21.05 4.67
8.19 -5.44 -1.21
8.33 -5.53 -0.87
16.71 -11.1 4.63
29.35 -19.5 -0.62
4.66 -3.12 -1.5
5.27 -3.53 -1.47
31.34 -20.98 1.98
6.06 -4.06 -1.42
17.27 -11.56 1.82
7.08 -4.74 -1.35
8.14 -5.45 -1.2
17.99 -12.04 3.43
8.26 -5.53 -0.87
16.67 -11.16 4.63
29.4 -19.68 -0.62
4.64 -3.13 -1.5
31.19 -21.03 0.66
5.27 -3.55 -1.47
31.37 -21.15 1.98
6.05 -4.08 -1.42
30.93 -20.86 3.26
7.06 -4.76 -1.35
8.16 -5.5 -1.21
17.95 -12.1 3.43
8.22 -5.54 -0.87
16.56 -11.17 3.88
16.36 -11.03 4.56
29.34 -19.78 -0.62
4.63 -3.15 -1.5
68.22 -46.34 1.44
5.25 -3.57 -1.47
6.03 -4.1 -1.42
17.39 -11.82 1.84
7.03 -4.78 -1.35
30.93 -21.01 4.59
8.17 -5.55 -1.21
17.91 -12.17 3.43
8.22 -5.59 -0.87
27.41 -18.62 -1.74
16.3 -11.08 4.55
29.32 -19.92 -0.62
4.63 -3.17 -1.5
68.29 -46.74 1.44
5.23 -3.58 -1.46
6.02 -4.12 -1.42
16.37 -11.2 1.74
7.01 -4.8 -1.34
18.77 -12.84 2.79
8.1 -5.54 -1.2
15.67 -10.73 3.01
8.13 -5.56 -0.86
16.31 -11.16 4.56
29.33 -20.08 -0.62
4.61 -3.18 -1.5
68.32 -47.11 1.45
5.22 -3.6 -1.46
30.93 -21.33 1.97
6 -4.14 -1.42
6.99 -4.82 -1.34
18.76 -12.94 2.8
8.05 -5.55 -1.2
8.05 -5.55 -0.86
29.38 -20.26 -0.62
4.6 -3.2 -1.5
5.2 -3.61 -1.46
5.97 -4.15 -1.41
6.97 -4.84 -1.34
8.02 -5.57 -1.2
15.6 -10.84 3.01
7.95 -5.52 -0.85
27.21 -18.9 -1.74
29.42 -20.44 -0.63
4.58 -3.21 -1.5
5.2 -3.64 -1.46
5.96 -4.17 -1.41
6.95 -4.87 -1.34
7.95 -5.57 -1.19
15.56 -10.89 3.01
7.9 -5.53 -0.84
29.41 -20.59 -0.63
4.57 -3.22 -1.5
37.69 -26.57 0.8
5.18 -3.65 -1.46
5.94 -4.19 -1.41
15.73 -11.09 1.68
6.93 -4.88 -1.34
18.03 -12.71 2.71
7.92 -5.58 -1.19
17.77 -12.53 3.44
7.88 -5.56 -0.84
29.45 -20.76 -0.63
4.56 -3.24 -1.5
37.75 -26.82 0.81
5.15 -3.66 -1.46
16.12 -11.45 1.04
5.93 -4.21 -1.41
15.78 -11.21 1.69
6.9 -4.9 -1.34
15.29 -10.86 2.3
7.83 -5.56 -1.18
17.69 -12.57 3.44
7.82 -5.55 -0.84
16.1 -11.44 4.56
29.5 -20.95 -0.63
4.55 -3.26 -1.5
37.77 -27.03 0.81
5.14 -3.68 -1.46
16.06 -11.49 1.04
5.9 -4.22 -1.41
15.81 -11.32 1.7
6.89 -4.93 -1.34
7.82 -5.6 -1.18
17.71 -12.67 3.45
7.86 -5.62 -0.85
29.53 -21.13 -0.63
4.54 -3.27 -1.5
37.81 -27.26 0.81
5.13 -3.7 -1.46
5.88 -4.24 -1.41
15.85 -11.43 1.71
6.87 -4.95 -1.34
7.81 -5.63 -1.18
7.85 -5.66 -0.85
15.82 -11.41 3.79
29.54 -21.3 -0.64
4.52 -3.28 -1.5
5.11 -3.71 -1.46
5.86 -4.26 -1.41
15.67 -11.38 1.69
6.85 -4.97 -1.34
7.75 -5.63 -1.18
7.84 -5.69 -0.85
29.6 -21.5 -0.64
4.5 -3.29 -1.49
5.1 -3.73 -1.46
37.89 -27.72 2.46
5.85 -4.28 -1.41
16.27 -11.9 1.76
6.82 -4.99 -1.34
7.66 -5.61 -1.17
7.81 -5.71 -0.85
15.67 -11.47 3.77
29.64 -21.69 -0.64
4.5 -3.32 -1.5
37.91 -27.94 0.82
5.07 -3.74 -1.45
30.57 -22.53 1.99
5.83 -4.3 -1.41
15.81 -11.65 1.72
6.8 -5.01 -1.34
7.71 -5.68 -1.18
7.79 -5.74 -0.85
29.7 -21.89 -0.64
4.49 -3.33 -1.5
37.96 -28.18 0.83
5.06 -3.76 -1.45
37.96 -28.18 2.48
5.82 -4.32 -1.41
15.62 -11.6 1.7
6.78 -5.03 -1.34
7.59 -5.64 -1.16
7.76 -5.76 -0.85
16.42 -12.19 3.98
29.73 -22.07 -0.65
4.48 -3.35 -1.5
38 -28.42 0.83
5.05 -3.77 -1.45
5.79 -4.33 -1.41
15.6 -11.66 1.7
6.76 -5.06 -1.34
7.63 -5.71 -1.17
7.72 -5.77 -0.84
15.55 -11.63 3.77
29.72 -22.22 -0.65
4.45 -3.35 -1.49
38.01 -28.63 0.83
5.04 -3.79 -1.46
5.78 -4.35 -1.41
15.49 -11.67 1.7
6.74 -5.08 -1.34
7.56 -5.69 -1.16
7.61 -5.74 -0.83
15.54 -11.7 3.78
36.58 -27.56 -0.8
4.44 -3.36 -1.49
38.03 -28.85 0.83
5.02 -3.81 -1.45
38.03 -28.85 2.5
5.76 -4.37 -1.41
15.31 -11.61 1.68
6.71 -5.09 -1.33
7.42 -5.63 -1.14
7.6 -5.76 -0.83
4.43 -3.39 -1.49
38.07 -29.09 0.84
5 -3.82 -1.45
38.04 -29.06 2.51
5.75 -4.39 -1.41
6.69 -5.11 -1.33
7.51 -5.74 -1.16
7.58 -5.79 -0.83
4.42 -3.4 -1.49
38.1 -29.33 0.84
4.99 -3.84 -1.45
38.07 -29.3 2.52
5.73 -4.41 -1.4
6.67 -5.14 -1.33
7.24 -5.57 -1.12
7.56 -5.82 -0.83
4.41 -3.42 -1.49
38.15 -29.58 0.84
4.97 -3.86 -1.45
38.11 -29.55 2.53
5.7 -4.42 -1.4
6.65 -5.16 -1.33
7.28 -5.65 -1.13
7.55 -5.85 -0.84
4.39 -3.43 -1.49
38.22 -29.84 0.85
4.96 -3.87 -1.45
38.16 -29.79 2.54
5.69 -4.44 -1.4
6.63 -5.18 -1.33
8.15 -6.36 1.27
7.2 -5.62 -1.12
7.5 -5.85 -0.83
4.37 -3.44 -1.49
38.19 -30.03 0.85
4.95 -3.89 -1.45
38.17 -30.02 2.54
5.67 -4.46 -1.4
7.92 -6.23 0.88
6.61 -5.19 -1.33
8.01 -6.3 1.25
7.08 -5.57 -1.11
7.89 -6.2 1.59
7.44 -5.85 -0.83
7.85 -6.17 1.94
7.86 -6.18 2.31
7.83 -6.16 2.67
4.36 -3.46 -1.49
7.87 -6.24 0.18
4.92 -3.9 -1.45
7.87 -6.23 0.53
5.66 -4.48 -1.4
7.86 -6.22 0.88
6.58 -5.21 -1.33
7.83 -6.2 1.23
7.14 -5.65 -1.12
7.84 -6.21 1.58
7.39 -5.86 -0.83
7.84 -6.21 1.94
7.9 -6.25 -0.53
7.82 -6.2 2.3
7.89 -6.25 -0.18
7.79 -6.17 2.66
4.35 -3.47 -1.49
7.84 -6.25 0.18
4.91 -3.92 -1.45
7.82 -6.24 0.52
5.64 -4.5 -1.4
7.83 -6.25 0.88
6.55 -5.23 -1.33
7.81 -6.23 1.23
7 -5.58 -1.1
7.82 -6.24 1.58
7.37 -5.88 -0.83
7.8 -6.22 1.94
7.86 -6.27 -0.53
7.8 -6.22 2.3
7.87 -6.28 -0.18
7.79 -6.21 2.67
4.34 -3.49 -1.49
7.83 -6.29 0.18
4.89 -3.93 -1.45
7.81 -6.27 0.52
5.61 -4.51 -1.4
7.82 -6.28 0.88
6.53 -5.25 -1.33
7.81 -6.28 1.23
6.95 -5.59 -1.09
7.8 -6.27 1.58
7.33 -5.89 -0.82
7.8 -6.27 1.95
7.85 -6.31 -0.53
7.83 -6.29 -0.18
4.32 -3.5 -1.49
4.88 -3.95 -1.45
5.59 -4.53 -1.4
6.51 -5.27 -1.33
7.05 -5.71 -1.11
7.32 -5.92 -0.82
7.86 -6.36 -0.53
4.29 -3.5 -1.48
4.87 -3.97 -1.45
5.58 -4.55 -1.4
6.48 -5.28 -1.32
6.89 -5.62 -1.09
7.3 -5.95 -0.82
4.28 -3.52 -1.49
4.84 -3.97 -1.45
5.57 -4.57 -1.4
6.45 -5.29 -1.32
6.89 -5.66 -1.09
7.27 -5.97 -0.82
4.28 -3.54 -1.49
4.83 -3.99 -1.45
5.54 -4.58 -1.4
6.44 -5.32 -1.32
6.87 -5.68 -1.09
7.25 -6 -0.82
4.26 -3.55 -1.49
4.81 -4.01 -1.45
5.52 -4.6 -1.4
6.42 -5.34 -1.32
6.82 -5.68 -1.09
7.25 -6.03 -0.82
4.24 -3.55 -1.48
4.8 -4.02 -1.45
5.5 -4.61 -1.4
6.4 -5.37 -1.32
6.67 -5.59 -1.07
7.22 -6.06 -0.82
4.23 -3.57 -1.48
4.78 -4.04 -1.45
5.49 -4.63 -1.4
6.36 -5.37 -1.32
6.5 -5.49 -1.04
7.25 -6.12 -0.83
4.21 -3.58 -1.48
4.76 -4.05 -1.44
5.46 -4.65 -1.39
6.31 -5.37 -1.31
6.54 -5.56 -1.05
7.29 -6.2 -0.84
4.2 -3.6 -1.48
4.75 -4.07 -1.44
5.45 -4.66 -1.39
6.28 -5.38 -1.31
6.51 -5.58 -1.05
7.26 -6.22 -0.84
4.19 -3.61 -1.48
4.73 -4.08 -1.44
5.42 -4.67 -1.39
6.26 -5.4 -1.31
6.62 -5.71 -1.07
7.25 -6.25 -0.84
4.17 -3.62 -1.48
4.73 -4.1 -1.44
5.4 -4.69 -1.39
6.21 -5.39 -1.3
6.54 -5.68 -1.06
7.04 -6.11 -0.82
31.81 -27.61 -0.74
4.16 -3.64 -1.48
4.71 -4.12 -1.44
5.39 -4.71 -1.39
6.17 -5.4 -1.3
6.46 -5.64 -1.05
7.22 -6.31 -0.84
31.69 -27.7 -0.73
4.14 -3.65 -1.48
4.68 -4.12 -1.44
5.37 -4.72 -1.39
6.13 -5.4 -1.29
6.29 -5.53 -1.03
7.25 -6.38 -0.84
4.14 -3.67 -1.48
4.67 -4.14 -1.44
5.35 -4.74 -1.39
6.09 -5.4 -1.29
6.46 -5.73 -1.06
4.12 -3.68 -1.48
4.65 -4.15 -1.44
5.32 -4.75 -1.39
6.05 -5.4 -1.28
6.29 -5.62 -1.04
4.09 -3.68 -1.48
4.64 -4.17 -1.44
5.3 -4.77 -1.39
6.02 -5.41 -1.28
6.23 -5.61 -1.03
9.92 -8.92 -1.17
4.08 -3.7 -1.48
4.62 -4.19 -1.44
5.29 -4.79 -1.39
5.98 -5.41 -1.28
6.09 -5.52 -1.01
4.08 -3.72 -1.48
4.59 -4.19 -1.44
5.27 -4.8 -1.39
5.95 -5.43 -1.28
6.06 -5.52 -1.01
4.06 -3.73 -1.48
4.58 -4.21 -1.44
5.25 -4.82 -1.39
5.94 -5.45 -1.28
6.05 -5.55 -1.01
32.51 -29.86 -0.77
4.05 -3.74 -1.48
4.57 -4.23 -1.44
5.22 -4.83 -1.38
5.93 -5.49 -1.28
6 -5.55 -1
9.88 -9.14 -1.18
32.32 -29.9 -0.77
4.02 -3.75 -1.47
4.56 -4.24 -1.44
5.2 -4.84 -1.38
5.88 -5.47 -1.27
5.95 -5.55 -1
32.16 -29.96 -0.77
4.01 -3.76 -1.47
4.54 -4.26 -1.44
5.19 -4.87 -1.38
5.87 -5.5 -1.27
5.96 -5.59 -1
32.08 -30.08 -0.77
4 -3.78 -1.47
4.51 -4.26 -1.43
5.16 -4.88 -1.38
5.82 -5.5 -1.27
5.86 -5.53 -0.99
32.06 -30.27 -0.77
3.99 -3.79 -1.47
4.5 -4.28 -1.43
5.15 -4.9 -1.38
5.8 -5.52 -1.27
5.93 -5.64 -1
32.07 -30.51 -0.77
3.98 -3.81 -1.48
4.49 -4.3 -1.43
5.12 -4.91 -1.38
5.78 -5.54 -1.27
5.74 -5.5 -0.98
22.92 -21.95 -1.66
32.07 -30.72 -0.78
3.95 -3.81 -1.47
4.47 -4.31 -1.43
5.11 -4.92 -1.38
5.74 -5.53 -1.26
5.73 -5.52 -0.98
32.14 -30.98 -0.78
3.94 -3.83 -1.47
4.45 -4.32 -1.43
5.09 -4.94 -1.38
5.71 -5.54 -1.26
5.7 -5.53 -0.97
22.72 -22.05 -1.66
32.23 -31.29 -0.78
3.93 -3.84 -1.47
4.43 -4.33 -1.43
5.07 -4.96 -1.38
5.66 -5.54 -1.25
5.67 -5.55 -0.97
22.57 -22.08 -1.65
37.25 -36.44 -0.91
3.92 -3.86 -1.47
4.42 -4.35 -1.43
5.05 -4.97 -1.38
5.63 -5.55 -1.25
5.63 -5.55 -0.97
22.47 -22.13 -1.65
37.07 -36.52 -0.91
3.9 -3.87 -1.47
4.4 -4.37 -1.43
5.02 -4.98 -1.37
22.91 -22.73 2.82
5.62 -5.57 -1.25
5.61 -5.56 -0.97
22.33 -22.15 -1.65
23.04 -22.86 -0.57
3.87 -3.87 -1.47
22.84 -22.81 0.56
4.39 -4.38 -1.43
22.81 -22.79 1.69
5.01 -5 -1.38
22.76 -22.74 2.82
5.56 -5.55 -1.24
5.61 -5.61 -0.97
22.22 -22.2 -1.65
22.87 -22.84 -0.56
3.87 -3.89 -1.47
22.69 -22.81 0.56
4.37 -4.39 -1.43
22.67 -22.79 1.68
4.99 -5.01 -1.37
22.63 -22.75 2.81
5.53 -5.56 -1.24
5.56 -5.59 -0.97
21.86 -21.98 -1.62
22.74 -22.86 -0.56
3.85 -3.9 -1.47
22.55 -22.82 0.56
4.35 -4.4 -1.43
22.53 -22.81 1.68
4.97 -5.03 -1.37
22.49 -22.76 2.8
5.45 -5.51 -1.23
5.5 -5.57 -0.96
21.48 -21.75 -1.6
22.59 -22.87 -0.56
3.84 -3.92 -1.47
22.4 -22.85 0.56
4.33 -4.42 -1.43
22.37 -22.82 1.67
4.95 -5.05 -1.37
22.34 -22.79 2.79
5.43 -5.54 -1.23
5.48 -5.59 -0.96
21.28 -21.71 -1.59
22.45 -22.91 -0.56
3.83 -3.93 -1.47
22.25 -22.86 0.56
4.31 -4.43 -1.43
22.23 -22.84 1.67
4.93 -5.06 -1.37
22.19 -22.8 2.78
5.48 -5.63 -1.24
5.43 -5.57 -0.96
20.83 -21.4 -1.57
22.29 -22.89 -0.56
3.81 -3.93 -1.47
22.12 -22.87 0.56
4.3 -4.45 -1.43
22.1 -22.84 1.67
4.91 -5.07 -1.37
22.07 -22.81 2.78
5.47 -5.65 -1.25
5.4 -5.58 -0.95
20.34 -21.03 -1.53
22.17 -22.92 -0.56
3.79 -3.95 -1.47
21.98 -22.88 0.55
4.28 -4.46 -1.43
21.96 -22.86 1.66
4.89 -5.09 -1.37
21.92 -22.82 2.77
5.41 -5.63 -1.24
5.38 -5.6 -0.95
20.06 -20.88 -1.52
22.02 -22.92 -0.55
3.78 -3.96 -1.47
21.83 -22.89 0.55
4.26 -4.47 -1.43
21.81 -22.87 1.66
4.87 -5.11 -1.37
21.78 -22.84 2.76
5.37 -5.63 -1.23
5.37 -5.64 -0.96
19.15 -20.08 -1.45
21.88 -22.95 -0.55
3.76 -3.97 -1.47
21.69 -22.91 0.55
4.24 -4.48 -1.42
21.67 -22.88 1.65
4.86 -5.13 -1.37
21.65 -22.86 2.75
5.32 -5.62 -1.23
5.38 -5.68 -0.96
18.85 -19.91 -1.44
21.74 -22.95 -0.55
3.75 -3.98 -1.47
21.62 -22.99 0.55
4.23 -4.49 -1.42
21.53 -22.9 1.65
4.83 -5.14 -1.37
21.5 -22.87 2.75
5.33 -5.66 -1.23
5.32 -5.66 -0.95
18.58 -19.75 -1.42
21.66 -23.03 -0.55
3.73 -3.99 -1.46
21.59 -23.12 0.55
4.21 -4.51 -1.43
21.4 -22.91 1.64
4.81 -5.15 -1.37
21.36 -22.87 2.74
5.24 -5.61 -1.22
5.28 -5.65 -0.95
18.23 -19.53 -1.4
3.72 -4.01 -1.46
21.46 -23.13 0.55
4.19 -4.52 -1.42
21.26 -22.92 1.64
4.8 -5.17 -1.37
21.23 -22.88 2.73
5.19 -5.6 -1.21
5.26 -5.67 -0.95
18.03 -19.44 -1.39
3.7 -4.02 -1.46
21.31 -23.13 0.55
4.17 -4.53 -1.42
21.13 -22.94 1.63
4.78 -5.19 -1.37
21.1 -22.9 2.72
5.2 -5.64 -1.22
5.23 -5.68 -0.95
17.81 -19.34 -1.38
22.82 -24.78 -0.59
3.69 -4.04 -1.47
21.18 -23.16 0.55
4.16 -4.55 -1.42
20.98 -22.94 1.63
4.75 -5.2 -1.37
20.96 -22.93 2.72
5.16 -5.64 -1.21
5.2 -5.68 -0.95
17.47 -19.11 -1.36
22.81 -24.95 -0.59
3.68 -4.05 -1.47
21.02 -23.15 0.55
4.14 -4.56 -1.42
20.85 -22.96 1.63
4.73 -5.21 -1.37
20.82 -22.93 2.71
5.12 -5.64 -1.21
5.19 -5.72 -0.95
17.23 -18.97 -1.34
22.83 -25.14 -0.59
3.66 -4.05 -1.46
20.9 -23.18 0.54
4.13 -4.58 -1.42
20.72 -22.98 1.62
4.71 -5.23 -1.37
20.68 -22.94 2.7
5.05 -5.6 -1.19
5.2 -5.77 -0.95
17.09 -18.96 -1.34
22.84 -25.34 -0.6
3.64 -4.07 -1.46
20.75 -23.18 0.54
4.11 -4.59 -1.42
20.59 -23 1.62
4.69 -5.24 -1.37
20.55 -22.95 2.7
5.01 -5.59 -1.19
5.16 -5.76 -0.95
16.94 -18.92 -1.33
22.85 -25.52 -0.6
3.63 -4.08 -1.46
20.63 -23.19 0.54
4.09 -4.6 -1.42
20.46 -23 1.61
4.68 -5.26 -1.37
20.43 -22.97 2.69
4.94 -5.55 -1.18
5.08 -5.71 -0.94
15.54 -17.47 -2.05
16.86 -18.95 -1.33
22.9 -25.75 -0.6
3.61 -4.09 -1.46
20.53 -23.24 0.54
4.07 -4.61 -1.42
20.32 -23 1.61
4.65 -5.27 -1.37
20.3 -22.98 2.68
4.9 -5.55 -1.17
5.05 -5.71 -0.94
15.48 -17.53 -2.05
16.79 -19.02 -1.33
3.6 -4.1 -1.46
20.38 -23.23 0.54
4.05 -4.62 -1.42
20.19 -23.02 1.6
4.63 -5.28 -1.37
20.17 -22.99 2.68
4.98 -5.68 -1.2
5.03 -5.73 -0.94
15.41 -17.56 -2.04
16.71 -19.04 -1.33
3.58 -4.11 -1.46
20.26 -23.25 0.54
4.05 -4.64 -1.42
20.06 -23.03 1.6
4.62 -5.3 -1.37
20.03 -22.99 2.67
5.05 -5.79 -1.22
5.01 -5.75 -0.94
15.32 -17.59 -2.04
16.65 -19.11 -1.33
3.57 -4.12 -1.46
20.12 -23.26 0.54
4.02 -4.65 -1.42
19.93 -23.04 1.6
4.6 -5.31 -1.37
19.91 -23.01 2.66
4.87 -5.63 -1.18
4.98 -5.76 -0.93
15.27 -17.65 -2.04
16.57 -19.15 -1.33
22.97 -26.55 -0.61
3.55 -4.13 -1.46
19.97 -23.25 0.54
4 -4.66 -1.42
19.8 -23.06 1.59
4.58 -5.33 -1.37
19.77 -23.02 2.66
5 -5.83 -1.22
4.95 -5.76 -0.93
15.19 -17.69 -2.04
16.5 -19.21 -1.33
3.54 -4.15 -1.46
19.86 -23.29 0.53
3.98 -4.67 -1.42
19.66 -23.06 1.59
4.55 -5.34 -1.36
19.64 -23.04 2.65
4.85 -5.69 -1.18
4.92 -5.78 -0.93
15.13 -17.75 -2.04
16.4 -19.24 -1.32
3.52 -4.16 -1.46
19.71 -23.29 0.53
3.96 -4.68 -1.42
19.53 -23.08 1.58
4.53 -5.35 -1.36
19.52 -23.06 2.64
4.85 -5.73 -1.19
4.9 -5.79 -0.93
15.07 -17.81 -2.04
16.32 -19.28 -1.32
3.5 -4.16 -1.46
19.57 -23.28 0.53
3.95 -4.7 -1.42
19.42 -23.1 1.58
4.51 -5.36 -1.36
19.38 -23.05 2.63
4.89 -5.81 -1.2
4.88 -5.81 -0.93
15.01 -17.84 -2.04
16.26 -19.34 -1.32
3.49 -4.18 -1.46
19.49 -23.35 0.53
3.94 -4.71 -1.42
19.29 -23.1 1.58
4.5 -5.39 -1.36
19.26 -23.07 2.63
4.81 -5.76 -1.19
4.85 -5.81 -0.93
14.94 -17.9 -2.04
16.23 -19.44 -1.33
3.47 -4.19 -1.46
19.24 -23.21 0.53
3.91 -4.72 -1.41
19.16 -23.12 1.57
4.48 -5.4 -1.36
19.13 -23.09 2.62
4.79 -5.78 -1.19
4.8 -5.79 -0.92
14.89 -17.96 -2.04
16.16 -19.5 -1.33
19.22 -23.2 -0.53
3.46 -4.21 -1.46
19.06 -23.16 0.52
3.89 -4.73 -1.41
19.03 -23.13 1.57
4.45 -5.41 -1.36
19.01 -23.11 2.62
4.72 -5.73 -1.18
4.78 -5.81 -0.92
14.82 -18.01 -2.04
16.1 -19.57 -1.33
19.09 -23.2 -0.52
3.45 -4.22 -1.46
18.93 -23.16 0.52
3.88 -4.75 -1.42
18.91 -23.13 1.57
4.43 -5.42 -1.36
18.89 -23.11 2.61
4.62 -5.65 -1.16
4.75 -5.81 -0.92
14.75 -18.05 -2.04
16.04 -19.63 -1.33
18.96 -23.2 -0.52
3.43 -4.22 -1.46
18.8 -23.17 0.52
3.86 -4.76 -1.42
18.78 -23.15 1.56
4.41 -5.44 -1.36
18.75 -23.11 2.6
4.66 -5.74 -1.17
4.73 -5.83 -0.92
14.68 -18.09 -2.04
15.98 -19.7 -1.33
18.84 -23.22 -0.52
3.41 -4.23 -1.46
18.68 -23.18 0.52
3.85 -4.78 -1.42
18.66 -23.16 1.56
4.39 -5.45 -1.36
18.63 -23.12 2.6
4.62 -5.73 -1.17
4.7 -5.83 -0.92
14.63 -18.15 -2.04
15.91 -19.74 -1.33
18.72 -23.23 -0.52
3.4 -4.25 -1.46
18.55 -23.2 0.52
3.82 -4.78 -1.41
18.54 -23.17 1.56
4.36 -5.45 -1.36
18.52 -23.15 2.59
4.65 -5.81 -1.18
4.68 -5.85 -0.92
14.56 -18.2 -2.04
15.85 -19.81 -1.33
18.59 -23.24 -0.52
3.39 -4.26 -1.46
18.43 -23.21 0.52
3.81 -4.79 -1.41
18.41 -23.17 1.55
4.34 -5.46 -1.36
18.39 -23.15 2.59
4.64 -5.84 -1.18
66.83 -84.14 13.19
4.64 -5.84 -0.92
14.49 -18.25 -2.04
15.83 -19.93 -1.33
18.47 -23.26 -0.52
3.37 -4.27 -1.46
18.31 -23.22 0.52
3.79 -4.81 -1.41
18.29 -23.2 1.55
4.3 -5.45 -1.35
18.27 -23.17 2.58
4.6 -5.84 -1.18
4.62 -5.86 -0.92
14.43 -18.3 -2.04
14.58 -18.5 -1.23
18.33 -23.25 -0.52
3.35 -4.27 -1.45
18.19 -23.23 0.52
3.78 -4.83 -1.41
18.17 -23.21 1.54
4.29 -5.48 -1.35
18.14 -23.17 2.57
4.54 -5.8 -1.17
4.6 -5.88 -0.92
14.37 -18.35 -2.04
14.49 -18.51 -1.23
18.22 -23.27 -0.52
3.33 -4.29 -1.46
18.06 -23.24 0.51
3.75 -4.83 -1.41
18.05 -23.22 1.54
4.27 -5.49 -1.35
18.02 -23.18 2.57
4.54 -5.84 -1.17
4.58 -5.89 -0.92
14.3 -18.4 -2.04
14.37 -18.48 -1.23
18.11 -23.3 -0.52
3.32 -4.3 -1.46
17.95 -23.26 0.51
3.73 -4.84 -1.41
17.93 -23.23 1.54
4.23 -5.48 -1.35
17.91 -23.2 2.56
4.46 -5.78 -1.16
4.54 -5.88 -0.91
14.24 -18.45 -2.04
14.27 -18.49 -1.22
17.99 -23.3 -0.51
3.31 -4.32 -1.46
17.83 -23.27 0.51
3.71 -4.85 -1.41
17.8 -23.23 1.53
4.2 -5.48 -1.34
17.79 -23.22 2.56
4.49 -5.86 -1.17
4.5 -5.88 -0.91
14.17 -18.49 -2.04
14.11 -18.42 -1.22
17.85 -23.3 -0.51
3.29 -4.33 -1.46
17.76 -23.34 0.51
3.7 -4.86 -1.41
17.69 -23.24 1.53
4.17 -5.48 -1.34
17.67 -23.22 2.55
4.45 -5.84 -1.16
4.48 -5.89 -0.91
14.1 -18.53 -2.04
14.06 -18.48 -1.22
17.8 -23.39 -0.51
3.27 -4.33 -1.45
17.73 -23.47 0.51
3.68 -4.88 -1.41
17.57 -23.26 1.53
4.14 -5.48 -1.34
17.55 -23.23 2.55
4.46 -5.9 -1.17
4.46 -5.9 -0.91
14.03 -18.58 -2.04
13.97 -18.5 -1.21
17.76 -23.51 -0.51
3.25 -4.34 -1.45
17.65 -23.53 0.51
3.67 -4.89 -1.41
17.45 -23.27 1.52
4.12 -5.49 -1.33
17.43 -23.24 2.54
4.42 -5.9 -1.17
4.44 -5.92 -0.91
13.96 -18.61 -2.04
13.86 -18.48 -1.21
3.24 -4.35 -1.45
17.48 -23.49 0.51
3.64 -4.89 -1.41
17.33 -23.28 1.52
4.09 -5.5 -1.33
17.31 -23.25 2.54
4.33 -5.82 -1.15
4.43 -5.95 -0.91
13.89 -18.66 -2.04
13.76 -18.49 -1.21
22.12 -29.72 -0.65
3.23 -4.37 -1.45
17.36 -23.49 0.51
3.62 -4.9 -1.41
17.22 -23.29 1.52
4.06 -5.5 -1.33
17.2 -23.27 2.53
4.24 -5.73 -1.13
4.41 -5.97 -0.91
13.83 -18.71 -2.04
13.68 -18.5 -1.21
21.99 -29.75 -0.65
3.21 -4.38 -1.46
17.28 -23.55 0.51
3.61 -4.92 -1.41
17.09 -23.3 1.51
