# .PCD v0.7 - Point Cloud Data file format
VERSION 0.7
FIELDS x y z
SIZE 4 4 4
TYPE F F F
COUNT 1 1 1
WIDTH 2716
HEIGHT 1
VIEWPOINT 0 0 0 1 0 0 0
POINTS 2716
DATA ascii
-1.08 0.23 -0.21
-11.54 2.41 -1.87
-1.6 0.33 -0.2
-24.34 5.08 -2.18
-1.12 0.24 -0.31
-1.41 0.3 -0.33
-1.08 0.23 -0.21
-11.54 2.45 -1.87
-1.61 0.34 -0.2
-24.33 5.17 -2.18
-57.44 12.21 -3.08
-1.14 0.25 -0.31
-1.42 0.31 -0.33
-1.08 0.23 -0.22
-11.54 2.49 -1.87
-1.6 0.35 -0.2
-24.3 5.25 -2.18
-1.13 0.25 -0.31
-1.43 0.31 -0.34
-1.07 0.23 -0.21
-11.55 2.54 -1.87
-1.6 0.35 -0.2
-24.34 5.35 -2.18
-1.12 0.25 -0.31
-1.5 0.34 -0.36
-1.07 0.24 -0.21
-11.53 2.58 -1.87
-1.6 0.36 -0.2
-24.33 5.43 -2.18
-1.12 0.26 -0.31
-1.44 0.33 -0.34
-1.09 0.25 -0.22
-11.53 2.62 -1.87
-1.61 0.37 -0.2
-24.32 5.52 -2.18
-1.13 0.26 -0.31
-1.41 0.33 -0.34
-1.09 0.25 -0.22
-11.53 2.66 -1.87
-1.61 0.37 -0.2
-24.33 5.61 -2.18
-1.13 0.26 -0.31
-1.42 0.33 -0.34
-1.09 0.25 -0.22
-1.79 0.42 -0.29
-1.6 0.37 -0.2
-24.36 5.71 -2.19
-1.13 0.27 -0.31
-1.44 0.34 -0.34
-1.08 0.26 -0.22
-1.8 0.43 -0.29
-1.61 0.38 -0.2
-24.3 5.78 -2.19
-1.12 0.27 -0.31
-1.44 0.35 -0.34
-1.08 0.26 -0.22
-11.53 2.79 -1.88
-1.61 0.39 -0.2
-24.39 5.9 -2.2
-60.13 14.54 -3.24
-1.14 0.28 -0.31
-1.44 0.35 -0.34
-1.08 0.26 -0.22
-11.52 2.83 -1.88
-1.61 0.4 -0.2
-24.43 6 -2.2
-1.13 0.28 -0.31
-1.42 0.35 -0.34
-1.1 0.27 -0.22
-11.53 2.87 -1.88
-1.62 0.4 -0.2
-24.44 6.09 -2.2
-58.97 14.69 -3.18
-1.15 0.29 -0.32
-1.43 0.36 -0.34
-1.09 0.28 -0.22
-11.53 2.92 -1.88
-1.6 0.41 -0.2
-24.47 6.19 -2.21
-1.15 0.29 -0.32
-1.44 0.37 -0.34
-1.08 0.28 -0.22
-11.53 2.96 -1.89
-1.6 0.41 -0.2
-24.49 6.28 -2.21
-1.13 0.3 -0.31
-1.45 0.38 -0.35
-1.08 0.28 -0.22
-11.53 3 -1.89
-1.63 0.42 -0.21
-24.47 6.37 -2.21
-1.12 0.3 -0.31
-1.45 0.38 -0.35
-1.1 0.29 -0.22
-11.51 3.04 -1.89
-1.68 0.44 -0.21
-24.5 6.46 -2.22
-1.13 0.3 -0.31
-1.44 0.39 -0.34
-1.09 0.29 -0.22
-11.51 3.08 -1.89
-1.63 0.44 -0.21
-24.5 6.56 -2.22
-1.12 0.31 -0.31
-1.44 0.39 -0.34
-1.09 0.3 -0.22
-11.51 3.13 -1.89
-1.62 0.44 -0.21
-24.52 6.66 -2.22
-1.12 0.31 -0.31
-1.46 0.4 -0.35
-1.08 0.3 -0.22
-11.52 3.17 -1.89
-1.62 0.45 -0.21
-1.13 0.31 -0.31
-1.45 0.41 -0.35
-1.08 0.3 -0.22
-11.51 3.21 -1.89
-1.63 0.45 -0.21
-1.69 0.47 -0.15
-1.12 0.32 -0.31
-1.46 0.41 -0.35
-59.83 16.91 3.26
-1.09 0.31 -0.22
-11.52 3.25 -1.9
-1.64 0.46 -0.21
-1.66 0.47 -0.15
-1.12 0.32 -0.31
-1.43 0.41 -0.34
-9.12 2.61 -1.84
-11.48 3.29 -1.89
-1.63 0.47 -0.21
-1.65 0.47 -0.15
-1.12 0.33 -0.31
-58.94 17.1 1.07
-1.43 0.41 -0.34
-9.11 2.64 -1.84
-11.47 3.33 -1.89
-15.88 4.61 -2.03
-1.63 0.47 -0.15
-1.14 0.34 -0.32
-1.42 0.42 -0.34
-9.1 2.68 -1.84
-11.48 3.38 -1.9
-15.88 4.67 -2.03
-1.64 0.48 -0.15
-1.12 0.33 -0.31
-57.93 17.25 1.06
-1.43 0.42 -0.34
-9.1 2.71 -1.85
-15.88 4.73 -2.03
-1.15 0.35 -0.32
-57.52 17.34 1.05
-1.4 0.42 -0.34
-9.09 2.74 -1.84
-11.49 3.46 -1.9
-15.89 4.79 -2.04
-24.59 7.41 -2.25
-1.13 0.34 -0.32
-59.27 18.1 1.08
-1.38 0.42 -0.33
-9.1 2.78 -1.85
-11.42 3.49 -1.89
-15.9 4.85 -2.04
-24.57 7.5 -2.25
-1.12 0.35 -0.31
-1.38 0.43 -0.33
-9.09 2.81 -1.85
-11.46 3.54 -1.9
-1.61 0.5 -0.21
-24.56 7.59 -2.25
-1.13 0.35 -0.32
-1.37 0.43 -0.33
-9.07 2.84 -1.85
-60.25 18.86 5.52
-11.49 3.6 -1.91
-1.58 0.49 -0.2
-24.56 7.69 -2.25
-1.11 0.35 -0.31
-1.36 0.43 -0.33
-9.07 2.87 -1.85
-58.6 18.57 5.38
-11.49 3.64 -1.91
-1.59 0.5 -0.2
-24.56 7.78 -2.25
-1.11 0.36 -0.31
-1.35 0.43 -0.33
-9.08 2.91 -1.85
-11.48 3.68 -1.91
-1.58 0.51 -0.2
-24.58 7.88 -2.26
-54.9 17.61 -3.02
-1.14 0.37 -0.32
-59.52 19.32 1.09
-1.33 0.43 -0.32
-9.07 2.94 -1.85
-11.47 3.72 -1.91
-1.58 0.51 -0.2
-24.59 7.98 -2.26
-1.14 0.37 -0.32
-1.33 0.44 -0.32
-9.06 2.98 -1.85
-58.78 19.3 5.41
-11.47 3.77 -1.91
-24.57 8.07 -2.26
-1.12 0.37 -0.32
-1.32 0.44 -0.32
-9.05 3.01 -1.85
-11.47 3.81 -1.91
-15.89 5.28 -2.06
-24.59 8.17 -2.27
-1.11 0.37 -0.31
-1.31 0.44 -0.32
-1.1 0.37 -0.23
-59.1 19.87 5.46
-11.46 3.85 -1.92
-1.59 0.53 -0.21
-24.59 8.27 -2.27
-1.12 0.38 -0.32
-1.3 0.44 -0.32
-1.12 0.38 -0.23
-11.45 3.89 -1.92
-1.56 0.53 -0.2
-24.65 8.38 -2.28
-1.13 0.39 -0.32
-1.3 0.45 -0.32
-1.15 0.4 -0.24
-59.2 20.34 5.48
-11.45 3.93 -1.92
-1.54 0.53 -0.2
-24.67 8.48 -2.28
-1.14 0.4 -0.32
-1.3 0.45 -0.32
-1.12 0.39 -0.23
-58.94 20.48 5.46
-11.45 3.98 -1.92
-1.52 0.53 -0.2
-24.63 8.56 -2.28
-1.14 0.4 -0.32
-1.3 0.46 -0.32
-1.1 0.39 -0.23
-11.45 4.02 -1.92
-1.52 0.53 -0.2
-24.61 8.65 -2.28
-1.13 0.4 -0.32
-1.29 0.46 -0.32
-1.11 0.39 -0.23
-11.44 4.06 -1.92
-1.5 0.53 -0.19
-24.56 8.72 -2.28
-57.88 20.56 -1.07
-1.13 0.41 -0.32
-1.31 0.47 -0.32
-1.11 0.4 -0.23
-11.42 4.1 -1.92
-1.49 0.53 -0.19
-24.56 8.82 -2.28
-1.13 0.41 -0.32
-1.33 0.48 -0.33
-54.36 19.74 3.03
-1.11 0.4 -0.23
-11.41 4.15 -1.92
-1.49 0.54 -0.19
-24.56 8.92 -2.29
-1.14 0.42 -0.33
-1.31 0.48 -0.32
-1.13 0.42 -0.23
-11.41 4.19 -1.92
-1.47 0.54 -0.19
-24.48 8.99 -2.28
-1.13 0.42 -0.32
-1.26 0.47 -0.31
-1.09 0.4 -0.23
-11.4 4.23 -1.93
-1.47 0.55 -0.19
-24.42 9.06 -2.28
-1.13 0.43 -0.32
-1.19 0.45 -0.29
-1.1 0.41 -0.23
-11.4 4.28 -1.93
-1.46 0.55 -0.19
-24.44 9.17 -2.28
-1.12 0.42 -0.32
-1.18 0.45 -0.29
-1.1 0.42 -0.23
-11.36 4.31 -1.93
-1.46 0.55 -0.19
-1.55 0.59 -0.14
-1.14 0.44 -0.33
-42.51 16.29 0.79
-1.15 0.44 -0.28
-1.1 0.42 -0.23
-11.36 4.35 -1.93
-1.44 0.55 -0.19
-1.54 0.59 -0.14
-53.3 20.43 -2.99
-1.13 0.44 -0.32
-1.14 0.44 -0.28
-1.11 0.43 -0.23
-11.36 4.4 -1.93
-1.43 0.55 -0.19
-24.37 9.43 -2.29
-55.05 21.31 -1.03
-1.14 0.44 -0.33
-42.55 16.64 0.8
-1.13 0.44 -0.28
-1.1 0.43 -0.23
-11.36 4.44 -1.93
-1.43 0.56 -0.19
-24.24 9.48 -2.28
-1.11 0.44 -0.32
-1.13 0.45 -0.28
-1.08 0.43 -0.23
-11.35 4.48 -1.93
-1.41 0.56 -0.19
-24.06 9.5 -2.26
-1.1 0.44 -0.32
-1.12 0.45 -0.28
-1.09 0.44 -0.23
-52.74 21.04 4.97
-11.33 4.52 -1.93
-1.41 0.56 -0.19
-23.97 9.56 -2.26
-1.1 0.44 -0.32
-54.55 21.98 1.03
-1.1 0.44 -0.27
-54.29 21.87 3.07
-1.12 0.45 -0.23
-11.33 4.56 -1.93
-1.4 0.56 -0.18
-23.76 9.57 -2.24
-41.95 16.9 -2.37
-1.1 0.45 -0.32
-42.04 17.11 0.79
-1.1 0.45 -0.27
-1.11 0.45 -0.23
-11.32 4.61 -1.94
-1.37 0.56 -0.18
-23.62 9.61 -2.23
-41.68 16.97 -2.36
-41.47 16.88 -0.78
-1.1 0.45 -0.32
-54.22 22.29 1.02
-1.1 0.45 -0.27
-1.1 0.45 -0.23
-11.32 4.65 -1.94
-1.36 0.56 -0.18
-23.48 9.65 -2.22
-41.51 17.06 -2.35
-1.08 0.45 -0.31
-54.09 22.48 1.02
-1.08 0.45 -0.27
-1.11 0.46 -0.23
-11.31 4.7 -1.94
-1.35 0.56 -0.18
-23.41 9.73 -2.22
-1.07 0.45 -0.31
-1.09 0.46 -0.27
-1.12 0.47 -0.24
-11.29 4.74 -1.94
-1.36 0.57 -0.18
-23.29 9.77 -2.21
-1.07 0.45 -0.31
-39.54 16.74 0.75
-1.08 0.46 -0.27
-53.53 22.67 3.05
-1.12 0.47 -0.24
-53.46 22.64 5.08
-11.28 4.78 -1.94
-1.33 0.56 -0.18
-23.24 9.84 -2.21
-1.06 0.45 -0.31
-1.08 0.46 -0.27
-8.91 3.81 -1.88
-11.27 4.82 -1.94
-1.29 0.55 -0.17
-23.15 9.9 -2.2
-1.06 0.46 -0.31
-38.07 16.43 0.72
-1.09 0.47 -0.27
-8.89 3.84 -1.88
-11.27 4.87 -1.94
-1.29 0.56 -0.17
-23.18 10.01 -2.21
-39.37 17 -2.25
-1.04 0.45 -0.3
-37.99 16.55 0.72
-1.08 0.47 -0.27
-8.88 3.87 -1.88
-11.26 4.91 -1.95
-1.28 0.56 -0.17
-25.47 11.1 -2.43
-1.04 0.46 -0.3
-38 16.71 0.72
-1.08 0.48 -0.27
-8.88 3.91 -1.89
-1.18 0.52 -0.2
-1.28 0.56 -0.17
-25.5 11.22 -2.44
-1.04 0.46 -0.31
-1.08 0.48 -0.27
-8.88 3.94 -1.89
-1.16 0.52 -0.2
-1.26 0.56 -0.17
-22.27 9.89 -2.13
-1.03 0.46 -0.3
-7.31 3.28 -1.85
-8.87 3.97 -1.89
-1.18 0.53 -0.2
-1.25 0.56 -0.17
-25.54 11.45 -2.45
-1.04 0.47 -0.3
-7.29 3.3 -1.85
-8.85 4 -1.89
-1.17 0.53 -0.2
-1.24 0.56 -0.17
-25.55 11.56 -2.45
-1.03 0.47 -0.3
-7.28 3.33 -1.85
-8.84 4.04 -1.89
-1.19 0.54 -0.21
-50.89 23.26 6.87
-1.24 0.57 -0.17
-21.91 10.01 -2.11
-1.01 0.47 -0.3
-7.27 3.35 -1.85
-8.83 4.07 -1.89
-1.19 0.55 -0.21
-1.23 0.57 -0.17
-21.87 10.09 -2.11
-1.01 0.47 -0.3
-7.25 3.37 -1.85
-8.83 4.11 -1.89
-1.19 0.56 -0.21
-46.41 21.59 6.28
-1.23 0.57 -0.17
-25.53 11.88 -2.46
-38.43 17.88 -2.22
-1.02 0.48 -0.3
-7.25 3.4 -1.85
-48.15 22.6 2.79
-8.82 4.14 -1.89
-1.2 0.56 -0.21
-1.21 0.57 -0.16
-26.1 12.25 -2.52
-39.1 18.35 -2.26
-1.05 0.5 -0.31
-7.24 3.43 -1.85
-8.8 4.17 -1.89
-1.2 0.57 -0.21
-1.2 0.57 -0.16
-26.14 12.38 -2.53
-36.44 17.26 -2.11
-38.84 18.39 -0.75
-1.03 0.49 -0.31
-7.24 3.46 -1.85
-8.79 4.2 -1.89
-1.17 0.56 -0.21
-1.21 0.58 -0.16
-27.68 13.22 -2.68
-36.47 17.42 -2.12
-39.16 18.71 -0.76
-6.14 2.96 -1.83
-48.92 23.6 0.95
-7.23 3.49 -1.85
-8.78 4.24 -1.9
-48.67 23.47 4.73
-1.15 0.55 -0.2
-1.2 0.58 -0.16
-27.6 13.31 -2.68
-6.1 2.97 -1.82
-37.69 18.34 0.73
-7.21 3.51 -1.85
-49.73 24.2 2.9
-8.78 4.27 -1.9
-48.94 23.82 4.76
-1.15 0.56 -0.2
-1.2 0.58 -0.16
-27.6 13.43 -2.69
-6.11 3 -1.82
-7.19 3.53 -1.85
-8.76 4.3 -1.9
-1.15 0.56 -0.2
-1.18 0.58 -0.16
-27.51 13.51 -2.68
-6.09 3.02 -1.82
-49.45 24.49 0.96
-7.18 3.56 -1.85
-8.74 4.33 -1.9
-1.14 0.57 -0.2
-1.17 0.58 -0.16
-27.48 13.61 -2.68
-6.07 3.03 -1.82
-7.18 3.59 -1.85
-8.74 4.36 -1.9
-1.13 0.56 -0.2
-1.17 0.58 -0.16
-48.83 24.4 8.65
-27.45 13.71 -2.68
-6.07 3.06 -1.82
-7.17 3.61 -1.85
-8.73 4.4 -1.9
-1.12 0.56 -0.2
-1.16 0.58 -0.16
-27.41 13.81 -2.69
-6.05 3.08 -1.82
-40.71 20.7 0.8
-7.15 3.63 -1.85
-8.72 4.43 -1.9
-1.11 0.56 -0.2
-1.14 0.58 -0.16
-27.41 13.93 -2.69
-36.65 18.63 -2.15
-6.06 3.11 -1.83
-40.75 20.9 0.8
-7.13 3.66 -1.85
-8.7 4.46 -1.9
-1.11 0.57 -0.2
-1.14 0.59 -0.16
-27.42 14.06 -2.7
-6.03 3.12 -1.82
-7.14 3.69 -1.86
-8.68 4.49 -1.9
-48.79 25.23 4.81
-1.11 0.57 -0.2
-44.82 23.17 6.2
-1.14 0.59 -0.16
-27.43 14.18 -2.7
-6.02 3.14 -1.82
-39.36 20.53 0.77
-7.14 3.72 -1.86
-8.67 4.52 -1.9
-1.09 0.57 -0.2
-1.13 0.59 -0.16
-27.45 14.31 -2.71
-6.01 3.16 -1.82
-39.52 20.78 0.78
-7.13 3.75 -1.86
-39.79 20.92 2.36
-8.66 4.55 -1.9
-1.08 0.57 -0.19
-1.15 0.61 -0.16
-27.44 14.42 -2.71
-6 3.18 -1.82
-7.11 3.77 -1.86
-8.65 4.58 -1.9
-1.08 0.57 -0.19
-1.16 0.62 -0.16
-27.4 14.53 -2.71
-5.99 3.2 -1.82
-44.17 23.62 0.87
-7.1 3.8 -1.86
-8.64 4.62 -1.9
-1.06 0.57 -0.19
-1.17 0.62 -0.16
-27.34 14.62 -2.71
-5.98 3.23 -1.82
-7.1 3.83 -1.86
-8.62 4.65 -1.9
-1.06 0.57 -0.19
-1.13 0.61 -0.16
-43.5 23.46 7.83
-27.23 14.68 -2.71
-5.97 3.24 -1.82
-7.08 3.85 -1.86
-8.6 4.68 -1.9
-1.05 0.57 -0.19
-45.27 24.62 6.33
-1.12 0.61 -0.16
-27.02 14.7 -2.69
-5.95 3.27 -1.82
-7.08 3.88 -1.86
-43.79 24.02 2.62
-8.59 4.71 -1.9
-1.03 0.56 -0.19
-1.11 0.61 -0.16
-26.75 14.67 -2.67
-5.95 3.29 -1.82
-7.06 3.9 -1.86
-41.09 22.71 2.46
-8.58 4.74 -1.91
-1.03 0.57 -0.19
-1.08 0.6 -0.15
-26.64 14.72 -2.66
-5.94 3.31 -1.82
-7.05 3.93 -1.86
-8.57 4.77 -1.91
-1.03 0.57 -0.19
-35.37 19.71 4.97
-1.07 0.6 -0.15
-26.56 14.8 -2.66
-5.93 3.33 -1.82
-7.04 3.96 -1.86
-8.55 4.81 -1.91
-1.02 0.58 -0.19
-1.05 0.59 -0.15
-26.35 14.81 -2.65
-5.91 3.35 -1.82
-31.54 17.87 0.63
-7.03 3.98 -1.87
-8.54 4.84 -1.91
-31.59 17.9 3.18
-1.02 0.58 -0.19
-35.04 19.86 4.95
-1.05 0.6 -0.15
-26.2 14.84 -2.63
-5.91 3.38 -1.82
-7.01 4.01 -1.86
-8.53 4.87 -1.91
-1 0.57 -0.18
-31.14 17.79 4.4
-1.05 0.6 -0.15
-26.11 14.92 -2.63
-5.9 3.4 -1.82
-7 4.03 -1.87
-8.52 4.91 -1.91
-1.01 0.58 -0.18
-35.27 20.31 5
-1.05 0.61 -0.15
-26.01 14.98 -2.63
-5.89 3.42 -1.82
-32.73 19 0.66
-6.98 4.05 -1.86
-8.5 4.94 -1.91
-1 0.58 -0.18
-35.06 20.35 4.98
-15.27 8.86 -2.17
-36.09 20.95 6.61
-25.8 14.97 -2.61
-5.88 3.44 -1.83
-6.98 4.08 -1.87
-36.46 21.33 2.21
-8.48 4.96 -1.91
-0.99 0.58 -0.18
-35.36 20.69 5.03
-15.21 8.9 -2.16
-25.57 14.96 -2.59
-5.87 3.46 -1.83
-6.97 4.11 -1.87
-8.47 5 -1.91
-0.98 0.58 -0.18
-15.18 8.95 -2.16
-25.49 15.03 -2.59
-39.14 23.08 -0.79
-5.86 3.48 -1.83
-32.55 19.35 0.66
-6.97 4.14 -1.87
-36.08 21.45 2.2
-8.46 5.03 -1.91
-0.95 0.57 -0.18
-15.16 9.01 -2.17
-25.46 15.13 -2.59
-5.85 3.51 -1.83
-31.23 18.71 0.64
-6.94 4.16 -1.87
-8.45 5.06 -1.92
-0.95 0.57 -0.18
-15.14 9.07 -2.17
-25.45 15.25 -2.6
-5.85 3.53 -1.83
-6.93 4.19 -1.87
-8.44 5.1 -1.92
-31.36 18.94 3.2
-0.95 0.57 -0.18
-35.55 21.47 5.1
-15.13 9.14 -2.17
-25.21 15.22 -2.58
-5.83 3.55 -1.83
-31.44 19.14 0.64
-6.93 4.22 -1.87
-8.42 5.13 -1.92
-0.95 0.58 -0.18
-15.1 9.19 -2.17
-34.34 20.9 6.37
-25.11 15.28 -2.57
-39.69 24.16 -2.44
-5.82 3.57 -1.83
-31.23 19.16 0.64
-6.91 4.24 -1.87
-8.4 5.16 -1.92
-31.51 19.33 3.23
-0.95 0.58 -0.18
-35.62 21.85 5.13
-15.07 9.24 -2.17
-34.37 21.09 6.39
-25.05 15.37 -2.57
-39.56 24.27 -2.43
-5.81 3.59 -1.83
-31.03 19.19 0.64
-6.9 4.26 -1.87
-40.11 24.8 2.47
-8.39 5.19 -1.92
-38.28 23.67 3.94
-0.94 0.58 -0.17
-15.05 9.31 -2.17
-34.36 21.25 6.4
-24.91 15.41 -2.56
-39.22 24.25 -2.42
-35.59 22.01 -0.73
-5.8 3.62 -1.83
-31.17 19.42 0.64
-6.88 4.29 -1.87
-8.38 5.22 -1.92
-0.93 0.58 -0.17
-15.01 9.36 -2.17
-33.91 21.13 6.33
-24.86 15.49 -2.56
-39.24 24.45 -2.42
-5.8 3.64 -1.84
-31.84 20 0.66
-6.87 4.32 -1.87
-8.37 5.26 -1.92
-35 21.98 3.62
-0.93 0.58 -0.17
-14.99 9.41 -2.17
-33.65 21.13 6.29
-24.61 15.45 -2.54
-39.19 24.61 -2.43
-5.78 3.66 -1.83
-31.04 19.64 0.64
-6.86 4.34 -1.87
-8.34 5.28 -1.92
-34.89 22.08 3.61
-0.91 0.58 -0.17
-14.95 9.46 -2.17
-35.34 22.37 6.62
-24.58 15.56 -2.55
-39.18 24.8 -2.43
-5.76 3.67 -1.83
-31.08 19.81 0.64
-6.84 4.36 -1.87
-8.33 5.31 -1.92
-35.33 22.52 3.67
-0.91 0.58 -0.17
-14.93 9.52 -2.17
-24.72 15.76 -2.57
-39.08 24.91 -0.81
-5.75 3.7 -1.83
-30.96 19.89 0.64
-6.83 4.39 -1.88
-8.32 5.34 -1.92
-35.7 22.94 3.71
-0.9 0.58 -0.17
-14.91 9.58 -2.18
-32.62 20.95 6.14
-25.44 16.35 -2.65
-45.07 28.95 -2.81
-5.75 3.72 -1.83
-30.99 20.07 0.64
-6.81 4.41 -1.87
-8.32 5.38 -1.93
-0.9 0.58 -0.17
-35.93 23.26 5.26
-14.88 9.64 -2.18
-35.01 22.66 6.6
-25.36 16.42 -2.64
-5.73 3.74 -1.83
-31.36 20.46 0.65
-6.8 4.44 -1.87
-31.57 20.6 1.98
-8.29 5.41 -1.92
-0.89 0.58 -0.17
-14.83 9.67 -2.17
-32.11 20.95 6.07
-25.46 16.61 -2.66
-30.69 20.17 0.64
-6.79 4.46 -1.88
-30.94 20.34 1.94
-8.27 5.44 -1.92
-0.88 0.58 -0.17
-14.79 9.72 -2.17
-25.01 16.44 -2.62
-5.71 3.78 -1.83
-6.78 4.49 -1.88
-34.5 22.85 2.17
-8.26 5.47 -1.93
-43.72 28.96 4.59
-0.88 0.58 -0.17
-14.77 9.78 -2.17
-31.97 21.18 6.07
-25.11 16.63 -2.64
-34.59 22.91 -0.72
-5.7 3.8 -1.84
-6.77 4.52 -1.88
-30.51 20.36 1.92
-8.24 5.5 -1.93
-0.87 0.58 -0.17
-14.76 9.85 -2.18
-32.01 21.37 6.1
-25.07 16.73 -2.64
-34.47 23.01 -0.72
-5.69 3.82 -1.84
-36.39 24.47 0.77
-6.74 4.54 -1.88
-8.23 5.53 -1.93
-0.86 0.58 -0.16
-33.88 22.78 5.01
-14.76 9.93 -2.18
-34.43 23.16 6.57
-24.4 16.41 -2.57
-31.55 21.22 7.39
-5.68 3.85 -1.84
-6.73 4.56 -1.88
-8.22 5.57 -1.93
-31.47 21.32 3.33
-0.86 0.59 -0.17
-34 23.03 5.04
-14.74 9.99 -2.19
-30.87 20.92 5.91
-24.75 16.77 -2.62
-5.67 3.87 -1.84
-6.72 4.59 -1.88
-31.77 21.68 2.02
-0.84 0.57 -0.2
-32.62 22.27 3.46
-0.85 0.58 -0.16
-30.9 21.09 4.59
-14.74 10.06 -2.19
-31.95 21.81 6.13
-24.67 16.84 -2.61
-31.82 21.72 -2.02
-32.33 22.07 -0.68
-5.65 3.89 -1.84
-32.23 22.17 0.68
-6.71 4.62 -1.88
-30.28 20.82 1.93
-0.83 0.57 -0.2
-31.63 21.75 3.36
-0.86 0.59 -0.16
-14.75 10.15 -2.2
-31.9 21.94 6.13
-24.69 16.98 -2.62
-5.64 3.91 -1.84
-31.73 21.99 0.67
-6.69 4.64 -1.88
-0.84 0.58 -0.2
-31.58 21.88 3.36
-0.83 0.58 -0.16
-33.73 23.38 5.04
-14.76 10.23 -2.21
-32.5 22.52 6.26
-24.24 16.8 -2.58
-31.45 21.79 7.44
-33.79 23.42 -2.15
-5.64 3.93 -1.84
-32.57 22.73 0.69
-6.68 4.66 -1.88
-30 20.93 1.92
-0.84 0.58 -0.2
-0.84 0.58 -0.16
-32.23 22.49 4.83
-14.77 10.31 -2.21
-33.62 23.46 6.49
-24.16 16.86 -2.58
-32.02 22.35 -0.68
-5.63 3.96 -1.84
-35.09 24.67 0.75
-6.66 4.69 -1.88
-0.83 0.58 -0.2
-33.88 23.82 3.62
-0.83 0.58 -0.16
-34.18 24.03 5.13
-14.78 10.39 -2.22
-31.4 22.08 6.08
-24.09 16.94 -2.58
-30.8 21.66 -0.66
-5.61 3.98 -1.84
-33.48 23.71 0.72
-6.65 4.71 -1.88
-33.18 23.5 2.13
-0.82 0.58 -0.19
-32.77 23.21 3.51
-0.84 0.59 -0.16
-31.11 22.03 4.68
-14.8 10.48 -2.23
-33.38 23.65 6.48
-23.96 16.97 -2.57
-33.67 23.85 -0.72
-5.59 3.99 -1.84
-32.3 23.05 0.69
-6.64 4.74 -1.88
-30.67 21.89 1.97
-0.81 0.58 -0.19
-33.37 23.81 3.59
-0.82 0.59 -0.16
-33.23 23.71 5.01
-14.81 10.57 -2.23
-32.81 23.41 6.38
-23.85 17.02 -2.56
-33.71 24.05 -2.17
-5.58 4.01 -1.84
-6.62 4.76 -1.88
-0.82 0.59 -0.2
-32.49 23.35 3.5
-0.82 0.59 -0.16
-35.98 25.87 5.44
-14.87 10.69 -2.25
-31.01 22.29 6.05
-24.15 17.36 -2.6
-31.98 22.99 7.66
-33.62 24.17 -2.17
-33.35 23.98 -0.72
-5.57 4.03 -1.84
-33.44 24.22 0.72
-6.6 4.78 -1.88
-32.85 23.79 2.13
-0.81 0.58 -0.19
-0.83 0.6 -0.16
-32.26 23.36 4.89
-14.91 10.79 -2.26
-24.01 17.39 -2.59
-33.65 24.37 -2.18
-33.52 24.28 -0.72
-5.57 4.06 -1.85
-30.06 21.92 0.65
-6.59 4.81 -1.88
-29.47 21.5 1.91
-0.8 0.58 -0.19
-32.93 24.03 3.57
-0.8 0.59 -0.16
-30.9 22.54 4.7
-14.94 10.9 -2.27
-23.88 17.42 -2.59
-33.61 24.52 -2.18
-32.94 24.03 -0.71
-5.56 4.08 -1.85
-31.65 23.26 0.69
-6.58 4.84 -1.89
-36.85 27.08 4
-0.83 0.61 -0.16
-15.02 11.04 -2.29
-30.52 22.43 6
-23.75 17.45 -2.58
-33.29 24.47 -2.17
-5.54 4.1 -1.85
-29.5 21.84 0.64
-6.57 4.86 -1.89
-32.45 24.02 2.12
-32.27 23.89 3.51
-0.81 0.6 -0.16
-32.02 23.7 4.89
-15.09 11.17 -2.3
-23.64 17.5 -2.57
-31.87 23.59 7.71
-5.52 4.12 -1.85
-31.26 23.31 0.68
-6.55 4.89 -1.89
-29.21 21.78 1.91
-0.8 0.6 -0.16
-32.03 23.88 4.91
-15.15 11.29 -2.32
-23.51 17.53 -2.57
-33.23 24.78 -0.72
-5.51 4.14 -1.85
-32.15 24.13 0.7
-6.53 4.9 -1.88
-0.8 0.6 -0.16
-15.19 11.4 -2.33
-30.55 22.93 6.05
-23.41 17.57 -2.56
-36.43 27.34 -2.39
-5.51 4.17 -1.85
-29.73 22.48 0.65
-6.51 4.93 -1.89
-0.8 0.61 -0.16
-31.42 23.75 4.84
-15.2 11.49 -2.34
-23.36 17.66 -2.56
-5.49 4.18 -1.85
-31.82 24.24 0.7
-6.5 4.95 -1.89
-31.5 23.99 2.08
-30.36 23.13 3.34
-0.8 0.61 -0.16
-30.33 23.11 4.68
-15.22 11.6 -2.35
-31.66 24.12 6.3
-23.29 17.74 -2.56
-5.47 4.2 -1.85
-6.49 4.98 -1.89
-0.8 0.61 -0.16
-33.96 26.06 5.26
-15.21 11.67 -2.35
-29.38 22.54 5.86
-23.23 17.83 -2.56
-5.46 4.22 -1.85
-34.18 26.41 0.75
-6.48 5.01 -1.89
-15.2 11.75 -2.36
-31.3 24.19 6.26
-23.22 17.95 -2.57
-5.45 4.24 -1.85
-6.46 5.03 -1.89
-30.44 23.7 2.02
-0.79 0.61 -0.16
-36.44 28.36 5.67
-15.23 11.85 -2.37
-29.46 22.93 5.91
-22.81 17.75 -2.53
-5.45 4.27 -1.85
-6.44 5.05 -1.89
-29.74 23.32 4.64
-15.26 11.97 -2.38
-33.12 25.97 6.67
-22.73 17.82 -2.53
-5.43 4.29 -1.85
-6.43 5.08 -1.89
-30.04 23.72 2.01
-30.3 23.93 3.38
-0.78 0.62 -0.16
-29.64 23.41 4.64
-15.13 11.95 -2.37
-23.38 18.46 -2.61
-5.41 4.3 -1.85
-35.75 28.44 0.8
-6.42 5.11 -1.89
-29.67 23.6 1.99
-35.59 28.31 3.98
-0.78 0.62 -0.16
-15.28 12.15 -2.4
-33.12 26.35 6.7
-23.28 18.51 -2.6
-35.74 28.43 -0.8
-5.39 4.32 -1.85
-36.52 29.26 0.82
-6.41 5.13 -1.9
-33.54 26.87 3.76
-10.02 8.03 -2.03
-29.54 23.66 4.65
-15.33 12.28 -2.41
-23.3 18.67 -2.61
-35.64 28.56 -2.39
-5.39 4.35 -1.86
-6.38 5.15 -1.89
-29.97 24.17 2.02
-30.48 24.58 3.43
-9.99 8.06 -2.03
-15.36 12.39 -2.42
-37.32 30.1 7.59
-23.33 18.82 -2.62
-36.44 29.39 -0.82
-5.38 4.37 -1.86
-6.36 5.17 -1.89
-33.38 27.12 2.25
-9.96 8.09 -2.03
-15.36 12.48 -2.43
-23.06 18.73 -2.6
-31.92 25.93 9.49
-33.63 27.32 -0.76
-5.37 4.39 -1.86
-30.03 24.57 0.68
-6.35 5.2 -1.89
-30.16 24.68 2.04
-9.94 8.13 -2.03
-31.32 25.62 4.97
-15.33 12.55 -2.43
-23 18.82 -2.6
-32.05 26.22 8.05
-5.34 4.4 -1.86
-29.54 24.34 0.67
-6.34 5.22 -1.9
-9.9 8.16 -2.03
-15.28 12.59 -2.43
-22.94 18.9 -2.6
-42.36 34.9 -2.88
-32.22 26.55 9.64
-42.32 34.87 -0.96
-5.32 4.42 -1.85
-6.32 5.24 -1.89
-9.87 8.19 -2.03
-15.46 12.83 -2.47
-22.87 18.98 -2.6
-32.18 26.71 9.65
-5.32 4.44 -1.86
-6.29 5.26 -1.89
-9.85 8.23 -2.03
-15.44 12.9 -2.47
-22.75 19.02 -2.59
-31.78 26.56 8.05
-31.84 26.61 9.58
-33.21 27.76 -0.76
-5.31 4.47 -1.86
-6.28 5.28 -1.89
-9.83 8.27 -2.04
-15.33 12.9 -2.46
-31.7 26.68 6.56
-22.69 19.1 -2.59
-5.29 4.48 -1.86
-6.26 5.31 -1.89
-9.81 8.32 -2.04
-31.7 26.87 5.1
-15.31 12.98 -2.46
-35.94 30.46 7.46
-22.85 19.37 -2.62
-30.95 26.23 7.89
-33.1 28.06 -2.27
-5.26 4.49 -1.85
-6.25 5.34 -1.9
-38.19 32.6 4.39
-9.79 8.36 -2.04
-15.35 13.1 -2.48
-22.94 19.59 -2.64
-5.25 4.52 -1.86
-6.25 5.37 -1.9
-31.57 27.15 3.64
-9.75 8.39 -2.04
-31.95 27.48 5.17
-15.31 13.16 -2.48
-36.35 31.26 7.59
-22.73 19.55 -2.62
-31.99 27.51 8.2
-33.03 28.4 -2.28
-5.24 4.54 -1.86
-45.53 39.41 1.05
-6.25 5.41 -1.91
-31.52 27.29 2.18
-31.63 27.38 3.66
-9.73 8.43 -2.04
-31.64 27.39 5.14
-15.25 13.2 -2.48
-31.92 27.63 6.69
-22.38 19.37 -2.59
-5.23 4.56 -1.86
-31.43 27.41 0.73
-6.26 5.46 -1.92
-31.48 27.45 2.19
-9.71 8.47 -2.04
-31.3 27.29 5.1
-15.23 13.28 -2.48
-22.31 19.45 -2.59
-31.73 27.66 8.18
-31.61 27.56 9.68
-5.22 4.58 -1.86
-9.69 8.51 -2.04
-15.18 13.33 -2.48
-31.41 27.58 -0.73
-5.19 4.59 -1.86
-6.2 5.49 -1.91
-9.67 8.55 -2.04
-35.24 31.16 5.78
-15.13 13.38 -2.48
-23.82 21.06 -2.78
-31.34 27.71 -2.19
-5.18 4.61 -1.86
-6.17 5.49 -1.91
-40.59 36.13 2.85
-32.9 29.28 3.85
-9.64 8.58 -2.04
-15.09 13.43 -2.48
-33.39 29.72 7.08
-31.77 28.27 9.82
-5.17 4.63 -1.86
-40.48 36.29 0.95
-6.16 5.52 -1.91
-9.61 8.62 -2.04
-15.07 13.51 -2.48
-24.53 21.99 -2.88
-5.15 4.65 -1.86
-34.69 31.31 0.82
-34.82 31.43 2.46
-9.59 8.66 -2.05
-15.01 13.55 -2.48
-31.65 28.57 6.75
-21.49 19.39 -2.53
-26.97 24.34 -1.9
-34.59 31.22 -0.81
-5.13 4.67 -1.86
-35.34 32.13 4.18
-9.56 8.69 -2.05
-14.97 13.61 -2.48
-31.53 28.67 6.75
-19.85 18.05 -2.35
-5.12 4.68 -1.86
-9.54 8.73 -2.05
-14.96 13.69 -2.49
-21.51 19.69 -2.55
-26.8 24.53 -1.9
-5.1 4.7 -1.86
-27.72 25.56 3.3
-9.5 8.76 -2.05
-33.02 30.45 5.52
-14.91 13.74 -2.49
-5.09 4.72 -1.86
-28.63 26.57 3.42
-9.48 8.8 -2.05
-28.53 26.47 4.78
-14.94 13.86 -2.5
-21.74 20.17 -2.59
-26.54 24.63 -1.9
-34.14 31.68 -0.81
-5.07 4.74 -1.86
-32.93 30.78 0.79
-32.85 30.71 2.36
-9.46 8.84 -2.05
-34.31 32.07 5.77
-14.86 13.89 -2.5
-19.4 18.13 -2.32
-26.8 25.05 -1.92
-33.06 30.9 -0.79
-5.06 4.76 -1.86
-28.39 26.72 3.41
-9.43 8.88 -2.05
-14.83 13.96 -2.5
-28.37 26.71 6.17
-21.71 20.44 -2.61
-5.03 4.77 -1.86
-31.84 30.19 3.84
-9.41 8.92 -2.05
-32.98 31.27 5.58
-11.43 10.84 -1.93
-11.4 10.81 -1.37
-26.47 25.1 -1.91
-5.01 4.78 -1.86
-9.37 8.94 -2.05
-27.98 26.69 4.75
-11.36 10.83 -1.93
-11.35 10.82 -1.37
-5.01 4.81 -1.86
-9.34 8.98 -2.05
-11.33 10.88 -1.93
-28.26 27.15 6.21
-11.33 10.89 -1.38
-4.99 4.82 -1.86
-27.96 27.05 0.68
-28.58 27.65 2.08
-28.05 27.13 3.41
-9.33 9.02 -2.05
-28.04 27.12 4.79
-27.84 26.93 6.13
-4.98 4.85 -1.86
-9.3 9.06 -2.06
-27.81 27.1 4.77
-14.64 14.26 -2.51
-27.43 26.73 6.07
-20.69 20.16 -2.53
-4.95 4.86 -1.86
-27.92 27.39 2.05
-9.27 9.1 -2.06
-38.63 37.89 6.64
-14.55 14.28 -2.5
-31.83 31.22 7.06
-20.69 20.3 -2.54
-4.94 4.88 -1.86
-27.91 27.58 0.68
-28.29 27.95 2.08
-27.81 27.48 3.42
-9.24 9.13 -2.06
-27.26 26.94 4.71
-14.5 14.32 -2.5
-26.81 26.48 5.97
-18.73 18.5 -2.3
-25.17 24.87 -1.85
-27.99 27.66 -0.69
-4.92 4.9 -1.86
-27.84 27.71 2.06
-9.22 9.17 -2.06
-14.44 14.37 -2.5
-18.5 18.41 -2.28
-27.49 27.35 -0.68
-4.91 4.92 -1.86
-31.6 31.66 3.91
-9.19 9.21 -2.06
-31.73 31.79 5.52
-14.4 14.42 -2.5
-18.65 18.68 -2.31
-4.89 4.94 -1.86
-31.52 31.79 0.78
-31.47 31.74 2.34
-9.16 9.25 -2.06
-14.34 14.46 -2.5
-31 31.27 6.97
-18.09 18.25 -2.25
-31.57 31.85 -0.78
-4.87 4.95 -1.86
-26.36 26.78 1.97
-9.14 9.28 -2.06
-14.27 14.5 -2.5
-33.9 34.44 7.65
-18.05 18.33 -2.25
-4.85 4.96 -1.86
-25.98 26.57 0.65
-31.42 32.14 3.93
-9.11 9.31 -2.06
-26.26 26.86 4.61
-14.22 14.55 -2.5
-33.27 34.04 7.54
-17.87 18.28 -2.24
-24.53 25.09 -1.84
-4.84 4.99 -1.86
-32.85 33.83 0.82
-32.98 33.97 2.48
-32.67 33.65 4.1
-9.07 9.35 -2.06
-26.14 26.92 4.61
-14.17 14.59 -2.5
-17.8 18.33 -2.24
-25.98 26.76 -0.65
-4.82 5 -1.86
-34.88 36.18 0.88
-26.02 26.99 3.28
-9.05 9.38 -2.06
-14.11 14.63 -2.5
-32.36 33.57 7.38
-22.6 23.45 -2.85
-24.98 25.91 -1.89
-4.8 5.02 -1.86
-26.59 27.77 2.02
-26.25 27.42 3.32
-9.02 9.43 -2.07
-26.66 27.84 4.73
-14.04 14.67 -2.49
-33.27 34.74 7.62
-17.86 18.66 -2.26
-24.92 26.02 -1.89
-4.78 5.02 -1.86
-9 9.46 -2.07
-26.09 27.44 4.65
-14.02 14.75 -2.5
-17.5 18.4 -2.22
-4.77 5.05 -1.86
-26.21 27.75 2
-25.96 27.49 3.31
-8.97 9.49 -2.07
-13.97 14.8 -2.5
-17.4 18.43 -2.22
-4.76 5.07 -1.86
-26.14 27.87 0.67
-26.03 27.76 1.99
-8.93 9.53 -2.07
-25.64 27.34 4.6
-13.93 14.85 -2.5
-17.38 18.53 -2.22
-25.25 26.93 7.18
-24.58 26.21 -1.88
-25.95 27.87 0.66
-25.48 27.36 3.27
-8.91 9.57 -2.07
-13.87 14.89 -2.5
-17.09 18.35 -2.19
-24.65 26.47 -1.9
-26.07 27.99 -0.67
-4.74 5.13 -1.87
-30.57 33.07 0.79
-30.63 33.14 3.95
-8.88 9.61 -2.07
-30.79 33.3 5.57
-13.83 14.96 -2.5
-17.04 18.43 -2.2
-4.71 5.13 -1.87
-34.32 37.38 2.66
-30.48 33.2 3.94
-8.84 9.63 -2.07
-30.42 33.14 5.52
-13.78 15.01 -2.5
-27.78 30.26 6.51
-16.78 18.27 -2.17
-24.53 26.72 -1.9
-4.69 5.14 -1.87
-25.93 28.44 0.67
-34.79 38.16 4.52
-8.8 9.66 -2.07
-30.24 33.17 5.51
-13.73 15.07 -2.5
-30.14 33.06 7.09
-17.11 18.77 -2.22
-24.47 26.85 -1.9
-4.68 5.16 -1.87
-8.77 9.69 -2.07
-13.69 15.12 -2.5
-16.92 18.69 -2.21
-24.33 26.88 7.05
-22.64 25.01 -1.77
-26.21 28.95 -0.68
-4.66 5.18 -1.87
-34.59 38.48 2.71
-8.74 9.72 -2.07
-27.69 30.8 5.09
-13.63 15.16 -2.5
-24.85 27.64 5.89
-16.8 18.69 -2.2
-4.64 5.2 -1.87
-25.58 28.64 0.67
-8.71 9.75 -2.07
-13.58 15.2 -2.5
-23.98 26.85 5.7
-16.64 18.64 -2.19
-25.94 29.04 -0.68
-4.62 5.21 -1.87
-25.09 28.3 1.98
-24.67 27.83 3.25
-8.67 9.78 -2.07
-28.12 31.72 5.2
-13.53 15.26 -2.5
-16.84 18.99 -2.22
-24.53 27.67 8.54
-25.85 29.16 -0.68
-4.61 5.23 -1.87
-26.88 30.53 0.71
-24.66 28 3.26
-8.63 9.8 -2.07
-28.09 31.9 5.22
-13.48 15.31 -2.51
-24.46 27.78 5.86
-16.78 19.06 -2.22
-4.59 5.25 -1.87
-25.54 29.21 0.68
-25.61 29.3 2.04
-25.57 29.25 3.4
-8.59 9.83 -2.07
-25.58 29.26 4.77
-13.43 15.37 -2.51
-25.63 29.32 6.17
-16.36 18.71 -2.17
-25.57 29.25 -0.68
-4.57 5.27 -1.87
-8.56 9.86 -2.07
-29.17 33.6 5.46
-13.42 15.46 -2.51
-24.26 27.94 5.86
-16.28 18.75 -2.17
-24.17 27.84 8.51
-4.55 5.28 -1.87
-24.12 27.99 1.94
-24.17 28.04 3.24
-8.53 9.9 -2.07
-23.93 27.76 4.5
-13.36 15.49 -2.51
-27.68 32.11 6.71
-16.5 19.15 -2.21
-4.53 5.29 -1.87
-24.03 28.07 0.64
-24.11 28.17 1.94
-8.5 9.93 -2.07
-13.27 15.5 -2.51
-27.63 32.28 6.73
-16.56 19.34 -2.23
-24.1 28.15 -0.65
-4.51 5.31 -1.87
-23.75 27.93 0.64
-8.46 9.95 -2.07
-24.02 28.25 4.55
-13.21 15.54 -2.5
-16.37 19.25 -2.21
-27.58 32.44 9.83
-23.97 28.2 -0.65
-4.5 5.33 -1.87
-8.42 9.97 -2.07
-29.56 35.01 5.63
-13.14 15.56 -2.5
-26.9 31.87 6.61
-16.14 19.12 -2.19
-27.69 32.8 8.34
-21.24 25.17 -1.73
-4.48 5.34 -1.87
-8.38 10 -2.07
-13.04 15.56 -2.49
-27.04 32.26 6.67
-16.19 19.32 -2.21
-4.46 5.36 -1.87
-26.3 31.6 3.6
-8.34 10.03 -2.07
-29.29 35.2 5.62
-12.98 15.6 -2.49
-26.44 31.77 6.55
-16.18 19.44 -2.21
-28.08 33.73 10.13
-4.44 5.37 -1.87
-26.28 31.82 3.61
-8.31 10.06 -2.07
-28.28 34.24 5.45
-12.89 15.6 -2.48
-23.68 28.67 5.89
-16.17 19.57 -2.22
-21.34 25.83 6.51
-22.63 27.39 -1.86
-21.23 25.69 7.69
-4.42 5.39 -1.87
-35.34 43.09 0.97
-26.1 31.82 3.6
-8.26 10.07 -2.06
-28.28 34.48 5.48
-12.81 15.62 -2.48
-26.26 32.02 6.56
-16.01 19.52 -2.21
-4.41 5.41 -1.87
-8.22 10.09 -2.06
-28.1 34.5 5.46
-12.73 15.62 -2.47
-21.22 26.04 5.32
-15.96 19.59 -2.21
-26.32 32.3 8.1
-21.14 25.95 7.73
-4.39 5.43 -1.87
-29.59 36.58 2.47
-29.35 36.28 4.08
-8.19 10.12 -2.06
-26.21 32.4 5.12
-12.64 15.62 -2.47
-29.41 36.35 7.41
-16.04 19.83 -2.23
-23.29 28.8 7.2
-4.37 5.44 -1.87
-29.24 36.4 0.82
-20.37 25.37 2.85
-8.16 10.15 -2.06
-28.12 35.01 5.51
-12.55 15.62 -2.46
-26.26 32.7 6.64
-16.94 21.09 -2.37
-27.76 34.56 10.23
-4.35 5.45 -1.87
-8.13 10.19 -2.06
-27.88 34.97 5.49
-12.48 15.65 -2.46
-28.16 35.32 7.15
-17.35 21.76 -2.43
-21.42 26.86 6.68
-26.23 32.9 9.71
-4.33 5.47 -1.87
-27.99 35.33 3.94
-8.09 10.21 -2.06
-20.85 26.32 4.12
-12.41 15.66 -2.45
-20.8 26.25 5.31
-15.63 19.73 -2.2
-25.68 32.41 8.04
-26.17 33.03 9.73
-4.32 5.49 -1.87
-25.22 32.06 3.57
-8.06 10.25 -2.07
-26.12 33.2 5.19
-12.33 15.67 -2.45
-27.93 35.51 7.16
-15.68 19.93 -2.22
-25.93 32.96 9.68
-4.3 5.51 -1.87
-26.69 34.2 0.76
-27.85 35.69 3.96
-8.03 10.29 -2.07
-20.37 26.1 4.06
-12.24 15.68 -2.44
-27.77 35.59 7.15
-17.34 22.22 -2.47
-20.6 26.4 6.51
-25.76 33.01 9.67
-26.89 34.7 0.77
-32.42 41.85 2.77
-6.24 8.06 -1.98
-26.47 34.17 3.78
-8 10.33 -2.07
-20.67 26.67 4.14
-12.14 15.67 -2.43
-26.93 34.76 6.97
-15.68 20.24 -2.24
-25.75 33.23 8.17
-25.39 32.76 9.57
-26.67 34.64 0.76
-20.66 26.84 1.78
-6.22 8.08 -1.98
-26.79 34.8 3.84
-7.97 10.36 -2.07
-20.35 26.44 4.1
-12.07 15.67 -2.43
-20.4 26.49 5.3
-15.45 20.07 -2.22
-24.63 31.99 7.85
-25.46 33.07 9.64
-26.82 34.84 -0.77
-19.96 26.12 0.57
-26.66 34.88 2.3
-6.19 8.1 -1.98
-20.49 26.8 2.95
-7.93 10.38 -2.07
-20.41 26.7 4.13
-11.99 15.69 -2.42
-27.98 36.6 7.3
-19.21 25.14 -2.77
-24.4 31.92 7.81
-21.45 28.07 -1.85
-26.64 34.86 -0.77
-20.06 26.44 0.58
-6.16 8.12 -1.98
-20.44 26.95 2.96
-7.9 10.42 -2.07
-26.36 34.75 5.36
-11.91 15.7 -2.42
-15.5 20.43 -2.24
-19.8 26.1 6.37
-22.01 29.02 -1.91
-20.16 26.77 0.58
-20.4 27.09 1.78
-6.13 8.14 -1.98
-25.56 33.94 3.72
-7.89 10.47 -2.08
-20.21 26.83 4.12
-11.83 15.72 -2.42
-19.05 25.3 5.02
-15.33 20.36 -2.23
-22.57 29.98 7.29
-21.17 28.12 -1.84
-36.83 48.91 -1.07
-25.68 34.33 0.75
-20.3 27.15 1.78
-6.1 8.15 -1.98
-25.03 33.47 3.66
-7.92 10.59 -2.1
-25.98 34.74 5.33
-11.77 15.74 -2.41
-25.49 34.08 6.74
-15.45 20.66 -2.26
-26.63 35.62 10.27
-32.64 43.65 14.61
-20.38 27.46 0.6
-20.4 27.47 1.79
-6.07 8.18 -1.98
-25.02 33.71 3.67
-7.88 10.62 -2.09
-24.71 33.28 5.09
-11.68 15.74 -2.41
-24.85 33.48 6.6
-15.33 20.65 -2.25
-24.46 32.94 7.98
-20.93 28.19 -1.84
-25.13 33.85 -0.74
-6.05 8.2 -1.98
-25.08 34.03 3.7
-7.84 10.63 -2.09
-28.2 38.27 5.84
-11.6 15.73 -2.4
-15.36 20.84 -2.27
-26.96 36.58 8.83
-22.15 30.05 8.62
-20.46 27.76 -0.6
-20.32 27.77 0.6
-25.16 34.39 2.23
-6.02 8.23 -1.98
-7.81 10.67 -2.09
-11.52 15.75 -2.4
-21.9 29.93 5.87
-18.91 25.85 -2.8
-33.62 45.95 13.14
-20.35 27.81 -0.6
-25.49 35.09 0.76
-24.89 34.27 2.22
-5.99 8.24 -1.98
-25.35 34.89 3.77
-7.77 10.69 -2.09
-21.79 29.99 4.55
-11.48 15.81 -2.4
-21.83 30.05 5.88
-15.09 20.77 -2.25
-20.29 27.93 -1.81
-24.86 34.47 0.74
-5.98 8.29 -1.99
-21.75 30.16 3.25
-7.72 10.7 -2.09
-11.41 15.82 -2.39
-24.24 33.61 6.56
-15.23 21.11 -2.28
-22.11 30.66 7.35
-20.43 28.33 -1.83
-21.63 30.23 0.65
-21.65 30.26 1.95
-7.67 10.72 -2.09
-11.35 15.85 -2.39
-24.28 33.93 6.61
-15.1 21.1 -2.27
-21.69 30.31 -0.65
-32.27 45.09 14.86
-32.55 45.83 0.98
-31.22 43.94 4.72
-7.62 10.73 -2.08
-25.9 36.46 5.49
-11.24 15.82 -2.38
-24.19 34.05 6.62
-14.79 20.83 -2.24
-21.62 30.44 -1.96
-30.27 42.6 12.07
-20.14 28.34 -0.61
-30.65 43.46 0.93
-18.95 26.87 1.72
-24.66 34.96 3.74
-7.57 10.74 -2.08
-25.81 36.6 5.5
-11.13 15.78 -2.37
-24.17 34.27 6.64
-20.13 28.55 -3.06
-20.07 28.46 -1.83
-19.09 27.08 7.65
-21.17 30.02 -0.64
-31.06 44.05 14.44
-26.6 38.01 0.81
-30.93 44.19 2.83
-7.56 10.79 -2.09
-25.14 35.92 5.38
-11.05 15.79 -2.37
-24.12 34.46 6.66
-20.04 28.63 -3.06
-19.02 27.17 7.66
-21.06 30.08 -0.64
-19.02 27.37 0.58
-24.53 35.29 3.76
-7.52 10.82 -2.09
-25.17 36.22 5.42
-11.04 15.89 -2.38
-23.91 34.41 6.64
-14.96 21.53 -2.29
-19.89 28.62 -1.83
-29.96 43.1 12.12
-20.96 30.16 -0.64
-22.21 31.96 10.43
-21.63 31.35 0.66
-24.44 35.42 3.76
-7.49 10.85 -2.09
-25.28 36.65 5.47
-10.96 15.89 -2.37
-23.92 34.67 6.67
-14.86 21.54 -2.29
-18.72 27.13 6.41
-20.9 30.29 -0.64
-22.11 32.05 10.43
-20.58 30.06 0.64
-29.88 43.64 2.77
-24.55 35.86 3.8
-7.47 10.91 -2.09
-25.11 36.67 5.46
-10.9 15.92 -2.37
-23.81 34.78 6.68
-14.78 21.59 -2.29
-19.84 28.98 -1.84
-29.66 43.32 12.12
-19.03 27.79 -0.59
-22.03 32.18 10.45
-20.07 29.54 0.62
-20.81 30.62 1.94
-24.21 35.63 3.77
-7.44 10.95 -2.1
-10.84 15.95 -2.37
-23.32 34.31 6.57
-14.78 21.76 -2.3
-18.55 27.29 6.41
-16.36 24.08 -1.53
-29.54 43.47 12.13
-18.95 27.89 -0.59
-21.99 32.36 10.48
-19.88 29.47 0.62
-20.5 30.39 1.92
-24.66 36.57 3.86
-7.42 11 -2.1
-21.13 31.33 4.64
-10.79 16 -2.37
-23.3 34.54 6.6
-16.25 24.1 -2.54
-16.21 24.03 -1.52
-20.69 30.68 -0.65
-21.94 32.53 10.51
-19.91 29.74 0.62
-20.26 30.27 1.91
-20.27 30.28 3.19
-7.42 11.08 -2.11
-24.14 36.06 5.33
-10.65 15.92 -2.35
-23.33 34.85 6.64
-16.25 24.27 -2.56
-16.12 24.08 -1.52
-30.74 45.92 12.76
-20.16 30.12 -0.63
-21.83 32.61 10.52
-20 30.09 0.63
-20.25 30.47 1.92
-24.2 36.41 3.83
-7.37 11.09 -2.11
-10.65 16.03 -2.36
-18.32 27.57 5.24
-16.21 24.39 -2.56
-16.06 24.16 -1.52
-30.4 45.74 12.68
-20.05 30.16 -0.63
-21.67 32.6 10.49
-19.68 29.83 0.62
-20.23 30.66 1.93
-20.06 30.41 3.19
-7.34 11.12 -2.11
-24.75 37.52 5.52
-10.59 16.06 -2.36
-18.22 27.62 5.24
-16 24.26 -2.54
-30.22 45.82 10.67
-15.97 24.21 -1.52
-30.3 45.94 12.71
-19.86 30.11 -0.63
-22.03 33.39 10.72
-19.63 30 0.63
-20.03 30.61 1.92
-19.96 30.5 3.19
-7.28 11.13 -2.11
-10.5 16.05 -2.35
-24.96 38.14 7.22
-15.88 24.26 -2.54
-30.05 45.93 10.67
-20.46 31.26 -1.96
-19.71 30.12 -0.63
-21.43 32.75 10.49
-19.93 30.68 0.64
-19.87 30.6 3.19
-7.28 11.21 -2.12
-29.7 45.73 6.69
-10.41 16.03 -2.35
-25.16 38.75 7.32
-15.68 24.14 -2.52
-20.02 30.83 -1.93
-31.25 48.13 13.25
-19.61 30.19 -0.63
-19.46 30.19 0.63
-20 31.02 1.93
-19.8 30.72 3.2
-7.24 11.23 -2.12
-29.53 45.8 6.69
-10.36 16.07 -2.35
-17.93 27.81 5.24
-14.41 22.35 -2.33
-17.84 27.67 6.4
-20.58 31.92 -1.99
-21.25 32.96 9.05
-19.59 30.38 -0.63
-21.85 33.9 10.81
-19.11 29.87 0.62
-29.13 45.53 2.83
-29.31 45.82 4.76
-7.19 11.24 -2.11
-17.79 27.8 4.05
-10.29 16.09 -2.35
-14.41 22.53 -2.34
-19.85 31.03 -1.93
-21.01 32.84 9
-19.47 30.44 -0.63
-18.93 29.82 0.62
-29.02 45.7 2.84
-7.08 11.15 -2.09
-29.55 46.54 6.77
-10.22 16.1 -2.34
-15.74 24.79 -2.57
-20.17 31.77 -1.97
-20.67 32.56 8.9
-20.08 31.63 -0.65
-20.7 32.61 10.35
-18.86 29.94 0.62
-28.86 45.81 2.84
-16.36 25.98 2.69
-7.12 11.31 -2.12
-29.69 47.12 6.84
-10.14 16.1 -2.34
-14.12 22.41 -2.32
-25.55 40.56 -2.51
-20.81 33.03 9.01
-20.6 32.7 10.35
-19.11 30.57 0.63
-28.64 45.82 2.83
-17.61 28.16 2.91
-7.05 11.28 -2.11
-16.1 25.76 3.73
-10.09 16.14 -2.34
-17.36 27.77 5.19
-18.49 29.58 -3.05
-23.59 37.74 -2.33
-20.26 32.4 8.82
-19.75 31.59 -0.65
-20.52 32.82 10.37
-18.74 30.22 0.62
-7.05 11.36 -2.12
-16.01 25.81 3.73
-10.05 16.21 -2.34
-17.16 27.66 5.16
-14.09 22.71 -2.34
-20.12 32.43 8.81
-19.47 31.38 -0.64
-20.53 33.09 10.44
-18.57 30.17 0.62
-17.5 28.43 1.75
-28.38 46.12 4.74
-7.01 11.4 -2.12
-9.96 16.18 -2.33
-17.19 27.93 5.19
-15.37 24.98 -2.57
-20.15 32.74 8.88
-19.4 31.53 -0.65
-20.82 33.82 10.64
-18.44 30.2 0.62
-19.16 31.37 1.93
-17.33 28.38 2.91
-6.93 11.35 -2.11
-16.24 26.59 3.83
-10.07 16.49 -2.37
-15.24 24.96 -2.56
-21.96 35.96 -2.21
-19.97 32.7 8.85
-18.58 30.43 -0.62
-19.55 32.01 10.05
-17.41 28.74 0.59
-19.06 31.45 1.93
-6.88 11.36 -2.1
-10.11 16.69 -2.4
-13.92 22.97 -2.35
-24.61 40.62 -2.49
-20.27 33.46 9.03
-19.32 31.89 -0.65
-19.39 32 10.02
-18.39 30.6 0.62
-27.79 46.23 2.83
-5.3 8.81 -2
-29.09 48.4 4.94
-6.91 11.49 -2.12
-10.09 16.79 -2.41
-15.01 24.98 -2.55
-24.3 40.43 -2.47
-19.99 33.26 8.96
-17.45 29.03 -0.59
-19.18 31.91 9.98
-18.35 30.77 0.63
-16.31 27.35 1.67
-5.24 8.79 -1.99
-6.85 11.48 -2.12
-15.5 25.99 3.72
-11.48 19.25 -2.75
-14.87 24.94 -2.54
-15.16 25.42 -1.55
-19.82 33.24 8.94
-22.56 37.83 -0.77
-19 31.87 9.94
-18.25 30.85 0.63
-5.21 8.8 -1.99
-6.8 11.49 -2.11
-11.43 19.31 -2.76
-14.83 25.07 -2.55
-15.09 25.5 -1.55
-19.74 33.35 8.95
-21.34 36.06 -0.73
-18.74 31.67 9.86
-18.23 31.05 0.63
-5.17 8.81 -1.99
-14.56 24.79 2.52
-6.78 11.54 -2.12
-15.67 26.68 3.8
-10.19 17.35 -2.47
-15.87 27.03 4.96
-14.55 24.78 -2.51
-14.93 25.43 -1.55
-19.67 33.51 8.97
-20.83 35.48 -0.72
-18.68 31.81 9.88
-18.16 31.17 0.63
-21.22 36.42 2.21
-5.14 8.83 -1.99
-14.85 25.49 2.58
-6.75 11.59 -2.12
-10.08 17.3 -2.46
-13.62 23.39 -2.37
-15.69 26.94 7.2
-21.38 36.69 -0.74
-18.56 31.86 9.88
-21.14 36.58 0.74
-16.6 28.73 1.74
-5.11 8.84 -1.99
-6.44 11.14 -2.04
-6.44 11.14 -1.58
-15.2 26.3 4.81
-6.45 11.17 -1.13
-15.26 26.4 5.93
-22.89 39.62 -2.4
-18.85 32.62 10.09
-16.35 28.52 1.72
-5.07 8.85 -1.98
-15.88 27.71 2.79
-6.38 11.14 -2.03
-6.39 11.15 -1.58
-6.41 11.18 -1.13
-21.51 37.53 -2.27
-24.02 41.89 11.15
-21.54 37.56 -0.76
-23.65 41.26 12.74
-21.23 37.34 0.75
-5.04 8.86 -1.98
-15.66 27.55 2.77
-6.37 11.2 -2.04
-6.38 11.23 -1.59
-15.36 27.02 4.92
-6.38 11.22 -1.13
-22.69 39.91 -2.41
-16.24 28.56 -0.57
-23.54 41.41 12.76
-20.37 36.12 0.72
-14.88 26.39 1.59
-5.01 8.89 -1.98
-20.1 35.64 3.58
-6.53 11.57 -2.1
-15.52 27.52 3.88
-19.91 35.3 6.42
-19.8 35.11 7.84
-19.7 34.92 9.26
-19.56 34.67 10.67
-20.12 35.97 0.72
-20.03 35.81 2.15
-4.98 8.91 -1.98
-19.93 35.63 3.57
-6.2 11.08 -2.01
-19.82 35.44 4.99
-10.47 18.71 -2.63
-19.75 35.31 6.41
-16.87 30.16 -3.02
-19.69 35.2 7.84
-20.34 36.36 -2.18
-19.55 34.96 9.25
-20.23 36.17 -0.72
-19.42 34.72 10.66
-19.98 36.01 0.72
-19.88 35.84 2.15
-4.95 8.93 -1.98
-19.81 35.71 3.57
-6.46 11.65 -2.11
-19.32 34.82 4.89
-10.72 19.31 -2.71
-14.51 26.15 4.74
-13.43 24.21 -2.42
-20.17 36.35 -2.18
-19.45 35.06 9.26
-20.09 36.21 -0.72
-23.08 41.59 12.74
-19.89 36.14 0.72
-14.31 26.02 1.56
-4.92 8.94 -1.98
-15.22 27.66 2.76
-6.45 11.72 -2.12
-15.38 27.94 3.92
-10.65 19.36 -2.71
-13.62 24.75 -2.47
-20.11 36.55 -2.19
-19.96 36.28 -0.72
-22.92 41.66 12.74
-24.6 45.08 0.9
-4.89 8.95 -1.98
-6.41 11.75 -2.12
-10.56 19.35 -2.71
-15.04 27.56 4.97
-13.48 24.7 -2.46
-16.15 29.6 -1.77
-24.29 44.51 11.71
-22.76 41.71 12.73
-15.47 28.59 0.57
-22.25 41.12 2.45
-4.86 8.98 -1.98
-23.89 44.14 4.39
-6.42 11.87 -2.14
-14.67 27.11 3.79
-10.45 19.3 -2.7
-24.21 44.74 8.06
-13.26 24.5 -2.44
-15.07 27.85 6.16
-18.01 33.29 -1.98
-24.08 44.51 11.68
-22.59 41.75 12.72
-22.42 41.78 2.48
-4.83 9 -1.99
-24.17 45.04 4.47
-6.3 11.74 -2.11
-14.67 27.33 3.81
-10.4 19.38 -2.7
-14.09 26.25 4.72
-16.14 30.08 -2.99
-15.59 29.04 -1.73
-14.64 27.27 7.15
-22.53 41.97 12.76
-13.84 26.01 0.51
-4.8 9.01 -1.98
-21.61 40.61 4.02
-5.85 11 -1.97
-14.57 27.37 3.81
-10.35 19.44 -2.7
-18.87 35.45 6.36
-13.13 24.68 -2.45
-15.81 29.7 -1.76
-22.71 42.68 11.16
-4.76 9.02 -1.98
-14.84 28.12 2.78
-6.23 11.81 -2.12
-14.24 26.97 3.74
-10.43 19.76 -2.74
-13.46 25.5 4.57
-13.1 24.82 -2.46
-14.82 28.08 -1.66
-14.36 27.2 7.1
-14.99 28.64 0.56
-14.86 28.39 1.68
-4.73 9.03 -1.98
-14.73 28.14 2.78
-6.16 11.76 -2.1
-21.6 41.26 5.72
-10.55 20.16 -2.79
-15.84 30.25 -2.99
-13.81 26.39 5.79
-15.48 29.57 8.94
-13.74 26.47 0.52
-14.69 28.3 1.67
-4.7 9.06 -1.98
-14.28 27.51 2.71
-6.24 12.02 -2.14
-21.6 41.61 5.76
-10.79 20.79 -2.88
-13.08 25.19 4.5
-13.13 25.3 -2.49
-17.5 33.7 -1.99
-15.44 29.75 -0.59
-15.3 29.47 8.9
-14.65 28.47 0.56
-18.29 35.54 2.09
-4.67 9.08 -1.98
-13.57 26.36 2.59
-6.02 11.7 -2.08
-18.34 35.64 4.92
-10.84 21.07 -2.91
-13.84 26.9 4.79
-13.21 25.66 -2.53
-17.37 33.75 -1.99
-14.73 28.62 -0.56
-15.27 29.68 8.94
-18.35 35.96 2.12
-4.64 9.09 -1.98
-6.18 12.11 -2.15
-10.81 21.18 -2.92
-17.17 33.65 5.98
-16.03 31.42 -3.09
-13.67 26.79 5.85
-18.1 35.47 -2.09
-15.14 29.68 7.69
-14.62 28.65 -0.56
-15.1 29.59 8.9
-13.47 26.61 0.52
-14.64 28.94 1.7
-4.61 9.1 -1.98
-20.82 41.14 4.03
-6.05 11.95 -2.12
-18.54 36.65 5.04
-10.73 21.2 -2.92
-14.08 27.83 4.94
-13.4 26.48 -2.6
-14.57 28.8 -1.69
-14.91 29.46 7.62
-15.09 29.81 8.95
-4.57 9.12 -1.98
-20.82 41.49 4.06
-5.98 11.92 -2.11
-9.42 18.77 -2.58
-17.01 33.91 6.01
-14.59 29.09 -2.85
-14.52 28.93 -1.7
-13.8 27.5 7.1
-14.89 29.68 -0.58
-20.83 41.9 0.82
-4.54 9.14 -1.98
-17.94 36.09 3.53
-5.66 11.38 -2.01
-16.81 33.81 4.64
-8.76 17.63 -2.42
-14.46 29.09 -2.84
-14.04 28.25 6.13
-14.79 29.75 7.67
-14.23 28.63 8.57
-18.32 37.17 0.72
-4.52 9.16 -1.99
-14.25 28.91 2.82
-5.62 11.4 -2.01
-16.67 33.82 4.63
-8.66 17.58 -2.41
-22.82 46.31 8.18
-13.02 26.41 -2.58
-13.98 28.37 6.15
-14.71 29.86 -1.74
-14.93 30.3 7.8
-14.22 28.86 8.62
-16.33 33.43 0.65
-16.43 33.63 1.96
-4.48 9.17 -1.98
-20.53 42.02 4.09
-5.99 12.26 -2.16
-8.58 17.56 -2.4
-16.85 34.49 6.08
-8.66 17.72 -1.73
-14.63 29.95 -1.75
-14.87 30.44 7.82
-14.83 30.34 -0.59
-14.09 28.85 8.6
-4.44 9.18 -1.98
-14.1 29.13 2.83
-5.96 12.32 -2.17
-12.76 26.36 3.6
-8.55 17.66 -2.41
-21.47 44.35 7.8
-8.78 18.14 -1.76
-13.91 28.74 6.21
-14.56 30.07 -1.75
-14.84 30.65 7.86
-16.14 33.33 -0.65
-13.68 28.25 8.41
-13.29 27.7 0.54
-4.41 9.2 -1.98
-13.63 28.4 2.76
-13.94 29.05 3.96
-9.25 19.27 -2.62
-13.83 28.82 5.06
-8.74 18.22 -1.77
-16.3 33.97 7.32
-15.44 32.19 -1.87
-13.51 28.16 7.21
-14.04 29.26 -0.57
-13.67 28.48 8.46
-14 29.46 0.57
-13.95 29.35 1.7
-4.38 9.21 -1.98
-13.9 29.23 2.83
-5.92 12.46 -2.18
-12.54 26.38 3.59
-8.55 17.99 -2.45
-16.13 33.93 5.95
-8.7 18.3 -1.77
-13.16 27.69 5.96
-14.58 30.66 -1.78
-14.58 30.68 7.84
-14.04 29.54 -0.57
-13.76 28.95 8.59
-13.9 29.5 0.57
-4.35 9.24 -1.98
-21.29 45.18 6.13
-8.66 18.38 -2.49
-12.92 27.43 4.8
-8.69 18.43 -1.78
-14.65 31.1 6.68
-14.04 29.79 -1.73
-14.5 30.78 7.86
-13.98 29.67 -0.57
-13.41 28.45 8.43
-4.32 9.25 -1.98
-13.66 29.27 2.83
-5.89 12.62 -2.21
-13.36 28.62 3.88
-8.54 18.29 -2.48
-8.58 18.38 -1.77
-14.47 31 6.65
-13.68 29.3 -1.69
-13.62 29.19 7.44
-13.38 28.67 8.48
-18.55 40.05 0.77
-18.2 39.3 2.27
-4.29 9.26 -1.98
-19.27 41.62 4.01
-5.87 12.67 -2.21
-13.2 28.51 3.86
-8.44 18.23 -2.47
-21.23 45.83 8
-14.06 30.36 -2.93
-13.21 28.53 6.11
-13.78 29.75 -1.72
-13.5 29.15 7.42
-15.81 34.14 -0.66
-13.31 28.73 8.48
-12.76 27.82 0.53
-13.36 29.13 1.68
-4.25 9.27 -1.98
-15.53 33.85 3.26
-12.99 28.32 3.83
-8.38 18.27 -2.47
-21 45.78 7.98
-8.47 18.45 -1.78
-14.23 31.03 6.64
-15.18 33.08 -1.91
-13.86 30.2 7.67
-14.24 31.05 -0.6
-13.19 28.74 8.47
-15.2 33.46 0.64
-13.28 29.24 1.68
-4.22 9.29 -1.98
-19.38 42.67 4.1
-5.81 12.78 -2.22
-8.32 18.31 -2.47
-12.87 28.33 4.93
-8.41 18.51 -1.78
-14.09 31.01 6.62
-15.02 33.07 -1.9
-13.87 30.53 -0.59
-13.37 29.44 8.66
-13.5 30.01 0.57
-13.28 29.52 1.7
-4.19 9.31 -1.98
-18.49 41.1 3.94
-5.73 12.74 -2.21
-12.9 28.67 3.86
-8.25 18.33 -2.47
-13.72 30.5 -2.93
-13.95 31.01 6.61
-13.91 30.92 -1.78
-14.3 31.79 8.05
-13.2 29.33 8.62
-12.68 28.43 0.54
-13.19 29.59 1.7
-4.15 9.32 -1.98
-12.56 28.17 2.7
-5.68 12.73 -2.21
-12.52 28.08 3.77
-7.88 17.68 -2.38
-12.55 28.15 4.88
-13.63 30.57 -2.93
-12.19 27.33 5.82
-8.35 18.73 -1.07
-12.66 28.4 -0.54
-12.54 28.4 0.54
-12.49 28.29 1.62
-4.12 9.32 -1.98
-12.45 28.2 2.7
-5.14 11.63 -2.01
-15.12 34.24 4.6
-8.22 18.6 -2.5
-15.05 34.08 5.9
-8.29 18.77 -1.8
-14.91 33.76 7.17
-13.06 29.58 -1.69
-12.63 28.59 -0.55
-14.1 31.93 9.35
-12.38 28.29 0.54
-14.87 33.96 1.94
-4.09 9.34 -1.98
-12.34 28.19 2.69
-4.89 11.17 -1.93
-15.49 35.39 4.74
-8.02 18.31 -2.45
-15.36 35.1 6.07
-8.11 18.52 -1.77
-12.54 28.64 -1.64
-12.99 29.67 7.48
-13.62 31.11 -0.59
-4.06 9.36 -1.98
-19.89 45.87 4.37
-12.08 27.87 3.73
-7.81 18.02 -2.41
-15 34.6 5.97
-8.08 18.65 -1.78
-13.66 31.52 6.68
-13.37 30.83 -1.76
-12.88 29.72 7.48
-13.3 30.95 0.59
-13.55 31.54 1.8
-4.03 9.37 -1.98
-19.77 46.02 4.38
-5.38 12.52 -2.16
-12.04 28.03 3.75
-7.68 17.86 -2.39
-15.14 35.24 6.08
-8.03 18.68 -1.78
-13.56 31.57 6.68
-12.92 30.08 -1.72
-14.7 34.21 8.6
-13.45 31.31 -0.59
-16.75 39.36 0.75
-12.99 30.54 1.74
-3.99 9.39 -1.98
-19.66 46.21 4.39
-5.49 12.9 -2.22
-11.91 28 3.74
-7.6 17.88 -2.39
-15.51 36.46 6.28
-7.95 18.7 -1.78
-13.73 32.29 6.82
-13.01 30.57 -1.74
-11.95 28.1 7.05
-3.96 9.39 -1.98
-19.6 46.53 4.42
-5.49 13.04 -2.24
-11.54 27.41 3.65
-7.57 17.97 -2.39
-22.07 52.4 9.01
-7.91 18.79 -1.78
-13.61 32.32 6.82
-12.9 30.64 -1.74
-12.67 30.07 7.53
-3.92 9.41 -1.98
-19.52 46.81 4.44
-5.43 13.03 -2.24
-19.86 47.64 6.34
-7.54 18.08 -2.4
-7.89 18.92 -1.79
-12.44 29.83 7.46
-12.42 29.79 -0.56
-3.89 9.43 -1.98
-19.3 46.72 4.42
-5.43 13.15 -2.25
-12.13 29.36 3.9
-7.66 18.55 -2.46
-14.47 35.04 6
-7.8 18.89 -1.79
-13.88 33.61 -1.91
-12.35 29.9 7.47
-13.91 33.69 -0.64
-3.86 9.44 -1.98
-19.26 47.12 4.45
-5.27 12.89 -2.21
-20.61 50.4 6.69
-7.39 18.09 -2.4
-7.85 19.21 -1.82
-12.25 29.95 6.29
-13.79 33.74 -1.91
-12.28 30.03 7.49
-16.98 41.93 0.79
-16.31 40.26 2.28
-3.83 9.45 -1.98
-5.23 12.91 -2.21
-16.78 41.42 5.49
-7.31 18.04 -2.39
-14.37 35.48 6.06
-7.6 18.76 -1.77
-13.72 33.88 -1.92
-11.98 29.57 7.36
-3.79 9.46 -1.98
-5.23 13.05 -2.23
-11.87 29.6 3.92
-7.2 17.95 -2.37
-12.49 31.15 5.32
-8.81 21.98 -2.07
-11.95 29.8 6.24
-13.77 34.34 -1.94
-11.79 29.41 7.31
-12.26 30.59 -0.58
-14.54 36.62 0.69
-3.12 7.85 -1.95
-3.76 9.47 -1.98
-11.23 28.3 2.66
-5.23 13.17 -2.24
-7.11 17.91 -2.37
-12.29 30.97 5.28
-8.31 20.93 -1.97
-11.53 29.06 6.08
-12.78 32.2 -1.82
-11.71 29.49 7.33
-12.81 32.28 -0.61
-12.68 32.29 0.61
-3.11 7.91 -1.96
-12.71 32.37 1.82
-3.73 9.48 -1.98
-12.71 32.37 3.04
-5.12 13.02 -2.22
-12.68 32.29 4.26
-7.06 17.98 -2.37
-12.17 30.98 5.27
-8.26 21.02 -1.98
-11.32 28.82 6.02
-12.64 32.18 -1.81
-11.66 29.67 7.36
-12.67 32.25 -0.6
-12.72 32.38 9.32
-12.55 32.26 0.6
-12.56 32.29 1.82
-3.7 9.51 -1.98
-12.57 32.31 3.03
-5.06 13.01 -2.21
-12.55 32.25 4.25
-7.06 18.14 -2.39
-12.06 30.99 5.27
-11.34 29.13 6.08
-12.26 31.5 -1.77
-11.53 29.65 7.34
-12.55 32.25 -0.6
-12.59 32.37 9.31
-12.44 32.3 0.6
-12.44 32.31 1.81
-3.66 9.51 -1.98
-12.45 32.34 3.03
-4.99 12.95 -2.2
-12.44 32.3 4.25
-7 18.17 -2.39
-11.95 31.02 5.27
-8.5 22.08 -2.07
-11.15 28.97 6.03
-11.21 29.12 -1.64
-11.44 29.7 7.35
-12.45 32.32 -0.6
-12.08 31.38 9.01
-12.36 32.42 0.61
-12.34 32.39 1.82
-3.63 9.51 -1.98
-12.36 32.43 3.04
-4.94 12.95 -2.2
-12.36 32.44 4.26
-6.89 18.07 -2.37
-11.88 31.17 5.28
-8.51 22.33 -2.09
-11 28.87 6
-12.36 32.43 -1.82
-11.3 29.66 7.33
-12.37 32.47 -0.61
-11.99 31.46 9.02
-3.59 9.53 -1.98
-16.4 43.48 4.07
-4.9 12.99 -2.2
-16.71 44.32 5.82
-6.86 18.18 -2.39
-8.49 22.51 -2.1
-10.89 28.88 6
-11.28 29.92 -1.68
-11.56 30.66 7.56
-11.31 30 -0.56
-11.87 31.47 9.01
-13.7 36.73 0.68
-16.2 43.43 2.43
-3.56 9.54 -1.98
-4.84 12.98 -2.19
-7.47 20.02 -2.62
-8.42 22.57 -2.11
-10.78 28.89 5.99
-11.13 29.83 -1.67
-11.48 30.78 7.58
-11.78 31.59 9.03
-15.98 43.31 0.81
-3.53 9.56 -1.98
-4.77 12.92 -2.18
-15.99 43.32 5.67
-6.75 18.28 -2.39
-8.24 22.32 -2.08
-10.74 29.11 6.03
-8.59 23.26 -1.3
-11.39 30.87 7.6
-12.97 35.14 -0.65
-11.65 31.55 9.01
-12.9 35.34 0.66
-3.49 9.57 -1.98
-4.79 13.11 -2.21
-15.93 43.62 5.7
-6.73 18.43 -2.41
-15.7 43 7.25
-8.31 22.77 -2.12
-10.7 29.3 6.06
-8.53 23.36 -1.3
-11.3 30.94 7.6
-11.6 31.77 9.06
-12.84 35.55 0.66
-12.91 35.75 1.99
-3.46 9.58 -1.98
-4.76 13.19 -2.22
-15.89 43.99 5.74
-6.58 18.23 -2.38
-8.28 22.93 -2.13
-10.57 29.27 6.05
-8.43 23.33 -1.3
-11.18 30.95 7.6
-11.5 31.85 9.07
-3.42 9.59 -1.98
-4.77 13.35 -2.25
-6.58 18.42 -2.4
-17.43 48.8 8.21
-6.56 18.36 -1.71
-10.52 29.46 6.08
-10.94 30.62 7.51
-11.41 31.94 9.09
-12.88 36.45 0.67
-3.39 9.6 -1.98
-4.67 13.21 -2.22
-14.99 42.43 5.53
-6.52 18.45 -2.4
-17.17 48.6 8.16
-7.48 21.17 -1.96
-10.34 29.27 6.03
-10.6 29.99 -1.67
-10.87 30.78 7.54
-13.01 36.82 -0.68
-11.27 31.89 9.06
-11.77 33.68 1.87
-3.36 9.62 -1.98
-15.27 43.69 4.05
-4.61 13.18 -2.21
-15.11 43.24 5.62
-6.46 18.48 -2.4
-10.82 30.97 5.2
-7.68 21.98 -2.04
-10.26 29.36 6.05
-10.75 30.77 7.53
-12.93 36.99 -0.68
-11.14 31.89 9.05
-12.57 36.39 0.67
-3.32 9.62 -1.98
-4.58 13.24 -2.22
-6.33 18.32 -2.38
-10.73 31.06 5.2
-7.62 22.05 -2.04
-10.38 30.05 6.18
-8.41 24.34 -1.35
-10.64 30.79 7.52
-10.87 31.45 8.92
-12.77 37.37 0.69
-3.29 9.63 -1.98
-4.52 13.23 -2.21
-20.79 60.84 7.89
-6.08 17.79 -2.31
-10.53 30.82 5.16
-6.36 18.61 -1.72
-10.38 30.38 6.24
-7.91 23.14 -1.28
-10.5 30.72 7.49
-12.49 36.54 -0.67
-10.75 31.46 8.91
-13.74 40.66 0.75
-12.41 36.73 2.03
-3.26 9.64 -1.98
-4.4 13.02 -2.18
-11.78 34.87 4.52
-6.01 17.78 -2.3
-10.37 30.7 5.13
-6.22 18.41 -1.7
-10.28 30.42 6.24
-7.77 23 -1.27
-10.62 31.43 7.66
-12.4 36.69 -0.68
-10.73 31.76 8.98
-11.57 34.65 0.64
-11.57 34.64 1.91
-3.23 9.66 -1.98
-11.6 34.73 3.2
-4.36 13.04 -2.18
-11.66 34.9 4.52
-5.95 17.82 -2.31
-10.24 30.65 5.12
-6.16 18.44 -1.7
-10.18 30.49 6.25
-6.27 18.77 -1.04
-10.62 31.79 7.74
-10.58 31.67 8.95
-12.33 37.35 0.69
-12.32 37.32 2.06
-3.19 9.67 -1.98
-11.98 36.28 3.34
-4.26 12.9 -2.15
-10.85 32.85 4.25
-6.02 18.24 -2.36
-10.13 30.68 5.12
-6.11 18.52 -1.71
-10.11 30.61 6.27
-6.2 18.78 -1.04
-10.61 32.13 7.81
-10.5 31.79 8.97
-12.2 37.41 0.69
-11.32 34.7 1.91
-3.16 9.68 -1.98
-13.37 40.97 3.77
-4.18 12.83 -2.14
-10.75 32.95 4.26
-6.02 18.46 -2.38
-10.01 30.69 5.11
-6.11 18.73 -1.72
-10.05 30.8 6.3
-6.13 18.79 -1.04
-10.55 32.34 7.85
-10.44 31.99 9.02
-3.12 9.67 -1.98
-4.23 13.11 -2.18
-5.99 18.57 -2.4
-9.81 30.43 5.06
-5.95 18.46 -1.7
-10.06 31.19 6.37
-7.07 21.92 -1.21
-10.64 32.99 8
-10.32 32.02 9.02
-12.09 37.94 0.7
-3.09 9.68 -1.98
-11.57 36.31 3.33
-4.18 13.14 -2.18
-5.88 18.45 -2.38
-9.65 30.28 5.03
-5.88 18.45 -1.69
-9.97 31.29 6.38
-7 21.99 -1.21
-10.55 33.13 8.03
-10.27 32.23 9.06
-11.18 35.52 0.65
-3.05 9.7 -1.98
-4.17 13.24 -2.2
-10.76 34.2 4.4
-5.79 18.41 -2.37
-9.62 30.56 5.07
-5.78 18.35 -1.68
-9.92 31.52 6.42
-7.15 22.71 -1.25
-10.48 33.3 8.06
-11.59 36.83 -0.67
-15.19 48.85 0.89
-3.02 9.72 -1.98
-4.1 13.18 -2.19
-11.42 36.73 4.72
-5.73 18.43 -2.37
-9.44 30.36 5.04
-5.78 18.61 -1.7
-9.79 31.48 6.41
-6.9 22.19 -1.22
-10.41 33.47 8.09
-14.83 47.69 13.38
-11.04 35.94 0.66
-15.07 49.08 2.69
-2.99 9.73 -1.98
-15.09 49.15 4.5
-4.29 13.97 -2.32
-10.88 35.44 4.55
-5.63 18.35 -2.36
-9.32 30.36 5.03
-6.42 20.91 -1.91
-9.77 31.81 6.47
-7.25 23.61 -1.29
-14.61 47.59 11.49
-11.03 35.92 -0.66
-14.66 47.74 13.38
-10.95 36.07 1.98
-2.95 9.73 -1.98
-7.67 25.28 2.31
-4.24 13.99 -2.32
