# .PCD v0.7 - Point Cloud Data file format
VERSION 0.7
FIELDS x y z
SIZE 4 4 4
TYPE F F F
COUNT 1 1 1
WIDTH 2788
HEIGHT 1
VIEWPOINT 0 0 0 1 0 0 0
POINTS 2788
DATA ascii
8.86 -10.76 -1.22
3.72 -4.56 -1.58
4.26 -5.21 -1.55
4.93 -6.03 -1.51
5.83 -7.13 -1.46
7.12 -8.7 -1.38
8.82 -10.78 -1.22
3.7 -4.56 -1.57
4.25 -5.23 -1.56
4.91 -6.04 -1.51
5.8 -7.15 -1.46
7.09 -8.73 -1.38
8.77 -10.81 -1.22
11.57 -14.26 -0.96
3.68 -4.57 -1.57
4.23 -5.25 -1.56
4.89 -6.06 -1.51
5.78 -7.17 -1.46
7.07 -8.78 -1.38
8.73 -10.84 -1.22
11.52 -14.3 -0.96
3.67 -4.59 -1.58
4.2 -5.25 -1.55
4.87 -6.09 -1.52
5.76 -7.19 -1.46
7.04 -8.79 -1.38
8.71 -10.88 -1.22
11.49 -14.36 -0.96
3.66 -4.61 -1.58
4.19 -5.27 -1.55
4.85 -6.11 -1.52
5.73 -7.21 -1.46
7 -8.81 -1.38
8.68 -10.92 -1.22
11.44 -14.4 -0.96
3.64 -4.61 -1.57
4.17 -5.29 -1.55
4.83 -6.12 -1.51
5.71 -7.23 -1.46
6.98 -8.84 -1.38
8.64 -10.94 -1.22
11.4 -14.44 -0.96
3.62 -4.62 -1.57
4.16 -5.31 -1.56
4.81 -6.13 -1.51
5.68 -7.25 -1.46
6.95 -8.86 -1.38
8.6 -10.98 -1.22
11.34 -14.48 -0.96
3.61 -4.64 -1.57
4.14 -5.32 -1.56
4.79 -6.16 -1.52
5.66 -7.28 -1.46
6.91 -8.89 -1.38
8.56 -11 -1.22
11.3 -14.52 -0.96
3.59 -4.65 -1.57
4.11 -5.32 -1.55
4.77 -6.18 -1.52
5.64 -7.3 -1.46
6.89 -8.92 -1.38
8.52 -11.03 -1.22
11.24 -14.56 -0.96
3.58 -4.67 -1.58
4.1 -5.34 -1.55
4.75 -6.19 -1.52
5.61 -7.32 -1.46
6.86 -8.94 -1.38
8.49 -11.08 -1.22
11.19 -14.6 -0.96
3.56 -4.68 -1.58
4.08 -5.36 -1.55
4.72 -6.2 -1.52
5.6 -7.35 -1.46
6.83 -8.98 -1.39
8.45 -11.11 -1.22
11.14 -14.64 -0.96
3.54 -4.69 -1.57
4.07 -5.38 -1.56
4.7 -6.22 -1.52
5.57 -7.37 -1.46
6.8 -9 -1.39
8.41 -11.12 -1.22
11.11 -14.7 -0.97
3.52 -4.7 -1.57
4.04 -5.39 -1.56
4.68 -6.24 -1.52
5.54 -7.39 -1.46
6.77 -9.02 -1.39
8.38 -11.17 -1.22
11.05 -14.73 -0.96
3.51 -4.71 -1.58
4.02 -5.4 -1.55
4.67 -6.27 -1.52
5.52 -7.41 -1.46
6.74 -9.04 -1.38
8.34 -11.19 -1.22
11.01 -14.78 -0.97
3.5 -4.73 -1.58
4.01 -5.41 -1.55
4.64 -6.27 -1.52
5.51 -7.45 -1.47
6.71 -9.07 -1.39
8.31 -11.23 -1.22
10.96 -14.81 -0.97
3.48 -4.74 -1.58
3.99 -5.43 -1.56
4.61 -6.28 -1.51
5.48 -7.46 -1.47
6.68 -9.1 -1.39
8.27 -11.26 -1.22
10.9 -14.85 -0.97
3.46 -4.75 -1.57
3.97 -5.45 -1.56
4.59 -6.31 -1.52
5.45 -7.48 -1.47
6.65 -9.12 -1.39
8.22 -11.28 -1.22
10.84 -14.88 -0.96
3.44 -4.75 -1.57
3.95 -5.46 -1.56
4.58 -6.33 -1.52
5.42 -7.48 -1.46
6.62 -9.15 -1.39
8.19 -11.32 -1.22
10.8 -14.93 -0.97
3.43 -4.78 -1.58
3.92 -5.46 -1.55
4.56 -6.35 -1.52
5.39 -7.51 -1.46
6.6 -9.19 -1.39
8.15 -11.35 -1.22
10.75 -14.97 -0.97
3.42 -4.79 -1.58
3.91 -5.49 -1.56
4.54 -6.36 -1.52
5.38 -7.54 -1.47
6.56 -9.2 -1.39
8.12 -11.38 -1.22
10.7 -15.01 -0.97
3.4 -4.8 -1.58
3.89 -5.5 -1.56
4.51 -6.37 -1.52
5.35 -7.56 -1.47
6.52 -9.22 -1.39
8.08 -11.42 -1.22
10.65 -15.04 -0.97
3.37 -4.8 -1.57
3.88 -5.52 -1.56
4.49 -6.39 -1.52
5.33 -7.58 -1.47
6.5 -9.25 -1.39
8.03 -11.43 -1.22
10.6 -15.09 -0.97
3.36 -4.82 -1.57
3.86 -5.54 -1.56
4.47 -6.41 -1.52
5.29 -7.59 -1.46
6.47 -9.28 -1.39
8 -11.47 -1.22
10.55 -15.13 -0.97
3.34 -4.83 -1.57
3.83 -5.54 -1.56
4.45 -6.43 -1.52
5.28 -7.62 -1.47
6.44 -9.3 -1.39
7.97 -11.51 -1.23
10.49 -15.15 -0.97
3.33 -4.85 -1.58
3.82 -5.55 -1.56
4.43 -6.45 -1.52
5.25 -7.64 -1.47
6.4 -9.32 -1.39
7.93 -11.54 -1.23
10.45 -15.2 -0.97
3.32 -4.86 -1.58
3.8 -5.56 -1.55
4.41 -6.46 -1.52
5.23 -7.66 -1.47
6.37 -9.33 -1.39
7.9 -11.57 -1.23
10.4 -15.24 -0.97
3.29 -4.86 -1.57
3.78 -5.58 -1.56
4.38 -6.46 -1.52
5.2 -7.68 -1.47
6.35 -9.37 -1.39
7.86 -11.6 -1.23
10.35 -15.28 -0.97
3.28 -4.88 -1.58
3.76 -5.59 -1.56
4.35 -6.48 -1.52
5.17 -7.69 -1.47
6.32 -9.4 -1.39
7.82 -11.63 -1.23
10.29 -15.32 -0.97
3.26 -4.89 -1.57
3.73 -5.6 -1.55
4.34 -6.51 -1.52
5.15 -7.72 -1.47
6.29 -9.43 -1.39
7.78 -11.67 -1.23
10.24 -15.35 -0.97
15.23 -22.83 -0.48
3.25 -4.91 -1.58
3.72 -5.62 -1.55
4.32 -6.52 -1.52
5.13 -7.74 -1.47
6.25 -9.44 -1.39
7.75 -11.7 -1.23
10.2 -15.41 -0.97
15.15 -22.89 -0.48
3.23 -4.92 -1.58
3.7 -5.63 -1.56
4.29 -6.53 -1.52
5.1 -7.77 -1.47
6.22 -9.47 -1.39
23.13 -35.21 6.67
7.71 -11.74 -1.23
10.15 -15.45 -0.97
14.93 -22.74 -0.47
3.21 -4.92 -1.57
26.1 -40.03 0.83
3.68 -5.65 -1.56
4.27 -6.56 -1.52
5.08 -7.79 -1.47
6.19 -9.49 -1.39
7.66 -11.75 -1.23
10.1 -15.5 -0.97
14.87 -22.81 -0.48
3.19 -4.94 -1.58
25.92 -40.06 0.83
3.66 -5.66 -1.56
4.25 -6.57 -1.52
5.04 -7.8 -1.47
21.67 -33.5 4.9
6.16 -9.52 -1.39
7.63 -11.8 -1.23
10.07 -15.56 -0.97
14.93 -23.08 -0.48
3.18 -4.95 -1.58
3.64 -5.67 -1.55
4.23 -6.59 -1.52
5.03 -7.83 -1.47
6.13 -9.55 -1.39
7.58 -11.81 -1.23
10.01 -15.59 -0.97
14.91 -23.23 -0.48
3.16 -4.96 -1.58
19.71 -30.93 0.64
3.62 -5.68 -1.56
4.21 -6.61 -1.52
5 -7.85 -1.47
21.59 -33.88 4.93
6.1 -9.57 -1.39
7.56 -11.87 -1.23
9.98 -15.65 -0.97
14.88 -23.36 -0.48
3.15 -4.97 -1.58
19.61 -31.01 0.64
3.6 -5.7 -1.56
4.18 -6.61 -1.52
4.98 -7.87 -1.47
21.54 -34.05 4.95
6.06 -9.58 -1.39
7.52 -11.9 -1.23
9.96 -15.76 -0.98
14.39 -22.75 -0.47
3.12 -4.98 -1.57
19.51 -31.08 0.64
3.59 -5.72 -1.56
4.16 -6.62 -1.52
4.95 -7.89 -1.48
21.47 -34.2 4.96
6.04 -9.62 -1.39
7.48 -11.92 -1.23
9.95 -15.86 -0.98
13.96 -22.24 -0.46
3.11 -4.99 -1.58
14.16 -22.74 0.47
3.57 -5.73 -1.56
4.14 -6.65 -1.52
4.92 -7.9 -1.47
21.38 -34.34 4.97
6.01 -9.65 -1.4
21.9 -35.17 6.56
7.44 -11.95 -1.23
9.87 -15.85 -0.98
14.2 -22.81 -0.47
3.09 -5 -1.57
14.1 -22.82 0.47
3.55 -5.74 -1.56
4.12 -6.67 -1.52
26 -42.07 4.33
4.89 -7.92 -1.47
5.98 -9.68 -1.4
7.41 -11.99 -1.23
9.47 -15.33 -0.94
13.96 -22.6 -0.46
3.08 -5.01 -1.58
14.03 -22.88 0.47
3.53 -5.75 -1.56
4.1 -6.68 -1.52
21.42 -34.93 3.58
4.87 -7.94 -1.48
5.95 -9.69 -1.4
7.38 -12.03 -1.23
9.28 -15.13 -0.93
13.85 -22.58 -0.46
3.06 -5.03 -1.58
13.96 -22.94 0.47
3.51 -5.77 -1.56
21.26 -34.93 2.14
4.07 -6.69 -1.52
4.85 -7.96 -1.48
5.92 -9.74 -1.4
7.34 -12.06 -1.24
9.04 -14.86 -0.91
13.76 -22.61 -0.46
3.03 -5.03 -1.57
3.49 -5.78 -1.56
4.05 -6.71 -1.52
4.82 -7.99 -1.48
5.89 -9.76 -1.4
21.18 -35.07 6.49
7.32 -12.13 -1.24
8.8 -14.57 -0.89
14.16 -23.45 -0.48
3.02 -5.04 -1.58
3.47 -5.79 -1.56
4.03 -6.73 -1.52
4.79 -7.99 -1.48
5.87 -9.79 -1.4
7.3 -12.18 -1.24
8.72 -14.55 -0.89
14.04 -23.44 -0.48
3 -5.05 -1.57
11.5 -19.36 0.39
3.44 -5.79 -1.56
4 -6.74 -1.52
4.77 -8.02 -1.48
5.83 -9.81 -1.4
7.24 -12.19 -1.24
8.62 -14.51 -0.88
11.56 -19.45 -0.39
2.99 -5.07 -1.58
3.42 -5.81 -1.56
3.98 -6.75 -1.52
4.74 -8.04 -1.48
5.79 -9.82 -1.4
7.18 -12.18 -1.24
8.47 -14.36 -0.87
13.77 -23.35 -0.47
2.97 -5.07 -1.58
11.4 -19.49 0.39
3.4 -5.82 -1.56
3.95 -6.76 -1.52
4.72 -8.07 -1.48
5.76 -9.85 -1.4
7.14 -12.2 -1.24
8.45 -14.45 -0.88
13.76 -23.52 -0.48
2.95 -5.08 -1.57
3.39 -5.84 -1.56
3.93 -6.78 -1.52
4.69 -8.09 -1.48
5.76 -9.93 -1.41
7.09 -12.22 -1.24
8.55 -14.73 -0.89
14.13 -24.35 -0.49
2.93 -5.09 -1.58
3.37 -5.84 -1.56
3.91 -6.79 -1.52
4.66 -8.1 -1.48
5.73 -9.95 -1.41
7.04 -12.23 -1.23
8.51 -14.78 -0.89
14.29 -24.82 -0.5
2.92 -5.1 -1.58
3.34 -5.84 -1.55
51.9 -90.82 5.48
3.89 -6.8 -1.52
4.64 -8.12 -1.48
5.71 -9.99 -1.41
6.99 -12.23 -1.23
8.53 -14.92 -0.9
14.3 -25.02 -0.5
2.9 -5.11 -1.58
3.32 -5.86 -1.56
51.48 -90.84 5.47
3.87 -6.82 -1.52
4.62 -8.14 -1.48
5.67 -10 -1.41
6.93 -12.23 -1.23
8.41 -14.84 -0.89
14.27 -25.19 -0.51
2.88 -5.13 -1.58
3.31 -5.88 -1.56
45.97 -81.77 4.92
3.84 -6.83 -1.52
4.59 -8.17 -1.48
5.63 -10.02 -1.41
6.88 -12.23 -1.23
8.35 -14.86 -0.89
14.27 -25.38 -0.51
2.86 -5.13 -1.57
3.28 -5.89 -1.56
3.82 -6.85 -1.52
4.56 -8.18 -1.48
5.5 -9.87 -1.39
6.81 -12.22 -1.22
8.31 -14.91 -0.89
2.85 -5.15 -1.58
3.26 -5.9 -1.56
3.79 -6.86 -1.52
7.75 -14.01 1.4
4.53 -8.19 -1.48
5.37 -9.71 -1.36
6.76 -12.22 -1.22
8.1 -14.65 -0.88
2.83 -5.17 -1.58
7.66 -13.97 0.28
3.24 -5.9 -1.55
7.67 -13.98 0.84
3.77 -6.88 -1.53
7.67 -13.98 1.4
4.51 -8.22 -1.48
5.29 -9.65 -1.35
6.7 -12.22 -1.22
7.66 -13.97 -0.83
7.67 -14 -0.28
2.81 -5.17 -1.58
7.62 -14.01 0.28
3.22 -5.92 -1.56
7.65 -14.08 0.84
3.75 -6.9 -1.53
7.71 -14.18 1.41
4.48 -8.24 -1.49
5.25 -9.66 -1.35
6.65 -12.23 -1.22
7.68 -14.12 -0.84
7.64 -14.06 -0.28
2.79 -5.18 -1.58
3.2 -5.93 -1.56
3.72 -6.9 -1.52
4.46 -8.26 -1.49
5.22 -9.67 -1.35
6.6 -12.23 -1.22
7.76 -14.38 -0.86
2.77 -5.17 -1.57
3.18 -5.95 -1.56
3.7 -6.92 -1.52
4.43 -8.28 -1.49
5.19 -9.7 -1.35
6.54 -12.23 -1.21
7.71 -14.42 -0.86
2.76 -5.2 -1.58
3.16 -5.96 -1.56
3.68 -6.94 -1.53
4.4 -8.29 -1.49
5.13 -9.68 -1.35
6.49 -12.23 -1.21
8.43 -15.89 -0.94
2.74 -5.21 -1.58
3.13 -5.96 -1.55
3.66 -6.95 -1.53
4.37 -8.31 -1.49
5.1 -9.69 -1.34
6.44 -12.24 -1.21
8.41 -15.99 -0.95
2.72 -5.21 -1.58
3.12 -5.97 -1.56
3.64 -6.97 -1.53
4.35 -8.33 -1.49
5.05 -9.69 -1.34
6.38 -12.23 -1.21
8.43 -16.17 -0.96
2.7 -5.22 -1.58
3.1 -5.99 -1.56
3.61 -6.98 -1.53
4.32 -8.35 -1.49
5.01 -9.69 -1.34
6.32 -12.22 -1.2
8.37 -16.18 -0.95
2.68 -5.23 -1.57
3.08 -6 -1.56
28.62 -55.81 3.29
3.59 -7 -1.53
4.33 -8.44 -1.5
4.96 -9.67 -1.33
6.26 -12.21 -1.2
8.34 -16.27 -0.96
2.66 -5.24 -1.57
3.06 -6.01 -1.56
3.56 -7.01 -1.53
4.3 -8.45 -1.5
4.9 -9.64 -1.33
6.2 -12.2 -1.2
8.28 -16.28 -0.96
2.65 -5.25 -1.58
3.03 -6.02 -1.56
3.54 -7.03 -1.53
4.27 -8.48 -1.5
4.85 -9.62 -1.32
16.27 -32.27 5.72
6.15 -12.21 -1.2
8.2 -16.28 -0.96
2.63 -5.27 -1.58
3.01 -6.03 -1.56
3.52 -7.05 -1.53
4.25 -8.5 -1.51
4.81 -9.62 -1.32
16.08 -32.17 5.7
6.09 -12.2 -1.19
8.14 -16.29 -0.95
2.61 -5.27 -1.58
18.57 -37.49 0.73
2.99 -6.04 -1.56
3.49 -7.05 -1.53
4.22 -8.52 -1.51
4.77 -9.62 -1.32
16.01 -32.31 5.71
6.04 -12.19 -1.19
8.07 -16.3 -0.95
2.59 -5.28 -1.57
2.98 -6.06 -1.56
18.37 -37.43 2.19
3.47 -7.07 -1.53
4.18 -8.5 -1.5
4.71 -9.59 -1.31
5.99 -12.19 -1.19
8.01 -16.32 -0.95
2.57 -5.28 -1.57
17.5 -35.97 0.7
2.95 -6.07 -1.56
17.9 -36.79 2.14
3.45 -7.09 -1.53
4.11 -8.45 -1.49
4.65 -9.56 -1.31
5.94 -12.2 -1.19
7.94 -16.33 -0.95
2.55 -5.3 -1.58
16.96 -35.18 0.68
2.92 -6.06 -1.55
17.1 -35.46 2.06
3.43 -7.11 -1.53
4.06 -8.41 -1.48
4.59 -9.52 -1.3
5.89 -12.21 -1.19
7.87 -16.32 -0.95
2.54 -5.3 -1.58
2.91 -6.08 -1.56
16.15 -33.76 1.96
3.41 -7.12 -1.53
4.01 -8.38 -1.47
4.58 -9.58 -1.3
5.84 -12.21 -1.18
7.81 -16.33 -0.95
2.52 -5.32 -1.58
2.89 -6.1 -1.56
15.24 -32.15 1.86
3.37 -7.12 -1.53
3.95 -8.34 -1.46
4.58 -9.65 -1.31
5.79 -12.22 -1.18
7.74 -16.33 -0.95
2.5 -5.31 -1.57
15.1 -32.16 0.62
2.87 -6.11 -1.56
15.25 -32.46 1.88
3.35 -7.14 -1.53
3.9 -8.3 -1.45
4.53 -9.64 -1.31
5.74 -12.21 -1.18
7.68 -16.35 -0.95
2.48 -5.33 -1.57
14.53 -31.22 0.6
2.85 -6.12 -1.56
14.81 -31.81 1.84
3.33 -7.16 -1.53
18.39 -39.51 3.81
3.84 -8.24 -1.44
4.49 -9.65 -1.31
5.69 -12.22 -1.18
7.61 -16.36 -0.95
2.46 -5.34 -1.58
14.42 -31.27 0.6
2.82 -6.12 -1.56
14.53 -31.5 1.82
3.31 -7.18 -1.54
3.79 -8.22 -1.43
4.44 -9.63 -1.3
5.64 -12.22 -1.18
7.54 -16.35 -0.94
2.45 -5.36 -1.58
14.32 -31.34 0.6
2.8 -6.13 -1.56
14.99 -32.8 1.89
3.29 -7.19 -1.54
15.13 -33.1 3.18
3.74 -8.19 -1.43
15.07 -32.97 4.45
4.4 -9.64 -1.3
5.59 -12.24 -1.18
7.48 -16.37 -0.94
2.43 -5.36 -1.58
14.27 -31.52 0.6
2.78 -6.14 -1.56
13.16 -29.06 1.67
3.26 -7.2 -1.54
17.55 -38.76 3.72
3.71 -8.2 -1.43
4.38 -9.68 -1.3
5.54 -12.24 -1.18
7.42 -16.38 -0.94
2.4 -5.36 -1.57
12.94 -28.85 0.55
2.76 -6.16 -1.56
12.86 -28.67 1.65
3.24 -7.21 -1.54
17.45 -38.89 3.73
3.68 -8.21 -1.43
4.35 -9.7 -1.31
5.49 -12.23 -1.17
7.35 -16.38 -0.94
2.38 -5.36 -1.57
12.68 -28.54 0.55
2.74 -6.17 -1.56
12.74 -28.67 1.64
3.21 -7.23 -1.54
17.36 -39.06 3.74
3.65 -8.22 -1.42
4.33 -9.74 -1.31
5.44 -12.24 -1.17
7.29 -16.4 -0.94
11.84 -26.65 -0.51
2.37 -5.38 -1.58
12.36 -28.08 0.54
2.72 -6.17 -1.56
12.66 -28.76 1.65
3.19 -7.24 -1.54
17.23 -39.15 3.74
3.62 -8.23 -1.42
4.3 -9.76 -1.31
5.39 -12.24 -1.17
7.21 -16.39 -0.94
11.73 -26.66 -0.51
2.35 -5.4 -1.58
12.61 -28.91 0.55
2.7 -6.18 -1.56
11.57 -26.53 1.52
3.17 -7.26 -1.54
17.11 -39.22 3.74
3.59 -8.22 -1.42
4.27 -9.79 -1.31
5.34 -12.25 -1.17
7.15 -16.39 -0.94
11.66 -26.73 -0.51
2.33 -5.4 -1.58
12.07 -27.94 0.53
2.67 -6.19 -1.56
11.27 -26.09 1.49
3.14 -7.26 -1.54
16.98 -39.3 3.75
3.55 -8.22 -1.42
4.25 -9.83 -1.31
5.29 -12.25 -1.17
7.09 -16.41 -0.94
11.53 -26.67 -0.51
2.31 -5.4 -1.58
11.32 -26.46 0.5
2.66 -6.21 -1.56
11.02 -25.76 1.47
3.12 -7.28 -1.54
16.85 -39.36 3.75
3.52 -8.22 -1.42
4.21 -9.84 -1.31
5.24 -12.25 -1.17
7.03 -16.43 -0.94
11.29 -26.39 -0.5
2.29 -5.41 -1.57
11.15 -26.31 0.5
2.64 -6.22 -1.56
10.76 -25.37 1.44
3.09 -7.29 -1.54
16.72 -39.44 3.75
3.47 -8.2 -1.41
4.18 -9.85 -1.31
5.2 -12.26 -1.17
6.97 -16.44 -0.94
11.1 -26.19 -0.5
2.28 -5.43 -1.58
10.66 -25.4 0.48
2.61 -6.22 -1.56
10.37 -24.71 1.4
3.07 -7.31 -1.54
16.59 -39.53 3.75
3.44 -8.19 -1.41
4.14 -9.85 -1.31
5.14 -12.25 -1.16
6.9 -16.45 -0.93
10.91 -25.99 -0.49
2.26 -5.43 -1.58
10.57 -25.42 0.48
2.59 -6.22 -1.56
10.1 -24.29 1.38
3.04 -7.32 -1.54
16.47 -39.61 3.75
3.4 -8.19 -1.4
4.09 -9.85 -1.31
5.1 -12.28 -1.16
6.84 -16.46 -0.93
10.52 -25.3 -0.48
2.24 -5.44 -1.58
10.41 -25.28 0.48
2.57 -6.24 -1.56
10.01 -24.33 1.38
3.01 -7.32 -1.54
16.33 -39.68 3.75
3.37 -8.19 -1.4
4.06 -9.86 -1.31
5.05 -12.27 -1.16
6.78 -16.49 -0.93
10.27 -24.94 -0.47
2.22 -5.45 -1.58
10.3 -25.29 0.48
2.55 -6.25 -1.56
9.7 -23.8 1.35
2.99 -7.34 -1.54
16.19 -39.74 3.75
3.34 -8.18 -1.4
4.02 -9.87 -1.31
5 -12.27 -1.16
6.72 -16.49 -0.93
10.1 -24.79 -0.47
2.2 -5.46 -1.58
10.33 -25.6 0.48
2.53 -6.27 -1.56
9.5 -23.55 1.33
2.97 -7.36 -1.54
16.07 -39.83 3.76
3.3 -8.18 -1.4
3.99 -9.88 -1.31
4.95 -12.27 -1.16
6.65 -16.5 -0.93
9.91 -24.56 -0.46
2.18 -5.46 -1.58
9.44 -23.65 0.44
2.5 -6.27 -1.56
9.2 -23.03 1.3
2.94 -7.37 -1.54
14.41 -36.09 3.4
3.26 -8.16 -1.39
3.95 -9.89 -1.31
4.9 -12.27 -1.16
6.59 -16.49 -0.93
9.75 -24.43 -0.46
2.16 -5.48 -1.58
9.25 -23.39 0.44
2.48 -6.27 -1.56
8.96 -22.67 1.28
2.93 -7.42 -1.55
3.23 -8.16 -1.39
10.19 -25.78 3.4
3.91 -9.89 -1.31
10.32 -26.11 4.45
4.85 -12.28 -1.16
6.52 -16.5 -0.93
9.48 -23.98 -0.45
2.15 -5.48 -1.58
8.93 -22.82 0.43
2.47 -6.3 -1.56
8.69 -22.2 1.25
2.91 -7.45 -1.55
13.32 -34.05 3.2
3.2 -8.18 -1.39
10.12 -25.88 3.41
3.87 -9.9 -1.31
10.17 -25.99 4.42
4.8 -12.28 -1.15
6.46 -16.51 -0.93
9.15 -23.38 -0.44
2.13 -5.48 -1.58
8.64 -22.29 0.42
2.45 -6.31 -1.56
8.46 -21.83 1.23
2.89 -7.45 -1.55
13.2 -34.05 3.2
3.17 -8.18 -1.39
3.84 -9.92 -1.31
9.98 -25.75 4.37
4.76 -12.27 -1.15
6.4 -16.51 -0.93
9.95 -25.67 6.36
8.98 -23.16 -0.43
2.11 -5.5 -1.58
8.46 -22.04 0.41
2.42 -6.32 -1.56
8.19 -21.35 1.2
2.86 -7.46 -1.55
10.75 -28.01 2.63
3.12 -8.14 -1.38
10.06 -26.21 3.45
3.81 -9.93 -1.31
10.01 -26.09 4.43
4.71 -12.27 -1.15
6.34 -16.53 -0.93
9.99 -26.05 6.44
8.82 -23 -0.43
2.09 -5.5 -1.58
8.11 -21.36 0.4
2.4 -6.31 -1.56
7.96 -20.96 1.17
2.85 -7.51 -1.56
10.63 -28.01 2.62
3.09 -8.14 -1.38
10.64 -28.03 3.68
3.77 -9.93 -1.3
9.65 -25.42 4.31
4.66 -12.28 -1.15
6.29 -16.55 -0.93
9.95 -26.2 6.47
8.57 -22.56 -0.42
2.07 -5.5 -1.58
7.87 -20.95 0.39
2.37 -6.32 -1.56
7.79 -20.74 1.16
2.82 -7.5 -1.56
10.54 -28.05 2.62
3.06 -8.14 -1.38
9.88 -26.31 3.45
3.73 -9.92 -1.3
9.85 -26.21 4.43
4.62 -12.29 -1.15
6.22 -16.56 -0.93
9.7 -25.83 6.37
8.04 -21.4 -0.4
2.05 -5.52 -1.58
7.74 -20.82 0.39
2.36 -6.34 -1.56
7.64 -20.55 1.15
2.78 -7.48 -1.55
9.75 -26.23 2.45
3.02 -8.11 -1.37
9.68 -26.05 3.41
3.69 -9.92 -1.3
10.44 -28.08 4.75
4.56 -12.27 -1.15
9.55 -25.7 5.33
6.14 -16.53 -0.92
9.62 -25.89 6.38
8.27 -22.24 -0.41
2.03 -5.51 -1.57
7.63 -20.75 0.39
2.34 -6.35 -1.56
7.48 -20.33 1.14
2.74 -7.45 -1.54
10.37 -28.2 2.63
2.98 -8.09 -1.37
9.57 -26.02 3.4
3.65 -9.93 -1.3
9.59 -26.08 4.4
4.51 -12.27 -1.14
9.55 -25.98 5.38
6.02 -16.36 -0.91
9.59 -26.08 6.42
7.77 -21.14 -0.39
2.01 -5.52 -1.58
7.41 -20.38 0.38
2.31 -6.36 -1.56
7.33 -20.16 1.12
2.7 -7.43 -1.54
9.53 -26.2 2.44
2.94 -8.08 -1.36
9.33 -25.66 3.35
3.62 -9.95 -1.3
10.27 -28.24 4.76
4.46 -12.26 -1.14
9.46 -26 5.38
5.85 -16.08 -0.9
1.99 -5.54 -1.58
7.35 -20.44 0.38
2.29 -6.35 -1.56
7.1 -19.72 1.1
2.67 -7.41 -1.53
9.48 -26.35 2.45
2.92 -8.11 -1.37
9.44 -26.25 3.42
3.58 -9.95 -1.3
9.42 -26.17 4.4
4.41 -12.27 -1.14
9.43 -26.21 5.41
5.78 -16.07 -0.9
9.41 -26.16 6.42
7.34 -20.4 -0.38
1.97 -5.55 -1.58
7.03 -19.76 0.37
2.27 -6.37 -1.56
7.03 -19.75 1.1
2.63 -7.39 -1.53
9.34 -26.25 2.44
2.89 -8.13 -1.37
9.27 -26.04 3.39
3.54 -9.95 -1.3
9.08 -25.51 4.29
4.37 -12.28 -1.14
9.3 -26.14 5.39
5.67 -15.95 -0.89
9.28 -26.08 6.39
7.09 -19.94 -0.37
1.95 -5.55 -1.58
7.05 -20.03 0.37
2.25 -6.38 -1.56
6.97 -19.81 1.1
2.6 -7.37 -1.52
12.21 -34.7 3.22
2.87 -8.16 -1.37
9.11 -25.89 3.37
3.51 -9.96 -1.3
9.02 -25.62 4.3
4.32 -12.28 -1.14
9.26 -26.3 5.42
5.58 -15.86 -0.88
9.19 -26.12 6.39
7.01 -19.93 -0.37
9.11 -25.89 7.35
1.93 -5.55 -1.57
6.97 -20.01 0.37
2.23 -6.39 -1.56
6.98 -20.03 1.11
2.56 -7.36 -1.51
9.24 -26.54 2.46
2.85 -8.18 -1.37
9.43 -27.08 3.52
3.47 -9.97 -1.3
9.04 -25.95 4.35
4.27 -12.28 -1.14
9.13 -26.21 5.4
5.51 -15.82 -0.88
9.27 -26.62 6.51
6.78 -19.48 -0.36
1.91 -5.56 -1.58
6.93 -20.11 0.37
2.21 -6.41 -1.56
6.96 -20.22 1.12
2.53 -7.34 -1.51
9.16 -26.59 2.46
2.81 -8.17 -1.37
9.11 -26.47 3.44
3.43 -9.98 -1.3
8.97 -26.06 4.36
4.23 -12.28 -1.14
8.84 -25.67 5.28
5.34 -15.51 -0.86
8.9 -25.86 6.31
6.64 -19.29 -0.36
1.9 -5.57 -1.58
6.78 -19.93 0.37
2.18 -6.4 -1.56
6.7 -19.67 1.09
2.49 -7.32 -1.5
9.02 -26.51 2.45
2.73 -8.01 -1.34
9.05 -26.57 3.45
3.4 -9.98 -1.29
8.97 -26.35 4.41
4.18 -12.28 -1.13
5.21 -15.29 -0.85
8.87 -26.04 6.35
6.57 -19.3 -0.36
1.88 -5.58 -1.58
6.39 -18.98 0.35
2.16 -6.42 -1.56
6.3 -18.72 1.04
2.45 -7.29 -1.5
6.12 -18.19 1.68
2.63 -7.83 -1.31
8.94 -26.58 3.44
3.36 -9.98 -1.29
8.96 -26.62 4.45
4.14 -12.29 -1.13
5.14 -15.26 -0.84
6.17 -18.32 -0.34
1.86 -5.59 -1.58
6.07 -18.26 0.34
2.14 -6.43 -1.56
6.06 -18.23 1.01
2.42 -7.27 -1.49
6.06 -18.2 1.68
2.6 -7.81 -1.3
8.82 -26.52 3.43
3.32 -9.98 -1.29
4.09 -12.29 -1.13
8.72 -26.21 5.37
5.08 -15.28 -0.84
8.73 -26.25 6.39
6.09 -18.31 -0.34
1.84 -5.58 -1.58
6.14 -18.67 0.34
2.12 -6.44 -1.57
6.16 -18.73 1.03
2.39 -7.26 -1.49
5.99 -18.22 1.68
2.57 -7.81 -1.3
10.2 -31.02 4.01
3.28 -9.98 -1.29
8.87 -26.98 4.5
4.03 -12.27 -1.13
8.67 -26.38 5.4
5.12 -15.58 -0.86
6.21 -18.9 -0.35
1.82 -5.6 -1.58
6.06 -18.66 0.34
2.1 -6.45 -1.57
6.01 -18.49 1.02
2.35 -7.25 -1.48
8.78 -27.02 2.49
2.54 -7.81 -1.3
3.25 -10 -1.29
8.69 -26.76 4.46
3.99 -12.27 -1.13
5.14 -15.83 -0.87
6.11 -18.81 -0.35
1.8 -5.6 -1.58
5.99 -18.66 0.34
2.07 -6.45 -1.56
6 -18.68 1.03
2.32 -7.24 -1.48
5.87 -18.29 1.68
2.52 -7.83 -1.3
8.53 -26.55 3.42
3.21 -10.01 -1.29
8.58 -26.73 4.45
3.94 -12.27 -1.13
5.05 -15.74 -0.87
6.05 -18.85 -0.35
4.69 -14.62 4.11
1.78 -5.62 -1.58
5.95 -18.73 0.34
2.05 -6.46 -1.57
5.85 -18.44 1.01
2.29 -7.22 -1.47
11.2 -35.28 3.24
2.49 -7.85 -1.3
9.73 -30.65 3.95
3.17 -10 -1.29
3.9 -12.28 -1.13
5.02 -15.83 -0.87
5.97 -18.79 -0.34
1.76 -5.62 -1.58
5.86 -18.69 0.34
2.03 -6.47 -1.56
5.79 -18.47 1.01
2.26 -7.2 -1.47
11.07 -35.3 3.24
2.46 -7.85 -1.3
8.38 -26.71 3.44
3.14 -10 -1.29
3.85 -12.28 -1.13
4.88 -15.56 -0.85
4.41 -14.05 3.4
5.85 -18.65 -0.34
4.34 -13.85 3.89
1.74 -5.62 -1.58
5.77 -18.64 0.34
2 -6.48 -1.57
5.68 -18.36 1.01
2.23 -7.2 -1.46
7.34 -23.73 2.17
2.43 -7.85 -1.3
3.1 -10.02 -1.29
9.77 -31.57 5.23
3.8 -12.28 -1.13
4.77 -15.43 -0.85
4.33 -14 3.38
5.72 -18.5 -0.34
4.28 -13.84 3.88
1.72 -5.63 -1.58
5.41 -17.71 0.32
1.98 -6.49 -1.57
5.65 -18.5 1.01
2.2 -7.21 -1.47
7.25 -23.73 2.17
2.4 -7.85 -1.3
3.07 -10.04 -1.29
3.76 -12.29 -1.12
4.77 -15.62 -0.86
5.63 -18.41 -0.34
1.7 -5.63 -1.58
5.53 -18.32 0.33
1.96 -6.5 -1.57
5.27 -17.43 0.95
2.18 -7.21 -1.46
7.18 -23.78 2.17
2.37 -7.85 -1.3
3.03 -10.02 -1.29
3.71 -12.3 -1.12
4.7 -15.57 -0.85
5.4 -17.89 -0.33
4.06 -13.44 3.76
1.68 -5.65 -1.58
5.19 -17.39 0.32
1.94 -6.5 -1.57
5.14 -17.22 0.94
2.15 -7.21 -1.46
7.1 -23.8 2.17
2.34 -7.86 -1.3
2.99 -10.02 -1.28
3.67 -12.31 -1.12
4.37 -14.65 3.53
5.26 -17.64 -0.32
1.67 -5.65 -1.58
5.07 -17.23 0.31
1.92 -6.52 -1.57
5.01 -17 0.93
2.12 -7.19 -1.46
7.08 -24.04 2.19
2.32 -7.88 -1.3
2.96 -10.04 -1.28
3.63 -12.31 -1.12
4.39 -14.92 -0.82
4.32 -14.66 3.53
5.14 -17.47 -0.32
1.64 -5.65 -1.58
5.02 -17.26 0.31
1.9 -6.53 -1.57
4.93 -16.97 0.93
2.09 -7.2 -1.46
6.94 -23.87 2.17
2.29 -7.88 -1.3
6.89 -23.71 3.03
2.92 -10.05 -1.28
3.58 -12.3 -1.12
4.63 -15.92 -0.87
5.08 -17.48 -0.32
3.97 -13.66 3.81
1.62 -5.65 -1.58
4.86 -16.92 0.31
1.88 -6.54 -1.57
4.74 -16.51 0.9
2.07 -7.21 -1.46
6.78 -23.62 2.15
2.38 -8.3 -1.37
6.68 -23.28 2.97
2.89 -10.06 -1.28
3.53 -12.31 -1.12
4.56 -15.91 -0.87
4.99 -17.41 -0.32
1.61 -5.68 -1.58
4.76 -16.82 0.31
1.85 -6.54 -1.57
4.69 -16.57 0.9
2.04 -7.22 -1.46
6.66 -23.54 2.14
2.36 -8.32 -1.37
6.61 -23.34 2.98
2.85 -10.07 -1.28
6.77 -23.92 3.94
3.49 -12.32 -1.12
4.49 -15.87 -0.86
4.87 -17.19 -0.31
3.93 -13.88 3.86
1.59 -5.68 -1.58
4.57 -16.34 0.3
1.83 -6.54 -1.57
4.62 -16.54 0.9
2.02 -7.22 -1.46
6.58 -23.52 2.14
2.33 -8.32 -1.37
6.55 -23.42 2.99
2.81 -10.05 -1.28
6.71 -24 3.95
3.44 -12.32 -1.12
4.45 -15.92 -0.87
4.83 -17.29 -0.31
4.04 -14.46 4.02
1.57 -5.69 -1.58
4.45 -16.12 0.29
1.81 -6.56 -1.57
4.45 -16.15 0.88
1.97 -7.15 -1.44
6.51 -23.59 2.14
2.3 -8.34 -1.37
6.59 -23.88 3.04
2.77 -10.06 -1.28
6.63 -24.04 3.95
3.4 -12.31 -1.12
4.38 -15.88 -0.86
4.53 -16.44 -0.3
3.64 -13.21 3.67
1.55 -5.68 -1.58
4.36 -16.04 0.29
1.79 -6.57 -1.57
4.35 -15.99 0.87
1.96 -7.2 -1.45
6.4 -23.52 2.13
2.27 -8.34 -1.37
6.5 -23.89 3.04
2.74 -10.05 -1.28
3.34 -12.29 -1.11
4.34 -15.94 -0.87
4.42 -16.24 -0.29
3.71 -13.63 3.79
1.53 -5.69 -1.58
4.27 -15.92 0.29
1.76 -6.57 -1.57
4.3 -16.01 0.87
1.93 -7.21 -1.45
6.35 -23.67 2.14
2.24 -8.33 -1.37
6.24 -23.25 2.96
2.7 -10.06 -1.28
6.29 -23.44 3.84
3.29 -12.25 -1.11
4.26 -15.89 -0.86
4.35 -16.23 -0.29
3.7 -13.79 3.83
1.51 -5.7 -1.58
4.26 -16.09 0.29
1.74 -6.58 -1.57
4.28 -16.17 0.88
1.9 -7.2 -1.45
6.28 -23.73 2.15
2.21 -8.34 -1.37
6.13 -23.16 2.94
2.67 -10.08 -1.28
6.21 -23.48 3.85
3.22 -12.18 -1.1
4.2 -15.88 -0.86
3.92 -14.81 3.54
4.28 -16.17 -0.29
3.74 -14.13 3.92
1.49 -5.71 -1.58
4.24 -16.25 0.29
1.72 -6.58 -1.57
4.17 -15.98 0.87
1.88 -7.2 -1.45
5.51 -21.13 1.91
2.18 -8.35 -1.37
6.25 -23.95 3.04
2.63 -10.07 -1.28
6.13 -23.52 3.85
3.16 -12.12 -1.1
4.13 -15.83 -0.86
3.87 -14.85 3.54
4.23 -16.21 -0.29
1.47 -5.71 -1.58
4.12 -16.02 0.29
1.7 -6.59 -1.57
4.11 -16 0.87
1.85 -7.2 -1.44
4.15 -16.16 1.46
2.15 -8.35 -1.37
6.14 -23.9 3.03
2.58 -10.05 -1.27
6.1 -23.72 3.88
3.11 -12.08 -1.09
4.07 -15.81 -0.86
3.78 -14.71 3.51
4.16 -16.18 -0.29
3.51 -13.65 3.78
1.45 -5.71 -1.58
4.08 -16.09 0.29
1.67 -6.61 -1.57
4.08 -16.08 0.87
1.82 -7.19 -1.44
4.08 -16.1 1.45
2.12 -8.37 -1.37
6 -23.68 3
2.56 -10.09 -1.28
6.03 -23.79 3.89
3.05 -12.04 -1.09
4 -15.78 -0.85
4.18 -16.48 3.92
4.11 -16.21 -0.29
3.46 -13.67 3.78
1.43 -5.72 -1.58
4.03 -16.13 0.29
1.65 -6.61 -1.57
4.02 -16.1 0.87
1.8 -7.19 -1.44
4.02 -16.11 1.45
2.09 -8.35 -1.36
5.9 -23.65 2.99
2.52 -10.09 -1.28
5.94 -23.78 3.88
3 -12.03 -1.08
3.92 -15.68 -0.85
3.7 -14.81 3.52
4.07 -16.3 -0.29
3.42 -13.7 3.78
1.41 -5.73 -1.58
4.05 -16.47 0.3
1.63 -6.61 -1.57
3.99 -16.23 0.88
1.77 -7.2 -1.44
2.05 -8.35 -1.36
5.82 -23.67 2.99
2.48 -10.09 -1.28
6.99 -28.41 4.63
2.96 -12.02 -1.08
3.46 -14.07 -0.76
4.03 -16.37 -0.29
3.42 -13.91 3.84
1.39 -5.75 -1.58
3.98 -16.41 0.29
1.6 -6.62 -1.57
3.92 -16.18 0.87
1.74 -7.2 -1.44
5.27 -21.74 1.96
2.02 -8.35 -1.36
5.86 -24.2 3.06
2.44 -10.08 -1.27
6.85 -28.28 4.61
2.91 -12.03 -1.08
3.21 -13.26 2.65
3.41 -14.08 -0.76
4 -16.51 3.92
3.95 -16.31 -0.29
3.37 -13.89 3.83
1.37 -5.74 -1.58
3.89 -16.29 0.29
1.58 -6.63 -1.57
3.94 -16.52 0.89
1.71 -7.17 -1.43
5.21 -21.85 1.97
2 -8.38 -1.36
5.79 -24.28 3.07
2.4 -10.06 -1.27
6.76 -28.35 4.62
2.86 -12 -1.08
3.36 -14.08 -0.76
3.61 -15.13 3.59
3.96 -16.58 -0.3
3.35 -14.02 3.86
1.35 -5.73 -1.58
4.02 -17.13 0.31
1.56 -6.64 -1.57
3.89 -16.54 0.89
1.69 -7.18 -1.43
3.84 -16.33 1.47
1.97 -8.37 -1.36
6.62 -28.2 3.56
2.37 -10.1 -1.27
6.64 -28.27 4.6
2.81 -11.96 -1.07
3.4 -14.46 2.89
3.34 -14.21 -0.77
3.43 -14.59 3.46
3.91 -16.66 -0.3
1.33 -5.74 -1.58
3.95 -17.08 0.31
1.54 -6.66 -1.58
3.95 -17.09 0.92
1.66 -7.16 -1.43
5.64 -24.38 2.19
1.93 -8.36 -1.36
6.53 -28.23 3.56
2.34 -10.11 -1.27
6.55 -28.35 4.61
2.77 -12 -1.08
3.59 -15.54 -0.84
3.37 -14.57 3.45
4 -17.3 -0.31
3.28 -14.17 3.9
1.31 -5.75 -1.58
3.86 -16.96 0.3
1.53 -6.7 -1.59
3.8 -16.7 0.9
1.63 -7.16 -1.43
4.97 -21.84 1.96
1.91 -8.37 -1.36
6.42 -28.22 3.55
2.3 -10.11 -1.27
6.46 -28.37 4.61
2.74 -12.04 -1.08
3.53 -15.49 -0.83
3.62 -15.9 3.76
3.72 -16.36 -0.29
3.28 -14.4 3.96
1.29 -5.76 -1.58
3.81 -17.04 0.3
1.51 -6.73 -1.59
3.7 -16.52 0.89
1.61 -7.21 -1.44
4.86 -21.73 1.95
1.88 -8.38 -1.36
6.32 -28.21 3.55
2.26 -10.1 -1.27
6.35 -28.37 4.6
2.69 -12.03 -1.08
3.46 -15.46 -0.83
3.27 -14.6 3.45
3.59 -16.03 -0.29
3.09 -13.8 3.79
1.27 -5.76 -1.58
3.59 -16.31 0.29
1.48 -6.73 -1.59
3.64 -16.53 0.89
1.59 -7.21 -1.44
4.78 -21.7 1.94
1.85 -8.39 -1.36
6.22 -28.26 3.55
2.23 -10.1 -1.27
3.38 -15.35 2.49
2.63 -11.96 -1.07
3.42 -15.55 -0.83
3.02 -13.73 3.25
3.51 -15.95 -0.29
3.45 -15.67 4.3
1.25 -5.75 -1.58
3.51 -16.19 0.29
1.46 -6.76 -1.6
3.57 -16.5 0.88
1.56 -7.22 -1.44
3.56 -16.43 1.47
1.81 -8.37 -1.36
6.15 -28.39 3.57
2.19 -10.11 -1.27
6.19 -28.58 4.63
2.61 -12.03 -1.08
2.9 -13.39 2.66
3.38 -15.63 -0.84
3.38 -15.59 3.68
3.45 -15.93 -0.28
3.38 -15.59 4.27
1.23 -5.76 -1.58
3.41 -16.01 0.29
1.44 -6.75 -1.59
3.38 -15.84 0.85
1.54 -7.22 -1.43
3.46 -16.25 1.45
1.78 -8.37 -1.36
6.04 -28.36 3.56
2.16 -10.12 -1.27
6.08 -28.51 4.62
2.59 -12.15 -1.09
2.87 -13.45 2.67
2.93 -13.73 -0.74
3.16 -14.83 3.5
3.37 -15.83 -0.28
2.97 -13.96 3.82
1.21 -5.77 -1.58
3.32 -15.87 0.28
1.41 -6.74 -1.59
3.28 -15.65 0.84
1.51 -7.19 -1.43
3.01 -14.38 1.29
1.75 -8.37 -1.35
5.94 -28.38 3.56
2.12 -10.11 -1.27
6 -28.65 4.64
2.54 -12.12 -1.08
3.08 -14.69 -0.79
2.9 -13.82 3.26
3.35 -16 -0.29
2.9 -13.84 3.79
1.19 -5.79 -1.58
3.25 -15.79 0.28
1.39 -6.75 -1.59
3.22 -15.63 0.84
1.48 -7.19 -1.43
2.96 -14.4 1.29
1.72 -8.38 -1.35
5.88 -28.55 3.58
2.08 -10.1 -1.27
3.16 -15.36 2.48
2.49 -12.11 -1.08
2.98 -14.46 -0.77
3.38 -16.43 3.87
3.27 -15.87 -0.28
2.82 -13.71 3.75
1.17 -5.78 -1.58
3.23 -15.96 0.28
1.36 -6.75 -1.59
3.18 -15.74 0.84
1.46 -7.21 -1.43
3.21 -15.87 1.42
1.69 -8.38 -1.35
5.81 -28.74 3.6
2.04 -10.11 -1.27
3.1 -15.35 2.48
2.44 -12.08 -1.08
2.9 -14.36 -0.77
3.19 -15.77 3.72
3.21 -15.86 -0.28
2.78 -13.77 3.76
1.15 -5.78 -1.58
3.17 -15.95 0.28
1.34 -6.75 -1.59
3.11 -15.68 0.84
1.42 -7.16 -1.42
3.14 -15.81 1.41
1.67 -8.39 -1.36
5.74 -28.89 3.62
2.01 -10.12 -1.27
2.4 -12.07 -1.08
2.48 -12.47 2.47
3.12 -15.72 -0.84
3.18 -16.02 3.77
3.16 -15.89 -0.28
2.84 -14.29 3.9
1.13 -5.79 -1.58
3.1 -15.92 0.28
1.31 -6.73 -1.58
3.06 -15.7 0.84
1.39 -7.12 -1.41
2.82 -14.45 1.29
1.63 -8.38 -1.35
5.67 -29.06 3.64
1.97 -10.13 -1.27
2.36 -12.1 -1.08
2.41 -12.37 2.45
3.07 -15.74 -0.84
2.89 -14.82 3.49
3.1 -15.9 -0.28
2.7 -13.84 3.78
1.11 -5.8 -1.58
3.04 -15.9 0.28
1.28 -6.71 -1.58
3.05 -15.93 0.85
1.35 -7.07 -1.4
2.77 -14.48 1.29
1.6 -8.39 -1.35
9.41 -49.17 6.15
1.94 -10.12 -1.27
2.3 -12.03 -1.07
2.36 -12.36 2.45
3.01 -15.75 -0.84
3.05 -15.94 -0.28
1.09 -5.81 -1.58
2.98 -15.9 0.28
1.26 -6.7 -1.57
2.98 -15.9 0.85
1.33 -7.07 -1.4
2.95 -15.72 1.4
1.58 -8.4 -1.35
9.25 -49.27 6.16
1.9 -10.12 -1.26
2.9 -15.45 2.49
2.25 -12 -1.07
2.96 -15.76 -0.84
2.66 -14.17 3.33
3 -15.98 -0.28
2.78 -14.82 4.04
1.07 -5.81 -1.58
2.93 -15.93 0.28
1.23 -6.69 -1.57
2.92 -15.88 0.85
1.3 -7.06 -1.4
2.9 -15.78 1.4
1.55 -8.4 -1.35
9.09 -49.37 6.16
1.86 -10.12 -1.26
2.19 -11.92 -1.06
2.84 -15.42 3.05
2.92 -15.89 -0.85
2.53 -13.74 3.22
2.94 -15.97 -0.28
2.74 -14.89 4.06
1.05 -5.81 -1.58
2.88 -15.93 0.28
1.21 -6.68 -1.57
2.87 -15.89 0.85
1.28 -7.08 -1.4
2.86 -15.85 1.41
1.52 -8.4 -1.35
8.93 -49.49 6.18
1.83 -10.12 -1.26
2.52 -13.97 2.25
2.13 -11.82 -1.05
2.87 -15.89 -0.85
2.7 -14.98 3.52
2.89 -16.02 -0.28
1.03 -5.81 -1.58
1.18 -6.67 -1.56
2.82 -15.93 0.85
1.25 -7.09 -1.4
2.81 -15.91 1.41
1.48 -8.39 -1.35
2.7 -15.28 1.91
1.79 -10.14 -1.26
2.46 -13.89 2.23
2.09 -11.84 -1.05
2.83 -16 -0.85
2.77 -15.66 3.67
2.83 -16.01 -0.28
1.01 -5.81 -1.58
2.77 -15.98 0.28
1.15 -6.65 -1.56
2.76 -15.95 0.85
1.23 -7.1 -1.4
2.77 -15.97 1.42
1.45 -8.39 -1.35
2.64 -15.26 1.9
1.76 -10.13 -1.26
2.05 -11.85 -1.05
2.66 -15.37 3.03
2.56 -14.77 -0.79
2.83 -16.36 3.83
2.79 -16.12 -0.29
2.57 -14.86 4.04
0.99 -5.82 -1.58
2.72 -16.02 0.28
1.13 -6.64 -1.55
2.71 -15.97 0.85
1.2 -7.09 -1.4
2.72 -16.03 1.42
1.43 -8.4 -1.35
2.35 -13.84 1.72
1.72 -10.12 -1.26
2.02 -11.92 -1.06
2.59 -15.25 3.01
2.73 -16.12 -0.86
2.24 -13.23 3.1
2.73 -16.09 -0.28
2.38 -14.04 3.81
0.97 -5.84 -1.59
2.67 -16.06 0.28
1.1 -6.63 -1.55
2.66 -16 0.85
1.18 -7.09 -1.4
2.43 -14.64 1.3
1.4 -8.41 -1.35
2.16 -13.01 1.62
1.68 -10.12 -1.26
1.96 -11.81 -1.05
2.68 -16.12 -0.86
2.7 -16.24 3.8
2.68 -16.12 -0.29
2.49 -14.98 4.07
0.95 -5.83 -1.58
2.62 -16.07 0.28
1.08 -6.62 -1.55
2.61 -16.03 0.85
1.16 -7.11 -1.4
2.62 -16.09 1.43
1.37 -8.41 -1.35
2.26 -13.86 1.72
1.65 -10.13 -1.26
2.27 -13.92 2.23
1.9 -11.68 -1.04
2.53 -15.53 3.06
2.63 -16.12 -0.86
2.24 -13.78 3.22
2.63 -16.14 -0.29
2.17 -13.33 3.62
0.93 -5.84 -1.58
2.56 -16.09 0.28
1.06 -6.63 -1.55
2.56 -16.07 0.85
1.14 -7.13 -1.4
2.57 -16.12 1.43
1.34 -8.4 -1.35
7.99 -50.18 6.24
1.61 -10.12 -1.26
2.22 -13.93 2.23
1.86 -11.66 -1.03
2.47 -15.52 3.06
2.58 -16.17 -0.86
2.2 -13.81 3.23
2.58 -16.2 -0.29
2.46 -15.47 4.2
0.91 -5.84 -1.58
2.51 -16.12 0.28
1.03 -6.6 -1.54
2.51 -16.1 0.85
1.11 -7.15 -1.41
5.94 -38.15 3.38
1.31 -8.41 -1.35
2.15 -13.84 1.72
1.58 -10.12 -1.26
1.81 -11.64 -1.03
2.52 -16.18 -0.86
1.73 -11.11 2.6
2.52 -16.2 -0.29
2.17 -13.93 3.78
0.89 -5.85 -1.59
2.46 -16.17 0.29
1 -6.59 -1.54
2.45 -16.12 0.85
1.09 -7.17 -1.41
5.82 -38.24 3.38
1.28 -8.42 -1.35
2.39 -15.71 1.95
1.54 -10.1 -1.25
2.06 -13.51 2.16
1.78 -11.69 -1.03
2 -13.15 2.59
2.46 -16.19 -0.86
1.7 -11.15 2.6
2.48 -16.26 -0.29
2.29 -15.02 4.07
0.87 -5.86 -1.59
2.41 -16.19 0.29
0.98 -6.58 -1.54
2.4 -16.15 0.86
1.07 -7.19 -1.41
5.7 -38.32 3.39
1.25 -8.42 -1.35
2.19 -14.71 1.83
1.5 -10.11 -1.26
1.74 -11.72 -1.04
1.96 -13.21 2.6
2.42 -16.24 -0.86
2.13 -14.31 3.34
2.41 -16.23 -0.29
2.24 -15.05 4.08
0.85 -5.85 -1.58
2.36 -16.23 0.29
0.96 -6.58 -1.54
2.35 -16.18 0.86
1.05 -7.23 -1.42
5.58 -38.39 3.39
1.22 -8.42 -1.35
2.17 -14.94 1.85
1.47 -10.11 -1.25
2.12 -14.59 2.33
1.7 -11.71 -1.04
2.37 -16.28 -0.86
2.31 -15.88 3.7
2.36 -16.28 -0.29
1.67 -11.46 3.1
0.83 -5.85 -1.58
2.3 -16.24 0.29
0.93 -6.57 -1.53
2.3 -16.21 0.86
1.02 -7.18 -1.41
1.93 -13.66 1.21
1.19 -8.41 -1.35
1.43 -10.12 -1.26
1.68 -11.83 -1.05
2.31 -16.32 -0.86
2.27 -16.02 3.74
2.31 -16.3 -0.29
1.99 -14.05 3.8
0.81 -5.86 -1.59
2.25 -16.27 0.29
0.91 -6.55 -1.53
2.24 -16.24 0.86
0.99 -7.17 -1.41
5.32 -38.51 3.4
1.16 -8.43 -1.35
1.94 -14.02 1.74
1.4 -10.12 -1.25
1.88 -13.6 2.18
1.66 -12 -1.06
2.01 -14.58 2.86
2.26 -16.35 -0.87
1.49 -10.77 2.51
2.26 -16.34 -0.29
1.87 -13.56 3.67
0.79 -5.87 -1.59
2.19 -16.3 0.29
0.88 -6.54 -1.52
2.18 -16.26 0.86
0.96 -7.13 -1.4
5.18 -38.6 3.41
1.13 -8.43 -1.35
6.84 -50.93 6.31
1.36 -10.11 -1.25
1.9 -14.17 2.26
1.58 -11.78 -1.04
2.19 -16.33 -0.86
2.18 -16.27 3.79
2.2 -16.36 -0.29
1.82 -13.58 3.67
0.77 -5.87 -1.59
2.14 -16.34 0.29
0.85 -6.53 -1.52
2.13 -16.29 0.86
0.93 -7.11 -1.39
5.06 -38.65 3.41
1.1 -8.44 -1.35
6.67 -50.99 6.31
1.32 -10.11 -1.25
1.53 -11.67 -1.03
1.82 -13.9 2.73
2.15 -16.41 -0.87
1.97 -15.09 3.51
2.15 -16.4 -0.29
1.9 -14.49 3.92
0.75 -5.86 -1.58
2.08 -16.36 0.29
0.83 -6.53 -1.52
2.08 -16.32 0.86
0.91 -7.13 -1.4
4.93 -38.71 3.41
1.07 -8.44 -1.35
1.91 -14.98 1.85
1.29 -10.12 -1.25
1.46 -11.46 1.83
1.55 -12.15 -1.07
1.78 -13.95 2.73
2.09 -16.4 -0.87
1.6 -12.56 2.92
2.1 -16.45 -0.29
1.84 -14.48 3.91
0.73 -5.86 -1.58
2.03 -16.38 0.29
0.81 -6.51 -1.51
2.03 -16.35 0.86
0.89 -7.15 -1.4
4.81 -38.83 3.42
1.04 -8.43 -1.35
1.85 -14.93 1.85
1.26 -10.13 -1.25
2.02 -16.29 2.6
1.51 -12.15 -1.07
1.76 -14.21 2.78
2.04 -16.48 -0.87
2.04 -16.45 -0.29
1.45 -11.68 3.15
0.71 -5.87 -1.59
1.97 -16.42 0.29
0.78 -6.49 -1.51
1.97 -16.38 0.86
0.88 -7.29 -1.43
1.62 -13.51 1.19
1.01 -8.44 -1.35
1.79 -14.9 1.84
1.22 -10.14 -1.25
1.93 -16.08 2.57
1.98 -16.51 -0.87
1.34 -11.12 2.59
1.98 -16.51 -0.29
0.69 -5.88 -1.59
1.92 -16.45 0.29
0.76 -6.48 -1.51
1.91 -16.41 0.87
0.85 -7.32 -1.43
4.55 -38.98 3.43
0.99 -8.44 -1.35
1.73 -14.86 1.84
1.18 -10.11 -1.25
1.68 -14.4 2.82
1.92 -16.46 -0.87
1.29 -11.08 2.58
1.93 -16.51 -0.29
0.67 -5.88 -1.59
1.87 -16.48 0.29
0.73 -6.49 -1.51
1.86 -16.43 0.87
0.83 -7.31 -1.43
4.42 -39.07 3.44
0.96 -8.44 -1.35
1.46 -12.85 1.59
1.15 -10.12 -1.25
1.65 -14.58 2.32
1.35 -11.95 -1.05
1.88 -16.58 -0.87
1.25 -11.08 2.58
1.88 -16.57 -0.29
1.63 -14.42 3.89
0.65 -5.88 -1.58
1.81 -16.51 0.29
0.71 -6.49 -1.51
1.81 -16.47 0.87
0.8 -7.3 -1.43
4.3 -39.14 3.45
0.93 -8.45 -1.35
5.69 -51.81 6.4
1.11 -10.12 -1.25
1.6 -14.61 2.33
1.21 -11.02 -0.97
1.82 -16.62 -0.88
1.82 -16.55 -0.29
1.29 -11.75 3.17
0.62 -5.88 -1.59
1.76 -16.6 0.29
0.69 -6.49 -1.51
1.76 -16.57 0.87
0.78 -7.33 -1.43
1.44 -13.55 1.19
0.9 -8.44 -1.34
1.65 -15.54 1.92
1.07 -10.12 -1.25
1.55 -14.61 2.33
1.24 -11.64 -1.02
1.33 -12.5 2.44
1.77 -16.64 -0.88
1.5 -14.17 3.29
1.77 -16.63 -0.29
1.53 -14.45 3.89
0.61 -5.9 -1.59
1.7 -16.57 0.29
0.67 -6.49 -1.51
1.7 -16.55 0.87
0.75 -7.34 -1.43
1.73 -16.87 1.48
0.87 -8.44 -1.34
1.59 -15.48 1.91
1.04 -10.11 -1.25
1.5 -14.56 2.32
1.21 -11.77 -1.04
1.6 -15.56 3.04
1.63 -15.87 -0.84
1.45 -14.16 3.29
1.7 -16.51 -0.29
1.6 -15.55 4.19
0.59 -5.92 -1.59
1.65 -16.63 0.29
0.64 -6.49 -1.5
1.64 -16.59 0.87
0.73 -7.34 -1.43
1.55 -15.6 1.37
0.84 -8.44 -1.34
1.37 -13.85 1.71
1 -10.1 -1.25
1.44 -14.49 2.31
1.18 -11.87 -1.04
1.56 -15.74 3.07
1.57 -15.87 -0.84
1.4 -14.13 3.28
1.64 -16.54 -0.29
1.11 -11.2 3.02
0.57 -5.92 -1.59
1.59 -16.63 0.29
0.62 -6.5 -1.51
1.59 -16.58 0.87
0.7 -7.33 -1.43
1.63 -16.99 1.49
0.81 -8.44 -1.34
1.49 -15.57 1.92
0.97 -10.1 -1.25
1.38 -14.45 2.3
1.13 -11.84 -1.04
1.15 -12.05 2.35
1.39 -14.48 -0.76
1.59 -16.66 -0.29
1.2 -12.5 3.36
0.55 -5.92 -1.59
1.54 -16.66 0.29
0.6 -6.52 -1.51
1.53 -16.63 0.88
0.68 -7.34 -1.43
3.65 -39.59 3.48
0.78 -8.43 -1.34
1.29 -13.99 1.73
0.93 -10.11 -1.25
1.08 -11.73 -1.03
1.3 -14.13 2.76
1.26 -13.71 -0.72
1.15 -12.44 2.88
1.54 -16.71 -0.29
1.45 -15.75 4.24
0.53 -5.92 -1.59
1.48 -16.71 0.29
0.58 -6.52 -1.51
1.48 -16.68 0.88
0.65 -7.36 -1.44
3.52 -39.66 3.48
0.75 -8.44 -1.34
1.2 -13.55 1.67
0.9 -10.08 -1.24
1.05 -11.83 -1.04
1.28 -14.46 -0.76
1.12 -12.6 2.92
1.49 -16.79 -0.29
1.53 -17.22 4.63
0.5 -5.92 -1.59
1.42 -16.63 0.29
0.55 -6.51 -1.51
1.42 -16.69 0.88
0.63 -7.36 -1.44
3.39 -39.83 3.5
0.72 -8.44 -1.34
1.15 -13.5 1.66
0.86 -10.08 -1.24
1.01 -11.85 -1.04
1.36 -15.97 3.12
1.23 -14.45 -0.76
1.44 -16.9 3.92
1.43 -16.76 -0.29
1.1 -12.97 3.49
0.48 -5.92 -1.59
1.37 -16.81 0.29
1.37 -16.73 0.88
0.6 -7.36 -1.43
0.69 -8.44 -1.34
1.09 -13.39 1.65
0.82 -10.07 -1.24
1.15 -14.03 2.23
0.97 -11.83 -1.04
1.4 -17.12 3.34
1.18 -14.41 -0.76
1.11 -13.55 3.14
1.38 -16.84 -0.29
1.41 -17.2 4.62
0.46 -5.93 -1.59
1.23 -15.72 0.28
1.31 -16.74 0.88
0.66 -8.44 -1.34
1.07 -13.66 1.68
0.78 -10.03 -1.24
1.08 -13.8 2.19
0.93 -11.96 -1.05
1.11 -14.19 2.77
1.14 -14.53 -0.76
1.26 -16.06 3.72
1.31 -16.82 -0.29
0.87 -11.18 3.01
0.44 -5.91 -1.59
1.26 -16.85 0.29
1.26 -16.83 0.88
1.15 -15.41 1.35
0.63 -8.45 -1.34
1.03 -13.79 1.7
0.75 -10 -1.23
1.19 -15.88 2.52
0.88 -11.73 -1.03
1.06 -14.19 2.77
1.09 -14.62 -0.77
0.92 -12.37 2.86
1.26 -16.85 -0.29
0.84 -11.26 3.02
0.42 -5.93 -1.59
1.2 -16.83 0.29
1.05 -14.71 0.77
0.52 -7.37 -1.44
0.6 -8.44 -1.34
0.98 -13.82 1.7
0.71 -9.96 -1.23
0.97 -13.69 2.17
0.83 -11.6 -1.02
1.04 -14.62 -0.77
0.8 -11.2 2.59
0.4 -5.93 -1.59
1.14 -16.88 0.3
1.14 -16.86 0.89
0.5 -7.37 -1.44
0.57 -8.44 -1.34
1.01 -14.93 1.84
0.68 -9.97 -1.23
0.94 -13.81 2.19
0.79 -11.61 -1.02
1.07 -15.76 3.07
0.98 -14.4 -0.76
1.17 -17.26 3.99
1 -14.77 -0.26
0.85 -12.5 3.36
1.09 -16.84 0.88
0.54 -8.44 -1.34
0.98 -15.17 1.87
0.64 -9.94 -1.22
0.91 -14.13 2.24
0.75 -11.63 -1.02
0.71 -10.99 2.14
0.93 -14.45 -0.76
1.1 -17 3.93
0.96 -14.84 -0.26
0.95 -15.53 0.27
1.03 -16.82 0.88
0.52 -8.45 -1.34
0.93 -15.25 1.88
0.61 -9.95 -1.22
0.86 -14.14 2.24
0.71 -11.64 -1.02
0.83 -13.58 2.64
0.88 -14.38 -0.75
0.69 -11.3 2.61
0.91 -14.94 -0.26
0.85 -13.85 3.72
0.98 -17.02 0.3
0.86 -14.93 0.78
0.84 -14.66 1.29
0.48 -8.46 -1.34
0.88 -15.39 1.89
0.57 -9.95 -1.22
0.81 -14.16 2.25
0.67 -11.69 -1.02
0.61 -10.72 2.09
0.82 -14.28 -0.75
0.7 -12.27 2.84
0.88 -15.34 -0.27
0.79 -13.84 3.72
0.79 -14.55 0.25
0.9 -16.65 0.87
2.61 -48.43 4.24
0.46 -8.44 -1.34
0.74 -13.76 1.69
0.54 -9.94 -1.22
0.63 -11.63 -1.02
0.59 -10.99 2.14
0.77 -14.29 -0.75
0.83 -15.46 -0.27
0.73 -14.59 0.26
0.75 -14.92 0.78
2.44 -48.48 4.25
0.42 -8.43 -1.34
0.69 -13.77 1.69
0.5 -9.92 -1.22
0.83 -16.42 2.6
0.59 -11.69 -1.02
0.7 -13.92 2.71
0.72 -14.25 -0.75
0.78 -15.43 -0.27
0.68 -13.49 3.62
0.69 -14.68 0.26
0.74 -15.65 0.82
2.28 -48.47 4.24
0.4 -8.44 -1.34
0.65 -13.76 1.69
0.47 -9.9 -1.22
0.77 -16.49 2.62
0.55 -11.73 -1.03
0.68 -14.54 2.83
0.66 -14.12 -0.74
0.54 -11.54 2.67
0.72 -15.4 -0.27
0.58 -12.32 3.3
0.65 -15.06 0.26
0.64 -14.76 0.77
1.61 -37.27 3.26
0.37 -8.44 -1.34
0.66 -15.22 1.87
0.43 -9.88 -1.21
0.6 -13.89 2.2
0.51 -11.77 -1.03
0.64 -14.69 2.86
0.74 -17.18 -0.9
0.69 -15.91 3.68
0.67 -15.4 -0.27
0.59 -13.73 3.68
0.59 -14.87 0.26
0.59 -14.71 0.77
0.68 -16.89 1.48
0.34 -8.44 -1.34
0.61 -15.32 1.88
0.39 -9.86 -1.21
0.66 -16.4 2.6
0.47 -11.65 -1.02
0.63 -15.8 3.07
0.58 -14.38 -0.75
0.54 -13.56 3.13
0.61 -15.36 -0.27
0.49 -12.28 3.29
0.55 -14.94 0.26
0.54 -14.82 0.78
0.62 -16.87 1.48
0.31 -8.44 -1.34
0.36 -9.86 -1.21
0.6 -16.24 2.57
0.43 -11.6 -1.02
0.58 -15.86 3.08
0.52 -14.26 -0.75
0.58 -15.8 3.65
0.56 -15.28 -0.27
0.45 -12.29 3.3
0.48 -14.52 0.76
0.56 -16.89 1.48
0.28 -8.43 -1.34
0.33 -9.82 -1.21
0.52 -15.67 2.48
0.38 -11.44 -1
0.46 -13.84 2.69
0.47 -14.24 -0.75
0.47 -14.14 3.79
0.41 -14.09 0.25
0.19 -6.47 -1.5
0.46 -15.85 0.83
0.47 -16.05 1.4
0.25 -8.44 -1.34
0.37 -12.64 1.55
0.29 -9.78 -1.2
0.38 -13.05 2.07
0.33 -11.42 -1
0.49 -16.78 3.26
0.41 -14.08 -0.74
0.41 -13.89 3.21
0.45 -15.37 -0.27
0.36 -12.23 3.28
0.38 -14.69 0.26
0.41 -15.87 1.39
0.22 -8.43 -1.34
0.35 -13.29 1.63
0.25 -9.77 -1.2
0.34 -13.07 2.07
0.3 -11.41 -1
0.34 -13.25 2.58
0.37 -14.38 -0.75
0.36 -13.87 3.2
0.35 -13.39 3.59
0.34 -15.21 0.27
0.36 -15.95 0.84
0.17 -7.35 -1.43
0.3 -13.27 1.16
0.19 -8.44 -1.34
0.34 -14.96 1.84
0.22 -9.77 -1.2
0.35 -15.66 2.48
0.26 -11.4 -1
0.31 -13.86 3.2
0.39 -17.44 -0.3
0.3 -13.32 3.57
0.27 -14 0.24
0.31 -15.96 0.84
0.14 -7.35 -1.43
0.3 -15.88 1.39
0.16 -8.43 -1.34
0.3 -15.75 1.93
0.19 -9.72 -1.19
0.31 -16.11 2.55
0.22 -11.4 -1
0.27 -14.28 -0.75
0.27 -13.94 3.22
0.29 -15.34 -0.27
0.26 -13.41 3.59
0.22 -14.15 0.25
0.25 -15.85 0.83
0.11 -7.35 -1.43
0.19 -12.52 1.1
0.13 -8.43 -1.34
0.2 -12.97 1.59
0.15 -9.73 -1.19
0.24 -15.69 2.49
0.18 -11.54 -1.01
0.21 -13.61 2.65
0.22 -14.2 -0.74
0.21 -13.56 3.13
0.21 -13.63 -0.24
0.25 -16.27 4.36
0.18 -14.89 0.26
0.17 -13.8 0.72
0.09 -7.34 -1.43
0.16 -13.36 1.17
0.1 -8.44 -1.34
0.18 -14.97 1.84
0.12 -9.69 -1.19
0.15 -12.62 2
0.13 -10.75 -0.94
0.16 -13.39 2.6
0.17 -14.32 -0.75
0.17 -13.52 3.12
0.18 -14.87 -0.26
0.2 -16.25 4.35
0.12 -14.22 0.25
0.12 -14.23 0.75
0.06 -7.34 -1.43
0.14 -16.56 1.45
0.07 -8.44 -1.34
0.13 -14.93 1.83
0.08 -9.68 -1.19
0.11 -13.09 2.07
0.1 -11.56 -1.01
0.11 -13.4 2.6
0.12 -14.42 -0.76
0.12 -13.57 3.13
0.12 -14.41 -0.25
0.1 -11.39 3.05
0.07 -13.9 0.24
0.08 -14.66 0.77
0.04 -7.32 -1.42
0.07 -13.62 1.19
0.04 -8.44 -1.34
0.07 -13.19 1.62
0.05 -9.66 -1.19
0.08 -16.17 2.56
0.06 -11.59 -1.01
0.07 -14.28 2.78
0.08 -14.5 -0.76
0.07 -13.62 3.15
0.08 -14.38 -0.25
0.07 -13.12 3.51
0.02 -13.78 0.24
0.03 -14.73 0.77
0.01 -7.34 -1.43
0.02 -13.6 1.19
0.01 -8.42 -1.33
0.02 -12.89 1.58
0.02 -9.65 -1.18
0.02 -11.58 -1.01
0.02 -14.27 2.77
0.03 -17.61 -0.92
0.02 -13.63 3.15
0.03 -17.53 -0.31
0.02 -13.07 3.5
-0.02 -14.08 0.25
-0.01 -6.45 -1.49
-0.02 -14.76 0.77
-0.01 -7.34 -1.43
-0.02 -13.62 1.19
-0.01 -8.43 -1.34
-0.02 -13.19 1.62
-0.02 -9.63 -1.18
-0.02 -14.36 2.27
-0.02 -11.61 -1.02
-0.02 -13.65 2.65
-0.02 -13.39 -0.7
-0.02 -14.6 3.37
-0.02 -14.26 -0.25
-0.02 -13.05 3.5
-0.08 -15.03 0.26
-0.03 -6.44 -1.49
-0.08 -14.71 0.77
-0.04 -7.33 -1.43
-0.07 -13.99 1.22
-0.04 -8.43 -1.34
-0.07 -12.94 1.59
-0.05 -9.58 -1.18
-0.07 -14.31 2.27
-0.06 -11.61 -1.02
-0.07 -13.64 2.65
-0.07 -13.93 -0.73
-0.08 -14.77 3.41
-0.08 -16.1 -0.28
-0.07 -13.06 3.5
-0.15 -17.56 0.31
-0.06 -6.44 -1.49
-0.13 -14.79 0.77
-0.06 -7.32 -1.42
-0.12 -14.24 1.25
-0.07 -8.44 -1.34
-0.11 -12.71 1.56
-0.08 -9.57 -1.17
-0.12 -13.82 2.19
-0.1 -11.64 -1.02
-0.12 -13.66 2.66
-0.12 -13.51 -0.71
-0.11 -12.31 2.84
-0.11 -13.07 3.5
-0.22 -17.65 0.31
-0.08 -6.44 -1.49
-0.18 -14.74 0.77
-0.09 -7.32 -1.42
-0.17 -14.27 1.25
-0.1 -8.43 -1.34
-0.16 -13 1.6
-0.12 -9.55 -1.17
-0.17 -13.77 2.18
-0.14 -11.5 -1.01
-0.2 -16.12 3.13
-0.16 -13.31 -0.7
-0.19 -15.4 3.56
-0.18 -14.62 -0.26
-0.16 -13.08 3.51
-0.22 -14.12 0.25
-0.1 -6.44 -1.49
-0.23 -14.75 0.77
-0.11 -7.31 -1.42
-0.25 -16.19 1.42
-0.13 -8.42 -1.33
-0.22 -14.25 1.75
-0.15 -9.54 -1.17
-0.18 -11.25 -0.98
-0.25 -16.14 3.14
-0.22 -14.36 -0.75
-0.25 -16.18 3.74
-0.23 -14.89 -0.26
-0.16 -10.3 2.76
-0.27 -14.34 0.25
-0.12 -6.42 -1.48
-0.29 -15.09 0.79
-0.14 -7.32 -1.42
-0.31 -16.18 1.42
-0.16 -8.42 -1.33
-0.27 -14 1.72
-0.18 -9.5 -1.17
-0.24 -12.57 1.99
-0.22 -11.55 -1.01
-0.22 -11.32 2.2
-0.34 -17.75 -0.93
-0.33 -17.58 4.06
-0.28 -14.46 -0.25
-0.35 -18.18 4.87
-0.34 -15.05 0.26
-0.14 -6.42 -1.48
-0.33 -14.77 0.77
-0.16 -7.32 -1.42
-0.32 -14.08 1.23
-0.19 -8.43 -1.34
-0.31 -13.85 1.7
-0.21 -9.5 -1.17
-0.29 -12.8 2.03
-0.25 -11.35 -0.99
-0.3 -13.16 2.56
-0.3 -13.59 -0.71
-0.39 -17.58 4.06
-0.31 -14.04 -0.25
-0.4 -18.05 4.84
-0.37 -14.3 0.25
-0.17 -6.42 -1.48
-0.42 -16.22 0.85
-0.19 -7.31 -1.42
-0.37 -14.27 1.25
-0.22 -8.43 -1.34
-0.36 -13.87 1.7
-0.25 -9.48 -1.16
-0.87 -33.08 5.24
-0.28 -10.62 -0.93
-0.34 -13.04 2.54
-0.35 -13.3 -0.7
-0.45 -17.11 3.95
-0.47 -17.79 -0.31
-0.34 -12.98 3.48
-0.43 -14.69 0.26
-0.19 -6.44 -1.49
-0.48 -16.24 0.85
-0.22 -7.3 -1.42
-0.42 -14.06 1.23
-0.25 -8.43 -1.34
-0.29 -9.71 1.19
-0.28 -9.47 -1.16
-0.41 -13.69 2.17
-0.31 -10.56 -0.92
-0.39 -13.26 -0.7
-0.4 -13.54 3.13
-0.43 -14.63 -0.26
-0.38 -12.95 3.47
-0.48 -14.68 0.26
-0.21 -6.43 -1.49
-0.47 -14.25 0.75
-0.24 -7.32 -1.42
-0.46 -13.93 1.22
-0.28 -8.42 -1.33
-0.32 -9.78 1.2
-0.31 -9.47 -1.16
-0.45 -13.77 2.18
-0.4 -12.12 -1.06
-0.48 -14.66 -0.77
-0.43 -13.11 3.03
-0.54 -16.37 -0.29
-0.43 -12.98 3.48
-0.53 -14.48 0.25
-0.23 -6.41 -1.48
-0.52 -14.21 0.75
-0.27 -7.32 -1.42
-0.48 -13.15 1.15
-0.31 -8.41 -1.33
-0.36 -9.83 1.21
-0.34 -9.47 -1.16
-0.36 -9.83 1.56
-0.37 -10.16 -0.89
-0.47 -13.02 2.53
-0.42 -11.45 -0.6
-0.48 -13.1 3.03
-0.59 -16.32 -0.29
-0.42 -11.63 3.12
-0.61 -15.36 0.27
-0.26 -6.41 -1.48
-0.57 -14.23 0.75
-0.29 -7.32 -1.42
-0.52 -13.02 1.14
-0.34 -8.42 -1.33
-0.4 -9.89 1.22
-0.38 -9.47 -1.16
-0.39 -9.86 1.56
-0.4 -9.95 -0.87
-0.67 -16.74 3.26
-0.4 -9.94 -0.52
-0.67 -16.76 3.87
-0.4 -9.93 -0.17
-0.53 -13.21 3.54
-0.43 -9.88 0.17
-0.28 -6.42 -1.48
-0.43 -9.87 0.52
-0.32 -7.3 -1.42
-0.43 -9.87 0.86
-0.37 -8.42 -1.33
-0.43 -9.86 1.21
-0.41 -9.51 -1.17
-0.43 -9.88 1.57
-0.43 -9.91 -0.87
-0.57 -13.24 2.58
-0.43 -9.91 -0.52
-0.64 -14.79 3.42
-0.43 -9.89 -0.17
-0.46 -9.86 0.17
-0.3 -6.44 -1.49
-0.46 -9.84 0.52
-0.34 -7.31 -1.42
-0.46 -9.83 0.86
-0.39 -8.41 -1.33
-0.46 -9.83 1.21
-0.44 -9.5 -1.17
-0.46 -9.81 1.55
-0.46 -9.91 -0.87
-0.46 -9.79 1.9
-0.46 -9.92 -0.52
-0.46 -9.78 2.26
-0.46 -9.87 -0.17
-0.46 -9.73 2.61
-0.49 -9.85 0.17
-0.32 -6.42 -1.49
-0.49 -9.83 0.52
-0.37 -7.31 -1.42
-0.49 -9.83 0.86
-0.42 -8.4 -1.33
-0.49 -9.81 1.21
-0.48 -9.5 -1.17
-0.49 -9.8 1.55
-0.5 -9.93 -0.87
-0.49 -9.76 1.9
-0.5 -9.93 -0.52
-0.49 -9.76 2.26
-0.5 -9.87 -0.17
-0.49 -9.71 2.61
-0.53 -9.86 0.17
-0.34 -6.41 -1.48
-0.53 -9.84 0.52
-0.39 -7.31 -1.42
-0.53 -9.83 0.86
-0.45 -8.4 -1.33
-0.53 -9.8 1.2
-0.51 -9.52 -1.17
-0.53 -9.8 1.55
-0.54 -9.96 -0.87
-0.52 -9.75 1.9
-0.53 -9.9 -0.52
-0.53 -9.77 2.26
-0.53 -9.9 -0.17
-0.52 -9.73 2.61
-0.57 -9.9 0.17
-0.37 -6.42 -1.49
-0.56 -9.86 0.52
-0.42 -7.3 -1.42
-0.57 -9.88 0.87
-0.48 -8.4 -1.33
-0.56 -9.81 1.21
-0.54 -9.5 -1.17
-0.56 -9.81 1.56
-0.61 -10.74 -0.94
-0.56 -9.77 1.9
-0.94 -16.43 -0.86
-0.56 -9.77 2.26
-0.95 -16.52 -0.29
-0.56 -9.75 2.62
-0.86 -14.2 0.25
-0.39 -6.42 -1.49
-0.79 -13.06 0.69
-0.44 -7.28 -1.42
-0.83 -13.7 1.2
-0.51 -8.41 -1.33
-0.76 -12.56 1.55
-0.58 -9.5 -1.17
-0.82 -13.41 2.13
-0.65 -10.7 -0.94
-0.71 -11.59 2.26
-0.86 -14.15 -0.74
-0.91 -14.91 -0.26
-0.91 -14.22 0.25
-0.41 -6.42 -1.49
-0.98 -15.33 0.81
-0.47 -7.29 -1.42
-0.88 -13.64 1.2
-0.54 -8.4 -1.33
-0.86 -13.46 1.66
-0.61 -9.49 -1.17
-0.9 -13.96 2.22
-0.68 -10.62 -0.93
-0.75 -11.67 2.27
-0.69 -10.71 -0.56
-0.78 -12.19 2.82
-0.9 -14.08 -0.25
-1.12 -17.48 4.69
-0.44 -6.41 -1.48
-0.88 -13.03 0.68
-0.5 -7.3 -1.42
-0.92 -13.61 1.19
-0.57 -8.39 -1.33
-0.91 -13.39 1.65
-0.64 -9.46 -1.16
-0.9 -13.34 2.12
-0.72 -10.58 -0.93
-0.79 -11.69 2.28
-0.82 -12.11 -0.64
-0.83 -12.21 2.83
-1.01 -14.87 -0.26
-1.08 -15.92 4.28
-1.01 -14.19 0.25
-0.46 -6.4 -1.48
-0.99 -13.84 0.73
-0.52 -7.3 -1.42
-0.97 -13.63 1.2
-0.6 -8.39 -1.33
-0.99 -13.95 1.72
-0.67 -9.44 -1.16
-0.95 -13.3 2.11
-0.76 -10.6 -0.93
-0.93 -13.03 2.54
-0.94 -13.21 -0.69
-0.9 -12.57 2.91
-1 -14.1 -0.25
-1.13 -15.91 4.28
-0.96 -12.81 0.22
-0.48 -6.4 -1.48
-1.04 -13.83 0.73
-0.55 -7.3 -1.42
-0.63 -8.39 -1.33
-1 -13.32 1.64
-0.71 -9.42 -1.16
-1.2 -16 2.54
-0.8 -10.66 -0.94
-0.98 -13.05 2.54
-0.95 -12.67 -0.67
-0.96 -12.88 2.98
-1.05 -14.06 -0.25
-0.94 -12.53 3.37
-1.11 -14.19 0.25
-0.5 -6.4 -1.48
-1.04 -13.3 0.7
-0.57 -7.29 -1.42
-1.25 -15.99 1.4
-0.66 -8.4 -1.33
-1.25 -15.92 1.96
-0.74 -9.4 -1.16
-1.25 -15.91 2.53
-0.85 -10.85 -0.95
-1.24 -15.89 3.1
-1.02 -13.01 3.01
-1.11 -14.21 -0.25
-1.22 -15.58 4.19
-1.17 -14.38 0.25
-0.52 -6.42 -1.49
-1.3 -15.92 0.84
-0.6 -7.29 -1.42
-1.3 -15.9 1.4
-0.69 -8.39 -1.33
-0.77 -9.4 -1.16
-1.3 -15.92 2.53
-0.89 -10.85 -0.95
-1.07 -13.05 2.54
-0.89 -10.87 -0.57
-0.97 -11.86 2.75
-1.11 -13.02 0.23
-0.55 -6.41 -1.49
-1.35 -15.91 0.84
-0.62 -7.29 -1.42
-1.1 -12.91 1.13
-0.71 -8.38 -1.33
-1.15 -13.5 1.66
-0.8 -9.42 -1.16
-1.35 -15.9 2.53
-0.92 -10.87 -0.95
-1.78 -20.88 4.07
-1.06 -12.5 -0.66
-1.07 -12.57 -0.22
-0.99 -11.58 3.11
-0.57 -6.39 -1.48
-1.33 -15.01 0.79
-0.65 -7.29 -1.42
-0.74 -8.38 -1.33
-1.41 -15.91 1.96
-0.83 -9.38 -1.16
-1.47 -16.6 2.64
-0.96 -10.87 -0.96
-0.97 -10.91 2.13
-1.29 -14.53 -0.76
-1.15 -12.95 3
-1.13 -12.76 -0.22
-1.03 -11.57 3.11
-1.17 -12.75 0.22
-0.59 -6.41 -1.49
-1.28 -13.84 0.73
-0.67 -7.29 -1.42
-1.42 -15.43 1.36
-0.77 -8.38 -1.33
-1.13 -12.25 1.51
-0.86 -9.38 -1.16
-1.16 -12.57 2
-1 -10.89 -0.96
-1 -10.87 2.12
-1.34 -14.51 -0.76
-1.14 -12.42 2.88
-1.16 -12.63 -0.22
-1.07 -11.56 3.11
-1.5 -15.62 0.27
-0.61 -6.42 -1.49
-1.76 -18.35 0.97
-0.7 -7.28 -1.42
-1.2 -12.54 1.1
-0.8 -8.39 -1.34
-1.19 -12.44 1.53
-0.9 -9.44 -1.16
-1.2 -12.49 1.99
-1.05 -10.93 -0.96
-1.04 -10.86 2.12
-1.22 -12.69 -0.67
-1.12 -11.65 2.7
-1.22 -12.7 -0.22
-1.31 -13.67 3.68
-1.49 -14.99 0.26
-0.64 -6.42 -1.49
-1.83 -18.41 0.97
-0.72 -7.28 -1.42
-1.23 -12.35 1.09
-0.83 -8.39 -1.33
-1.27 -12.81 1.58
-0.94 -9.48 -1.17
-1.23 -12.41 1.98
-1.09 -10.96 2.14
-1.67 -16.81 -0.89
-1.29 -12.96 3.01
-1.16 -11.72 3.16
-1.25 -12.14 0.21
-0.66 -6.41 -1.49
-1.9 -18.45 0.97
-0.75 -7.28 -1.42
-1.29 -12.53 1.1
-0.86 -8.37 -1.33
-1.45 -14.06 1.74
-0.97 -9.48 -1.17
-1.12 -10.87 -0.96
-1.12 -10.89 2.13
-1.29 -12.51 -0.66
-1.33 -12.93 3
-1.21 -11.78 3.17
-1.89 -17.75 0.31
-0.68 -6.41 -1.49
-1.54 -14.49 0.76
-0.77 -7.28 -1.42
-1.31 -12.35 1.09
-0.89 -8.37 -1.33
-1.31 -12.29 1.52
-1.01 -9.47 -1.17
-1.39 -13.04 2.08
-1.14 -10.76 -0.95
-1.18 -11.09 2.17
-1.26 -11.89 -0.63
-1.38 -13 -0.23
-1.49 -14.02 3.78
-2.04 -18.6 0.33
-1.59 -14.54 0.77
-0.8 -7.28 -1.42
-1.34 -12.23 1.08
-0.92 -8.37 -1.33
-1.4 -12.76 1.58
-1.03 -9.44 -1.17
-1.4 -12.83 2.04
-1.18 -10.74 -0.94
-1.3 -11.85 -0.62
-1.29 -11.74 2.73
-1.35 -12.32 -0.22
-1.53 -14.01 3.78
-2.1 -18.61 0.33
-2.1 -18.58 0.98
-0.82 -7.27 -1.42
-1.35 -11.97 1.05
-0.95 -8.38 -1.34
-1.39 -12.28 1.52
-1.07 -9.44 -1.17
-1.41 -12.49 1.99
-1.21 -10.74 -0.95
-1.24 -10.97 2.15
-1.24 -10.95 -0.58
-1.19 -10.52 2.45
-1.46 -12.88 -0.23
-1.25 -11.06 2.98
-1.38 -11.82 0.21
-2.17 -18.6 0.98
-0.85 -7.27 -1.42
-1.66 -14.23 1.25
-0.98 -8.37 -1.33
-1.43 -12.27 1.52
-1.08 -9.26 -1.15
-1.35 -11.61 1.85
-1.25 -10.68 -0.94
-1.67 -14.32 2.8
-1.4 -11.99 -0.63
-2.08 -17.88 4.15
-1.4 -11.99 -0.21
-1.7 -14.17 0.25
-1.99 -16.6 0.88
-0.87 -7.27 -1.42
-1.44 -12.01 1.06
-1 -8.36 -1.33
-1.71 -14.21 1.76
-1.1 -9.17 -1.13
-1.75 -14.6 2.33
-1.32 -10.99 -0.97
-1.43 -11.93 -0.63
-1.57 -13.11 3.05
-1.86 -15.49 -0.27
-2.03 -16.91 4.56
-1.98 -15.97 0.28
-1.93 -15.65 0.83
-0.9 -7.27 -1.42
-1.44 -11.65 1.03
-1.03 -8.36 -1.33
-1.97 -15.95 1.97
-1.16 -9.4 -1.16
-2.08 -16.83 2.69
-1.32 -10.64 -0.94
-2.09 -16.91 3.31
-1.49 -12.09 -0.64
-1.57 -12.7 2.95
-1.95 -15.76 -0.28
-2.11 -17.02 4.6
