# .PCD v0.7 - Point Cloud Data file format
VERSION 0.7
FIELDS x y z
SIZE 4 4 4
TYPE F F F
COUNT 1 1 1
WIDTH 2950
HEIGHT 1
VIEWPOINT 0 0 0 1 0 0 0
POINTS 2950
DATA ascii
-0.31 12.15 -1.06
-0.31 12.07 -0.21
-0.16 7.46 -2
-0.26 12.01 0.21
-0.2 9.53 -2.2
-0.25 11.69 -2.27
-0.27 12.44 -1.97
-0.28 13.25 -1.63
-0.26 12.07 -1.06
-0.26 12.17 -0.64
-0.26 12.02 -0.21
-0.14 7.47 -2
-0.22 12.1 0.21
-0.17 9.53 -2.2
-0.21 11.66 -2.27
-0.23 12.5 -1.98
-0.24 13.29 -1.63
-0.22 12.35 -0.65
-0.11 7.44 -1.99
-0.18 12.09 0.21
-0.14 9.53 -2.2
-0.17 11.68 -2.27
-0.19 12.52 -1.98
-0.19 12.69 -1.56
-0.19 13.06 -1.14
-0.2 13.15 -0.23
-0.09 7.44 -1.99
-0.14 12.22 0.21
-0.11 9.53 -2.2
-0.13 11.68 -2.27
-0.14 12.53 -1.98
-0.15 12.88 -1.58
-0.15 13.29 -1.16
-0.15 13.24 -0.69
-0.15 13.23 -0.23
-0.06 7.47 -2
-0.1 12.17 0.21
-0.07 9.52 -2.2
-0.09 11.67 -2.27
-0.1 12.5 -1.98
-0.1 12.69 -1.56
-0.1 12.65 -1.11
-0.1 12.13 -0.64
-0.03 7.46 -2
-0.06 12.17 0.21
-0.04 9.04 -2.09
-0.05 11.66 -2.27
-0.06 12.5 -1.98
-0.06 12.88 -1.58
-0.06 13.27 -1.16
-0.06 12.19 -0.64
-0.01 7.47 -2
-0.01 12.24 0.21
-0.01 9.49 -2.19
-0.01 11.64 -2.26
-0.01 12.48 -1.98
-0.01 12.72 -1.56
-0.01 13.34 -1.17
-0.01 12.25 -0.21
0.02 7.44 -1.99
0.03 12.24 0.21
0.03 9.52 -2.2
0.03 11.65 -2.26
0.03 12.53 -1.98
0.03 12.7 -1.56
0.03 12.59 -1.1
0.03 12.54 -0.66
0.03 12.39 -0.22
0.05 7.46 -2
0.07 12.25 0.21
0.06 9.52 -2.2
0.07 11.65 -2.26
0.08 12.47 -1.98
0.08 12.69 -1.56
0.07 12.22 -0.64
0.07 12.22 -0.21
0.07 7.45 -2
0.12 12.27 0.21
0.09 9.5 -2.19
0.11 11.64 -2.26
0.12 12.51 -1.98
0.12 12.8 -1.57
0.12 12.46 -1.09
0.12 12.26 -0.64
0.1 7.46 -2
0.16 12.5 0.22
0.12 9.49 -2.19
0.15 11.63 -2.26
0.16 12.5 -1.98
0.17 12.81 -1.57
0.17 12.84 -1.12
0.17 13.35 -0.7
0.16 12.18 -0.21
0.12 7.45 -2
0.2 12.27 0.21
0.16 9.5 -2.19
0.19 11.62 -2.26
0.2 12.53 -1.98
0.21 12.78 -1.57
0.2 12.32 -0.65
0.2 12.17 -0.21
0.15 7.43 -1.99
0.24 12.28 0.21
0.19 9.49 -2.19
0.23 11.6 -2.25
0.25 12.49 -1.98
0.27 13.33 -1.64
0.25 12.51 -1.09
0.26 13.03 -0.68
0.25 12.34 -0.22
0.17 7.43 -1.99
0.29 12.43 0.22
0.22 9.49 -2.19
0.27 11.63 -2.26
0.29 12.49 -1.98
0.29 12.61 -1.55
0.3 13.04 -0.68
0.2 7.43 -1.99
0.33 12.43 0.22
0.25 9.47 -2.19
0.31 11.6 -2.26
0.34 12.47 -1.98
0.34 12.58 -1.55
0.35 13 -0.68
0.34 12.75 -0.22
0.22 7.42 -1.99
0.38 12.38 0.22
0.28 9.4 -2.17
0.35 11.59 -2.25
0.47 15.38 1.35
0.38 12.49 -1.98
0.4 13.13 -0.23
0.25 7.42 -1.99
0.42 12.45 0.22
0.32 9.47 -2.19
0.53 15.67 0.82
0.39 11.56 -2.25
0.52 15.33 1.34
0.42 12.49 -1.98
0.45 13.27 -1.63
0.42 12.29 -0.64
0.42 12.27 -0.21
0.28 7.41 -1.99
0.46 12.39 0.22
0.35 9.46 -2.19
0.58 15.6 0.82
0.43 11.55 -2.25
0.57 15.25 1.34
0.47 12.5 -1.98
0.58 15.54 1.91
0.5 13.37 -1.64
0.46 12.44 -1.09
0.45 12.2 -0.21
0.3 7.4 -1.98
0.5 12.4 0.22
0.38 9.46 -2.18
0.63 15.51 0.81
0.47 11.57 -2.25
0.62 15.32 1.34
0.51 12.49 -1.98
0.63 15.46 1.9
0.55 13.4 -1.65
0.63 15.53 2.46
0.51 12.44 -1.09
0.52 12.7 -0.67
0.51 12.56 -0.22
0.33 7.39 -1.98
0.54 12.33 0.22
0.42 9.44 -2.18
0.66 15.03 0.79
0.51 11.56 -2.25
0.67 15.25 1.34
0.55 12.46 -1.98
0.68 15.35 1.89
0.68 15.34 2.43
0.55 12.46 -1.09
0.56 12.81 -0.67
0.35 7.39 -1.98
0.59 12.41 0.22
0.38 8.05 -1.86
0.7 14.78 0.78
0.55 11.55 -2.25
0.73 15.29 1.34
0.6 12.49 -1.98
0.73 15.3 1.88
0.64 13.39 -1.65
0.73 15.26 2.42
0.59 12.42 -1.09
0.63 13.22 -0.69
0.38 7.39 -1.98
0.63 12.43 0.22
0.48 9.43 -2.18
0.59 11.52 -2.24
0.77 15.17 1.33
0.64 12.51 -1.98
0.78 15.3 1.88
0.68 13.4 -1.65
0.78 15.22 2.41
0.63 12.38 -1.08
0.66 12.86 -0.67
0.68 13.26 -0.23
0.4 7.38 -1.98
0.68 12.35 0.22
0.52 9.43 -2.18
0.63 11.5 -2.24
0.83 15.13 1.33
0.69 12.57 -1.99
0.84 15.3 1.88
0.73 13.41 -1.65
0.83 15.16 2.4
0.73 13.38 -1.17
0.71 12.94 -0.68
0.68 12.47 -0.22
0.43 7.38 -1.98
0.72 12.33 0.22
0.55 9.42 -2.18
0.9 15.54 0.82
0.67 11.5 -2.24
0.88 15.11 1.32
0.73 12.55 -1.99
0.92 15.76 1.94
0.76 13.16 -1.62
0.88 15.14 2.4
0.72 12.34 -1.08
0.77 13.26 -0.7
0.72 12.43 -0.22
0.46 7.38 -1.98
0.76 12.27 0.21
0.58 9.41 -2.18
0.95 15.48 0.81
0.71 11.49 -2.24
0.93 15.1 1.32
0.77 12.5 -1.98
0.93 15.06 1.85
0.93 15.14 2.4
0.76 12.35 -1.08
0.81 13.18 -0.69
0.48 7.39 -1.98
0.8 12.32 0.22
0.61 9.4 -2.18
0.99 15.27 0.8
0.75 11.48 -2.24
0.99 15.17 1.33
0.82 12.54 -1.99
1 15.3 1.88
0.83 12.74 -1.57
0.99 15.13 2.4
0.81 12.39 -1.09
0.84 12.87 -0.68
0.8 12.33 -0.22
0.51 7.39 -1.99
0.85 12.32 0.22
0.6 8.79 -2.03
1.05 15.27 0.8
0.79 11.46 -2.23
1.04 15.2 1.33
0.86 12.51 -1.99
1.07 15.55 1.91
1.03 15.06 2.39
0.9 13.13 -1.15
1.05 15.27 2.97
0.92 13.38 -0.7
0.86 12.48 -0.22
0.53 7.39 -1.99
0.9 12.46 0.22
1.1 15.24 0.8
0.83 11.44 -2.23
1.08 15 1.32
0.9 12.55 -1.99
1.08 15.03 1.85
1.08 14.99 2.38
0.97 13.42 -1.18
1.1 15.2 2.96
0.96 13.26 -0.7
0.89 12.31 -0.22
0.56 7.4 -1.99
0.94 12.39 0.22
0.71 9.39 -2.17
1.13 14.99 0.79
0.86 11.45 -2.23
1.13 14.9 1.31
0.95 12.54 -1.99
1.15 15.18 1.87
1 13.23 -1.63
1.13 15 2.38
1.01 13.43 -1.18
1.15 15.18 2.96
0.58 7.4 -1.99
0.97 12.27 0.21
0.74 9.38 -2.17
1.14 14.41 0.76
0.9 11.44 -2.23
1.19 15.05 1.32
0.99 12.56 -1.99
1.19 15.1 1.86
1.05 13.26 -1.63
1.18 14.99 2.38
0.98 12.37 -1.09
1.2 15.23 2.97
0.98 12.4 -0.22
0.61 7.41 -1.99
1.01 12.28 0.22
0.77 9.36 -2.17
1.18 14.34 0.75
0.94 11.42 -2.23
1.22 14.82 1.3
1.04 12.59 -2
1.23 14.93 1.84
1.09 13.15 -1.62
1.25 15.15 2.41
1.03 12.43 -1.09
1.25 15.19 2.96
1.02 12.31 -0.65
1.02 12.32 -0.22
0.64 7.41 -1.99
1.06 12.32 0.22
0.77 8.93 -2.07
1.23 14.32 0.75
0.98 11.41 -2.23
1.29 14.93 1.31
1.08 12.57 -2
1.28 14.87 1.83
1.08 12.56 -1.55
1.31 15.21 2.42
1.07 12.38 -1.09
1.31 15.23 2.97
1.05 12.24 -0.64
0.66 7.4 -1.99
1.11 12.36 0.22
0.84 9.36 -2.17
1.35 15.08 0.79
1.02 11.42 -2.23
1.34 14.93 1.31
1.12 12.54 -1.99
1.33 14.79 1.82
1.2 13.37 -1.65
1.36 15.17 2.41
1.12 12.45 -1.09
1.37 15.32 2.99
1.13 12.56 -0.66
1.11 12.42 -0.22
0.69 7.41 -1.99
1.16 12.44 0.22
0.87 9.36 -2.17
1.39 14.98 0.79
1.06 11.41 -2.23
1.38 14.86 1.31
1.16 12.48 -1.99
1.38 14.77 1.82
1.23 13.23 -1.63
1.41 15.13 2.41
1.16 12.46 -1.09
1.15 12.32 -0.22
0.71 7.41 -1.99
1.2 12.44 0.22
0.9 9.33 -2.16
1.44 14.98 0.79
1.1 11.39 -2.22
1.42 14.78 1.3
1.2 12.43 -1.98
1.42 14.78 1.82
1.26 13.14 -1.62
1.46 15.14 2.41
1.21 12.58 -0.66
1.19 12.4 -0.22
0.74 7.42 -2
1.25 12.52 0.22
0.93 9.33 -2.17
1.49 14.93 0.79
1.13 11.36 -2.22
1.48 14.79 1.3
1.24 12.45 -1.98
1.5 14.98 1.85
1.34 13.46 -1.66
1.51 15.17 2.41
1.24 12.46 -1.1
1.25 12.55 -0.66
1.24 12.46 -0.22
0.77 7.39 -1.99
1.29 12.46 0.22
0.97 9.33 -2.16
1.55 14.99 0.79
1.18 11.34 -2.22
1.55 14.9 1.31
1.29 12.48 -1.99
1.54 14.81 1.83
1.38 13.3 -1.64
1.57 15.15 2.41
1.3 12.53 -1.1
1.3 12.52 -0.66
0.79 7.38 -1.99
1.33 12.42 0.22
1 9.32 -2.16
1.61 15.03 0.79
1.22 11.34 -2.22
1.6 14.95 1.32
1.35 12.57 -2
1.6 14.95 1.85
1.44 13.41 -1.66
1.63 15.21 2.42
1.36 12.65 -1.11
1.34 12.51 -0.66
1.32 12.33 -0.22
0.82 7.39 -1.99
1.4 12.63 0.22
1.03 9.31 -2.16
1.66 14.98 0.79
1.25 11.32 -2.21
1.65 14.86 1.31
1.39 12.52 -1.99
1.68 15.14 1.87
1.71 15.42 2.46
1.39 12.57 -1.11
1.39 12.59 -0.66
1.4 12.63 -0.22
0.84 7.39 -1.99
1.42 12.44 0.22
1.05 9.16 -2.13
1.72 15.02 0.79
1.29 11.3 -2.21
1.7 14.89 1.31
1.43 12.49 -1.99
1.72 15.07 1.86
1.47 12.84 -1.59
1.75 15.33 2.44
1.43 12.47 -1.1
1.41 12.34 -0.65
1.42 12.44 -0.22
0.87 7.41 -2
1.46 12.42 0.22
1.05 8.92 -2.07
1.76 14.98 0.79
1.33 11.3 -2.21
1.75 14.84 1.31
1.48 12.55 -2
1.77 15.01 1.86
1.49 12.7 -1.57
1.79 15.19 2.42
1.47 12.51 -1.1
1.47 12.49 -0.66
1.53 12.99 -0.23
0.89 7.38 -1.99
1.51 12.43 0.22
1.08 8.87 -2.06
1.81 14.94 0.79
1.37 11.27 -2.21
1.81 14.94 1.32
1.52 12.58 -2.01
1.83 15.08 1.86
1.56 12.84 -1.59
1.83 15.13 2.41
1.51 12.49 -1.1
1.5 12.35 -0.65
1.51 12.42 -0.22
0.92 7.35 -1.99
1.56 12.49 0.22
1.88 15.05 0.79
1.4 11.26 -2.21
1.88 15.1 1.33
1.56 12.51 -2
1.88 15.07 1.86
1.61 12.89 -1.6
1.89 15.14 2.42
1.56 12.5 -1.1
1.54 12.35 -0.65
1.58 12.64 -0.22
0.94 7.31 -1.97
1.61 12.55 0.22
1.14 8.87 -2.06
1.93 15.03 0.79
1.44 11.25 -2.2
1.94 15.09 1.33
1.6 12.49 -1.99
1.97 15.36 1.9
1.62 12.66 -1.57
1.62 12.62 -1.11
1.58 12.29 -0.65
1.6 12.44 -0.22
0.96 7.29 -1.97
1.64 12.45 0.22
1.98 15.05 0.8
1.48 11.24 -2.2
1.99 15.09 1.33
1.65 12.49 -2
1.97 14.95 1.85
1.69 12.82 -1.59
1.66 12.56 -1.11
1.62 12.32 -0.22
0.99 7.28 -1.97
1.69 12.49 0.22
1.1 8.14 -1.9
2.04 15.07 0.8
1.52 11.22 -2.2
2.04 15.07 1.33
1.69 12.48 -1.99
2.02 14.92 1.85
1.72 12.74 -1.58
1.74 12.84 -1.13
1.68 12.44 -0.66
1.67 12.36 -0.22
1.01 7.27 -1.97
1.74 12.57 0.22
1.13 8.14 -1.9
2.08 15.01 0.79
1.55 11.2 -2.2
2.08 15 1.32
1.73 12.51 -2
2.07 14.93 1.85
1.76 12.71 -1.58
1.76 12.66 -1.12
1.75 12.65 -0.67
1.72 12.38 -0.22
1.03 7.26 -1.97
1.78 12.5 0.22
1.16 8.14 -1.9
2.13 14.96 0.79
1.59 11.19 -2.2
2.12 14.93 1.32
1.78 12.52 -2
1.81 12.7 -1.58
1.79 12.58 -1.11
1.82 12.8 -0.68
1.76 12.41 -0.22
1.06 7.25 -1.96
1.81 12.46 0.22
1.19 8.15 -1.9
2.18 14.93 0.79
1.63 11.17 -2.19
2.17 14.91 1.32
1.82 12.51 -2
1.87 12.84 -1.59
1.84 12.6 -1.11
1.83 12.53 -0.66
1.08 7.25 -1.96
1.87 12.5 0.22
1.21 8.11 -1.89
1.67 11.16 -2.19
1.87 12.5 -2
1.94 13.03 -1.62
1.87 12.55 -1.11
1.9 12.73 -0.67
1.91 12.8 -0.23
1.11 7.25 -1.96
1.9 12.39 0.22
1.23 8.03 -1.88
4.67 30.5 1.62
1.71 11.16 -2.19
1.91 12.5 -2
1.94 12.71 -1.58
1.91 12.45 -1.1
1.91 12.46 -0.66
2 13.09 -0.23
1.13 7.24 -1.96
1.94 12.4 0.22
1.24 7.89 -1.84
4.76 30.38 1.61
1.74 11.13 -2.19
1.96 12.49 -2
2.02 12.9 -1.6
1.96 12.5 -1.11
1.95 12.44 -0.66
2.04 13.01 -0.23
1.15 7.21 -1.96
2 12.5 0.22
1.28 7.99 -1.87
4.87 30.43 1.61
1.78 11.11 -2.19
2 12.49 -2
2.03 12.7 -1.58
2.03 12.65 -1.12
1.98 12.38 -0.66
1.99 12.42 -0.22
1.18 7.21 -1.96
2.06 12.59 0.22
1.32 8.04 -1.88
4.97 30.36 1.61
1.82 11.12 -2.19
2.05 12.52 -2.01
6.55 39.98 4.97
2.06 12.6 -1.57
6.54 39.91 6.41
2.07 12.63 -1.12
2.04 12.45 -0.66
2.14 13.09 -0.23
1.2 7.2 -1.96
2.09 12.51 0.22
1.34 8.02 -1.88
5.08 30.41 1.62
1.86 11.1 -2.19
2.09 12.53 -2.01
6.66 39.87 4.96
2.1 12.58 -1.57
8.55 51.18 8.22
2.12 12.68 -1.12
2.07 12.37 -0.66
2.11 12.61 -0.22
1.23 7.21 -1.96
2.12 12.4 0.22
1.36 7.98 -1.87
5.21 30.52 1.62
1.89 11.08 -2.18
6.53 38.27 3.4
2.13 12.51 -2.01
2.14 12.55 -1.56
2.17 12.7 -1.13
6.57 38.51 7.59
2.11 12.39 -0.66
2.12 12.43 -0.22
1.25 7.19 -1.96
2.17 12.47 0.22
1.39 7.96 -1.87
5.31 30.47 1.62
1.93 11.06 -2.18
6.66 38.25 3.4
2.18 12.52 -2.01
6.57 37.72 4.7
2.2 12.62 -1.57
2.21 12.7 -1.13
2.15 12.35 -0.66
2.16 12.39 -0.22
1.27 7.16 -1.95
2.23 12.53 0.22
1.41 7.92 -1.86
5.4 30.42 1.62
1.96 11.05 -2.18
2.23 12.54 -2.02
7.06 39.74 4.96
2.25 12.66 -1.58
2.24 12.62 -1.12
2.21 12.41 -0.66
2.23 12.56 -0.22
1.3 7.16 -1.95
2.29 12.64 0.22
1.43 7.9 -1.85
5.54 30.49 1.62
2 11.04 -2.18
2.28 12.54 -2.02
7.2 39.68 4.95
2.29 12.64 -1.58
6.88 37.88 6.1
2.3 12.65 -1.12
7.06 38.87 7.68
2.24 12.35 -0.66
2.25 12.41 -0.22
1.32 7.15 -1.95
2.33 12.61 0.22
1.46 7.86 -1.85
5.65 30.5 1.63
2.04 11.02 -2.18
6.97 37.67 3.35
2.32 12.54 -2.02
7.31 39.48 4.93
2.5 13.53 -1.2
2.31 12.49 -0.67
2.29 12.39 -0.22
1.35 7.16 -1.95
2.38 12.6 0.22
1.48 7.85 -1.84
5.77 30.57 1.63
2.08 11.01 -2.18
2.36 12.52 -2.02
6.95 36.85 4.6
2.39 12.67 -1.58
2.4 12.73 -1.13
2.34 12.42 -0.66
2.35 12.48 -0.22
1.37 7.15 -1.95
1.52 7.9 -1.86
5.91 30.74 1.64
2.11 10.98 -2.17
2.41 12.56 -2.03
2.43 12.66 -1.58
2.41 12.53 -0.67
2.38 12.38 -0.22
1.39 7.12 -1.94
2.43 12.41 0.22
1.51 7.73 -1.82
6.03 30.8 1.64
2.15 10.96 -2.17
2.46 12.58 -2.03
7.77 39.67 4.96
2.49 12.69 -1.59
7.17 36.61 5.91
2.66 13.59 -1.21
7.49 38.27 7.58
2.46 12.59 -0.67
7.4 37.77 8.89
2.59 13.2 -0.23
1.42 7.11 -1.94
2.49 12.48 0.22
1.54 7.72 -1.82
6.22 31.17 1.67
2.18 10.95 -2.17
9.26 46.45 4.14
2.5 12.52 -2.02
2.53 12.7 -1.59
7.26 36.42 5.88
2.5 12.55 -0.67
7.65 38.39 9.04
2.47 12.4 -0.22
1.44 7.11 -1.94
2.54 12.51 0.22
1.57 7.72 -1.82
6.34 31.24 1.67
2.22 10.94 -2.17
2.54 12.5 -2.02
8.23 40.51 5.08
2.6 12.79 -1.6
2.76 13.6 -1.21
2.66 13.09 -0.7
2.75 13.52 -0.24
1.47 7.1 -1.94
2.62 12.66 0.23
1.6 7.73 -1.82
6.49 31.4 1.68
2.26 10.93 -2.17
2.58 12.51 -2.02
8.61 41.68 5.23
2.66 12.87 -1.61
7.76 37.54 6.07
2.81 13.61 -1.22
7.57 36.66 7.28
2.63 12.74 -0.68
7.61 36.84 8.69
2.6 12.58 -0.22
1.49 7.1 -1.94
2.64 12.53 0.22
1.64 7.78 -1.84
2.29 10.9 -2.16
7.58 36.02 3.22
2.63 12.5 -2.02
9.28 44.14 5.54
2.78 13.23 -1.66
8.89 42.28 6.84
2.61 12.39 -0.22
1.51 7.06 -1.94
2.69 12.56 0.22
1.68 7.84 -1.85
8.19 38.27 2.05
2.33 10.9 -2.17
2.67 12.5 -2.02
2.81 13.15 -1.65
8.26 38.62 6.26
2.86 13.39 -1.2
2.67 12.48 -0.67
8.12 37.97 8.96
2.66 12.42 -0.22
1.54 7.07 -1.94
2.75 12.65 0.23
1.7 7.82 -1.85
9.46 43.54 2.34
2.36 10.88 -2.16
11.03 50.78 4.55
2.72 12.53 -2.03
9.72 44.74 5.62
2.91 13.38 -1.68
8.21 37.77 6.12
2.93 13.5 -1.21
8.09 37.25 7.41
2.7 12.45 -0.67
8.04 37.02 8.75
2.69 12.38 -0.22
1.56 7.06 -1.94
2.76 12.51 0.22
1.71 7.73 -1.83
8.49 38.44 2.06
2.4 10.87 -2.16
7.97 36.08 3.23
2.78 12.58 -2.04
8.06 36.5 4.59
2.82 12.75 -1.6
2.97 13.46 -1.21
2.73 12.38 -0.66
2.75 12.46 -0.22
1.59 7.06 -1.94
2.8 12.44 0.22
1.74 7.74 -1.83
2.44 10.85 -2.16
8.82 39.2 3.52
2.84 12.61 -2.05
8.2 36.44 4.59
2.88 12.79 -1.61
7.79 34.64 5.62
3.04 13.53 -1.21
9.04 40.16 9.5
2.83 12.6 -0.23
1.61 7.05 -1.94
2.84 12.43 0.22
1.77 7.74 -1.83
10.6 46.36 2.49
2.47 10.82 -2.16
7.87 34.45 3.09
2.89 12.63 -2.05
2.91 12.71 -1.6
7.88 34.49 5.6
2.96 12.97 -1.16
9.17 40.12 8
2.83 12.37 -0.66
1.63 7.03 -1.93
2.89 12.46 0.22
1.8 7.74 -1.83
7.49 32.27 1.74
2.51 10.81 -2.16
9.03 38.93 3.5
2.93 12.62 -2.05
8.54 36.83 4.64
2.95 12.71 -1.6
10.63 45.83 7.45
2.98 12.86 -1.16
2.94 12.66 -0.68
2.92 12.59 -0.23
8.19 35.3 9.71
1.65 7.02 -1.93
2.96 12.55 0.23
1.82 7.74 -1.84
7.53 31.95 1.72
2.54 10.79 -2.16
10.39 44.09 3.96
2.97 12.61 -2.05
8.66 36.75 4.64
3.01 12.76 -1.61
8.75 37.14 6.04
2.98 12.67 -1.14
2.93 12.42 -0.67
2.94 12.47 -0.22
1.68 7.02 -1.93
2.98 12.43 0.22
1.85 7.74 -1.84
7.58 31.68 1.71
2.58 10.78 -2.15
8.68 36.26 3.26
3.02 12.61 -2.05
9.51 39.73 5.02
3.05 12.74 -1.61
9.12 38.11 6.21
3.06 12.81 -1.15
2.97 12.39 -0.67
9.3 38.85 9.22
2.97 12.4 -0.22
1.7 7.01 -1.93
3.02 12.42 0.22
1.88 7.74 -1.84
7.68 31.62 1.71
2.61 10.76 -2.15
10.12 41.65 3.75
3.06 12.61 -2.06
9.33 38.39 4.85
3.1 12.77 -1.61
8.72 35.88 5.85
3.04 12.52 -1.13
10.22 42.09 8.42
3.06 12.6 -0.68
3.04 12.51 -0.22
1.73 7 -1.93
3.06 12.42 0.22
1.91 7.74 -1.84
7.77 31.53 1.7
2.65 10.75 -2.15
7.9 32.04 2.89
3.11 12.61 -2.06
9.44 38.29 4.84
3.14 12.75 -1.61
8.44 34.23 5.58
3.09 12.52 -1.13
3.07 12.44 -0.67
8.27 33.54 7.97
3.09 12.52 -0.23
1.75 6.98 -1.93
3.11 12.44 0.22
1.94 7.75 -1.85
7.85 31.38 1.7
2.68 10.73 -2.15
7.96 31.81 2.87
3.16 12.62 -2.06
9.29 37.13 4.7
3.17 12.67 -1.6
3.13 12.52 -1.13
10.73 42.87 8.59
3.14 12.53 -0.68
3.12 12.47 -0.22
1.77 6.97 -1.93
3.15 12.39 0.22
1.97 7.77 -1.85
7.96 31.33 1.69
2.72 10.71 -2.15
8.06 31.73 2.86
3.2 12.61 -2.06
10.8 42.54 5.39
3.26 12.83 -1.63
10.83 42.64 6.97
3.24 12.74 -1.15
9.05 35.63 7.15
3.16 12.44 -0.67
3.15 12.42 -0.22
1.8 6.97 -1.93
3.2 12.43 0.22
2 7.74 -1.85
7.85 30.45 1.65
2.76 10.7 -2.15
8.15 31.64 2.86
3.25 12.6 -2.06
3.32 12.89 -1.63
8.61 33.43 5.47
3.28 12.73 -1.15
3.26 12.64 -0.68
8.62 33.45 7.97
3.22 12.49 -0.23
1.82 6.96 -1.93
3.3 12.63 0.23
2.03 7.76 -1.85
7.88 30.12 1.63
2.79 10.68 -2.15
8.22 31.45 2.84
3.29 12.58 -2.06
8.7 33.27 4.22
3.34 12.79 -1.62
10.06 38.48 6.3
3.38 12.94 -1.17
8.54 32.68 6.57
3.3 12.64 -0.68
3.26 12.45 -0.22
1.84 6.95 -1.93
3.34 12.59 0.23
2.06 7.76 -1.85
7.99 30.14 1.63
2.83 10.67 -2.15
8.42 31.75 2.87
3.34 12.59 -2.06
10.24 38.63 4.91
3.4 12.81 -1.63
3.36 12.67 -1.15
3.39 12.77 -0.69
3.31 12.47 -0.23
9.73 36.71 10.18
1.87 6.94 -1.92
3.36 12.48 0.23
2.09 7.76 -1.85
8.07 30.01 1.63
2.86 10.65 -2.14
8.52 31.7 2.87
3.38 12.58 -2.06
8.92 33.18 4.22
3.45 12.83 -1.63
8.67 32.24 5.29
3.41 12.67 -1.15
8.36 31.1 6.26
3.4 12.65 -0.69
9.09 33.8 8.08
3.35 12.44 -0.22
1.89 6.93 -1.92
3.41 12.5 0.23
2.11 7.74 -1.85
8.17 29.97 1.63
2.9 10.63 -2.14
8.6 31.54 2.86
3.43 12.57 -2.06
9.02 33.09 4.21
3.49 12.8 -1.63
10.37 38.03 6.24
3.46 12.69 -1.15
8.5 31.19 6.28
3.41 12.49 -0.68
3.39 12.44 -0.23
1.91 6.91 -1.92
3.44 12.46 0.23
2.14 7.75 -1.86
8.3 30.02 1.63
2.93 10.61 -2.14
8.78 31.78 2.88
3.48 12.59 -2.07
8.78 31.76 4.05
3.52 12.74 -1.62
3.5 12.66 -1.15
12.97 46.93 9.46
3.45 12.48 -0.68
3.44 12.45 -0.23
1.93 6.91 -1.92
3.48 12.41 0.23
2.17 7.75 -1.86
8.36 29.83 1.62
2.97 10.61 -2.14
8.96 32 2.91
3.53 12.59 -2.07
8.89 31.73 4.05
3.57 12.76 -1.63
8.98 32.04 5.27
3.52 12.55 -1.14
3.51 12.52 -0.68
8.76 31.27 7.5
3.49 12.45 -0.23
1.96 6.9 -1.92
3.53 12.43 0.23
2.21 7.77 -1.87
8.48 29.86 1.63
3 10.56 -2.13
9.08 31.98 2.91
3.57 12.58 -2.07
9.59 33.79 4.31
3.59 12.65 -1.61
10.38 36.55 6.02
3.58 12.62 -1.15
3.56 12.53 -0.68
3.66 12.9 -0.23
1.98 6.88 -1.92
3.57 12.42 0.23
2.24 7.79 -1.87
8.6 29.9 1.63
3.03 10.55 -2.13
9.14 31.78 2.89
3.61 12.54 -2.07
9.71 33.75 4.31
3.62 12.58 -1.61
3.63 12.61 -1.15
8.92 31.02 6.27
3.6 12.5 -0.68
12.83 44.61 10.72
3.6 12.52 -0.23
2 6.88 -1.92
3.62 12.43 0.23
2.27 7.79 -1.87
8.77 30.1 1.64
3.07 10.53 -2.13
9.3 31.89 2.91
3.65 12.54 -2.07
9.32 31.99 4.09
3.69 12.65 -1.62
9.71 33.3 5.49
3.69 12.65 -1.15
12.78 43.84 8.88
3.65 12.52 -0.68
10.59 36.34 8.74
3.81 13.09 -0.24
2.03 6.86 -1.92
3.69 12.51 0.23
2.29 7.76 -1.87
8.84 29.95 1.64
3.1 10.51 -2.13
15.13 51.24 4.67
3.71 12.55 -2.07
3.74 12.65 -1.62
7.82 26.47 4.37
3.75 12.69 -1.16
3.74 12.66 -0.69
3.68 12.46 -0.23
9.03 30.59 8.55
2.05 6.86 -1.92
3.77 12.6 0.23
2.32 7.76 -1.87
8.92 29.86 1.63
3.13 10.49 -2.13
9.67 32.36 2.95
3.75 12.55 -2.07
12.7 42.49 5.44
3.77 12.63 -1.62
7.86 26.31 4.35
3.78 12.66 -1.16
3.76 12.57 -0.69
3.74 12.52 -0.23
9.17 30.67 8.58
2.07 6.85 -1.92
3.85 12.72 0.23
2.35 7.76 -1.87
9.05 29.9 1.64
3.17 10.47 -2.13
9.68 31.97 2.92
3.79 12.54 -2.07
9.53 31.47 4.04
3.86 12.75 -1.64
8.82 29.14 4.82
3.82 12.63 -1.15
9.37 30.96 6.29
3.82 12.61 -0.69
11.53 38.09 9.19
3.78 12.49 -0.23
9.27 30.62 8.57
2.09 6.83 -1.91
3.85 12.54 0.23
2.38 7.77 -1.88
3.2 10.45 -2.12
9.31 30.36 2.78
3.84 12.51 -2.07
12.27 40 5.14
3.92 12.79 -1.64
8.16 26.61 4.41
3.86 12.6 -1.15
9.98 32.53 6.61
3.91 12.74 -0.7
9.55 31.13 7.52
3.86 12.59 -0.23
7.74 25.24 7.07
2.12 6.82 -1.91
3.9 12.56 0.23
2.41 7.76 -1.88
3.24 10.43 -2.12
10.77 34.68 3.18
3.87 12.48 -2.07
3.98 12.82 -1.65
8.25 26.57 4.41
3.94 12.68 -1.16
3.93 12.65 -0.69
3.9 12.55 -0.23
7.78 25.05 7.03
2.14 6.81 -1.91
4 12.74 0.23
2.43 7.72 -1.87
8.73 27.79 1.53
3.27 10.42 -2.12
9.53 30.33 2.78
3.93 12.52 -2.08
4.04 12.85 -1.65
3.96 12.6 -1.16
3.94 12.55 -0.69
9.57 30.45 7.37
3.98 12.68 -0.23
2.16 6.8 -1.91
4.07 12.8 0.23
2.45 7.71 -1.87
8.79 27.65 1.52
3.3 10.39 -2.12
11.4 35.84 3.29
3.97 12.5 -2.08
9.54 30 3.86
4.1 12.89 -1.66
10.28 32.34 5.37
4 12.59 -1.16
11.34 35.67 7.28
4 12.57 -0.69
7.96 25.03 6.06
4 12.59 -0.23
2.19 6.79 -1.91
4.15 12.89 0.24
2.48 7.71 -1.87
8.9 27.65 1.52
3.34 10.37 -2.12
4.03 12.52 -2.08
9.65 29.95 3.86
4.13 12.83 -1.66
9.34 28.99 4.82
4.05 12.58 -1.16
4.07 12.64 -0.7
4.03 12.51 -0.23
9.57 29.72 8.37
2.21 6.77 -1.91
4.13 12.66 0.23
2.51 7.7 -1.87
8.97 27.52 1.52
3.37 10.35 -2.12
11.05 33.91 3.12
4.08 12.52 -2.09
8.54 26.21 3.39
4.18 12.82 -1.66
11.31 34.71 5.78
4.1 12.57 -1.16
10.2 31.3 6.4
4.08 12.53 -0.69
8.2 25.16 6.11
8.35 25.62 7.22
2.23 6.76 -1.91
4.16 12.61 0.23
2.54 7.7 -1.87
9.05 27.46 1.52
3.41 10.34 -2.12
4.13 12.53 -2.09
9.9 30.04 3.88
4.24 12.88 -1.66
12.48 37.87 6.32
0.93 2.82 -0.26
9.98 30.29 6.2
4.1 12.45 -0.69
8.26 25.05 6.09
4.23 12.83 -0.24
8.56 25.99 7.33
2.25 6.75 -1.91
4.21 12.62 0.23
2.57 7.7 -1.87
8.58 25.73 1.42
3.44 10.33 -2.12
4.17 12.52 -2.09
11.08 33.24 4.3
0.93 2.79 -0.36
10.31 30.91 5.16
0.94 2.8 -0.26
10.09 30.26 6.2
0.94 2.81 -0.16
4.2 12.6 -0.23
2.27 6.73 -1.9
4.26 12.62 0.23
2.6 7.7 -1.88
8.62 25.55 1.41
3.48 10.3 -2.11
10.6 31.44 2.9
4.22 12.52 -2.09
12.74 37.77 4.89
9.4 27.87 4.66
10.17 30.15 7.35
4.24 12.56 -0.23
2.3 6.73 -1.91
4.32 12.65 0.23
2.63 7.72 -1.88
8.63 25.29 1.4
3.5 10.27 -2.11
10.7 31.37 2.9
4.27 12.52 -2.09
11.17 32.74 5.48
0.95 2.79 -0.26
0.94 2.76 -0.15
9.33 27.35 6.67
10.46 30.66 8.68
2.32 6.71 -1.9
4.38 12.69 0.23
2.66 7.72 -1.89
8.75 25.35 1.41
3.54 10.25 -2.11
4.32 12.51 -2.1
9.04 26.2 3.4
15.99 46.33 7.76
0.96 2.77 -0.26
8.66 25.1 5.16
0.95 2.75 -0.15
8.91 25.8 6.3
9.12 26.43 7.49
2.34 6.7 -1.9
4.44 12.72 0.24
2.7 7.73 -1.89
8.84 25.34 1.41
3.57 10.25 -2.11
11.62 33.29 3.08
0.94 2.7 -0.45
12.2 34.96 4.55
0.96 2.74 -0.25
9.3 26.65 5.49
0.95 2.73 -0.15
10.66 30.55 7.47
10.8 30.94 8.78
2.36 6.69 -1.9
4.48 12.69 0.23
2.72 7.72 -1.89
8.93 25.3 1.41
3.61 10.23 -2.11
12.32 34.91 4.55
12.78 36.23 6.08
0.96 2.72 -0.25
11.95 33.88 6.98
0.95 2.7 -0.15
7.1 20.12 4.93
2.38 6.68 -1.9
4.53 12.7 0.24
2.76 7.73 -1.89
9 25.24 1.4
3.64 10.21 -2.11
12.63 35.43 4.62
0.96 2.7 -0.35
0.97 2.71 -0.25
10.85 30.42 6.28
0.96 2.68 -0.15
9.74 27.3 6.69
0.96 2.7 -0.05
9.52 26.7 7.6
2.41 6.67 -1.9
0.95 2.63 0.05
2.79 7.74 -1.9
9.06 25.12 1.4
3.67 10.19 -2.11
0.95 2.65 -0.45
12.66 35.1 4.58
0.97 2.68 -0.35
12.2 33.82 5.69
0.97 2.69 -0.25
10.95 30.36 6.27
0.96 2.66 -0.15
7.18 19.91 4.89
0.97 2.68 -0.05
7.44 20.63 5.88
2.42 6.64 -1.89
0.95 2.6 0.05
2.82 7.74 -1.9
9.13 25.06 1.4
3.7 10.15 -2.1
12.77 35.04 3.26
0.96 2.64 -0.45
9.57 26.26 3.43
0.97 2.67 -0.35
9.21 25.28 4.26
0.97 2.66 -0.25
12.68 34.8 7.2
0.96 2.64 -0.15
0.97 2.66 -0.05
9.58 26.28 7.5
0.96 2.61 -0.74
0.97 2.62 -0.65
9.23 25.06 1.4
3.75 10.16 -2.11
0.97 2.62 -0.44
9.67 26.24 3.43
0.98 2.66 -0.35
10.65 28.89 4.88
0.97 2.64 -0.25
12.78 34.67 7.18
0.96 2.62 -0.15
9.77 26.51 6.52
0.97 2.64 -0.05
9.79 26.55 7.58
9.33 25.05 1.4
0.97 2.6 -0.54
14.57 39.12 3.65
0.97 2.61 -0.44
7.83 21.01 2.75
0.98 2.63 -0.35
7.99 21.45 3.63
0.98 2.62 -0.24
9.78 26.27 5.45
0.97 2.6 -0.15
13.21 35.47 8.74
0.98 2.62 -0.05
12.84 34.47 9.86
0.96 2.56 0.05
9.49 25.21 1.41
0.98 2.59 -0.54
0.98 2.6 -0.44
7.83 20.8 2.73
0.98 2.61 -0.34
8.1 21.52 3.64
0.98 2.61 -0.24
0.97 2.58 -0.14
7.5 19.92 4.91
0.98 2.6 -0.05
9.48 25.19 7.21
0.98 2.57 0.05
0.98 2.57 -0.63
9.58 25.18 1.41
0.98 2.58 -0.54
11.51 30.27 2.83
0.98 2.58 -0.44
9.75 25.64 3.37
0.99 2.59 -0.34
10.05 26.43 4.48
0.99 2.59 -0.24
17.01 44.71 9.3
0.97 2.56 -0.14
0.98 2.58 -0.05
16.8 44.16 12.66
0.98 2.56 -0.73
0.98 2.54 0.05
0.98 2.55 -0.63
10.82 28.19 1.58
0.98 2.56 -0.53
11.62 30.26 2.84
0.99 2.57 -0.44
9.84 25.62 3.37
0.99 2.57 -0.34
10.13 26.37 4.47
0.98 2.55 -0.24
13.16 34.28 7.14
0.98 2.54 -0.14
12.61 32.82 8.12
0.98 2.56 -0.05
9.68 25.2 7.23
0.99 2.54 -0.73
0.97 2.51 0.05
0.99 2.54 -0.63
0.98 2.54 -0.53
13.12 33.81 3.17
0.98 2.53 -0.43
8.06 20.78 2.74
0.99 2.55 -0.34
8.47 21.84 3.71
0.98 2.53 -0.24
17.24 44.42 9.26
0.98 2.52 -0.14
9.76 25.16 6.23
0.99 2.54 -0.05
0.99 2.53 -0.73
0.98 2.5 0.05
0.98 2.51 -0.62
11.83 30.17 1.7
0.98 2.51 -0.52
0.98 2.51 -0.43
8.24 21.02 2.77
0.99 2.52 -0.33
8.49 21.66 3.69
0.98 2.51 -0.24
14.16 36.12 7.54
0.98 2.49 -0.14
0.99 2.52 -0.05
9.35 23.84 6.86
0.99 2.51 -0.72
0.98 2.48 0.05
0.99 2.49 -0.62
13.4 33.83 1.91
10.39 26.23 2.47
0.99 2.5 -0.43
8.28 20.91 2.76
0.99 2.49 -0.33
8.58 21.67 3.69
0.99 2.5 -0.23
9.66 24.4 5.1
0.98 2.47 -0.14
11.27 28.46 7.07
0.98 2.48 -0.05
9.44 23.84 6.87
1 2.49 -0.72
0.99 2.47 0.05
0.99 2.48 -0.62
0.98 2.44 -0.51
10.48 26.19 2.47
0.99 2.48 -0.42
8.45 21.11 2.79
0.99 2.47 -0.33
18.47 46.16 7.87
0.99 2.47 -0.23
0.98 2.46 -0.14
8.66 21.65 5.38
0.98 2.45 -0.05
1 2.46 -0.71
0.99 2.45 0.05
1 2.47 -0.62
9.14 22.63 1.28
0.98 2.43 -0.51
13.83 34.22 3.23
0.99 2.46 -0.42
8.53 21.11 2.8
0.99 2.46 -0.33
8.78 21.74 3.71
0.99 2.44 -0.23
0.98 2.43 -0.14
10.22 25.28 6.29
0.98 2.43 -0.05
18.79 46.48 13.43
1 2.44 -0.71
0.99 2.42 0.05
1 2.44 -0.61
10.68 26.15 1.48
0.99 2.43 -0.51
11.43 28 2.65
0.99 2.43 -0.42
8.71 21.32 2.83
1 2.44 -0.32
14.82 36.31 6.21
0.99 2.43 -0.23
15.13 37.05 7.78
0.98 2.41 -0.14
10.74 26.31 6.56
0.99 2.42 -0.05
7.09 17.37 5.03
1 2.43 -0.7
0.99 2.39 0.05
1 2.42 -0.6
10.78 26.14 1.48
1 2.42 -0.51
18.62 45.17 4.27
0.99 2.41 -0.41
8.79 21.31 2.83
1 2.42 -0.32
15.21 36.89 6.32
0.99 2.41 -0.23
0.98 2.38 -0.13
9.67 23.45 5.86
0.99 2.41 -0.05
7.16 17.36 5.03
1.01 2.42 -0.7
1 2.41 -0.6
18.69 44.88 2.55
1 2.39 -0.41
15.32 36.78 4.89
1 2.4 -0.32
1 2.39 -0.23
11.56 27.76 5.85
0.98 2.36 -0.13
12.13 29.13 7.28
0.99 2.39 -0.05
12.1 29.06 8.43
1.01 2.4 -0.7
1.01 2.39 -0.6
11.59 27.56 1.57
1.02 2.43 -0.51
9.07 21.57 2.05
1 2.38 -0.41
15.51 36.89 4.91
1 2.38 -0.32
1 2.38 -0.23
10.67 25.38 5.35
0.99 2.35 -0.13
10.16 24.15 6.05
0.99 2.36 -0.04
7.18 17.08 4.96
1.01 2.37 -0.69
5.52 13 0.25
15.57 36.67 3.49
1 2.35 -0.4
9.3 21.91 2.92
1 2.36 -0.31
9.27 21.83 3.76
1 2.35 -0.22
0.99 2.33 -0.13
14.33 33.77 8.47
1 2.35 -0.04
7.31 17.22 5.01
5.59 13.04 0.25
15.7 36.64 2.09
3.68 8.59 -1.82
10.1 23.57 2.24
1 2.32 -0.4
1 2.34 -0.31
12.35 28.83 4.97
1 2.33 -0.22
12.35 28.81 6.09
0.99 2.31 -0.13
1 2.33 -0.04
11.09 25.89 7.55
2.78 6.43 -1.88
5.72 13.22 0.25
3.34 7.71 -1.94
15.82 36.56 2.09
15.29 35.34 3.37
1 2.3 -0.4
9.37 21.64 2.9
1 2.32 -0.31
12.43 28.72 4.96
1 2.31 -0.22
9.01 20.81 4.41
0.99 2.29 -0.13
11.36 26.26 6.61
1 2.32 -0.04
11.77 27.19 7.94
2.81 6.42 -1.88
5.73 13.12 0.25
3.34 7.65 -1.93
15.52 35.53 2.03
3.6 8.24 -1.75
1 2.29 -0.4
9.47 21.68 2.91
1 2.3 -0.31
9.39 21.5 3.72
1 2.3 -0.22
11.47 26.25 5.57
0.99 2.27 -0.13
11.37 26.04 6.56
7.54 17.27 5.05
2.83 6.41 -1.88
5.77 13.07 0.25
3.36 7.62 -1.92
9.76 22.12 1.27
3.63 8.22 -1.75
12.55 28.45 2.72
1.01 2.28 -0.4
1 2.28 -0.31
11.29 25.59 4.43
1 2.27 -0.22
11.54 26.17 5.56
1 2.26 -0.13
11.87 26.91 6.79
7.57 17.16 5.02
2.84 6.39 -1.87
5.77 12.97 0.25
3.38 7.6 -1.92
12.63 28.37 1.63
3.79 8.5 -1.81
9.93 22.3 2.14
9.63 21.63 2.91
1 2.26 -0.3
8.57 19.25 3.34
1 2.24 -0.21
1 2.24 -0.13
8.67 19.47 4.92
5.73 12.88 -0.25
7.63 17.15 5.03
2.87 6.38 -1.87
5.87 13.06 0.25
3.41 7.59 -1.92
10.22 22.75 1.31
9.78 21.76 2.09
11.73 26.1 3.51
11.75 26.14 4.54
1 2.23 -0.21
5.97 13.28 -0.25
7.74 17.21 5.06
2.89 6.37 -1.87
5.89 12.98 0.25
3.43 7.55 -1.91
11.84 26.11 1.5
3.88 8.56 -1.83
11.83 26.07 2.5
5.39 11.89 -2.07
11.8 26.02 3.51
11.23 24.75 4.31
11.71 25.8 5.51
6.14 13.53 -0.78
8.44 18.6 4.71
6.13 13.51 -0.26
11.21 24.71 7.27
2.91 6.36 -1.87
5.87 12.81 0.25
3.46 7.55 -1.92
11.88 25.95 1.5
3.86 8.42 -1.8
11.89 25.98 2.5
5.43 11.86 -2.07
9.83 21.46 2.9
5.88 12.85 -1.74
9.94 21.71 3.78
6.14 13.42 -1.29
9.9 21.62 4.62
5.93 12.95 -0.75
9.15 19.98 5.07
6.05 13.21 -0.25
7.93 17.31 5.1
2.93 6.34 -1.87
5.96 12.89 0.25
3.48 7.54 -1.92
11.98 25.92 1.5
3.89 8.41 -1.8
10.01 21.66 2.09
5.46 11.82 -2.06
11.64 25.19 3.41
5.95 12.88 -1.74
9.92 21.47 3.75
6.14 13.29 -1.28
9.18 19.88 4.26
6.11 13.22 -0.76
10.08 21.81 5.55
6 12.98 -0.25
9.55 20.67 6.1
2.95 6.32 -1.87
5.99 12.85 0.25
3.51 7.52 -1.91
12.01 25.75 1.49
4.04 8.66 -1.86
10.09 21.63 2.09
5.49 11.78 -2.06
11.7 25.1 3.4
5.97 12.81 -1.73
10.03 21.51 3.76
6.11 13.1 -1.26
12.1 25.96 5.57
6.16 13.21 -0.76
12.08 25.91 6.6
6.04 12.96 -0.25
8.67 18.59 5.5
2.97 6.31 -1.87
6.07 12.91 0.25
3.53 7.5 -1.91
12.05 25.61 1.48
4.06 8.62 -1.85
11.94 25.38 2.45
5.52 11.74 -2.05
10.32 21.93 2.98
6.11 12.98 -1.76
10.25 21.78 3.81
6.19 13.15 -1.27
10.16 21.59 4.64
6.14 13.05 -0.76
8.24 17.5 4.47
6.14 13.05 -0.25
2.99 6.3 -1.87
6.16 12.99 0.25
3.55 7.48 -1.91
12.14 25.58 1.48
4.1 8.64 -1.86
10.28 21.66 2.1
5.56 11.71 -2.05
10.28 21.66 2.94
6.15 12.96 -1.76
10.32 21.75 3.81
6.24 13.15 -1.27
12.1 25.5 5.49
6.24 13.15 -0.76
8.73 18.4 4.7
6.12 12.89 -0.25
8.87 18.69 5.54
3.01 6.29 -1.87
6.21 12.98 0.25
3.58 7.47 -1.91
10.37 21.64 1.26
4.12 8.59 -1.85
10.28 21.47 2.08
5.59 11.67 -2.05
13.2 27.57 3.75
6.2 12.94 -1.76
10.37 21.64 3.8
6.3 13.15 -1.28
9.97 20.82 4.49
6.19 12.94 -0.75
6.23 13 -0.25
9.89 20.64 6.13
3.03 6.28 -1.87
6.28 13 0.25
3.6 7.45 -1.91
10.45 21.62 1.26
4.09 8.46 -1.83
16.11 33.33 3.24
5.62 11.63 -2.05
10.48 21.7 2.96
6.23 12.9 -1.76
10.07 20.83 3.66
6.33 13.1 -1.27
9.17 18.97 4.1
6.26 12.95 -0.75
12.01 24.85 6.37
6.32 13.08 -0.25
3.05 6.25 -1.86
6.34 13 0.25
3.63 7.44 -1.91
16.21 33.26 1.94
4.03 8.27 -1.79
5.65 11.6 -2.04
15.84 32.48 4.44
6.29 12.91 -1.76
10.14 20.8 3.66
6.37 13.07 -1.27
6.39 13.11 -0.76
9.1 18.67 4.8
6.33 12.97 -0.25
8.81 18.08 5.39
3.07 6.24 -1.86
6.43 13.07 0.25
3.65 7.42 -1.91
16.36 33.27 1.94
4.06 8.25 -1.79
10.66 21.68 2.11
5.67 11.54 -2.04
9.49 19.29 2.64
6.35 12.91 -1.77
10.22 20.79 3.67
6.44 13.09 -1.28
9.13 18.57 4.02
6.43 13.08 -0.76
8.82 17.93 5.35
3.09 6.23 -1.86
6.44 12.97 0.25
3.67 7.39 -1.91
4.12 8.31 -1.8
10.74 21.65 2.11
5.71 11.51 -2.03
10.35 20.87 2.86
6.44 12.99 -1.78
13.76 27.74 4.9
6.56 13.22 -1.29
9.62 19.4 4.21
6.44 12.97 -0.76
9.25 18.63 4.8
6.4 12.91 -0.25
8.9 17.94 5.37
3.11 6.22 -1.86
6.51 13 0.25
3.69 7.37 -1.9
16.26 32.49 1.9
4.16 8.3 -1.81
9.04 18.06 1.77
5.74 11.47 -2.03
9.66 19.3 2.65
6.45 12.88 -1.77
13.86 27.69 4.9
6.58 13.15 -1.29
9.69 19.35 4.21
6.49 12.97 -0.76
9.3 18.57 4.8
6.46 12.91 -0.25
8.99 17.97 5.38
3.13 6.2 -1.86
6.85 13.57 0.27
3.72 7.37 -1.91
10.91 21.6 1.27
4.16 8.24 -1.79
5.78 11.44 -2.03
9.31 18.44 2.54
6.49 12.86 -1.77
17.02 33.71 5.98
6.65 13.18 -1.29
9.42 18.65 4.06
6.56 12.99 -0.76
8.89 17.6 4.55
6.62 13.11 -0.26
8.3 16.44 4.94
3.14 6.17 -1.86
6.91 13.58 0.27
3.74 7.35 -1.9
13.29 26.1 1.53
4.19 8.23 -1.79
10.6 20.82 2.04
5.81 11.4 -2.03
9.39 18.44 2.54
6.54 12.85 -1.77
13.38 26.26 4.67
6.93 13.6 -1.34
9.45 18.55 4.05
6.93 13.61 -0.8
9.07 17.82 4.62
6.67 13.1 -0.26
12.91 25.35 7.62
3.17 6.17 -1.86
7.02 13.67 0.27
3.77 7.34 -1.9
13.38 26.05 1.53
4.23 8.24 -1.8
10.65 20.73 2.04
5.84 11.36 -2.02
10.2 19.86 2.74
6.59 12.83 -1.77
9.52 18.54 3.3
7.1 13.82 -1.36
7.09 13.8 -0.81
15.69 30.55 7.93
6.56 12.77 -0.25
13.37 26.03 7.84
3.19 6.15 -1.86
6.65 12.83 0.25
3.79 7.31 -1.9
10.86 20.96 1.24
4.2 8.1 -1.77
10.77 20.8 2.05
5.87 11.33 -2.02
8.97 17.32 2.4
6.66 12.86 -1.78
9.58 18.5 3.3
7.2 13.91 -1.37
7.12 13.74 -0.81
6.61 12.76 -0.25
8.55 16.51 4.98
3.21 6.15 -1.86
6.68 12.79 0.25
3.81 7.3 -1.9
10.84 20.76 1.23
4.24 8.12 -1.78
23.37 44.75 4.42
5.9 11.3 -2.02
9.35 17.9 2.48
6.72 12.86 -1.78
6.69 12.8 -1.26
8.9 17.03 3.73
6.67 12.78 -0.76
9.68 18.54 4.83
6.67 12.77 -0.25
16.35 31.3 9.46
3.23 6.13 -1.86
6.68 12.69 0.25
3.83 7.28 -1.9
10.84 20.57 1.22
4.26 8.09 -1.78
9.46 17.97 1.78
5.93 11.26 -2.02
9.72 18.46 2.56
6.71 12.74 -1.77
10.09 19.15 3.43
6.72 12.76 -1.26
9.45 17.93 3.94
6.94 13.18 -0.78
6.72 12.76 -0.25
8.66 16.44 4.98
3.24 6.1 -1.85
6.66 12.55 0.25
3.86 7.26 -1.9
10.97 20.65 1.23
4.28 8.06 -1.77
16.68 31.4 3.11
5.95 11.21 -2.01
11.74 22.1 3.07
6.82 12.84 -1.78
13.88 26.13 4.69
7.3 13.75 -1.36
9.34 17.59 3.87
7.05 13.28 -0.79
12.61 23.74 6.21
6.79 12.78 -0.25
10.6 19.96 6.06
3.26 6.09 -1.85
7.34 13.69 0.27
3.88 7.25 -1.9
4.33 8.08 -1.78
9.89 18.46 1.83
5.98 11.16 -2.01
10.41 19.44 2.71
6.84 12.77 -1.78
10.4 19.42 3.49
7.32 13.67 -1.36
9.41 17.56 3.87
7.3 13.62 -0.81
13.71 25.59 6.7
7.51 14.01 -0.28
8.79 16.41 4.99
3.29 6.08 -1.85
7.33 13.58 0.27
3.9 7.21 -1.89
11.65 21.57 1.28
4.38 8.1 -1.79
10.05 18.59 1.85
6.01 11.13 -2
10.36 19.18 2.68
6.89 12.75 -1.78
10.4 19.26 3.47
7.31 13.54 -1.35
7.49 13.86 -0.83
14.12 26.13 6.86
7.52 13.92 -0.28
9.69 17.94 5.46
3.31 6.07 -1.85
7.34 13.47 0.27
3.92 7.2 -1.89
10.02 18.39 1.1
4.42 8.11 -1.8
11.95 21.94 2.19
6.05 11.11 -2
7.06 12.96 -1.81
7.35 13.48 -1.34
9.56 17.55 3.88
7.53 13.81 -0.82
8.99 16.5 4.34
7.54 13.84 -0.28
9.75 17.89 5.46
3.32 6.05 -1.85
7.41 13.5 0.27
3.95 7.18 -1.89
4.44 8.09 -1.79
9.94 18.09 1.81
6.08 11.08 -2
9.18 16.71 2.34
7.09 12.9 -1.81
7.3 13.3 -1.33
7.34 13.37 -0.8
9.84 17.92 4.72
7.6 13.84 -0.28
9.83 17.89 5.47
3.34 6.03 -1.85
7.7 13.9 0.28
3.97 7.16 -1.89
12.05 21.75 1.3
4.48 8.09 -1.8
11.55 20.86 2.09
6.12 11.04 -2
9.3 16.79 2.36
7.13 12.88 -1.81
9.3 16.79 3.04
7.66 13.84 -1.38
9.92 17.91 3.98
7.75 13.99 -0.84
7.74 13.97 -0.28
3.36 6.01 -1.84
7.68 13.75 0.27
3.99 7.15 -1.89
10.4 18.62 1.12
4.52 8.09 -1.8
11.56 20.7 2.07
6.14 10.99 -1.99
10.05 18 2.53
7.18 12.85 -1.81
9.35 16.75 3.04
7.81 13.98 -1.4
16.45 29.46 6.56
7.51 13.44 -0.81
9.27 16.6 4.39
7.85 14.05 -0.28
3.38 6 -1.84
7.68 13.64 0.27
4.01 7.12 -1.89
13.03 23.14 1.39
4.55 8.08 -1.8
11.2 19.89 2
6.17 10.95 -1.99
10.11 17.96 2.53
7.23 12.85 -1.81
9.8 17.4 3.16
7.94 14.1 -1.42
9.27 16.46 3.67
7.95 14.12 -0.85
12.05 21.41 5.67
7.93 14.08 -0.28
10.11 17.96 5.52
3.4 5.99 -1.85
7.89 13.9 0.28
4.03 7.09 -1.88
11.25 19.82 1.19
4.59 8.09 -1.81
10.26 18.08 1.82
6.2 10.92 -1.99
7.29 12.85 -1.81
11.13 19.62 3.57
7.56 13.32 -1.34
7.5 13.21 -0.8
9.66 17.02 4.52
7.63 13.44 -0.27
10.35 18.24 5.62
3.42 5.97 -1.84
7.6 13.28 0.27
4.05 7.08 -1.88
13.19 23.05 1.39
4.63 8.09 -1.81
10.3 18 1.81
6.23 10.89 -1.99
12.08 21.12 2.99
7.34 12.82 -1.81
12.08 21.11 3.85
7.61 13.3 -1.34
12.11 21.15 4.74
7.59 13.26 -0.8
9.77 17.07 4.54
7.68 13.42 -0.27
12.25 21.4 6.61
3.43 5.95 -1.84
7.8 13.51 0.27
4.08 7.06 -1.88
10.42 18.06 1.09
4.66 8.08 -1.81
6.26 10.84 -1.98
11.25 19.51 2.77
7.37 12.78 -1.81
9.31 16.13 2.95
7.73 13.4 -1.35
10.47 18.15 4.07
7.63 13.23 -0.8
10.52 18.23 4.86
7.72 13.38 -0.27
3.45 5.93 -1.84
7.98 13.73 0.28
4.09 7.04 -1.88
10.03 17.25 1.05
4.69 8.06 -1.81
10.76 18.5 1.87
6.28 10.8 -1.98
9.62 16.54 2.35
7.42 12.76 -1.81
17.37 29.88 5.47
7.73 13.29 -1.34
9.88 17 3.82
7.7 13.25 -0.8
7.77 13.37 -0.27
14.35 24.69 7.65
3.47 5.92 -1.84
8.09 13.81 0.28
4.11 7.02 -1.88
10.08 17.2 1.04
4.75 8.1 -1.82
11.39 19.43 1.97
6.31 10.76 -1.98
10.67 18.21 2.59
7.45 12.72 -1.81
10.65 18.17 3.34
7.77 13.26 -1.34
10.1 17.23 3.88
7.85 13.39 -0.81
9.81 16.74 4.48
7.94 13.54 -0.27
3.49 5.91 -1.84
8.01 13.56 0.27
4.13 7 -1.88
10.76 18.23 1.11
4.79 8.12 -1.83
17.91 30.33 3.08
6.33 10.73 -1.97
10.7 18.12 2.58
7.5 12.7 -1.81
10.71 18.14 3.34
7.92 13.41 -1.36
10.11 17.13 3.87
8.1 13.72 -0.84
9.79 16.59 4.45
8.07 13.67 -0.28
3.5 5.89 -1.84
7.99 13.43 0.27
4.16 6.98 -1.88
10.45 17.56 1.07
4.81 8.09 -1.83
10.8 18.15 1.85
6.36 10.69 -1.97
10.77 18.1 2.59
7.54 12.66 -1.81
10.43 17.52 3.23
7.97 13.38 -1.36
10.62 17.84 4.03
7.96 13.38 -0.82
9.94 16.71 4.49
8.04 13.51 -0.27
3.52 5.87 -1.83
8.14 13.56 0.28
4.18 6.96 -1.88
10.53 17.55 1.07
4.85 8.08 -1.83
10.85 18.08 1.84
6.39 10.66 -1.97
17.56 29.26 4.19
7.63 12.71 -1.82
8.04 13.39 -1.37
10.21 17.01 3.86
8.05 13.41 -0.82
7.99 13.31 -0.27
9.93 16.54 5.17
3.54 5.85 -1.83
8.11 13.41 0.27
4.2 6.95 -1.87
10.95 18.11 1.11
4.88 8.07 -1.83
10.38 17.15 1.75
6.42 10.61 -1.96
11.26 18.61 2.67
7.7 12.73 -1.83
9.96 16.46 3.05
8.16 13.49 -1.38
13.79 22.79 5.18
8.11 13.4 -0.82
8.2 13.56 -0.28
10 16.53 5.18
3.56 5.85 -1.83
8.11 13.31 0.27
4.22 6.92 -1.87
11.01 18.06 1.11
4.91 8.06 -1.83
10.48 17.19 1.76
6.45 10.58 -1.96
11.3 18.55 2.67
7.73 12.69 -1.82
9.96 16.34 3.03
8.24 13.52 -1.39
10.31 16.91 3.85
8.21 13.48 -0.83
8.18 13.42 -0.27
3.58 5.83 -1.83
8.24 13.42 0.27
4.24 6.9 -1.87
4.95 8.06 -1.84
6.47 10.54 -1.96
10.49 17.08 2.46
7.69 12.52 -1.8
16.21 26.39 4.9
8.25 13.42 -1.38
10.58 17.23 3.93
8.2 13.36 -0.82
17.63 28.71 7.78
8.28 13.48 -0.28
10.36 16.86 5.3
3.6 5.81 -1.83
8.42 13.59 0.28
4.27 6.89 -1.87
4.99 8.06 -1.84
10.79 17.42 1.79
6.51 10.51 -1.96
7.83 12.65 -1.83
18.5 29.88 5.57
8.31 13.43 -1.38
10.92 17.63 4.03
8.28 13.37 -0.82
11.97 19.32 5.25
8.33 13.45 -0.28
12.02 19.41 6.12
3.62 5.79 -1.83
8.33 13.35 0.27
4.29 6.87 -1.87
12.42 19.89 1.23
5.03 8.06 -1.85
10.4 16.66 1.72
6.53 10.46 -1.95
10.87 17.42 2.52
7.83 12.55 -1.82
10.83 17.35 3.24
8.85 14.17 -1.46
10.64 17.04 3.9
8.32 13.33 -0.82
10.51 16.83 4.58
8.33 13.35 -0.27
11.35 18.18 5.74
3.63 5.77 -1.83
8.41 13.37 0.28
4.31 6.85 -1.87
11.02 17.53 1.09
5.07 8.06 -1.85
10.94 17.39 1.8
6.55 10.42 -1.95
10.92 17.36 2.52
7.88 12.53 -1.82
10.89 17.31 3.24
8.85 14.07 -1.45
10.68 16.99 3.9
8.37 13.3 -0.82
11.47 18.23 4.97
8.45 13.43 -0.28
10.07 16.01 5.07
3.66 5.77 -1.83
8.62 13.6 0.28
4.32 6.82 -1.86
11.09 17.5 1.09
5.13 8.09 -1.86
10.94 17.26 1.79
6.59 10.4 -1.95
10.99 17.34 2.52
7.91 12.48 -1.81
12.13 19.14 3.59
8.76 13.83 -1.43
11.11 17.53 4.03
8.5 13.4 -0.83
10.86 17.14 4.68
8.53 13.46 -0.28
10.5 16.57 5.26
3.67 5.74 -1.83
8.66 13.56 0.28
4.35 6.8 -1.86
11.09 17.36 1.08
5.16 8.08 -1.86
11.07 17.33 1.8
6.62 10.36 -1.95
11.05 17.29 2.52
7.94 12.43 -1.81
11.13 17.42 3.27
8.74 13.68 -1.42
11.07 17.33 4
8.62 13.49 -0.84
10.9 17.06 4.67
8.66 13.55 -0.28
21.17 33.14 10.54
3.69 5.73 -1.83
8.61 13.38 0.28
4.37 6.79 -1.86
10.69 16.6 1.03
5.2 8.09 -1.87
10.63 16.51 1.72
6.65 10.32 -1.94
11.7 18.17 2.65
7.99 12.41 -1.81
11.71 18.19 3.43
8.88 13.79 -1.43
13.56 21.07 4.87
8.71 13.54 -0.84
13.57 21.08 5.79
8.51 13.22 -0.27
13.57 21.08 6.72
3.7 5.71 -1.82
8.61 13.28 0.28
4.39 6.76 -1.86
11.26 17.36 1.08
5.25 8.09 -1.87
10.66 16.44 1.71
6.67 10.29 -1.94
11.81 18.2 2.66
8.02 12.37 -1.81
9.69 14.94 2.82
8.83 13.61 -1.42
12.54 19.34 4.48
8.8 13.57 -0.85
18.19 28.04 7.71
8.93 13.77 -0.29
13.17 20.3 6.48
3.72 5.69 -1.82
8.68 13.28 0.28
4.41 6.75 -1.86
11.32 17.32 1.08
5.29 8.09 -1.88
11.16 17.07 1.78
6.69 10.24 -1.94
11.9 18.2 2.67
8.08 12.36 -1.81
10.06 15.39 2.91
8.99 13.76 -1.44
10.49 16.05 3.73
9.06 13.87 -0.87
13.22 20.22 5.58
8.63 13.2 -0.28
3.74 5.67 -1.82
8.8 13.37 0.28
4.43 6.72 -1.86
11.98 18.2 1.14
5.34 8.11 -1.89
11.01 16.72 1.75
6.72 10.21 -1.94
10.8 16.4 2.41
8.14 12.36 -1.82
21.71 32.98 6.25
8.97 13.62 -1.43
10.55 16.03 3.73
8.92 13.55 -0.85
10.63 16.15 4.46
9.17 13.93 -0.29
3.76 5.67 -1.82
9.14 13.78 0.29
4.45 6.7 -1.86
11.01 16.59 1.04
5.39 8.12 -1.89
10.21 15.38 1.62
6.75 10.18 -1.93
8.19 12.35 -1.82
12.03 18.14 3.45
9.15 13.79 -1.45
12.02 18.12 4.23
9.12 13.75 -0.86
10.77 16.24 4.5
8.89 13.4 -0.28
13.16 19.84 6.38
3.78 5.65 -1.82
8.93 13.36 0.28
4.47 6.69 -1.86
11.23 16.81 1.06
5.42 8.11 -1.9
11.14 16.66 1.75
6.78 10.15 -1.93
10.67 15.96 2.36
8.18 12.23 -1.81
16.5 24.69 4.7
9.16 13.7 -1.44
10.79 16.14 3.77
9.04 13.52 -0.85
10.79 16.14 4.48
8.95 13.39 -0.28
12 17.96 5.79
3.79 5.63 -1.82
9.08 13.48 0.28
4.49 6.66 -1.85
11.56 17.16 1.08
5.47 8.12 -1.9
10.89 16.18 1.71
6.81 10.1 -1.93
10.77 15.99 2.37
8.22 12.21 -1.81
9.5 14.11 2.69
9.19 13.65 -1.44
10.78 16.01 3.75
9.1 13.51 -0.85
20.58 30.56 8.51
9.09 13.49 -0.28
12.29 18.25 5.9
3.81 5.61 -1.82
9.06 13.35 0.28
4.51 6.65 -1.85
11.13 16.4 1.04
5.51 8.12 -1.91
10.36 15.27 1.61
6.83 10.06 -1.93
10.81 15.93 2.36
8.28 12.21 -1.81
9.86 14.54 2.78
9.18 13.53 -1.43
10.12 14.91 3.5
9.21 13.57 -0.86
10.74 15.83 4.42
9.6 14.15 -0.3
11.88 17.51 5.67
3.83 5.6 -1.82
9.18 13.43 0.28
4.52 6.62 -1.85
11.2 16.38 1.04
5.55 8.11 -1.91
10.45 15.28 1.62
6.85 10.02 -1.92
30.93 45.23 6.73
8.32 12.17 -1.81
9.75 14.26 2.74
9.19 13.45 -1.43
10.18 14.89 3.51
9.19 13.44 -0.85
10.99 16.07 4.49
9.1 13.31 -0.28
12.95 18.94 6.15
3.85 5.59 -1.82
9.17 13.31 0.28
4.54 6.6 -1.85
10.81 15.69 1
5.57 8.09 -1.91
11.18 16.23 1.72
6.88 9.99 -1.92
11.79 17.13 2.55
8.34 12.12 -1.81
9.75 14.16 2.72
9.24 13.42 -1.43
11.44 16.62 3.92
9.16 13.31 -0.85
11.04 16.04 4.5
9.32 13.54 -0.29
20.15 29.27 9.52
3.86 5.57 -1.82
9.26 13.35 0.28
4.56 6.58 -1.85
16.52 23.82 1.52
5.6 8.07 -1.91
14.05 20.25 2.16
6.91 9.96 -1.92
21 30.27 4.52
8.39 12.09 -1.81
10.07 14.52 2.8
9.41 13.56 -1.44
10.5 15.14 3.58
9.31 13.41 -0.86
20.78 29.95 8.42
9.31 13.43 -0.29
10.84 15.62 5.09
3.88 5.55 -1.81
9.33 13.35 0.28
4.58 6.56 -1.85
11.36 16.25 1.04
5.62 8.05 -1.91
12.95 18.54 1.98
6.94 9.93 -1.92
11.93 17.08 2.56
8.44 12.08 -1.81
9.75 13.96 2.7
9.3 13.31 -1.42
10.76 15.4 3.65
9.3 13.31 -0.85
11.75 16.82 4.74
9.33 13.35 -0.28
10.87 15.55 5.08
3.89 5.53 -1.81
9.38 13.32 0.28
4.6 6.54 -1.85
11.42 16.23 1.04
5.6 7.96 -1.89
16.58 23.55 2.52
6.96 9.89 -1.92
10.08 14.32 2.15
8.49 12.07 -1.81
10.1 14.35 2.78
9.44 13.41 -1.44
10.51 14.93 3.55
9.42 13.38 -0.86
10.85 15.42 4.35
9.37 13.32 -0.28
24.25 34.45 11.29
3.92 5.52 -1.81
9.43 13.3 0.28
4.62 6.51 -1.84
11.53 16.26 1.04
5.61 7.91 -1.89
26.47 37.33 4
7 9.87 -1.92
10.69 15.07 2.27
8.54 12.05 -1.81
13.08 18.45 3.58
9.67 13.64 -1.46
10.64 15.01 3.58
9.43 13.29 -0.85
9.52 13.42 3.8
9.46 13.34 -0.29
3.93 5.5 -1.81
9.52 13.32 0.29
4.64 6.49 -1.84
12.51 17.52 1.13
5.63 7.88 -1.88
17.72 24.8 2.67
7.03 9.84 -1.92
10.18 14.25 2.15
8.6 12.04 -1.82
10.45 14.63 2.85
10.05 14.06 -1.51
10.16 14.23 3.4
9.53 13.35 -0.86
9.55 13.38 3.79
9.51 13.31 -0.29
12.5 17.5 5.76
3.94 5.48 -1.81
9.61 13.35 0.29
4.66 6.47 -1.84
11.79 16.38 1.06
5.65 7.85 -1.88
12.55 17.43 1.88
7.06 9.81 -1.91
10.36 14.4 2.18
8.67 12.05 -1.82
10.12 14.07 2.74
10.18 14.15 -1.53
24.61 34.2 8.19
11.76 16.35 -1.06
9.64 13.39 3.81
9.58 13.31 -0.29
13.16 18.29 6.04
3.96 5.46 -1.81
9.65 13.31 0.29
4.68 6.45 -1.84
11.65 16.07 1.04
5.68 7.83 -1.88
11.36 15.68 1.69
7.09 9.78 -1.91
10.58 14.6 2.21
8.71 12.01 -1.82
13.71 18.92 3.7
10.12 13.96 -1.51
11.82 16.31 -1.06
17.93 24.73 7.05
10.16 14.01 -0.3
11.26 15.53 5.14
3.98 5.44 -1.81
10.34 14.15 0.31
4.7 6.44 -1.84
13.83 18.94 1.23
5.7 7.81 -1.88
10.48 14.36 1.56
7.1 9.72 -1.91
16.13 22.08 3.36
8.76 11.99 -1.82
11.38 15.58 -1.69
11.82 16.19 -1.05
13.93 19.08 5.45
13.86 18.98 -0.41
13.69 18.75 6.22
4 5.43 -1.81
16.24 22.07 0.48
4.71 6.41 -1.84
11.63 15.81 1.03
5.72 7.78 -1.88
10.46 14.22 1.54
7.14 9.7 -1.91
11.78 16.02 2.44
8.82 11.99 -1.83
12.56 17.07 3.36
11.39 15.48 -1.68
10.15 13.8 -0.9
9.88 13.43 3.85
13.97 18.99 -0.41
11.04 15 4.99
4.02 5.42 -1.81
13.61 18.37 0.4
4.73 6.38 -1.83
13.24 17.87 1.17
5.74 7.75 -1.87
13.46 18.17 1.98
6.68 9.02 -1.78
18.36 24.78 3.79
8.88 11.98 -1.83
11.43 15.42 -1.68
12.56 16.96 4.1
12.19 16.45 -1.07
10.18 13.73 3.95
12.04 16.25 -0.35
10.79 14.56 4.86
4.03 5.4 -1.81
12.53 16.78 0.37
4.75 6.36 -1.83
13.2 17.68 1.16
5.76 7.72 -1.87
13.59 18.2 1.99
6.71 8.99 -1.78
10.9 14.61 2.24
8.94 11.98 -1.84
10.85 14.54 2.87
11.47 15.37 -1.68
12.25 16.41 -1.07
12.56 16.83 4.85
12.1 16.21 -0.35
10.88 14.58 4.88
4.05 5.38 -1.81
4.77 6.34 -1.83
11.28 15.01 0.98
5.78 7.68 -1.87
13.64 18.14 1.99
6.78 9.02 -1.79
12.49 16.62 2.55
8.99 11.95 -1.84
12.35 16.43 3.26
11.54 15.35 -1.68
17.02 22.64 5.51
12.42 16.52 -1.08
10.99 14.62 4.22
12.42 16.52 -0.36
11.01 14.64 4.91
4.06 5.35 -1.8
13.62 17.98 0.39
4.79 6.33 -1.83
11.29 14.91 0.98
5.81 7.67 -1.87
14.38 18.99 2.08
6.72 8.88 -1.76
12.35 16.3 2.51
9.02 11.91 -1.83
10.33 13.64 2.71
11.62 15.34 -1.68
10.12 13.36 3.87
12.17 16.07 -0.35
10.72 14.16 4.76
4.08 5.34 -1.8
13.58 17.81 0.39
4.8 6.29 -1.83
11.5 15.09 0.99
5.83 7.64 -1.87
10.49 13.75 1.51
6.7 8.79 -1.75
23.37 30.65 4.73
9.04 11.86 -1.83
10.24 13.43 2.67
11.73 15.38 -1.69
18.57 24.35 5.95
12.53 16.43 -1.08
11.02 14.44 4.19
12.28 16.1 -0.35
11.07 14.52 4.89
4.09 5.33 -1.8
13.47 17.53 0.39
4.82 6.27 -1.83
13.47 17.54 1.16
5.85 7.61 -1.87
12.69 16.52 1.82
6.72 8.75 -1.75
15 19.53 3.02
9.07 11.81 -1.83
11.21 14.59 2.91
11.84 15.41 -1.7
11.21 14.59 3.58
12.13 15.79 -1.04
12.81 16.68 4.86
13.12 17.07 -0.38
10.84 14.12 4.77
4.11 5.31 -1.8
12.97 16.76 0.37
4.84 6.25 -1.83
12.82 16.57 1.1
5.87 7.58 -1.86
12.7 16.42 1.82
6.74 8.71 -1.74
12.6 16.28 2.53
9.09 11.75 -1.82
11.61 15.01 3.01
11.85 15.32 -1.69
15.94 20.61 5.06
12.22 15.79 -1.05
15.78 20.39 5.95
12.34 15.95 -0.35
10.93 14.12 4.78
4.13 5.3 -1.8
12.97 16.64 0.37
4.86 6.23 -1.82
12.9 16.56 1.1
5.88 7.55 -1.86
14.4 18.48 2.05
6.73 8.63 -1.73
11.62 14.91 2.32
9.12 11.71 -1.82
12.55 16.11 3.23
11.87 15.24 -1.69
15.82 20.3 5
14.42 18.51 -1.23
10.39 13.33 3.9
12.07 15.49 -0.34
12.23 15.7 5.33
4.14 5.27 -1.79
13 16.56 0.37
4.88 6.22 -1.83
11.48 14.63 0.97
5.91 7.53 -1.86
14.48 18.45 2.05
6.72 8.57 -1.72
14.45 18.41 2.87
9.15 11.66 -1.82
11.77 14.99 3.02
11.98 15.26 -1.7
12.46 15.87 3.92
13.55 17.26 -1.15
12.47 15.88 4.66
12.56 16.01 -0.36
10.95 13.96 4.75
4.16 5.26 -1.8
13.23 16.74 0.37
4.89 6.19 -1.82
12.93 16.36 1.09
5.93 7.5 -1.86
14.58 18.44 2.06
6.75 8.54 -1.72
14.52 18.37 2.87
9.18 11.61 -1.82
14.51 18.36 3.71
12.02 15.21 -1.7
12.39 15.68 3.88
13.53 17.11 -1.14
12.44 15.74 4.63
12.64 16 -0.36
16.61 21.01 7.18
4.17 5.24 -1.79
13.26 16.66 0.37
4.91 6.16 -1.82
12.94 16.25 1.09
5.95 7.48 -1.86
11.76 14.77 1.65
6.77 8.5 -1.72
14.98 18.82 2.95
9.2 11.56 -1.81
12.34 15.51 3.14
12.17 15.28 -1.71
11.37 14.29 3.55
13.01 16.34 -1.09
11.98 15.05 4.44
12.72 15.98 -0.36
16.63 20.89 7.15
4.19 5.23 -1.79
13.4 16.71 0.37
4.93 6.16 -1.82
12.72 15.86 1.07
5.96 7.44 -1.85
12.43 15.51 1.74
6.8 8.48 -1.72
12.19 15.21 2.39
9.22 11.51 -1.81
10.74 13.4 2.72
11.49 14.34 -1.61
11.47 14.3 3.56
16.6 20.71 -1.39
12.61 15.74 4.66
13.04 16.27 -0.36
11.71 14.6 5.01
4.2 5.2 -1.79
13.66 16.91 0.38
4.95 6.13 -1.82
13.28 16.43 1.11
5.99 7.41 -1.85
12.51 15.48 1.74
6.9 8.54 -1.74
12.25 15.17 2.39
9.27 11.47 -1.81
18.56 22.97 4.68
11.55 14.3 -1.61
15.14 18.74 4.68
14.76 18.28 -1.23
14.82 18.34 -0.41
4.21 5.18 -1.79
13.75 16.9 0.38
4.97 6.1 -1.82
13.35 16.41 1.11
6.01 7.38 -1.85
13.25 16.29 1.84
6.92 8.51 -1.74
12.18 14.98 2.37
9.29 11.42 -1.81
11.63 14.3 2.92
12.47 15.34 -1.73
14.06 17.28 4.33
17.21 21.15 -1.43
12.14 14.93 4.44
14.61 17.96 -0.4
12.47 15.33 5.29
4.24 5.17 -1.79
13.81 16.85 0.38
4.98 6.08 -1.81
11.68 14.26 0.97
6.03 7.36 -1.85
13.25 16.17 1.83
6.94 8.47 -1.73
13.6 16.6 2.63
9.32 11.37 -1.81
11.94 14.57 2.98
11.56 14.1 -1.6
10.41 12.71 3.19
14.86 18.14 -1.23
10.47 12.78 3.82
14.6 17.82 -0.4
12.51 15.27 5.29
4.25 5.15 -1.79
14.4 17.46 0.4
5 6.06 -1.81
13.77 16.69 1.13
6.05 7.33 -1.85
6.98 8.46 -1.74
13.35 16.18 2.58
9.34 11.32 -1.8
11.91 14.43 2.96
11.77 14.26 -1.62
13.13 15.91 4.01
10.61 12.86 3.85
14.76 17.89 -0.4
14.59 17.68 6.14
4.26 5.13 -1.79
14.07 16.94 0.38
5.01 6.04 -1.81
12.57 15.14 1.03
6.06 7.3 -1.84
12.81 15.43 1.75
7.04 8.48 -1.75
13.24 15.94 2.54
9.37 11.28 -1.8
11.85 14.27 2.94
12.86 15.48 -1.76
13.33 16.05 4.05
13.74 16.54 -1.13
12.22 14.71 4.42
16.49 19.86 -0.45
4.26 5.1 -1.78
15.33 18.33 0.42
5.03 6.02 -1.81
14.02 16.76 1.15
6.08 7.27 -1.84
12.24 14.64 1.67
7.1 8.49 -1.75
13.29 15.89 2.54
9.41 11.25 -1.8
11.83 14.15 2.92
12.86 15.38 -1.75
12.3 14.71 3.73
15.16 18.13 -1.24
10.7 12.8 3.85
14.95 17.88 -0.41
14.77 17.66 6.17
4.28 5.08 -1.78
14.74 17.5 0.4
5.05 6 -1.81
6.1 7.24 -1.84
12.96 15.39 1.76
7.17 8.51 -1.76
23.03 27.33 4.39
9.45 11.21 -1.8
13.23 15.7 3.25
13.03 15.46 -1.77
14.39 17.07 4.34
14.74 17.5 -1.2
10.7 12.69 3.83
13.65 16.2 -0.37
17.51 20.78 7.28
4.3 5.07 -1.78
15.07 17.76 0.41
5.06 5.97 -1.81
12.74 15.02 1.03
6.12 7.21 -1.84
13.98 16.48 1.89
7.21 8.5 -1.76
18.49 21.79 3.51
9.48 11.17 -1.8
17.58 20.72 4.3
11.68 13.76 -1.58
12.62 14.87 3.79
14.14 16.66 -1.15
10.86 12.8 3.87
14.97 17.64 -0.4
11.87 13.99 4.92
4.32 5.06 -1.78
15.04 17.59 0.4
5.08 5.95 -1.81
13 15.21 1.05
6.14 7.18 -1.84
14.3 16.73 1.93
7.26 8.5 -1.77
12.89 15.08 2.44
9.51 11.12 -1.8
12.63 14.77 3.08
11.76 13.76 -1.58
14.5 16.96 4.34
10.93 12.79 3.88
15.53 18.17 -0.42
4.33 5.04 -1.78
14.88 17.29 0.4
5.1 5.93 -1.81
12.31 14.31 0.99
6.15 7.15 -1.83
16.67 19.37 2.24
7.31 8.5 -1.78
13.94 16.19 2.62
9.54 11.09 -1.8
13.46 15.64 3.27
13.13 15.25 -1.76
17.65 20.51 5.26
14.25 16.55 -1.14
10.87 12.63 3.85
15.36 17.85 -0.41
12.07 14.02 4.96
4.34 5.01 -1.78
16.7 19.27 0.45
5.12 5.91 -1.81
14.78 17.05 1.18
6.17 7.12 -1.83
12.53 14.45 1.67
7.36 8.49 -1.78
14.05 16.2 2.63
9.57 11.04 -1.79
12.55 14.47 3.03
11.81 13.63 -1.58
14.63 16.88 4.34
14.9 17.19 5.25
15.3 17.65 -0.41
4.35 4.99 -1.77
15.86 18.17 0.42
5.14 5.89 -1.8
6.19 7.1 -1.83
14.14 16.2 1.88
7.39 8.46 -1.78
15.18 17.4 2.84
9.61 11.01 -1.79
13.54 15.51 3.26
11.79 13.51 -1.57
13.23 15.16 3.91
15.01 17.2 -1.2
10.87 12.45 3.82
15.57 17.84 -0.41
4.37 4.98 -1.77
14.95 17.01 0.4
5.15 5.86 -1.8
6.21 7.06 -1.83
14.15 16.09 1.87
7.43 8.45 -1.78
12.14 13.81 2.26
9.64 10.97 -1.79
14.09 16.03 3.38
11.78 13.4 -1.56
13.29 15.11 3.91
14.87 16.92 -1.18
10.88 12.37 3.8
15.53 17.67 -0.41
13.5 15.35 5.48
4.39 4.95 -1.77
14.71 16.61 0.39
5.16 5.83 -1.8
13.87 15.67 1.1
6.23 7.04 -1.83
14.15 15.99 1.87
7.46 8.43 -1.78
19.54 22.08 3.62
9.67 10.92 -1.79
13.09 14.78 3.13
11.78 13.31 -1.56
11.13 12.57 3.26
14.68 16.58 -1.16
15.24 17.22 5.31
15.69 17.72 -0.41
13.75 15.54 5.56
4.4 4.94 -1.77
15.35 17.22 0.4
5.19 5.82 -1.8
12.45 13.96 0.98
6.24 7 -1.82
18.94 21.25 2.49
7.52 8.44 -1.79
18.81 21.11 3.47
9.7 10.88 -1.79
15.4 17.28 3.67
12.09 13.56 -1.59
13.68 15.35 4
14.9 16.72 -1.17
15.71 17.63 -0.41
12.47 13.99 5.02
4.41 4.91 -1.77
15.53 17.31 0.41
5.2 5.79 -1.8
15.28 17.02 1.2
6.26 6.97 -1.82
15.08 16.8 1.98
7.58 8.44 -1.8
13.2 14.71 2.43
9.73 10.85 -1.79
11.47 12.79 2.72
12.16 13.55 -1.59
14.69 16.37 -1.15
13.15 14.65 4.55
15.03 16.75 -0.39
12.4 13.82 4.98
4.42 4.9 -1.77
15.67 17.35 0.41
5.22 5.77 -1.8
15.61 17.28 1.22
6.28 6.95 -1.82
15.38 17.02 2.01
7.63 8.44 -1.8
13.3 14.72 2.44
9.77 10.81 -1.79
11.55 12.79 2.73
12.19 13.49 -1.59
12.49 13.83 3.62
15.18 16.8 -1.19
12.29 13.6 4.23
17.95 19.87 -0.47
12.85 14.22 5.14
4.44 4.88 -1.77
14.69 16.15 0.38
5.23 5.74 -1.79
15.55 17.09 1.21
6.3 6.92 -1.82
