# .PCD v0.7 - Point Cloud Data file format
VERSION 0.7
FIELDS x y z
SIZE 4 4 4
TYPE F F F
COUNT 1 1 1
WIDTH 2830
HEIGHT 1
VIEWPOINT 0 0 0 1 0 0 0
POINTS 2830
DATA ascii
15.21 -14.89 -1.12
4.2 -4.14 -1.58
4.85 -4.78 -1.57
5.68 -5.6 -1.55
6.8 -6.71 -1.51
8.55 -8.43 -1.47
10.87 -10.71 -1.34
15.15 -14.94 -1.12
4.19 -4.16 -1.58
4.85 -4.81 -1.58
5.66 -5.62 -1.55
6.79 -6.74 -1.51
8.52 -8.46 -1.47
10.83 -10.75 -1.34
15.11 -15 -1.12
4.17 -4.17 -1.58
4.83 -4.83 -1.58
5.63 -5.63 -1.55
6.77 -6.77 -1.52
8.48 -8.48 -1.47
10.81 -10.81 -1.34
15.07 -15.06 -1.12
4.15 -4.18 -1.58
4.81 -4.85 -1.58
5.62 -5.65 -1.55
6.75 -6.79 -1.52
8.47 -8.53 -1.48
10.77 -10.85 -1.34
15.02 -15.12 -1.12
4.14 -4.19 -1.58
4.79 -4.86 -1.58
5.6 -5.68 -1.55
6.73 -6.82 -1.52
8.45 -8.57 -1.48
10.74 -10.89 -1.34
14.99 -15.19 -1.12
4.12 -4.21 -1.58
4.77 -4.87 -1.57
5.58 -5.7 -1.55
6.7 -6.84 -1.52
8.44 -8.61 -1.48
10.71 -10.93 -1.34
14.91 -15.22 -1.12
4.11 -4.22 -1.58
4.75 -4.89 -1.57
5.56 -5.72 -1.55
6.68 -6.87 -1.52
8.46 -8.7 -1.49
10.68 -10.98 -1.34
14.88 -15.3 -1.12
4.09 -4.24 -1.58
4.74 -4.91 -1.58
5.54 -5.74 -1.55
6.67 -6.9 -1.52
8.43 -8.73 -1.49
10.65 -11.02 -1.34
14.82 -15.34 -1.12
4.07 -4.25 -1.58
4.72 -4.92 -1.58
5.52 -5.76 -1.55
6.64 -6.93 -1.52
8.4 -8.76 -1.49
10.61 -11.06 -1.34
14.8 -15.43 -1.12
4.05 -4.26 -1.58
4.71 -4.95 -1.58
5.51 -5.78 -1.55
6.62 -6.95 -1.52
8.36 -8.77 -1.49
10.57 -11.09 -1.34
14.75 -15.49 -1.12
4.04 -4.27 -1.58
4.69 -4.96 -1.58
5.49 -5.8 -1.55
6.59 -6.97 -1.52
8.33 -8.81 -1.49
10.53 -11.13 -1.34
14.71 -15.55 -1.12
4.04 -4.3 -1.58
4.68 -4.99 -1.58
5.47 -5.83 -1.55
6.58 -7 -1.52
8.29 -8.83 -1.49
10.49 -11.17 -1.34
14.65 -15.59 -1.12
4.02 -4.31 -1.58
4.67 -5 -1.58
5.45 -5.84 -1.55
6.55 -7.02 -1.52
8.27 -8.86 -1.49
10.46 -11.21 -1.34
14.6 -15.65 -1.12
3.99 -4.31 -1.57
4.65 -5.02 -1.58
5.43 -5.86 -1.55
6.54 -7.06 -1.52
8.23 -8.88 -1.49
10.42 -11.25 -1.34
14.56 -15.72 -1.12
3.98 -4.33 -1.58
4.63 -5.03 -1.58
5.41 -5.89 -1.55
6.5 -7.07 -1.52
8.2 -8.91 -1.49
10.39 -11.29 -1.34
14.51 -15.78 -1.12
3.96 -4.34 -1.58
4.61 -5.04 -1.58
5.4 -5.91 -1.56
6.48 -7.1 -1.52
8.17 -8.94 -1.49
10.36 -11.34 -1.34
14.45 -15.82 -1.12
3.95 -4.36 -1.58
4.59 -5.06 -1.58
5.38 -5.93 -1.56
6.47 -7.13 -1.52
8.12 -8.96 -1.48
10.35 -11.41 -1.35
14.4 -15.88 -1.12
3.94 -4.37 -1.58
4.57 -5.08 -1.58
5.35 -5.94 -1.56
6.44 -7.16 -1.53
8.08 -8.97 -1.48
10.33 -11.47 -1.35
14.39 -15.97 -1.13
3.91 -4.37 -1.57
4.56 -5.1 -1.58
5.33 -5.96 -1.55
6.42 -7.18 -1.52
8.02 -8.97 -1.48
10.33 -11.55 -1.36
14.39 -16.09 -1.13
3.9 -4.39 -1.57
4.54 -5.11 -1.58
5.31 -5.98 -1.56
6.39 -7.2 -1.52
7.74 -8.72 -1.43
10.24 -11.53 -1.35
14.33 -16.13 -1.13
3.88 -4.4 -1.57
4.52 -5.12 -1.58
5.3 -6 -1.56
6.37 -7.23 -1.53
7.68 -8.71 -1.43
10.18 -11.54 -1.35
13.54 -15.35 -1.07
3.87 -4.42 -1.57
4.5 -5.14 -1.58
5.28 -6.03 -1.56
6.35 -7.25 -1.53
7.64 -8.73 -1.42
10.15 -11.58 -1.35
13.47 -15.38 -1.07
6.89 -7.87 2.8
3.85 -4.43 -1.57
4.49 -5.16 -1.58
5.25 -6.04 -1.55
6.33 -7.28 -1.53
7.61 -8.75 -1.42
10.07 -11.58 -1.34
13.4 -15.41 -1.07
6.89 -7.92 2.81
3.83 -4.43 -1.57
4.47 -5.18 -1.58
5.23 -6.06 -1.56
6.31 -7.3 -1.53
7.52 -8.71 -1.41
9.99 -11.57 -1.34
13.32 -15.43 -1.07
6.9 -7.99 2.83
3.82 -4.45 -1.57
4.46 -5.2 -1.58
5.22 -6.08 -1.56
6.3 -7.34 -1.53
7.4 -8.63 -1.4
9.93 -11.57 -1.33
13.24 -15.44 -1.07
3.8 -4.47 -1.57
4.43 -5.2 -1.58
5.19 -6.1 -1.56
6.28 -7.37 -1.53
7.3 -8.57 -1.38
9.87 -11.59 -1.33
13.16 -15.45 -1.06
6.81 -7.99 2.42
6.41 -7.53 2.65
3.79 -4.48 -1.57
4.42 -5.22 -1.58
5.17 -6.12 -1.56
6.25 -7.39 -1.53
7.21 -8.52 -1.37
9.82 -11.61 -1.33
6.82 -8.06 2.05
13.09 -15.48 -1.06
6.8 -8.04 2.43
6.23 -7.37 2.59
3.77 -4.49 -1.57
4.4 -5.24 -1.58
5.15 -6.13 -1.56
6.23 -7.42 -1.53
7.19 -8.56 -1.37
9.76 -11.62 -1.33
6.78 -8.08 2.05
13.03 -15.52 -1.06
6.22 -7.41 2.59
3.75 -4.49 -1.57
4.39 -5.26 -1.58
50.73 -60.84 4.15
5.13 -6.15 -1.56
6.23 -7.48 -1.54
7.14 -8.56 -1.37
9.7 -11.63 -1.32
6.73 -8.07 2.04
12.98 -15.57 -1.06
6.26 -7.51 2.62
3.73 -4.51 -1.57
4.37 -5.28 -1.58
50.5 -61 4.15
5.11 -6.17 -1.56
6.2 -7.49 -1.54
7.11 -8.59 -1.37
9.64 -11.65 -1.32
6.7 -8.09 2.04
12.91 -15.59 -1.06
3.71 -4.52 -1.57
4.34 -5.28 -1.58
5.09 -6.19 -1.56
6.14 -7.47 -1.53
7.06 -8.59 -1.37
9.59 -11.67 -1.32
6.45 -7.85 1.98
12.82 -15.6 -1.06
3.7 -4.53 -1.57
4.32 -5.29 -1.58
5.07 -6.21 -1.56
6.08 -7.45 -1.52
7.02 -8.6 -1.36
9.54 -11.68 -1.32
6.82 -8.36 2.1
12.7 -15.56 -1.05
6.31 -7.73 2.3
3.68 -4.54 -1.57
4.31 -5.32 -1.58
25.69 -31.7 2.14
5.04 -6.22 -1.56
6.01 -7.41 -1.51
6.96 -8.58 -1.36
6.57 -8.11 1.65
9.49 -11.71 -1.32
6.35 -7.83 1.96
12.61 -15.56 -1.05
21.25 -26.22 -0.59
6.77 -8.35 2.88
3.65 -4.54 -1.56
4.3 -5.34 -1.58
19.15 -23.8 1.6
5.02 -6.24 -1.56
5.92 -7.36 -1.5
7 -8.7 -1.37
6.01 -7.48 1.52
9.42 -11.71 -1.32
6.51 -8.09 2.02
12.53 -15.57 -1.05
20.53 -25.52 -0.57
6.73 -8.37 2.88
3.65 -4.57 -1.57
4.27 -5.35 -1.58
19.07 -23.87 1.6
5 -6.26 -1.56
5.84 -7.32 -1.48
7.01 -8.78 -1.38
9.38 -11.74 -1.31
12.43 -15.56 -1.04
19.85 -24.85 -0.56
3.63 -4.58 -1.57
19.05 -24.02 0.54
4.25 -5.36 -1.58
18.99 -23.94 1.6
4.98 -6.28 -1.56
5.76 -7.27 -1.47
6.95 -8.77 -1.37
6.44 -8.12 1.64
9.33 -11.76 -1.31
6.44 -8.12 2.01
12.37 -15.6 -1.04
6.35 -8.01 2.36
19.1 -24.08 -0.54
3.62 -4.6 -1.57
4.23 -5.38 -1.58
18.91 -24.01 1.6
4.96 -6.29 -1.56
5.71 -7.25 -1.46
6.89 -8.75 -1.37
6.42 -8.15 1.64
9.27 -11.78 -1.31
6.38 -8.1 2
12.3 -15.62 -1.04
6.33 -8.03 2.36
19.98 -25.38 -0.56
3.61 -4.61 -1.57
4.22 -5.39 -1.58
18.83 -24.08 1.6
4.93 -6.31 -1.56
5.62 -7.19 -1.45
6.87 -8.78 -1.37
6.38 -8.16 1.64
9.22 -11.79 -1.31
12.22 -15.63 -1.04
6 -7.67 2.25
20 -25.58 -0.57
5.68 -7.26 2.47
3.59 -4.62 -1.57
15.28 -19.69 0.44
4.2 -5.41 -1.58
4.91 -6.33 -1.56
15.23 -19.62 2.17
5.56 -7.16 -1.44
11.02 -14.2 2.21
6.87 -8.85 -1.38
5.76 -7.42 1.49
9.17 -11.81 -1.31
6.43 -8.28 2.04
12.15 -15.65 -1.04
5.97 -7.69 2.25
15.32 -19.73 -0.44
5.68 -7.32 2.48
3.57 -4.63 -1.57
14.55 -18.88 0.42
4.18 -5.42 -1.58
4.89 -6.35 -1.56
13.78 -17.88 1.98
5.51 -7.15 -1.43
6.85 -8.88 -1.38
9.11 -11.83 -1.31
6.44 -8.36 2.05
12.04 -15.62 -1.03
3.56 -4.65 -1.57
13.7 -17.9 0.39
4.16 -5.43 -1.58
13.69 -17.89 1.18
4.87 -6.37 -1.56
13.59 -17.76 1.96
5.49 -7.18 -1.43
6.84 -8.94 -1.38
5.72 -7.48 1.49
9.06 -11.84 -1.3
11.95 -15.61 -1.03
13.74 -17.96 -0.39
3.54 -4.66 -1.57
12.97 -17.08 0.37
4.14 -5.45 -1.58
12.94 -17.03 1.12
4.85 -6.38 -1.56
12.33 -16.24 1.78
5.47 -7.2 -1.43
10.88 -14.33 2.21
6.78 -8.92 -1.38
6.28 -8.26 1.64
9 -11.85 -1.3
11.85 -15.61 -1.03
3.53 -4.68 -1.57
12.23 -16.22 0.35
4.12 -5.47 -1.58
12.21 -16.19 1.06
4.82 -6.39 -1.56
12.2 -16.18 1.77
5.45 -7.23 -1.43
10.84 -14.38 2.21
6.72 -8.91 -1.37
6.41 -8.5 1.69
8.95 -11.86 -1.3
11.68 -15.49 -1.02
12.26 -16.26 -0.36
5.79 -7.67 2.57
3.5 -4.68 -1.57
4.11 -5.48 -1.58
4.8 -6.41 -1.56
5.42 -7.24 -1.43
10.79 -14.41 2.21
6.69 -8.94 -1.37
6.28 -8.39 1.66
8.89 -11.88 -1.3
11.5 -15.36 -1.01
5.99 -8 2.31
16.94 -22.63 -0.49
5.81 -7.76 2.6
3.49 -4.7 -1.57
4.08 -5.49 -1.58
4.78 -6.43 -1.56
5.36 -7.21 -1.42
10.74 -14.46 2.21
6.61 -8.9 -1.36
6.19 -8.33 1.64
8.84 -11.89 -1.3
11.38 -15.31 -1
5.94 -7.99 2.3
16.86 -22.69 -0.49
3.48 -4.71 -1.57
4.06 -5.5 -1.58
4.76 -6.45 -1.56
10.73 -14.54 1.58
5.3 -7.18 -1.41
10.69 -14.48 2.21
6.57 -8.9 -1.36
5.62 -7.61 1.5
8.79 -11.91 -1.3
11.22 -15.21 -0.99
15.6 -21.14 -0.46
3.46 -4.72 -1.57
10.69 -14.59 0.32
4.04 -5.52 -1.58
10.67 -14.57 0.95
4.74 -6.47 -1.56
10.68 -14.58 1.58
5.25 -7.17 -1.41
10.64 -14.52 2.21
6.62 -9.04 -1.38
5.57 -7.6 1.49
8.74 -11.93 -1.29
6.19 -8.45 2.04
10.73 -14.65 -0.95
5.83 -7.96 2.28
10.73 -14.64 -0.32
5.24 -7.16 2.38
3.45 -4.74 -1.57
4.02 -5.53 -1.58
4.71 -6.48 -1.56
17.56 -24.15 2.61
5.22 -7.18 -1.41
10.6 -14.58 2.21
6.59 -9.07 -1.38
6.06 -8.34 1.63
8.69 -11.95 -1.29
6.02 -8.28 1.99
10.86 -14.94 -0.97
5.77 -7.93 2.26
13.87 -19.08 -0.41
5.17 -7.11 2.35
3.43 -4.74 -1.57
4 -5.54 -1.58
4.69 -6.49 -1.56
17.54 -24.28 2.62
5.16 -7.15 -1.4
10.56 -14.61 2.21
6.53 -9.04 -1.37
5.48 -7.59 1.48
8.64 -11.96 -1.29
10.78 -14.93 -0.97
5.08 -7.03 2
15.14 -20.97 -0.45
5.15 -7.14 2.36
3.41 -4.76 -1.57
3.99 -5.56 -1.58
4.68 -6.53 -1.56
17.47 -24.37 2.62
5.12 -7.14 -1.39
10.51 -14.66 2.21
6.52 -9.09 -1.37
5.49 -7.66 1.49
8.58 -11.97 -1.29
5.3 -7.39 1.77
10.89 -15.19 -0.98
5.75 -8.02 2.28
12.99 -18.11 -0.39
3.4 -4.78 -1.57
3.97 -5.58 -1.58
4.67 -6.57 -1.57
17.3 -24.32 2.61
5.08 -7.14 -1.39
10.45 -14.69 2.21
6.49 -9.12 -1.37
8.54 -12 -1.29
5.28 -7.42 1.77
10.8 -15.18 -0.98
5.7 -8.01 2.27
12.91 -18.15 -0.39
5.17 -7.26 2.39
3.39 -4.8 -1.57
3.94 -5.58 -1.58
4.65 -6.59 -1.57
5.05 -7.15 -1.39
10.4 -14.73 2.21
6.46 -9.15 -1.38
5.56 -7.87 1.53
8.49 -12.02 -1.29
5.24 -7.42 1.77
10.75 -15.22 -0.98
11.72 -16.6 -0.35
5.38 -7.61 2.5
3.37 -4.8 -1.57
3.93 -5.6 -1.58
4.63 -6.6 -1.57
17.31 -24.68 2.64
5.03 -7.18 -1.39
10.36 -14.78 2.22
6.45 -9.19 -1.38
8.44 -12.04 -1.29
5.22 -7.44 1.77
10.71 -15.28 -0.98
5.23 -7.46 2.1
11.61 -16.56 -0.35
5.1 -7.27 2.38
3.35 -4.81 -1.57
3.91 -5.61 -1.58
17.32 -24.89 1.59
4.61 -6.62 -1.57
16.82 -24.17 2.58
5.01 -7.2 -1.39
6.42 -9.23 -1.38
8.38 -12.05 -1.28
5.28 -7.58 1.8
10.68 -15.34 -0.98
5.18 -7.44 2.09
11.59 -16.66 -0.35
5.42 -7.78 2.54
3.33 -4.82 -1.57
3.89 -5.63 -1.58
4.58 -6.63 -1.57
16.88 -24.45 2.6
4.95 -7.17 -1.38
6.38 -9.24 -1.38
45.57 -65.98 12.7
8.33 -12.07 -1.28
10.65 -15.42 -0.98
5.11 -7.39 2.07
13.46 -19.48 -0.41
3.32 -4.84 -1.57
3.86 -5.63 -1.57
4.56 -6.66 -1.57
17.47 -25.48 2.7
4.98 -7.26 -1.39
6.37 -9.29 -1.38
5.28 -7.7 1.48
8.29 -12.09 -1.28
5.48 -7.99 1.88
10.53 -15.37 -0.98
5.07 -7.4 2.07
13.44 -19.61 -0.41
3.3 -4.85 -1.57
3.84 -5.64 -1.58
4.5 -6.62 -1.56
18.45 -27.12 2.87
4.96 -7.29 -1.4
6.35 -9.33 -1.39
5.36 -7.88 1.51
8.24 -12.12 -1.28
5.45 -8 1.88
10.55 -15.5 -0.98
5.03 -7.39 2.06
5.36 -7.88 2.55
3.29 -4.87 -1.57
3.82 -5.66 -1.58
17.36 -25.72 1.63
4.46 -6.61 -1.55
17.8 -26.37 2.78
4.92 -7.28 -1.39
17.51 -25.94 3.84
6.31 -9.35 -1.39
5.32 -7.87 1.5
8.19 -12.13 -1.28
10.47 -15.5 -0.98
5.01 -7.43 2.07
4.8 -7.11 2.3
3.27 -4.88 -1.57
3.8 -5.67 -1.58
4.46 -6.65 -1.56
4.87 -7.27 -1.39
17.51 -26.12 3.86
6.3 -9.39 -1.39
5.27 -7.86 1.5
8.14 -12.14 -1.28
10.42 -15.55 -0.98
5.49 -8.19 2.28
5.45 -8.12 2.62
3.25 -4.89 -1.57
3.78 -5.68 -1.58
17.74 -26.66 1.68
4.42 -6.64 -1.55
17.36 -26.09 2.74
4.84 -7.28 -1.38
6.26 -9.42 -1.39
5.24 -7.88 1.5
8.1 -12.18 -1.28
10.35 -15.56 -0.98
5.45 -8.2 2.27
5.91 -8.88 2.86
3.24 -4.9 -1.57
3.76 -5.69 -1.57
4.38 -6.63 -1.55
17.15 -25.97 2.72
4.8 -7.27 -1.38
17.31 -26.22 3.86
6.21 -9.41 -1.38
5.21 -7.9 1.5
8.05 -12.19 -1.28
5 -7.58 1.77
10.28 -15.56 -0.98
5.37 -8.14 2.25
5.93 -8.98 2.88
3.22 -4.92 -1.58
3.74 -5.7 -1.57
4.33 -6.61 -1.54
17.1 -26.1 2.73
4.78 -7.29 -1.38
16.12 -24.6 3.61
6.23 -9.5 -1.4
5.08 -7.76 1.47
8.01 -12.23 -1.28
4.98 -7.6 1.77
10.24 -15.63 -0.98
5.37 -8.2 2.26
10.49 -16.01 -0.33
4.38 -6.69 2.14
3.21 -4.93 -1.58
3.72 -5.72 -1.58
4.28 -6.59 -1.53
16.61 -25.54 2.67
4.76 -7.32 -1.38
6.17 -9.48 -1.39
5.04 -7.75 1.46
7.96 -12.24 -1.28
4.96 -7.63 1.77
10.17 -15.64 -0.98
5.34 -8.21 2.26
10.4 -16 -0.33
4.36 -6.71 2.15
3.18 -4.93 -1.57
3.7 -5.73 -1.58
4.24 -6.58 -1.52
4.72 -7.31 -1.38
16.53 -25.63 3.75
6.18 -9.57 -1.4
5.06 -7.85 1.48
7.91 -12.26 -1.28
5.77 -8.94 2.07
10.13 -15.7 -0.98
5.25 -8.13 2.23
4.37 -6.78 2.16
3.16 -4.94 -1.57
3.68 -5.75 -1.58
4.21 -6.58 -1.52
17.2 -26.87 2.79
4.68 -7.32 -1.38
6.34 -9.91 -1.44
5.02 -7.84 1.48
7.86 -12.27 -1.27
10.04 -15.69 -0.98
5.8 -9.06 2.48
5.05 -7.89 2.51
3.15 -4.97 -1.58
3.66 -5.76 -1.57
16.78 -26.42 1.64
4.17 -6.57 -1.51
17.02 -26.79 2.78
4.66 -7.34 -1.38
6.31 -9.93 -1.44
5.05 -7.94 1.49
7.81 -12.3 -1.27
9.19 -14.46 -0.9
9.2 -14.48 -0.3
5.05 -7.95 2.52
3.14 -4.97 -1.58
3.64 -5.77 -1.57
4.13 -6.55 -1.51
8.36 -13.26 1.37
4.66 -7.39 -1.38
8.26 -13.09 1.9
6.31 -10 -1.45
7.77 -12.32 -1.27
9.14 -14.49 -0.9
5.7 -9.04 2.47
9.13 -14.47 -0.3
5.2 -8.25 2.61
3.12 -4.99 -1.58
16.74 -26.75 0.55
3.62 -5.79 -1.58
16.76 -26.79 1.66
4.08 -6.52 -1.5
4.62 -7.39 -1.38
8.22 -13.13 1.9
6.27 -10.02 -1.45
5.03 -8.04 1.5
7.72 -12.34 -1.27
9.08 -14.52 -0.9
4.96 -7.93 2.16
9.08 -14.51 -0.3
4.33 -6.91 2.18
3.1 -4.99 -1.57
8.28 -13.34 0.27
3.6 -5.8 -1.58
8.26 -13.31 0.82
4.04 -6.51 -1.49
4.59 -7.39 -1.38
8.2 -13.2 1.91
6.24 -10.05 -1.45
4.88 -7.86 1.47
7.66 -12.34 -1.27
8.32 -13.4 -0.83
4.9 -7.9 2.15
8.31 -13.39 -0.28
4.3 -6.93 2.18
3.08 -5 -1.57
3.58 -5.81 -1.58
16.12 -26.18 1.61
4 -6.5 -1.48
4.59 -7.45 -1.39
8.18 -13.28 1.92
6.2 -10.07 -1.45
4.83 -7.84 1.46
7.61 -12.36 -1.27
9.25 -15.02 -0.92
4.9 -7.96 2.16
4.2 -6.82 2.15
3.06 -5.01 -1.57
3.55 -5.82 -1.57
3.97 -6.5 -1.48
8.19 -13.4 1.37
4.62 -7.56 -1.4
8.15 -13.34 1.92
6.17 -10.09 -1.45
4.85 -7.94 1.47
7.57 -12.39 -1.27
9.19 -15.04 -0.92
5.31 -8.7 2.35
4.23 -6.92 2.17
3.05 -5.03 -1.58
3.53 -5.83 -1.57
3.93 -6.49 -1.48
4.56 -7.53 -1.39
5.09 -8.4 1.21
6.12 -10.1 -1.45
4.88 -8.05 1.49
7.52 -12.41 -1.27
9.14 -15.08 -0.92
4.17 -6.88 2.16
3.03 -5.04 -1.58
3.52 -5.85 -1.58
16.67 -27.72 1.7
3.89 -6.47 -1.47
4.52 -7.51 -1.39
5.03 -8.37 1.2
6.09 -10.12 -1.45
7.47 -12.42 -1.27
9.09 -15.12 -0.92
5.3 -8.81 2.37
4.23 -7.02 2.2
3.01 -5.04 -1.57
3.5 -5.86 -1.58
3.86 -6.46 -1.46
8.04 -13.48 1.37
4.5 -7.54 -1.39
4.83 -8.09 1.16
6.05 -10.14 -1.45
4.8 -8.04 1.48
7.42 -12.43 -1.27
4.8 -8.04 1.82
9.05 -15.17 -0.93
4.78 -8.01 2.15
3 -5.06 -1.58
3.48 -5.87 -1.58
16.37 -27.62 1.68
3.83 -6.46 -1.46
8.04 -13.57 1.38
4.48 -7.57 -1.39
4.76 -8.02 1.15
6.02 -10.15 -1.45
4.72 -7.97 1.47
7.38 -12.45 -1.27
4.74 -8 1.81
9.01 -15.2 -0.93
4.74 -7.99 2.15
2.98 -5.08 -1.58
3.45 -5.87 -1.57
4.76 -8.1 0.49
3.8 -6.47 -1.46
4.74 -8.06 0.82
4.46 -7.59 -1.39
4.72 -8.02 1.14
5.98 -10.17 -1.45
4.66 -7.92 1.46
7.33 -12.47 -1.27
4.71 -8.01 1.81
8.96 -15.25 -0.93
4.71 -8.02 2.15
2.97 -5.09 -1.58
4.73 -8.11 0.16
3.43 -5.88 -1.57
4.71 -8.07 0.49
3.79 -6.5 -1.46
4.7 -8.07 0.82
4.43 -7.59 -1.39
4.69 -8.04 1.14
5.96 -10.21 -1.45
4.67 -8.01 1.47
4.75 -8.14 -0.82
4.7 -8.05 1.81
4.75 -8.14 -0.49
4.69 -8.04 2.15
4.74 -8.13 -0.16
5.34 -9.16 2.84
2.95 -5.1 -1.58
4.68 -8.09 0.16
3.42 -5.9 -1.57
4.68 -8.08 0.49
3.76 -6.5 -1.46
4.67 -8.08 0.82
4.39 -7.59 -1.39
4.67 -8.08 1.15
4.72 -8.15 -1.16
4.64 -8.02 1.47
4.71 -8.14 -0.82
4.66 -8.05 1.81
4.71 -8.15 -0.49
4.66 -8.05 2.15
4.68 -8.1 -0.16
5.28 -9.13 2.83
2.93 -5.1 -1.58
4.65 -8.11 0.16
3.39 -5.92 -1.57
4.65 -8.11 0.49
3.73 -6.5 -1.46
4.66 -8.11 0.82
4.38 -7.64 -1.39
4.68 -8.16 -1.16
4.66 -8.12 -0.82
4.49 -7.83 1.75
4.67 -8.14 -0.49
4.63 -8.06 2.15
4.66 -8.11 -0.16
5.25 -9.15 2.83
2.91 -5.11 -1.58
4.63 -8.13 0.16
3.37 -5.92 -1.57
4.63 -8.14 0.49
3.7 -6.5 -1.45
4.65 -8.17 0.82
4.36 -7.65 -1.39
4.95 -8.69 1.23
4.65 -8.17 -1.15
4.77 -8.37 1.53
4.63 -8.13 -0.82
4.59 -8.06 1.8
4.64 -8.15 -0.49
4.36 -7.65 2.03
4.64 -8.14 -0.16
4.27 -7.5 2.31
2.9 -5.14 -1.58
4.61 -8.17 0.16
3.34 -5.92 -1.57
3.67 -6.51 -1.45
4.33 -7.67 -1.39
4.62 -8.18 -1.15
39.78 -70.49 12.82
4.62 -8.18 -0.82
4.57 -8.1 1.81
4.61 -8.17 -0.49
4.32 -7.65 2.03
4.62 -8.18 -0.16
2.88 -5.15 -1.58
3.32 -5.93 -1.57
3.64 -6.5 -1.45
4.29 -7.67 -1.39
39.62 -70.78 9.96
4.59 -8.19 -1.15
39.56 -70.67 12.83
4.6 -8.21 -0.82
4.6 -8.22 -0.49
4.32 -7.72 2.04
4.11 -7.34 2.25
2.86 -5.16 -1.58
3.3 -5.94 -1.57
3.6 -6.48 -1.44
15.31 -27.57 2.76
4.28 -7.71 -1.4
39.4 -70.97 9.97
4.58 -8.25 -1.16
39.33 -70.84 12.83
7 -12.6 -1.26
4.84 -8.72 1.94
8.45 -15.23 -0.91
4.08 -7.34 2.25
2.84 -5.17 -1.58
3.28 -5.96 -1.57
3.57 -6.48 -1.44
15.31 -27.8 2.78
4.23 -7.68 -1.39
39.18 -71.16 9.97
5.68 -10.32 -1.45
39.12 -71.04 12.84
6.94 -12.61 -1.26
5.19 -9.42 2.09
8.33 -15.12 -0.9
8.31 -15.09 -0.3
3.89 -7.06 2.16
2.83 -5.17 -1.58
3.26 -5.97 -1.57
3.54 -6.48 -1.44
15.16 -27.75 2.77
4.2 -7.7 -1.39
38.96 -71.31 9.98
5.65 -10.34 -1.45
4.6 -8.42 1.52
6.9 -12.63 -1.26
5.05 -9.25 2.05
8.37 -15.32 -0.92
4.95 -9.05 2.38
8.26 -15.12 -0.3
4.63 -8.47 2.59
2.81 -5.19 -1.58
3.23 -5.97 -1.57
3.51 -6.48 -1.43
15.06 -27.8 2.77
4.22 -7.78 -1.4
38.74 -71.51 9.99
5.61 -10.36 -1.45
4.61 -8.5 1.53
6.86 -12.65 -1.26
8.39 -15.49 -0.92
4.6 -8.49 2.59
2.8 -5.21 -1.58
3.21 -5.98 -1.57
3.47 -6.46 -1.43
14.95 -27.84 2.76
4.18 -7.78 -1.4
38.51 -71.7 9.99
5.57 -10.37 -1.45
4.63 -8.62 1.55
6.81 -12.67 -1.26
4.89 -9.1 2.01
8.23 -15.33 -0.91
5.04 -9.39 2.46
4.34 -8.08 2.46
2.78 -5.21 -1.58
3.19 -6 -1.57
3.43 -6.43 -1.42
4.15 -7.78 -1.4
38.27 -71.85 10
5.53 -10.38 -1.44
4.74 -8.89 1.6
6.76 -12.69 -1.26
4.81 -9.03 1.99
8.06 -15.14 -0.9
4.99 -9.37 2.45
7.56 -14.19 -0.28
3.97 -7.45 2.26
2.75 -5.21 -1.58
3.18 -6.02 -1.57
3.4 -6.43 -1.41
4.11 -7.79 -1.39
38.06 -72.03 10
5.5 -10.4 -1.44
37.99 -71.89 12.88
6.71 -12.69 -1.26
7.91 -14.97 -0.89
4.97 -9.41 2.46
7.36 -13.93 -0.28
3.94 -7.46 2.26
2.74 -5.23 -1.58
3.16 -6.03 -1.57
3.37 -6.43 -1.41
37.91 -72.37 7.15
4.08 -7.8 -1.39
37.82 -72.19 10.01
5.46 -10.42 -1.44
6.66 -12.71 -1.26
4.16 -7.94 1.74
7.21 -13.76 -0.81
3.97 -7.58 1.98
7.21 -13.75 -0.27
3.93 -7.49 2.27
2.72 -5.24 -1.58
3.14 -6.05 -1.57
3.34 -6.44 -1.41
37.69 -72.55 7.15
4.03 -7.77 -1.39
37.6 -72.39 10.02
5.42 -10.44 -1.44
6.62 -12.74 -1.26
4.12 -7.93 1.74
7.17 -13.79 -0.81
7.14 -13.74 -0.27
3.74 -7.19 2.17
2.7 -5.25 -1.58
3.13 -6.07 -1.58
3.35 -6.5 -1.42
37.46 -72.73 7.16
4.07 -7.9 -1.41
37.36 -72.55 10.02
5.38 -10.45 -1.44
4.25 -8.25 1.47
6.57 -12.75 -1.25
4.06 -7.89 1.72
7.57 -14.69 -0.87
4.22 -8.19 2.13
7.08 -13.75 -0.27
3.76 -7.3 2.2
2.68 -5.26 -1.58
3.11 -6.09 -1.58
3.34 -6.54 -1.43
37.23 -72.94 7.16
4.07 -7.97 -1.42
37.14 -72.76 10.03
5.34 -10.46 -1.44
6.52 -12.77 -1.25
7.5 -14.69 -0.86
7.02 -13.75 -0.27
3.59 -7.03 2.12
2.66 -5.27 -1.58
3.09 -6.1 -1.58
3.33 -6.58 -1.43
36.98 -73.07 7.16
4.03 -7.97 -1.42
36.9 -72.92 10.03
5.31 -10.49 -1.44
4.49 -8.88 1.58
6.46 -12.77 -1.25
4.02 -7.94 1.73
7.44 -14.71 -0.86
4.2 -8.3 2.15
6.96 -13.76 -0.27
3.83 -7.57 2.27
2.65 -5.27 -1.58
3.07 -6.12 -1.58
3.3 -6.57 -1.43
36.78 -73.28 7.17
3.98 -7.94 -1.41
4.36 -8.69 1.19
5.27 -10.5 -1.44
4.22 -8.41 1.49
6.42 -12.79 -1.25
3.98 -7.93 1.72
7.39 -14.73 -0.86
3.79 -7.55 1.95
6.91 -13.77 -0.27
4.65 -9.27 2.78
2.63 -5.29 -1.58
3.05 -6.12 -1.58
3.27 -6.58 -1.43
3.94 -7.92 -1.4
4.36 -8.76 1.2
5.23 -10.51 -1.44
4.3 -8.65 1.53
6.37 -12.81 -1.25
4.36 -8.76 1.9
7.35 -14.78 -0.87
6.86 -13.78 -0.27
4.63 -9.32 2.79
2.61 -5.29 -1.58
3.02 -6.12 -1.58
3.26 -6.61 -1.43
3.93 -7.96 -1.41
4.36 -8.83 1.21
5.19 -10.52 -1.44
4.31 -8.73 1.54
6.33 -12.83 -1.25
4.32 -8.76 1.9
7.32 -14.83 -0.87
3.73 -7.55 1.94
6.8 -13.79 -0.27
3.43 -6.96 2.08
2.6 -5.31 -1.58
2.99 -6.12 -1.57
3.24 -6.62 -1.43
3.89 -7.96 -1.4
5.15 -10.53 -1.44
4.27 -8.74 1.54
6.28 -12.84 -1.25
4.28 -8.74 1.89
9.42 -19.27 -1.12
3.67 -7.5 1.93
6.74 -13.79 -0.27
2.57 -5.3 -1.58
2.97 -6.12 -1.57
3.21 -6.62 -1.43
3.87 -7.98 -1.4
5.11 -10.55 -1.44
4.3 -8.87 1.56
6.22 -12.84 -1.25
4.24 -8.76 1.89
9.36 -19.31 -1.12
3.63 -7.5 1.92
6.68 -13.79 -0.27
2.56 -5.33 -1.58
2.93 -6.1 -1.56
3.18 -6.63 -1.43
3.88 -8.08 -1.42
4.24 -8.83 1.2
5.08 -10.57 -1.44
4.27 -8.88 1.56
6.17 -12.86 -1.25
4.28 -8.91 1.92
9.3 -19.37 -1.13
4.08 -8.49 2.17
6.63 -13.81 -0.27
2.54 -5.33 -1.58
2.91 -6.11 -1.56
3.18 -6.68 -1.44
3.85 -8.08 -1.42
4.24 -8.9 1.21
5.04 -10.59 -1.44
6.13 -12.88 -1.25
9.24 -19.41 -1.13
4.05 -8.51 2.18
6.58 -13.82 -0.27
2.53 -5.36 -1.59
2.89 -6.12 -1.56
3.15 -6.69 -1.44
3.81 -8.08 -1.41
4.2 -8.91 1.21
4.99 -10.59 -1.44
6.08 -12.89 -1.25
4.13 -8.76 1.88
9.18 -19.45 -1.13
6.52 -13.82 -0.27
3.87 -8.21 2.43
2.5 -5.35 -1.58
2.86 -6.11 -1.56
3.13 -6.7 -1.44
3.82 -8.17 -1.43
4.96 -10.61 -1.44
6.04 -12.91 -1.25
9.12 -19.51 -1.13
3.98 -8.51 2.17
6.46 -13.82 -0.27
3.86 -8.25 2.44
2.48 -5.35 -1.58
2.84 -6.12 -1.56
3.1 -6.7 -1.44
3.81 -8.22 -1.44
4.92 -10.63 -1.44
5.98 -12.91 -1.25
3.7 -7.98 1.71
9.07 -19.57 -1.13
3.96 -8.54 2.17
6.41 -13.83 -0.27
3.85 -8.3 2.45
2.46 -5.36 -1.58
2.81 -6.12 -1.55
3.07 -6.7 -1.43
3.77 -8.21 -1.43
4.89 -10.64 -1.44
5.94 -12.94 -1.25
3.67 -8 1.71
9.01 -19.62 -1.13
3.91 -8.53 2.17
6.36 -13.84 -0.27
3.79 -8.26 2.43
2.45 -5.38 -1.58
2.78 -6.1 -1.55
3.05 -6.7 -1.43
3.74 -8.22 -1.43
4.85 -10.66 -1.44
5.89 -12.95 -1.24
4.17 -9.15 1.96
6.31 -13.86 -0.8
4.21 -9.25 2.35
6.31 -13.86 -0.27
3.77 -8.28 2.44
2.43 -5.38 -1.58
2.75 -6.1 -1.55
3.03 -6.73 -1.43
3.74 -8.31 -1.44
4.81 -10.67 -1.44
5.85 -12.97 -1.24
3.63 -8.05 1.72
6.25 -13.87 -0.8
4.33 -9.6 2.43
2.41 -5.4 -1.59
2.72 -6.1 -1.54
3.01 -6.73 -1.43
3.71 -8.3 -1.44
4.77 -10.68 -1.44
5.8 -12.98 -1.24
3.62 -8.1 1.72
6.21 -13.91 -0.8
4.42 -9.91 2.5
6.2 -13.88 -0.27
3.72 -8.33 2.45
2.39 -5.4 -1.58
2.7 -6.1 -1.54
2.98 -6.73 -1.43
3.68 -8.33 -1.44
4.73 -10.69 -1.44
5.75 -12.99 -1.24
4.1 -9.26 1.97
8.77 -19.83 -1.14
6.16 -13.92 -0.27
3.68 -8.33 2.44
2.37 -5.41 -1.58
2.67 -6.1 -1.54
2.94 -6.72 -1.43
3.64 -8.32 -1.44
4.69 -10.71 -1.44
5.69 -12.99 -1.24
4.08 -9.32 1.98
8.72 -19.89 -1.14
6.12 -13.97 -0.27
3.64 -8.31 2.43
2.35 -5.42 -1.58
2.64 -6.08 -1.53
2.92 -6.74 -1.43
3.63 -8.37 -1.44
4.65 -10.73 -1.44
5.64 -13 -1.24
3.48 -8.02 1.7
8.65 -19.93 -1.14
6.07 -14 -0.27
3.61 -8.31 2.43
2.33 -5.43 -1.58
2.61 -6.07 -1.53
2.93 -6.83 -1.44
3.62 -8.42 -1.45
4.61 -10.73 -1.43
5.59 -13.01 -1.24
3.45 -8.02 1.7
8.58 -19.96 -1.14
6.03 -14.03 -0.27
3.58 -8.34 2.43
2.31 -5.44 -1.58
2.58 -6.07 -1.52
2.89 -6.79 -1.43
3.57 -8.38 -1.44
4.57 -10.74 -1.43
3.74 -8.79 1.51
5.53 -12.98 -1.23
3.37 -7.92 1.67
8.62 -20.25 -1.15
5.99 -14.06 -0.27
3.56 -8.36 2.43
2.29 -5.44 -1.58
2.56 -6.06 -1.52
2.86 -6.79 -1.43
3.53 -8.38 -1.44
3.74 -8.87 1.18
4.54 -10.76 -1.43
3.71 -8.8 1.51
5.47 -12.96 -1.23
3.94 -9.35 1.97
5.95 -14.11 -0.27
3.49 -8.27 2.4
2.27 -5.44 -1.58
2.53 -6.06 -1.52
2.83 -6.77 -1.43
3.51 -8.41 -1.44
3.73 -8.93 1.19
4.5 -10.78 -1.43
3.69 -8.82 1.51
5.41 -12.96 -1.23
4.08 -9.76 2.06
5.88 -14.08 -0.8
5.91 -14.15 -0.27
3.34 -7.99 2.32
2.26 -5.45 -1.58
2.5 -6.04 -1.51
2.82 -6.8 -1.43
3.51 -8.49 -1.45
4.46 -10.79 -1.43
3.66 -8.84 1.52
5.36 -12.96 -1.23
3.29 -7.95 1.67
8.48 -20.49 -1.16
3.86 -9.33 2.33
5.87 -14.19 -0.27
3.3 -7.98 2.31
2.24 -5.46 -1.58
2.47 -6.04 -1.51
2.8 -6.85 -1.44
3.5 -8.54 -1.46
4.42 -10.79 -1.43
3.63 -8.86 1.52
5.31 -12.97 -1.23
8.38 -20.46 -1.16
3.84 -9.38 2.34
5.83 -14.23 -0.27
3.21 -7.84 2.27
2.22 -5.48 -1.58
2.45 -6.04 -1.5
2.78 -6.86 -1.44
3.46 -8.54 -1.46
4.38 -10.8 -1.43
3.6 -8.87 1.52
5.26 -12.96 -1.22
3.24 -7.98 1.67
8.23 -20.3 -1.15
3.97 -9.78 2.44
5.78 -14.26 -0.27
3.41 -8.42 2.43
2.2 -5.49 -1.59
2.42 -6.03 -1.5
2.75 -6.84 -1.43
3.44 -8.57 -1.46
4.34 -10.82 -1.43
3.56 -8.87 1.51
5.19 -12.94 -1.22
3.2 -7.98 1.67
8.17 -20.37 -1.15
3.78 -9.42 2.34
5.74 -14.3 -0.27
3.14 -7.83 2.26
2.18 -5.49 -1.58
2.4 -6.03 -1.5
2.73 -6.88 -1.44
3.41 -8.58 -1.46
4.31 -10.83 -1.43
3.54 -8.91 1.52
5.14 -12.93 -1.22
3.73 -9.39 1.96
8.12 -20.44 -1.15
3.77 -9.49 2.36
5.7 -14.34 -0.27
3.12 -7.86 2.27
2.17 -5.5 -1.59
2.37 -6.02 -1.49
2.71 -6.89 -1.44
3.38 -8.6 -1.46
4.26 -10.84 -1.43
5.09 -12.94 -1.22
3.78 -9.61 2.01
8.07 -20.51 -1.15
3.76 -9.56 2.37
5.66 -14.39 -0.27
3.1 -7.89 2.27
2.15 -5.52 -1.59
2.35 -6.02 -1.49
2.68 -6.89 -1.44
3.36 -8.62 -1.47
6.11 -15.7 2.07
4.23 -10.85 -1.43
5.79 -14.88 2.53
5.04 -12.94 -1.21
3.2 -8.21 1.71
8.02 -20.6 -1.16
3.71 -9.52 2.36
5.62 -14.42 -0.27
2.13 -5.52 -1.59
2.32 -6.02 -1.49
2.66 -6.91 -1.44
3.35 -8.71 -1.48
6.07 -15.76 2.07
4.18 -10.86 -1.43
5.71 -14.83 2.52
4.98 -12.94 -1.21
3.75 -9.73 2.03
7.96 -20.67 -1.16
3.87 -10.05 2.49
5.57 -14.46 -0.27
2.1 -5.52 -1.58
2.3 -6.02 -1.49
2.64 -6.94 -1.44
3.3 -8.66 -1.47
4.15 -10.88 -1.43
5.66 -14.84 2.52
4.93 -12.94 -1.21
7.92 -20.77 -1.16
3.11 -8.17 2.02
5.53 -14.5 -0.27
2.09 -5.53 -1.58
2.27 -6.02 -1.49
2.61 -6.92 -1.44
5.06 -13.41 1.25
3.27 -8.67 -1.47
5.65 -14.96 1.96
4.11 -10.9 -1.43
4.89 -12.95 -1.21
2.98 -7.89 1.64
3.09 -8.19 2.02
5.48 -14.54 -0.27
5.52 -14.63 4.19
2.07 -5.55 -1.59
21.49 -57.56 1.07
2.25 -6.02 -1.48
2.6 -6.95 -1.44
5.01 -13.42 1.25
3.25 -8.71 -1.47
5.57 -14.91 1.95
4.07 -10.91 -1.43
5.33 -14.29 2.42
4.84 -12.95 -1.21
2.9 -7.78 1.61
9.7 -25.99 -1.45
2.93 -7.86 1.94
5.44 -14.58 -0.27
2.05 -5.56 -1.59
2.23 -6.03 -1.48
2.58 -6.99 -1.45
4.96 -13.43 1.25
3.22 -8.71 -1.47
5.5 -14.88 1.95
4.03 -10.9 -1.43
4.93 -13.35 2.25
4.79 -12.97 -1.21
2.87 -7.76 1.61
9.61 -26.02 -1.45
2.91 -7.88 1.94
5.4 -14.62 -0.27
2.04 -5.57 -1.59
2.21 -6.04 -1.48
21.07 -57.67 3.22
2.56 -6.99 -1.45
4.78 -13.08 1.22
3.19 -8.74 -1.47
3.99 -10.93 -1.43
5.24 -14.35 2.42
4.74 -12.98 -1.21
3.25 -8.89 1.84
9.52 -26.06 -1.45
2.89 -7.91 1.94
5.35 -14.65 -0.27
5.4 -14.77 4.21
2.01 -5.57 -1.59
20.89 -57.81 1.07
2.19 -6.05 -1.49
2.53 -7 -1.45
4.67 -12.93 1.2
3.16 -8.74 -1.47
3.95 -10.94 -1.43
4.86 -13.44 2.26
4.69 -12.97 -1.21
2.82 -7.8 1.61
9.43 -26.09 -1.45
2.87 -7.94 1.95
5.31 -14.68 -0.27
5.34 -14.78 4.21
2 -5.58 -1.59
20.67 -57.83 1.07
2.17 -6.06 -1.49
2.49 -6.95 -1.44
3.15 -8.8 -1.48
3.92 -10.96 -1.43
4.63 -12.96 -1.2
3.49 -9.77 2.02
9.34 -26.12 -1.45
3.41 -9.54 2.34
5.27 -14.73 -0.27
5.29 -14.8 4.21
1.98 -5.6 -1.59
20.62 -58.33 1.08
2.14 -6.05 -1.48
2.46 -6.95 -1.43
4.5 -12.72 1.18
3.12 -8.84 -1.48
3.88 -10.96 -1.43
4.58 -12.95 -1.2
9.25 -26.16 -1.45
3.37 -9.54 2.34
5.22 -14.78 -0.27
1.96 -5.61 -1.59
20.74 -59.31 1.1
2.12 -6.06 -1.48
2.45 -7.02 -1.45
4.46 -12.76 1.18
3.09 -8.84 -1.48
5.81 -16.63 2.16
3.83 -10.96 -1.43
5.5 -15.73 2.64
4.53 -12.94 -1.2
9.16 -26.19 -1.45
2.65 -7.59 1.86
5.18 -14.81 -0.27
1.94 -5.62 -1.59
2.1 -6.06 -1.48
2.43 -7.03 -1.45
4.49 -12.97 1.2
3.05 -8.81 -1.48
3.8 -10.98 -1.43
5.44 -15.73 2.64
4.48 -12.96 -1.2
5 -14.45 2.97
9.07 -26.22 -1.45
2.64 -7.62 1.86
5.13 -14.84 -0.27
3.27 -9.43 2.68
1.92 -5.61 -1.59
2.08 -6.08 -1.48
5.23 -15.29 0.85
2.41 -7.03 -1.44
5.24 -15.31 1.42
3.03 -8.85 -1.48
5.69 -16.64 2.16
3.76 -10.99 -1.43
4.43 -12.94 -1.2
8.98 -26.25 -1.45
2.62 -7.66 1.87
5.09 -14.88 -0.27
1.9 -5.63 -1.59
2.06 -6.09 -1.48
4.81 -14.23 0.79
2.38 -7.06 -1.45
2.99 -8.85 -1.48
5.61 -16.61 2.15
3.72 -11.02 -1.43
4.36 -12.91 -1.19
8.88 -26.28 -1.45
3.24 -9.58 2.33
5.04 -14.93 -0.28
4.75 -14.06 3.98
1.88 -5.64 -1.59
2.03 -6.09 -1.48
2.37 -7.09 -1.45
4.79 -14.34 1.32
2.96 -8.86 -1.48
3.68 -11.02 -1.43
5.56 -16.64 2.78
4.32 -12.92 -1.19
4.77 -14.29 2.93
8.78 -26.28 -1.45
4.51 -13.49 3.28
5 -14.97 -0.28
4.97 -14.89 4.21
1.87 -5.66 -1.6
2.01 -6.08 -1.48
2.35 -7.11 -1.46
2.93 -8.86 -1.48
3.64 -11.02 -1.43
4.27 -12.94 -1.19
4.47 -13.54 2.77
8.71 -26.36 -1.45
4.51 -13.67 3.32
4.96 -15 -0.28
4.97 -15.05 4.25
1.85 -5.66 -1.59
19.39 -59.4 1.09
1.99 -6.08 -1.48
2.31 -7.08 -1.45
2.89 -8.84 -1.47
4.24 -12.97 1.68
3.6 -11.02 -1.42
5.13 -15.73 2.62
4.22 -12.93 -1.19
4.43 -13.58 2.78
8.62 -26.39 -1.46
4.43 -13.58 3.3
4.91 -15.04 -0.28
1.82 -5.65 -1.59
1.96 -6.08 -1.47
2.29 -7.09 -1.45
2.86 -8.87 -1.48
4.96 -15.38 1.98
3.57 -11.05 -1.43
4.17 -12.93 -1.19
4.41 -13.66 2.79
8.52 -26.42 -1.46
4.39 -13.61 3.3
4.86 -15.08 -0.28
1.81 -5.67 -1.59
1.94 -6.08 -1.47
2.27 -7.13 -1.45
4.34 -13.61 1.25
2.82 -8.84 -1.47
3.53 -11.06 -1.43
4.12 -12.94 -1.19
2.65 -8.33 1.7
4.84 -15.2 -0.84
4.4 -13.8 3.34
4.82 -15.12 -0.28
1.8 -5.71 -1.6
1.91 -6.05 -1.46
2.26 -7.16 -1.46
4.33 -13.75 1.26
2.8 -8.9 -1.48
3.49 -11.07 -1.43
5 -15.87 2.63
4.09 -12.97 -1.19
4.78 -15.18 -0.83
4.78 -15.17 -0.28
4.85 -15.41 4.33
1.79 -5.77 -1.62
1.88 -6.04 -1.46
2.22 -7.15 -1.46
2.77 -8.89 -1.47
3.45 -11.08 -1.42
4.42 -14.2 2.35
4.05 -13.01 -1.19
4.73 -15.21 -0.83
2.57 -8.25 1.99
4.73 -15.21 -0.28
4.85 -15.59 4.37
1.77 -5.75 -1.61
1.86 -6.05 -1.46
2.19 -7.14 -1.45
5.1 -16.6 1.52
2.74 -8.93 -1.48
5.24 -17.06 2.19
3.41 -11.09 -1.42
4.92 -16.01 2.65
3.98 -12.96 -1.19
2.52 -8.21 1.98
4.68 -15.24 -0.28
4.54 -14.77 4.14
1.74 -5.74 -1.61
1.84 -6.05 -1.46
2.17 -7.15 -1.45
4.82 -15.89 1.45
2.72 -8.96 -1.48
3.37 -11.09 -1.42
3.91 -12.87 -1.18
8.06 -26.57 -1.45
2.49 -8.2 1.98
4.64 -15.28 -0.28
4.5 -14.82 4.15
1.71 -5.72 -1.6
18.13 -60.51 1.1
1.81 -6.04 -1.45
4.94 -16.5 0.9
2.16 -7.19 -1.46
4.75 -15.86 1.45
2.68 -8.94 -1.48
5.11 -17.06 2.19
3.33 -11.11 -1.42
4.54 -15.15 2.5
3.88 -12.94 -1.18
2.45 -8.17 1.66
7.96 -26.56 -1.45
2.44 -8.16 1.97
4.59 -15.33 -0.28
4.47 -14.92 4.17
1.69 -5.7 -1.59
1.78 -6.03 -1.45
4.94 -16.71 0.91
2.14 -7.22 -1.46
3.88 -13.12 1.2
2.65 -8.97 -1.48
4.21 -14.22 1.82
3.29 -11.12 -1.42
4.48 -15.16 2.5
3.85 -13 -1.19
2.41 -8.13 1.65
7.86 -26.58 -1.45
2.41 -8.14 1.96
4.55 -15.37 -0.28
4.77 -16.12 4.51
1.67 -5.7 -1.59
1.76 -6.03 -1.45
2.11 -7.22 -1.46
4.51 -15.43 1.41
2.61 -8.92 -1.47
4.57 -15.62 2
3.25 -11.12 -1.42
3.8 -13.01 2.15
3.81 -13.04 -1.19
2.36 -8.09 1.64
7.78 -26.63 -1.45
2.37 -8.09 1.95
4.5 -15.41 -0.28
4.43 -15.15 4.23
1.65 -5.71 -1.59
1.74 -6.03 -1.45
2.07 -7.18 -1.45
3.64 -12.61 1.15
2.58 -8.95 -1.47
4.5 -15.61 2
3.21 -11.14 -1.42
3.75 -12.99 2.14
3.77 -13.06 -1.19
2.33 -8.06 1.63
7.69 -26.66 -1.45
2.33 -8.07 1.94
4.45 -15.42 -0.28
4.35 -15.09 4.21
1.62 -5.71 -1.59
1.72 -6.04 -1.45
3.77 -13.25 0.72
2.06 -7.25 -1.47
4.34 -15.24 1.39
2.55 -8.97 -1.48
4.24 -14.89 1.9
3.17 -11.14 -1.42
3.71 -13.03 2.15
3.71 -13.05 -1.19
2.29 -8.04 1.63
7.59 -26.67 -1.45
2.29 -8.05 1.93
4.4 -15.47 -0.28
1.61 -5.74 -1.6
1.7 -6.05 -1.45
3.74 -13.32 0.73
2.06 -7.33 -1.48
4.35 -15.5 1.41
2.53 -9 -1.48
4.18 -14.88 1.9
3.13 -11.16 -1.42
3.78 -13.48 2.22
3.67 -13.07 -1.19
2.25 -8 1.62
7.49 -26.67 -1.45
2.25 -8.02 1.92
4.36 -15.52 -0.28
4.22 -15.05 4.19
1.6 -5.76 -1.6
1.69 -6.11 -1.46
4.23 -15.29 0.83
2.03 -7.34 -1.48
4.24 -15.3 1.39
2.49 -8.98 -1.48
4.28 -15.45 1.97
3.1 -11.18 -1.42
3.86 -13.94 2.29
3.6 -12.99 -1.18
2.21 -7.96 1.61
7.4 -26.74 -1.45
2.21 -7.99 1.91
4.31 -15.57 -0.28
2.21 -7.99 2.22
1.58 -5.77 -1.6
14.95 -54.72 0.99
1.68 -6.15 -1.47
4.18 -15.29 0.83
2.01 -7.35 -1.48
3.98 -14.58 1.32
2.2 -8.06 -1.32
4.06 -14.88 1.89
2.2 -8.06 -1.03
3.84 -14.07 2.31
2.2 -8.06 -0.73
2.17 -7.93 1.6
2.2 -8.06 -0.44
2.17 -7.95 1.9
4.27 -15.62 -0.28
2.16 -7.9 2.19
1.55 -5.77 -1.6
2.16 -8.01 0.14
1.66 -6.18 -1.48
2.16 -8.01 0.43
1.98 -7.35 -1.48
2.15 -7.99 0.72
2.17 -8.05 -1.32
2.15 -7.98 1.01
2.17 -8.04 -1.02
2.15 -7.98 1.31
2.17 -8.04 -0.73
2.13 -7.91 1.59
2.17 -8.05 -0.44
2.16 -8.01 -0.14
2.12 -7.85 2.18
1.53 -5.76 -1.6
2.13 -8 0.14
1.65 -6.21 -1.48
2.12 -7.99 0.43
1.95 -7.35 -1.48
2.12 -7.98 0.72
2.14 -8.04 -1.32
2.12 -7.96 1.01
2.14 -8.04 -1.02
2.12 -7.96 1.3
2.13 -8.01 -0.73
2.09 -7.88 1.58
2.13 -8.02 -0.44
2.1 -7.89 1.88
2.13 -8 -0.14
2.09 -7.85 2.18
1.51 -5.75 -1.59
2.1 -7.99 0.14
1.63 -6.22 -1.48
2.09 -7.99 0.43
1.93 -7.34 -1.48
2.09 -7.98 0.72
2.11 -8.04 -1.32
2.09 -7.97 1.01
2.12 -8.07 -1.02
2.09 -7.96 1.3
2.1 -8.01 -0.72
2.06 -7.85 1.58
2.1 -8.01 -0.43
2.06 -7.87 1.88
2.1 -8.02 -0.14
2.05 -7.82 2.17
1.5 -5.79 -1.6
2.07 -8 0.14
1.61 -6.24 -1.49
2.07 -7.99 0.43
1.89 -7.33 -1.47
2.07 -8 0.72
2.08 -8.04 -1.32
2.06 -7.98 1.01
2.08 -8.06 -1.02
2.06 -7.98 1.31
2.08 -8.04 -0.73
2.02 -7.81 1.57
2.08 -8.04 -0.44
2.02 -7.83 1.87
2.07 -8.02 -0.14
2.01 -7.79 2.16
1.48 -5.8 -1.6
2.04 -8.03 0.14
1.59 -6.25 -1.49
2.04 -8 0.43
1.88 -7.37 -1.48
2.04 -8.01 0.72
2.06 -8.09 -1.32
2.03 -7.99 1.01
2.06 -8.08 -1.02
2.04 -8.01 1.31
2.06 -8.08 -0.73
1.98 -7.78 1.56
2.05 -8.07 -0.44
1.98 -7.79 1.86
2.05 -8.05 -0.15
1.98 -7.78 2.15
1.46 -5.81 -1.61
1.57 -6.25 -1.49
2.02 -8.05 0.44
1.85 -7.38 -1.48
2.26 -8.99 -1.47
2.82 -11.25 -1.42
3.32 -13.23 -1.19
1.95 -7.76 1.56
3.87 -15.43 -0.83
1.95 -7.76 1.85
3.86 -15.39 -0.28
1.94 -7.72 2.13
1.43 -5.81 -1.6
1.55 -6.26 -1.49
3.81 -15.42 0.83
1.84 -7.44 -1.49
4.2 -16.99 1.53
2.22 -9 -1.47
3.7 -14.98 1.89
2.78 -11.26 -1.42
3.76 -15.21 2.48
3.27 -13.21 -1.19
1.91 -7.72 1.55
3.82 -15.45 -0.83
1.91 -7.74 1.84
3.81 -15.43 -0.28
1.9 -7.7 2.12
1.41 -5.8 -1.6
8.48 -34.84 0.63
1.53 -6.29 -1.5
3.11 -12.77 0.69
1.83 -7.53 -1.51
3.8 -15.61 1.41
2.19 -8.99 -1.46
3.62 -14.86 1.88
2.74 -11.27 -1.42
3.73 -15.31 2.5
3.22 -13.22 -1.19
1.87 -7.69 1.54
3.76 -15.46 -0.83
1.88 -7.72 1.83
3.88 -15.95 -0.29
1.87 -7.66 2.11
1.39 -5.81 -1.6
8.31 -34.64 0.62
1.51 -6.3 -1.5
8.31 -34.64 1.87
1.81 -7.56 -1.51
2.14 -8.92 -1.45
3.55 -14.79 1.87
2.71 -11.28 -1.42
3.18 -13.24 -1.19
1.84 -7.66 1.53
3.71 -15.48 -0.83
1.84 -7.67 1.82
3.83 -15.98 -0.29
1.83 -7.64 2.11
1.37 -5.8 -1.6
8.12 -34.39 0.62
1.49 -6.32 -1.5
3.59 -15.19 0.82
1.78 -7.54 -1.51
8.11 -34.34 3.09
2.11 -8.94 -1.45
3.52 -14.92 1.88
2.67 -11.29 -1.42
3.13 -13.27 -1.19
1.81 -7.66 1.53
3.79 -16.04 -0.29
1.8 -7.63 2.1
1.35 -5.8 -1.6
7.95 -34.17 0.61
1.47 -6.32 -1.5
3.52 -15.16 0.82
1.77 -7.63 -1.52
7.93 -34.12 3.06
2.09 -8.99 -1.46
10.04 -43.19 5.44
2.62 -11.29 -1.42
10.04 -43.17 7.02
3.11 -13.37 -1.2
1.78 -7.63 1.52
6.31 -27.12 -1.46
3.74 -16.08 -0.29
1.77 -7.6 2.09
1.33 -5.79 -1.59
7.77 -33.97 0.61
1.45 -6.33 -1.5
3.45 -15.06 0.81
1.75 -7.63 -1.52
7.76 -33.89 3.04
2.07 -9.06 -1.47
9.83 -42.95 5.41
2.59 -11.31 -1.42
9.83 -42.97 6.98
3.07 -13.4 -1.2
1.74 -7.58 1.51
6.22 -27.16 -1.46
1.74 -7.59 1.8
3.69 -16.12 -0.29
1.73 -7.56 2.08
1.3 -5.79 -1.59
7.6 -33.74 0.6
1.43 -6.34 -1.5
3.39 -15.05 0.81
1.72 -7.66 -1.53
7.58 -33.67 3.02
2.06 -9.13 -1.48
3.11 -13.82 1.74
2.55 -11.32 -1.42
3.49 -15.49 2.52
3.01 -13.38 -1.2
1.7 -7.57 1.51
6.12 -27.16 -1.46
1.71 -7.58 1.79
3.64 -16.17 -0.29
1.7 -7.55 2.07
1.28 -5.79 -1.59
7.42 -33.5 0.6
1.4 -6.32 -1.49
3.32 -14.99 0.8
1.7 -7.66 -1.53
7.41 -33.45 3
2.11 -9.52 -1.54
3.02 -13.63 1.71
2.51 -11.33 -1.42
3.43 -15.5 2.52
2.97 -13.39 -1.2
1.68 -7.57 1.51
6.02 -27.18 -1.46
3.59 -16.22 -0.29
1.67 -7.53 2.07
1.26 -5.79 -1.59
7.22 -33.13 0.59
1.37 -6.3 -1.49
3.25 -14.92 0.8
1.67 -7.65 -1.52
2.88 -13.21 1.18
2.08 -9.54 -1.55
2.98 -13.65 1.72
2.47 -11.33 -1.42
9.19 -42.13 6.83
2.91 -13.35 -1.2
3.17 -14.53 2.89
5.93 -27.18 -1.46
3.55 -16.27 -0.29
1.24 -5.78 -1.58
7.06 -32.92 0.59
1.35 -6.3 -1.49
3.19 -14.9 0.8
1.65 -7.67 -1.53
2.83 -13.2 1.18
2.05 -9.54 -1.55
2.9 -13.53 1.7
2.43 -11.33 -1.42
8.98 -41.87 6.78
2.9 -13.53 -1.21
5.84 -27.22 -1.46
3.5 -16.31 -0.29
3.21 -14.96 4.1
1.22 -5.77 -1.58
6.89 -32.72 0.58
1.33 -6.32 -1.49
6.89 -32.72 1.75
1.61 -7.67 -1.52
6.87 -32.64 2.92
1.98 -9.39 -1.52
8.81 -41.86 5.25
2.39 -11.35 -1.42
8.8 -41.81 6.77
2.85 -13.53 -1.21
3.31 -15.73 3.12
3.43 -16.29 -0.87
3.44 -16.34 -0.29
3.11 -14.77 4.04
1.19 -5.76 -1.58
3.36 -16.22 0.29
1.3 -6.3 -1.48
6.73 -32.52 1.74
1.59 -7.67 -1.52
6.71 -32.45 2.9
1.96 -9.46 -1.53
2.81 -13.6 1.71
2.35 -11.36 -1.42
8.55 -41.34 6.69
2.8 -13.54 -1.21
3.04 -14.69 2.92
3.4 -16.44 -0.88
8.5 -41.07 9.68
3.37 -16.29 -0.29
1.17 -5.77 -1.58
1.27 -6.27 -1.48
6.57 -32.3 1.73
1.56 -7.69 -1.52
3.21 -15.79 1.41
1.94 -9.55 -1.54
3.35 -16.49 2.07
2.31 -11.36 -1.42
8.35 -41.1 6.64
2.75 -13.54 -1.21
8.35 -41.09 8.15
8.35 -41.07 9.68
3.31 -16.3 -0.29
1.15 -5.77 -1.58
6.41 -32.12 0.57
1.25 -6.27 -1.48
6.41 -32.1 1.72
1.53 -7.67 -1.52
3.18 -15.93 1.42
1.91 -9.57 -1.55
6.55 -32.81 4.11
2.27 -11.36 -1.42
8.16 -40.89 6.6
2.7 -13.53 -1.21
3.27 -16.4 3.25
5.47 -27.4 -1.46
8.15 -40.83 9.61
3.24 -16.22 -0.29
1.13 -5.76 -1.57
6.26 -31.92 0.57
1.23 -6.28 -1.48
6.26 -31.91 1.7
1.5 -7.64 -1.51
2.88 -14.69 1.31
1.88 -9.58 -1.55
6.45 -32.88 4.11
2.23 -11.38 -1.42
3.03 -15.42 2.49
2.67 -13.59 -1.21
7.97 -40.6 8.04
5.37 -27.39 -1.46
7.96 -40.57 9.54
3.16 -16.13 -0.29
1.11 -5.75 -1.57
6.11 -31.74 0.56
1.22 -6.34 -1.49
6.11 -31.71 1.69
1.48 -7.69 -1.52
3 -15.57 1.39
1.85 -9.59 -1.55
6.34 -32.94 4.12
2.19 -11.39 -1.42
7.77 -40.36 6.51
2.62 -13.6 -1.21
7.78 -40.38 7.99
5.28 -27.44 -1.46
3.05 -15.85 3.73
3.09 -16.05 -0.29
1.09 -5.75 -1.57
5.96 -31.54 0.56
1.2 -6.36 -1.5
5.96 -31.54 1.68
1.45 -7.68 -1.52
5.95 -31.47 2.8
1.81 -9.58 -1.54
6.24 -33.01 4.13
2.15 -11.4 -1.42
7.58 -40.13 6.47
2.58 -13.67 -1.22
2.65 -14 2.77
5.19 -27.46 -1.46
2.99 -15.8 3.71
3.02 -15.99 -0.28
7.48 -39.59 10.8
1.07 -5.75 -1.57
5.81 -31.36 0.56
1.18 -6.35 -1.49
5.81 -31.34 1.67
1.42 -7.68 -1.52
2.99 -16.14 1.44
1.78 -9.59 -1.54
7.39 -39.88 4.98
2.11 -11.41 -1.42
7.39 -39.89 6.43
2.54 -13.71 -1.22
2.6 -14.01 2.77
5.09 -27.47 -1.46
7.38 -39.84 9.35
2.95 -15.93 -0.28
7.35 -39.64 10.8
1.05 -5.75 -1.57
5.67 -31.19 0.55
1.15 -6.35 -1.49
5.67 -31.18 1.66
1.39 -7.67 -1.52
2.83 -15.59 1.39
1.75 -9.61 -1.55
7.21 -39.65 4.95
2.07 -11.42 -1.42
7.21 -39.65 6.38
2.5 -13.74 -1.22
2.54 -13.97 2.76
5 -27.49 -1.46
2.66 -14.62 3.43
2.88 -15.86 -0.28
7.18 -39.5 10.76
1.02 -5.74 -1.56
5.52 -31 0.55
1.13 -6.35 -1.49
5.52 -30.98 1.65
1.36 -7.64 -1.51
5.51 -30.93 2.75
1.71 -9.61 -1.55
2.93 -16.47 2.05
2.04 -11.43 -1.42
7.02 -39.4 6.34
2.43 -13.65 -1.21
7.02 -39.4 7.78
4.91 -27.54 -1.47
7.02 -39.39 9.24
2.81 -15.79 -0.28
6.99 -39.27 10.69
1 -5.73 -1.56
5.4 -30.96 0.55
1.11 -6.34 -1.49
5.39 -30.93 1.65
1.33 -7.65 -1.51
5.39 -30.89 2.74
1.68 -9.62 -1.55
2.4 -13.74 1.71
1.99 -11.44 -1.43
6.83 -39.19 6.3
2.39 -13.68 -1.21
6.83 -39.17 7.73
4.82 -27.62 -1.47
6.83 -39.16 9.18
2.74 -15.73 -0.28
6.81 -39.04 10.62
0.98 -5.74 -1.56
5.25 -30.76 0.54
1.09 -6.35 -1.49
5.26 -30.78 1.64
1.31 -7.67 -1.51
5.24 -30.71 2.73
1.64 -9.61 -1.54
2.86 -16.77 2.09
1.96 -11.45 -1.43
6.65 -38.96 6.26
2.34 -13.73 -1.22
6.65 -38.94 7.68
4.71 -27.61 -1.47
6.65 -38.95 9.12
2.67 -15.65 -0.28
6.63 -38.82 10.55
0.96 -5.74 -1.56
5.1 -30.44 0.54
1.06 -6.34 -1.48
5.1 -30.46 1.62
1.3 -7.76 -1.53
5.09 -30.4 2.7
1.61 -9.62 -1.55
2.3 -13.72 1.71
1.92 -11.44 -1.42
6.49 -38.74 6.22
2.34 -13.99 -1.24
2.34 -13.99 2.76
4.62 -27.6 -1.47
6.49 -38.73 9.07
2.61 -15.6 -0.28
6.47 -38.6 10.49
0.94 -5.74 -1.56
4.96 -30.27 0.54
1.04 -6.35 -1.49
4.96 -30.27 1.61
1.27 -7.74 -1.53
4.96 -30.24 2.68
1.58 -9.63 -1.55
2.77 -16.87 2.1
1.88 -11.44 -1.42
6.31 -38.51 6.18
2.31 -14.09 -1.25
2.73 -16.66 3.28
4.54 -27.67 -1.47
6.32 -38.52 9.01
2.55 -15.54 -0.27
6.29 -38.37 10.42
0.92 -5.73 -1.56
4.82 -30.11 0.53
1.03 -6.42 -1.5
4.82 -30.09 1.6
1.24 -7.75 -1.53
4.81 -30.05 2.66
1.54 -9.64 -1.55
2.71 -16.89 2.1
1.83 -11.45 -1.42
6.13 -38.29 6.14
2.26 -14.11 -1.25
2.27 -14.19 2.79
4.43 -27.66 -1.47
2.63 -16.42 3.84
2.48 -15.47 -0.27
6.11 -38.17 10.36
0.9 -5.73 -1.55
4.69 -29.94 0.53
1.01 -6.45 -1.51
4.69 -29.92 1.59
1.21 -7.76 -1.53
4.68 -29.88 2.65
1.51 -9.64 -1.55
4.98 -31.83 3.96
1.8 -11.47 -1.43
5.98 -38.16 6.12
2.19 -14.01 -1.24
5.96 -38.06 7.49
4.33 -27.67 -1.47
5.96 -38.07 8.9
2.42 -15.43 -0.27
5.95 -37.97 10.3
0.88 -5.73 -1.55
4.55 -29.76 0.53
0.99 -6.46 -1.51
4.55 -29.77 1.58
1.19 -7.76 -1.53
4.55 -29.72 2.63
1.47 -9.63 -1.54
4.88 -31.88 3.96
1.76 -11.47 -1.43
5.84 -38.19 6.12
2.16 -14.12 -1.25
5.79 -37.85 7.44
2.35 -15.33 -0.81
5.83 -38.09 8.9
2.35 -15.36 -0.27
5.78 -37.75 10.23
0.86 -5.73 -1.55
4.42 -29.59 0.52
0.97 -6.47 -1.51
4.42 -29.59 1.57
1.16 -7.76 -1.53
4.42 -29.55 2.61
1.44 -9.64 -1.54
4.78 -31.97 3.97
1.72 -11.49 -1.43
5.73 -38.31 6.14
2.11 -14.13 -1.25
5.63 -37.65 7.4
2.29 -15.3 -0.81
5.69 -38.1 8.89
2.3 -15.37 -0.27
5.61 -37.53 10.17
0.83 -5.72 -1.55
4.29 -29.43 0.52
0.94 -6.45 -1.51
4.29 -29.41 1.56
1.13 -7.74 -1.52
4.29 -29.39 2.6
1.41 -9.65 -1.54
4.31 -29.53 3.66
1.67 -11.47 -1.42
2.08 -14.24 -1.26
5.46 -37.44 7.35
2.24 -15.32 -0.81
6.14 -42.08 9.82
2.22 -15.25 -0.27
5.45 -37.34 10.11
0.81 -5.72 -1.55
4.16 -29.25 0.52
0.92 -6.44 -1.5
4.16 -29.25 1.55
1.1 -7.75 -1.52
4.16 -29.22 2.58
1.37 -9.66 -1.54
4.18 -29.35 3.64
1.63 -11.48 -1.42
5.3 -37.24 5.96
2.03 -14.26 -1.26
5.3 -37.25 7.31
3.95 -27.73 -1.47
5.99 -42.1 9.82
2.16 -15.18 -0.27
5.28 -37.13 10.05
0.79 -5.7 -1.54
4.04 -29.1 0.51
0.9 -6.48 -1.51
4.05 -29.11 1.54
1.08 -7.78 -1.53
4.04 -29.07 2.57
1.34 -9.67 -1.55
4.05 -29.17 3.62
1.6 -11.5 -1.43
4.63 -33.31 5.33
1.98 -14.27 -1.26
5.14 -37.02 7.27
3.86 -27.76 -1.47
5.15 -37.04 8.63
2.1 -15.13 -0.27
5.13 -36.93 9.99
0.77 -5.7 -1.54
3.92 -28.94 0.51
0.87 -6.46 -1.51
3.92 -28.96 1.53
1.05 -7.77 -1.52
3.91 -28.91 2.55
1.31 -9.65 -1.54
3.92 -28.98 3.59
1.56 -11.5 -1.42
4.51 -33.29 5.32
1.92 -14.2 -1.25
4.98 -36.8 7.22
2.03 -14.97 -0.79
4.99 -36.84 8.58
2.04 -15.08 -0.27
4.97 -36.74 9.93
0.75 -5.71 -1.54
3.8 -28.8 0.51
0.85 -6.45 -1.5
3.8 -28.8 1.52
1.03 -7.78 -1.53
3.79 -28.77 2.54
1.27 -9.66 -1.54
3.81 -28.87 3.57
1.52 -11.51 -1.42
4.35 -32.99 5.27
1.88 -14.25 -1.26
4.83 -36.63 7.18
1.96 -14.9 -0.79
4.83 -36.65 8.54
1.98 -15.04 -0.26
4.82 -36.54 9.88
0.73 -5.71 -1.54
3.68 -28.65 0.5
0.82 -6.43 -1.5
3.67 -28.65 1.51
1.01 -7.85 -1.54
3.67 -28.61 2.52
1.24 -9.68 -1.54
3.68 -28.68 3.55
1.48 -11.5 -1.42
4.24 -33.02 5.27
1.84 -14.32 -1.26
4.67 -36.44 7.14
1.9 -14.84 -0.78
4.67 -36.44 8.48
1.92 -14.98 -0.26
4.66 -36.36 9.82
0.71 -5.71 -1.54
3.55 -28.49 0.5
0.81 -6.47 -1.51
3.55 -28.47 1.5
0.98 -7.85 -1.54
3.55 -28.45 2.51
1.21 -9.68 -1.55
1.44 -11.51 -1.42
4.22 -33.8 5.4
1.78 -14.26 -1.26
4.52 -36.24 7.1
1.85 -14.8 -0.78
4.52 -36.26 8.44
3.56 -28.54 -0.5
4.51 -36.15 9.76
0.69 -5.69 -1.53
3.43 -28.32 0.5
0.78 -6.45 -1.5
3.43 -28.34 1.5
0.95 -7.87 -1.54
3.43 -28.3 2.49
1.17 -9.69 -1.55
1.4 -11.52 -1.43
4.1 -33.8 5.39
1.72 -14.19 -1.25
4.37 -36.05 7.06
1.78 -14.72 -0.78
4.37 -36.06 8.39
3.44 -28.35 -0.5
4.35 -35.93 9.7
0.67 -5.69 -1.54
3.33 -28.27 0.5
0.76 -6.46 -1.5
3.32 -28.24 1.49
0.93 -7.87 -1.54
3.32 -28.2 2.48
1.14 -9.68 -1.54
1.36 -11.53 -1.43
3.98 -33.82 5.39
1.67 -14.16 -1.25
4.22 -35.85 7.02
1.73 -14.66 -0.77
4.22 -35.88 8.34
3.33 -28.33 -0.5
4.21 -35.75 9.65
0.65 -5.69 -1.53
3.22 -28.18 0.5
0.74 -6.49 -1.51
3.22 -28.2 1.49
0.9 -7.93 -1.55
3.21 -28.15 2.48
1.11 -9.69 -1.54
3.21 -28.14 3.48
1.32 -11.53 -1.43
3.78 -33.09 5.27
1.63 -14.24 -1.25
4.07 -35.67 6.98
1.67 -14.61 -0.77
4.07 -35.69 8.29
3.22 -28.18 -0.5
4.06 -35.57 9.59
0.63 -5.69 -1.53
3.1 -28.01 0.49
0.71 -6.46 -1.5
3.1 -28.03 1.48
0.88 -7.93 -1.55
3.1 -28 2.46
1.07 -9.7 -1.54
1.27 -11.53 -1.42
3.61 -32.68 5.21
1.58 -14.3 -1.26
3.93 -35.5 6.94
1.61 -14.56 -0.77
3.92 -35.49 8.24
3.1 -28.04 -0.49
3.91 -35.4 9.54
0.61 -5.69 -1.53
2.98 -27.88 0.49
0.69 -6.43 -1.49
2.99 -27.89 1.47
0.85 -7.94 -1.55
2.98 -27.85 2.45
1.04 -9.7 -1.55
2.97 -27.77 3.43
1.23 -11.53 -1.42
3.53 -32.95 5.25
1.52 -14.22 -1.25
3.78 -35.31 6.9
1.55 -14.5 -0.76
3.78 -35.31 8.2
2.98 -27.88 -0.49
3.77 -35.21 9.49
0.59 -5.67 -1.53
2.87 -27.73 0.49
0.67 -6.44 -1.49
2.87 -27.75 1.46
0.82 -7.96 -1.56
2.87 -27.71 2.44
1 -9.7 -1.54
1.2 -11.55 -1.43
3.41 -32.94 5.25
1.47 -14.19 -1.25
3.64 -35.13 6.87
1.5 -14.46 -0.76
3.64 -35.15 8.16
2.87 -27.76 -0.49
3.63 -35.05 9.44
0.57 -5.68 -1.53
2.76 -27.57 0.48
0.64 -6.44 -1.49
2.76 -27.62 1.45
0.8 -7.99 -1.56
2.76 -27.57 2.42
0.97 -9.7 -1.54
2.75 -27.48 3.39
1.16 -11.56 -1.43
3.3 -32.97 5.25
1.42 -14.2 -1.25
3.5 -34.95 6.83
1.44 -14.41 -0.76
3.52 -35.2 8.17
2.76 -27.61 -0.48
3.51 -35.11 9.45
0.55 -5.68 -1.53
2.65 -27.43 0.48
0.62 -6.43 -1.49
2.65 -27.47 1.45
0.77 -7.96 -1.55
2.65 -27.43 2.41
0.94 -9.71 -1.55
2.64 -27.34 3.37
1.11 -11.55 -1.42
3.19 -33.04 5.26
1.37 -14.18 -1.25
3.35 -34.77 6.79
1.38 -14.34 -0.75
3.41 -35.34 8.2
2.65 -27.48 -0.48
3.39 -35.19 9.47
0.53 -5.69 -1.53
2.54 -27.28 0.48
0.6 -6.44 -1.49
2.54 -27.32 1.44
0.74 -7.95 -1.55
2.54 -27.3 2.4
0.9 -9.71 -1.54
2.53 -27.23 3.36
1.07 -11.55 -1.42
3.08 -33.14 5.27
1.32 -14.19 -1.25
3.22 -34.6 6.76
1.33 -14.29 -0.75
3.3 -35.46 8.22
2.54 -27.34 -0.48
0.51 -5.68 -1.53
2.43 -27.15 0.48
0.58 -6.47 -1.5
2.44 -27.19 1.43
0.71 -7.94 -1.55
2.43 -27.16 2.39
0.87 -9.73 -1.55
2.43 -27.11 3.34
1.04 -11.56 -1.43
3.09 -34.44 5.48
1.27 -14.15 -1.24
3.08 -34.43 6.72
3.19 -35.57 8.24
2.44 -27.19 -0.48
0.49 -5.66 -1.52
2.33 -27.01 0.47
0.56 -6.48 -1.5
2.33 -27.06 1.42
0.68 -7.89 -1.54
2.33 -27.02 2.37
0.84 -9.74 -1.55
2.32 -26.98 3.33
1 -11.57 -1.43
2.95 -34.28 5.45
1.21 -14.09 -1.24
2.95 -34.26 6.68
2.34 -27.14 -1.43
2.95 -34.27 7.94
2.33 -27.06 -0.47
2.94 -34.15 9.18
0.47 -5.67 -1.52
2.22 -26.92 0.47
0.53 -6.46 -1.5
2.22 -26.93 1.42
0.65 -7.91 -1.54
2.21 -26.88 2.36
0.8 -9.74 -1.55
2.21 -26.84 3.31
0.95 -11.58 -1.43
2.81 -34.11 5.42
1.07 -12.99 -1.14
2.81 -34.07 6.65
1.07 -13.01 -0.68
2.81 -34.1 7.9
2.22 -26.93 -0.47
2.8 -33.99 9.14
0.45 -5.67 -1.52
2.11 -26.78 0.47
2.11 -26.8 1.41
2.11 -26.77 2.35
0.77 -9.74 -1.55
2.11 -26.69 3.29
0.91 -11.59 -1.43
2.68 -33.94 5.39
1.03 -13 -1.14
2.67 -33.91 6.61
1.02 -12.99 -0.68
2.68 -33.93 7.86
2.11 -26.81 -0.47
2.67 -33.83 9.09
0.43 -5.69 -1.53
2.02 -26.68 0.47
2.01 -26.66 1.4
2.01 -26.63 2.34
0.74 -9.76 -1.55
2.01 -26.58 3.27
0.88 -11.6 -1.43
2.55 -33.78 5.37
0.99 -13.04 -1.14
2.55 -33.75 6.58
0.98 -12.99 -0.68
2.55 -33.75 7.81
2.02 -26.74 -0.47
2.54 -33.67 9.05
0.41 -5.69 -1.53
1.92 -26.71 0.47
1.92 -26.66 1.4
1.91 -26.49 2.32
0.7 -9.75 -1.55
1.91 -26.46 3.26
0.83 -11.59 -1.43
2.42 -33.6 5.33
1.02 -14.1 -1.24
2.42 -33.59 6.55
2.42 -33.59 7.77
1.93 -26.78 -0.47
2.41 -33.51 9
0.39 -5.68 -1.52
1.83 -26.78 0.47
1.83 -26.72 1.4
0.55 -8.01 -1.56
1.81 -26.36 2.31
0.67 -9.76 -1.55
1.8 -26.33 3.24
0.8 -11.6 -1.43
2.29 -33.44 5.31
0.96 -14.01 -1.23
2.29 -33.44 6.52
1.85 -26.95 -1.42
2.29 -33.44 7.74
1.84 -26.86 -0.47
2.28 -33.27 8.94
0.37 -5.69 -1.53
1.75 -26.85 0.47
1.74 -26.78 1.41
0.52 -7.94 -1.55
1.71 -26.24 2.3
0.63 -9.75 -1.55
1.7 -26.2 3.22
0.75 -11.61 -1.43
2.16 -33.29 5.28
0.9 -13.86 -1.22
2.16 -33.27 6.48
0.9 -13.89 -0.73
2.16 -33.27 7.7
1.75 -26.94 -0.47
2.14 -32.85 8.82
1.66 -26.92 0.47
1.65 -26.86 1.41
1.61 -26.11 2.29
0.6 -9.75 -1.55
1.6 -26.07 3.21
0.71 -11.6 -1.43
2.04 -33.13 5.26
0.85 -13.84 -1.21
2.04 -33.1 6.45
0.85 -13.84 -0.73
2.04 -33.12 7.66
1.66 -26.99 -0.47
2.01 -32.71 8.78
1.56 -26.98 0.47
1.56 -26.91 1.41
1.51 -26 2.28
0.57 -9.77 -1.55
1.5 -25.94 3.19
0.67 -11.61 -1.43
1.91 -32.97 5.23
0.8 -13.86 -1.21
1.91 -32.95 6.42
0.81 -13.89 -0.73
1.91 -32.95 7.62
1.57 -27.07 -0.47
1.9 -32.71 8.78
1.48 -27.06 0.47
1.48 -26.98 1.42
1.41 -25.87 2.27
0.53 -9.78 -1.55
1.41 -25.83 3.18
0.64 -11.62 -1.43
1.79 -32.82 5.21
0.76 -13.85 -1.21
1.79 -32.79 6.38
1.79 -32.8 7.58
1.48 -27.14 -0.47
1.79 -32.81 8.8
1.39 -27.13 0.47
1.39 -27.06 1.42
1.32 -25.73 2.25
0.5 -9.78 -1.55
1.32 -25.71 3.16
0.6 -11.63 -1.43
1.67 -32.66 5.18
0.71 -13.86 -1.21
1.67 -32.62 6.35
1.67 -32.64 7.54
1.39 -27.21 -0.48
1.69 -33.01 8.86
1.29 -27.18 0.47
1.29 -27.13 1.42
1.22 -25.63 2.24
0.46 -9.77 -1.55
1.22 -25.58 3.14
0.55 -11.62 -1.43
1.54 -32.51 5.15
0.66 -13.85 -1.21
1.54 -32.48 6.32
1.3 -27.36 -1.44
1.54 -32.49 7.51
1.3 -27.28 -0.48
1.58 -33.2 8.91
1.2 -27.25 0.48
1.2 -27.19 1.43
1.12 -25.51 2.23
0.43 -9.78 -1.55
1.12 -25.46 3.13
0.51 -11.63 -1.43
1.42 -32.36 5.13
0.61 -13.85 -1.21
1.42 -32.33 6.29
1.21 -27.45 -1.44
1.42 -32.34 7.47
1.2 -27.36 -0.48
1.47 -33.36 8.95
1.11 -27.33 0.48
1.1 -27.26 1.43
1.03 -25.38 2.22
0.4 -9.78 -1.55
1.03 -25.33 3.11
0.47 -11.62 -1.43
1.3 -32.21 5.11
0.56 -13.83 -1.21
1.3 -32.19 6.26
1.11 -27.49 -1.44
1.3 -32.18 7.43
1.11 -27.43 -0.48
1.36 -33.45 8.97
1.01 -27.38 0.48
0.24 -6.48 -1.5
1.01 -27.32 1.43
0.3 -8.08 -1.57
0.94 -25.27 2.21
0.36 -9.79 -1.55
0.93 -25.23 3.1
0.43 -11.63 -1.43
1.19 -32.04 5.08
0.51 -13.8 -1.21
1.19 -32.04 6.23
1.19 -32.04 7.4
1.02 -27.45 -0.48
1.24 -33.6 9.01
0.92 -27.42 0.48
0.22 -6.5 -1.5
0.85 -25.14 2.2
0.33 -9.78 -1.55
0.85 -25.12 3.09
0.39 -11.63 -1.43
1.08 -31.91 5.06
0.46 -13.79 -1.21
1.07 -31.88 6.2
1.07 -31.88 7.37
0.93 -27.49 -0.48
1.14 -33.75 9.05
0.83 -27.41 0.48
0.2 -6.55 -1.51
0.76 -25.03 2.19
0.3 -9.78 -1.55
0.75 -24.99 3.07
0.35 -11.65 -1.43
0.96 -31.75 5.03
0.42 -13.86 -1.21
0.96 -31.74 6.17
0.96 -31.74 7.33
0.8 -26.45 -0.46
1.03 -33.97 9.11
0.71 -26.4 0.46
0.17 -6.55 -1.51
0.63 -23.75 1.25
0.21 -7.94 -1.54
0.67 -24.93 2.18
0.26 -9.78 -1.55
0.66 -24.88 3.06
0.31 -11.64 -1.43
0.84 -31.62 5.01
0.37 -13.86 -1.21
0.84 -31.61 6.15
0.84 -31.33 7.24
0.71 -26.49 -0.46
0.91 -34.16 9.16
0.64 -27.41 0.48
0.55 -23.8 1.25
0.19 -8.09 -1.57
0.58 -24.81 2.17
0.23 -9.79 -1.55
0.58 -24.76 3.04
0.27 -11.64 -1.43
0.73 -31.54 5
0.32 -13.94 -1.22
0.73 -31.46 6.12
0.73 -31.14 7.19
0.64 -27.55 -0.48
0.8 -34.26 9.18
0.55 -27.43 0.48
0.16 -7.97 -1.55
0.49 -24.71 2.16
0.19 -9.79 -1.55
0.49 -24.66 3.03
0.23 -11.64 -1.43
0.63 -31.61 5.01
0.28 -14 -1.23
0.63 -31.51 6.13
0.62 -31.07 7.17
0.55 -27.51 -0.48
0.68 -34.4 9.22
0.45 -27.45 0.48
0.13 -7.99 -1.55
0.41 -24.57 2.15
0.16 -9.8 -1.55
0.4 -24.54 3.01
0.19 -11.65 -1.43
0.52 -31.69 5.02
0.23 -14.01 -1.23
0.52 -31.61 6.14
0.51 -31.13 7.19
0.57 -34.55 9.26
0.33 -25.31 0.44
0.11 -8.18 -1.59
0.32 -24.47 2.14
0.13 -9.79 -1.55
0.32 -24.44 3
0.15 -11.65 -1.43
0.41 -31.76 5.03
0.18 -14.11 -1.23
0.41 -31.67 6.16
0.4 -31.24 7.21
0.33 -25.4 -0.44
0.45 -34.71 9.3
0.26 -27.43 0.48
0.08 -8.19 -1.59
0.23 -24.36 2.13
0.09 -9.79 -1.55
0.23 -24.32 2.99
0.11 -11.66 -1.43
0.3 -31.86 5.05
0.14 -14.3 -1.25
0.3 -31.76 6.17
0.23 -24.38 -1.28
0.3 -31.37 7.24
0.23 -24.36 -0.43
0.33 -34.91 9.36
0.14 -24.28 0.42
0.14 -24.25 1.27
0.05 -8.17 -1.59
0.14 -24.27 2.12
0.06 -9.8 -1.55
0.14 -24.21 2.97
0.07 -11.64 -1.43
0.19 -31.95 5.06
0.09 -14.55 -1.27
0.19 -31.84 6.19
0.14 -24.3 -1.27
0.19 -31.53 7.28
0.14 -24.29 -0.42
0.21 -35.08 9.4
0.06 -24.18 0.42
0.06 -24.17 1.27
0.02 -8.12 -1.58
0.06 -24.15 2.11
0.02 -9.81 -1.55
0.06 -24.12 2.96
0.03 -11.65 -1.43
0.08 -32.01 5.07
