# .PCD v0.7 - Point Cloud Data file format
VERSION 0.7
FIELDS x y z
SIZE 4 4 4
TYPE F F F
COUNT 1 1 1
WIDTH 2867
HEIGHT 1
VIEWPOINT 0 0 0 1 0 0 0
POINTS 2867
DATA ascii
7.96 -7.63 0.19
4.7 -4.5 -1.5
8.34 -8 0.61
5.35 -5.13 -1.44
7.92 -7.59 0.96
6.22 -5.97 -1.37
21.71 -20.81 3.69
7.26 -6.96 -1.24
8.26 -7.92 -1
11.62 -11.14 3.13
7.96 -7.63 -0.58
15.05 -14.42 4.81
7.64 -7.33 -0.18
4.19 -4.04 -1.56
8.54 -8.24 0.21
4.68 -4.51 -1.5
7.72 -7.45 0.56
5.33 -5.14 -1.44
8.07 -7.79 0.98
6.21 -5.99 -1.37
8.04 -7.76 1.37
7.24 -6.99 -1.24
8.39 -8.1 1.85
11.57 -11.17 3.13
8.01 -7.73 -0.58
7.24 -6.99 2.32
9.77 -9.43 -0.24
4.17 -4.06 -1.56
8.49 -8.26 0.21
4.66 -4.53 -1.5
7.91 -7.69 0.58
5.32 -5.17 -1.44
7.55 -7.34 0.92
6.18 -6.01 -1.37
7.95 -7.73 1.36
7.21 -7.01 -1.23
8.34 -8.11 1.84
10.31 -10.03 -1.26
11.52 -11.2 3.12
8.14 -7.91 -0.59
8.03 -7.81 -0.2
7.2 -7 2.69
4.15 -4.07 -1.56
8.53 -8.35 0.21
4.65 -4.55 -1.5
7.89 -7.72 0.58
5.28 -5.17 -1.44
9.72 -9.51 1.19
6.16 -6.03 -1.37
7.85 -7.68 1.35
7.17 -7.02 -1.23
11.09 -10.86 2.46
8.16 -7.99 -1
16.3 -15.96 4.43
8.15 -7.98 -0.6
10.27 -10.05 3.32
7.98 -7.81 -0.19
10.23 -10.01 3.84
4.12 -4.06 -1.55
7.94 -7.83 0.19
4.64 -4.57 -1.5
9.75 -9.61 0.72
5.26 -5.19 -1.44
7.9 -7.79 0.97
6.14 -6.05 -1.37
7.59 -7.48 1.31
7.13 -7.03 -1.23
7.9 -7.79 1.76
10.29 -10.14 2.81
7.69 -7.58 -0.57
10.24 -10.1 3.32
7.95 -7.84 -0.19
7.16 -7.06 2.7
4.1 -4.07 -1.55
7.86 -7.8 0.19
4.63 -4.6 -1.51
8.42 -8.36 0.62
5.25 -5.21 -1.44
7.88 -7.83 0.97
6.12 -6.07 -1.36
10.35 -10.28 1.79
7.09 -7.04 -1.23
7.16 -7.11 1.6
8.33 -8.26 -1.03
10.25 -10.17 2.81
7.68 -7.63 -0.57
7.25 -7.19 2.36
7.69 -7.63 -0.19
7.13 -7.08 2.69
4.09 -4.09 -1.55
8.27 -8.27 0.2
4.6 -4.6 -1.5
8.14 -8.14 0.6
5.23 -5.23 -1.44
7.74 -7.74 0.96
6.09 -6.09 -1.36
7.51 -7.51 1.3
7.07 -7.07 -1.23
11.51 -11.51 2.58
8.36 -8.36 -1.03
11.72 -11.72 -0.87
7.25 -7.24 2.37
10.54 -10.53 -0.26
6.96 -6.95 2.64
4.07 -4.1 -1.55
10.47 -10.54 0.26
4.59 -4.62 -1.5
11.18 -11.25 0.83
5.22 -5.25 -1.44
7.71 -7.76 0.96
6.07 -6.11 -1.36
7.83 -7.88 1.36
7.03 -7.08 -1.22
7.81 -7.86 1.76
8.13 -8.19 -1.01
7.35 -7.4 2.03
7.85 -7.9 -0.58
7.2 -7.25 2.36
7.97 -8.03 -0.2
16.25 -16.35 6.18
4.07 -4.12 -1.55
7.36 -7.46 0.18
4.56 -4.63 -1.5
5.19 -5.26 -1.44
7.93 -8.03 0.99
6.04 -6.12 -1.36
7.66 -7.77 1.34
7 -7.1 -1.22
7.41 -7.52 1.67
7.86 -7.97 -0.59
7.12 -7.21 2.34
7.51 -7.61 -0.19
14.79 -14.99 5.64
4.05 -4.13 -1.55
11.12 -11.36 0.28
4.55 -4.65 -1.5
8.07 -8.23 0.6
5.17 -5.28 -1.44
14.76 -15.07 1.85
6.02 -6.14 -1.36
6.96 -7.1 -1.22
7.66 -7.82 1.73
7.43 -7.58 -0.93
7.23 -7.38 2.01
7.98 -8.15 -0.6
14.9 -15.21 4.92
7.44 -7.59 -0.19
14.84 -15.15 5.68
4.04 -4.15 -1.55
8.19 -8.42 0.2
4.55 -4.67 -1.51
7.41 -7.62 0.56
5.15 -5.3 -1.44
10.61 -10.91 1.33
5.99 -6.16 -1.36
7.48 -7.69 1.32
6.99 -7.19 -1.23
7.44 -7.65 -0.93
14.85 -15.27 4.14
14.88 -15.3 4.93
8.22 -8.45 -0.21
14.94 -15.36 5.74
4.02 -4.16 -1.55
8.15 -8.43 0.2
4.53 -4.68 -1.5
7.45 -7.71 0.56
5.14 -5.32 -1.44
7.61 -7.87 0.96
5.97 -6.17 -1.36
7.11 -7.35 1.26
7.01 -7.26 -1.24
7.32 -7.58 1.67
7.59 -7.86 -0.96
14.9 -15.42 4.17
8.27 -8.56 -0.62
14.86 -15.37 4.94
4 -4.17 -1.55
11.57 -12.05 0.29
4.51 -4.7 -1.5
5.12 -5.33 -1.44
14.59 -15.21 1.84
5.95 -6.2 -1.36
14.64 -15.26 2.6
6.95 -7.24 -1.23
7.28 -7.59 1.67
7.33 -7.64 -0.93
6.85 -7.13 1.92
7.67 -8 -0.58
16.4 -17.09 5.47
11.57 -12.05 -0.29
3.99 -4.19 -1.55
7.92 -8.31 0.2
4.5 -4.72 -1.51
7.59 -7.97 0.58
5.09 -5.34 -1.43
7.87 -8.25 1
5.93 -6.22 -1.36
14.62 -15.35 2.6
6.91 -7.25 -1.23
8.05 -8.44 1.85
7.41 -7.77 -0.94
6.88 -7.22 1.94
7.73 -8.11 -0.59
7.99 -8.38 -0.2
11.89 -12.47 4.62
3.97 -4.19 -1.55
7.78 -8.22 0.2
4.49 -4.74 -1.51
7.56 -7.99 0.58
5.07 -5.36 -1.43
7.69 -8.12 0.98
5.91 -6.24 -1.36
7.33 -7.74 1.31
6.88 -7.27 -1.23
7.84 -8.28 1.81
7.41 -7.83 -0.94
7.62 -8.06 -0.58
11.87 -12.54 3.99
3.95 -4.21 -1.55
7.31 -7.78 0.19
4.47 -4.76 -1.51
7.71 -8.2 0.59
5.05 -5.38 -1.43
10.48 -11.15 1.34
5.88 -6.25 -1.36
7.82 -8.32 1.4
6.82 -7.25 -1.22
7.75 -8.25 1.79
8.07 -8.59 -1.03
7.41 -7.89 -0.19
3.94 -4.22 -1.55
7.89 -8.46 0.2
4.44 -4.76 -1.5
7.32 -7.84 0.56
5.03 -5.4 -1.43
7.38 -7.91 0.95
5.85 -6.27 -1.36
16.61 -17.8 2.99
6.8 -7.29 -1.22
7.95 -8.52 1.85
7.36 -7.89 -0.94
11.78 -12.63 3.36
3.93 -4.24 -1.55
7.8 -8.42 0.2
4.42 -4.77 -1.5
7.76 -8.38 0.6
5.01 -5.41 -1.43
5.83 -6.3 -1.36
16.61 -17.92 3
6.72 -7.25 -1.21
7.85 -8.47 1.83
7.33 -7.91 -0.94
7.84 -8.46 2.24
7.12 -7.68 -0.55
11.73 -12.66 3.98
12.22 -13.19 -0.31
11.6 -12.52 4.57
3.92 -4.26 -1.55
13.71 -14.9 0.35
4.41 -4.79 -1.5
7.49 -8.14 0.58
4.99 -5.42 -1.43
13.7 -14.89 1.77
5.81 -6.32 -1.36
10.2 -11.08 1.85
6.77 -7.35 -1.23
7.94 -8.63 1.86
7.09 -7.71 -0.92
7.09 -7.71 -0.55
11.06 -12.02 -0.29
11.18 -12.15 4.43
3.89 -4.26 -1.55
7.25 -7.94 0.19
4.4 -4.82 -1.51
7.67 -8.39 0.6
4.97 -5.44 -1.43
7.69 -8.41 1
5.79 -6.34 -1.36
11.73 -12.83 2.13
6.75 -7.39 -1.23
13.53 -14.81 3.18
7.15 -7.82 -0.93
13.52 -14.79 3.9
7.07 -7.74 -0.55
13.48 -14.75 4.61
12.4 -13.56 -0.32
11.12 -12.16 4.42
3.88 -4.27 -1.55
7.45 -8.21 0.19
4.39 -4.83 -1.51
7.4 -8.16 0.58
4.95 -5.46 -1.43
7.19 -7.93 0.94
5.76 -6.35 -1.36
13.52 -14.9 2.47
6.69 -7.37 -1.22
13.49 -14.86 3.18
7.33 -8.08 -0.95
13.44 -14.81 3.89
7.21 -7.95 -0.56
11.14 -12.28 3.83
9.36 -10.31 -0.24
7.41 -8.17 2.96
3.86 -4.29 -1.55
11.44 -12.7 0.3
4.36 -4.84 -1.5
11.64 -12.92 0.91
4.94 -5.48 -1.43
13.58 -15.07 1.77
5.74 -6.37 -1.36
7.7 -8.55 1.41
6.65 -7.38 -1.22
11.21 -12.44 2.65
7.18 -7.97 -0.94
8.17 -9.06 2.37
8.47 -9.4 -0.66
8.01 -8.89 2.76
7.61 -8.45 -0.2
13.41 -14.88 5.37
3.85 -4.3 -1.55
11.36 -12.69 0.3
4.34 -4.85 -1.5
11.29 -12.62 0.89
4.91 -5.49 -1.43
11.27 -12.6 1.48
5.72 -6.39 -1.36
7.57 -8.45 1.39
6.66 -7.44 -1.23
8.2 -9.16 1.95
7.16 -8 -0.94
8.15 -9.1 2.37
7.35 -8.21 -0.58
11.54 -12.89 -0.3
8.03 -8.97 3.23
3.83 -4.31 -1.54
11.34 -12.75 0.3
4.33 -4.87 -1.5
7.61 -8.56 0.6
4.89 -5.5 -1.43
8.28 -9.31 1.09
5.7 -6.41 -1.36
6.79 -7.64 1.26
6.59 -7.42 -1.22
11.35 -12.76 -0.3
3.81 -4.31 -1.54
8.38 -9.49 0.22
4.31 -4.88 -1.5
8.08 -9.15 0.64
4.87 -5.52 -1.43
6.95 -7.87 0.92
5.67 -6.42 -1.36
25.91 -29.34 4.81
6.57 -7.44 -1.22
7.72 -8.74 1.85
7.33 -8.3 -0.97
7.02 -7.95 -0.56
7.57 -8.57 -0.2
3.8 -4.33 -1.54
7.35 -8.38 0.19
4.29 -4.9 -1.5
7.16 -8.18 0.57
4.85 -5.53 -1.43
7.07 -8.07 0.94
5.65 -6.44 -1.36
25.85 -29.49 4.82
6.53 -7.45 -1.22
7.83 -8.93 1.88
7.07 -8.07 -0.94
6.9 -7.87 -0.55
8.59 -9.81 -0.23
3.78 -4.34 -1.54
6.86 -7.88 0.18
4.28 -4.91 -1.5
10.21 -11.72 0.81
4.83 -5.55 -1.43
14.07 -16.16 1.87
5.61 -6.45 -1.35
7.32 -8.4 1.37
6.53 -7.5 -1.22
7 -8.05 -0.93
7.24 -8.32 -0.58
7.5 -8.62 -0.2
3.76 -4.36 -1.54
10.46 -12.11 0.28
4.26 -4.93 -1.5
10.42 -12.06 0.84
4.81 -5.57 -1.43
10.34 -11.97 1.38
5.59 -6.47 -1.35
6.5 -7.52 -1.22
7.19 -8.32 -0.58
16.61 -19.22 5.86
12.65 -14.64 -0.34
3.75 -4.37 -1.54
8.01 -9.33 0.21
4.25 -4.95 -1.51
4.79 -5.58 -1.43
10.32 -12.03 1.39
5.58 -6.5 -1.36
10.23 -11.92 1.93
6.57 -7.65 -1.24
7.22 -8.42 -0.97
7.06 -8.23 -0.57
16.54 -19.27 5.86
6.94 -8.09 -0.19
3.71 -4.36 -1.53
9.97 -11.7 0.27
4.23 -4.96 -1.5
17.05 -20.01 1.38
4.77 -5.6 -1.43
18.71 -21.96 2.52
5.54 -6.5 -1.35
10.19 -11.96 1.93
6.47 -7.59 -1.22
10.13 -11.89 2.47
7.59 -8.91 -1.02
10.09 -11.84 3.02
7.04 -8.26 -0.57
16.25 -19.08 5.79
6.93 -8.13 -0.19
3.7 -4.37 -1.53
8.32 -9.83 0.22
4.21 -4.97 -1.5
16.85 -19.91 1.37
4.76 -5.62 -1.43
18.66 -22.05 2.53
5.52 -6.52 -1.35
7.47 -8.83 1.42
6.37 -7.53 -1.21
10.11 -11.95 2.48
7.36 -8.69 -1
10.04 -11.86 3.02
6.84 -8.09 -0.56
9.98 -11.8 3.57
8.63 -10.2 -0.23
9.59 -11.33 3.98
3.69 -4.39 -1.54
7.18 -8.54 0.19
4.17 -4.97 -1.5
7.14 -8.49 0.58
4.74 -5.64 -1.43
9.81 -11.68 1.33
5.49 -6.54 -1.35
18.68 -22.24 3.57
6.34 -7.55 -1.21
7.38 -8.78 -1
6.96 -8.29 -0.57
9.61 -11.44 3.45
7.46 -8.88 -0.2
9.53 -11.34 3.97
3.68 -4.41 -1.54
9.79 -11.74 0.27
4.16 -4.99 -1.5
9.79 -11.73 0.8
4.72 -5.65 -1.43
8.16 -9.78 1.11
5.47 -6.55 -1.35
9.72 -11.65 1.86
6.37 -7.63 -1.22
8.05 -9.64 1.99
9.57 -11.46 -1.31
9.59 -11.49 2.91
6.62 -7.94 -0.54
9.55 -11.44 3.44
8.62 -10.33 -0.23
3.67 -4.42 -1.54
9.7 -11.7 0.27
4.14 -5 -1.5
9.67 -11.66 0.79
4.69 -5.66 -1.43
9.69 -11.69 1.33
5.45 -6.58 -1.35
9.66 -11.65 1.86
6.34 -7.65 -1.22
9.59 -11.57 2.38
9.56 -11.53 2.91
7.79 -9.41 -0.64
9.54 -11.51 3.45
9.16 -11.05 -0.25
3.64 -4.42 -1.53
9.26 -11.25 0.25
4.13 -5.02 -1.5
16.54 -20.09 1.36
4.67 -5.67 -1.43
9.68 -11.76 1.33
5.42 -6.58 -1.35
16.53 -20.08 3.19
6.31 -7.67 -1.22
7.28 -8.84 -1
6.97 -8.47 -0.57
9.49 -11.53 3.45
8.86 -10.76 -0.24
9.45 -11.48 3.99
3.62 -4.43 -1.53
9.6 -11.76 0.26
4.11 -5.03 -1.5
14.02 -17.18 1.16
4.65 -5.69 -1.43
16.39 -20.07 2.27
5.38 -6.59 -1.35
16.43 -20.13 3.19
6.3 -7.72 -1.22
13.26 -16.24 4.08
7.66 -9.38 -0.63
6.86 -8.4 -0.19
6.52 -7.99 2.76
3.62 -4.46 -1.54
9.29 -11.46 0.26
4.08 -5.03 -1.5
8.33 -10.27 0.69
4.63 -5.71 -1.43
16.37 -20.19 2.27
5.36 -6.61 -1.35
16.27 -20.06 3.17
6.26 -7.72 -1.22
7.06 -8.7 -0.98
6.59 -8.12 2.03
6.61 -8.15 -0.55
13.08 -16.13 4.8
9.04 -11.15 -0.25
3.61 -4.48 -1.54
7.78 -9.67 0.22
4.07 -5.05 -1.5
13.88 -17.24 1.16
4.61 -5.73 -1.43
16.11 -20.02 2.25
5.34 -6.64 -1.35
16.26 -20.2 3.18
6.25 -7.77 -1.22
6.91 -8.59 -0.96
6.58 -8.17 2.04
7.63 -9.48 -0.64
9.51 -11.81 -0.26
3.58 -4.47 -1.53
9.44 -11.81 0.26
4.05 -5.07 -1.5
11.24 -14.06 0.94
4.58 -5.74 -1.43
16.29 -20.38 2.28
5.33 -6.66 -1.35
16.11 -20.15 3.17
6.2 -7.75 -1.22
6.78 -8.49 -0.95
7.24 -9.06 2.25
9.27 -11.6 -0.78
6.53 -8.17 2.42
6.9 -8.63 -0.19
3.55 -4.47 -1.53
10 -12.59 0.28
4.03 -5.08 -1.5
9.89 -12.45 0.83
4.57 -5.75 -1.43
11.24 -14.16 1.58
5.31 -6.69 -1.35
16.02 -20.18 3.16
6.11 -7.7 -1.21
9.74 -12.27 2.48
6.76 -8.51 -0.95
11.08 -13.95 3.46
9.25 -11.65 -0.78
10.92 -13.76 4.06
8.75 -11.03 -0.25
12.71 -16.01 5.48
3.54 -4.49 -1.53
13.32 -16.89 0.38
4.01 -5.09 -1.5
13.94 -17.68 1.18
4.55 -5.77 -1.43
9.8 -12.43 1.38
5.27 -6.69 -1.35
16.14 -20.48 3.2
6.07 -7.7 -1.2
11.11 -14.09 2.84
9.59 -12.16 -1.35
11 -13.95 3.45
8.09 -10.26 3.02
6.86 -8.71 -0.19
10.91 -13.85 4.72
3.52 -4.5 -1.53
13.23 -16.91 0.37
3.98 -5.09 -1.49
13.32 -17.03 1.13
4.53 -5.78 -1.43
16.07 -20.54 2.28
5.25 -6.71 -1.35
11.07 -14.15 2.21
6.06 -7.75 -1.21
11.03 -14.1 2.83
7.21 -9.22 -1.02
6.52 -8.33 2.06
6.4 -8.18 -0.54
10.92 -13.96 4.09
7.01 -8.96 -0.2
10.89 -13.91 4.73
3.51 -4.51 -1.53
9.91 -12.76 0.28
3.97 -5.11 -1.49
13.26 -17.06 1.13
4.51 -5.8 -1.43
13.28 -17.08 1.89
5.23 -6.72 -1.35
13.32 -17.15 2.67
6.07 -7.81 -1.21
7.12 -9.16 -1.01
6.49 -8.35 2.06
6.5 -8.36 -0.55
7.99 -10.29 3.01
6.88 -8.85 -0.2
12.85 -16.54 5.61
3.49 -4.53 -1.53
7.47 -9.68 0.21
3.95 -5.12 -1.49
13.32 -17.27 1.14
4.48 -5.8 -1.42
13.24 -17.16 1.9
5.2 -6.74 -1.35
13.25 -17.18 2.66
5.98 -7.75 -1.2
13.32 -17.27 3.45
7.15 -9.28 -1.02
6.28 -8.14 2
6.42 -8.32 -0.55
15.16 -19.65 5.73
6.64 -8.62 -0.19
3.47 -4.53 -1.53
7.47 -9.76 0.21
3.93 -5.14 -1.49
13.83 -18.06 1.19
4.46 -5.82 -1.43
15.75 -20.56 2.27
5.18 -6.76 -1.35
15.87 -20.72 3.2
5.94 -7.75 -1.2
13.26 -17.31 3.45
7.65 -9.98 -1.1
6.94 -9.06 -0.6
13.24 -17.29 5.03
6.65 -8.68 -0.19
6.6 -8.62 2.91
3.46 -4.55 -1.53
7.45 -9.8 0.21
3.91 -5.15 -1.49
9.2 -12.1 0.8
4.45 -5.85 -1.43
16.26 -21.37 2.35
5.15 -6.77 -1.35
15.77 -20.74 3.2
5.93 -7.8 -1.2
6.52 -8.57 1.71
9.01 -11.84 -1.3
7.3 -9.59 -0.63
13.23 -17.39 5.04
6.52 -8.57 -0.19
6.84 -8.99 3.03
3.44 -4.56 -1.53
7.46 -9.88 0.22
3.89 -5.15 -1.49
15.75 -20.86 1.37
4.42 -5.86 -1.43
16.24 -21.5 2.36
5.13 -6.79 -1.35
15.86 -21.01 3.23
6.15 -8.14 -1.25
7.93 -10.5 2.08
6.72 -8.9 -0.98
9.66 -12.8 -0.84
7.47 -9.89 -0.22
6.91 -9.15 3.07
3.42 -4.57 -1.53
8.48 -11.31 0.25
3.87 -5.16 -1.49
13.28 -17.71 1.16
4.4 -5.88 -1.43
16.22 -21.64 2.37
5.1 -6.8 -1.35
15.74 -21.01 3.22
6.05 -8.07 -1.24
7.87 -10.5 2.08
7.04 -9.39 -1.03
6.53 -8.71 -0.57
10.05 -13.41 -0.29
3.41 -4.58 -1.53
7.52 -10.11 0.22
3.85 -5.18 -1.49
13.07 -17.57 1.15
4.38 -5.89 -1.43
8.09 -10.87 1.19
5.07 -6.81 -1.34
6.49 -8.73 1.34
6.08 -8.18 -1.25
6.39 -8.59 1.69
7.23 -9.72 -1.06
14.53 -19.53 4.73
8.55 -11.5 -0.75
7.23 -9.72 -0.21
3.38 -4.58 -1.53
13.61 -18.43 0.4
3.84 -5.2 -1.49
13.26 -17.95 1.17
4.35 -5.9 -1.42
8.06 -10.91 1.19
5.05 -6.84 -1.35
15.56 -21.07 3.22
5.86 -7.93 -1.21
15.95 -21.6 4.25
9 -12.18 -1.33
6.63 -8.98 -0.58
6.88 -9.32 2.67
7.17 -9.71 -0.21
8.59 -11.64 3.88
3.37 -4.59 -1.53
8.32 -11.35 0.25
3.81 -5.2 -1.49
8.82 -12.03 0.78
4.34 -5.92 -1.43
6.5 -8.87 0.96
5.02 -6.85 -1.34
15.43 -21.04 3.2
5.79 -7.89 -1.2
15.86 -21.63 4.25
6.33 -8.64 -0.94
6.1 -8.32 2.01
6.63 -9.05 -0.59
6.62 -9.03 2.58
6.85 -9.35 -0.2
8.64 -11.78 3.91
3.35 -4.61 -1.53
8.46 -11.62 0.25
3.8 -5.21 -1.49
8.84 -12.14 0.79
4.32 -5.94 -1.43
6.48 -8.91 0.96
4.99 -6.85 -1.34
15.4 -21.15 3.21
5.73 -7.87 -1.2
15.81 -21.71 4.25
9.64 -13.23 -1.43
6.47 -8.88 -0.58
15.75 -21.63 6.18
9.18 -12.6 -0.27
11.21 -15.4 5.1
3.34 -4.62 -1.53
6.99 -9.68 0.21
3.77 -5.22 -1.49
7.39 -10.23 0.66
4.3 -5.95 -1.43
8.04 -11.12 1.2
4.96 -6.87 -1.34
8.76 -12.12 1.84
5.71 -7.9 -1.2
8.74 -12.1 2.36
9.44 -13.07 -1.41
6.86 -9.49 2.28
6.46 -8.94 -0.58
11.17 -15.46 4.4
6.37 -8.81 -0.19
13.97 -19.33 6.39
3.32 -4.63 -1.53
8.06 -11.24 0.24
3.76 -5.24 -1.49
6.47 -9.03 0.58
4.27 -5.96 -1.43
8.08 -11.26 1.21
4.94 -6.89 -1.34
11.21 -15.62 2.36
5.68 -7.91 -1.2
8.7 -12.12 2.36
6.38 -8.89 -0.96
8.68 -12.1 2.89
6.5 -9.07 -0.58
8.61 -12 3.41
6.31 -8.79 -0.19
13.9 -19.38 6.39
3.3 -4.63 -1.52
8.04 -11.29 0.24
3.74 -5.26 -1.49
8.14 -11.43 0.74
4.25 -5.98 -1.43
8.25 -11.6 1.25
4.9 -6.89 -1.34
15.13 -21.26 3.2
5.62 -7.9 -1.19
6.87 -9.66 1.88
6.69 -9.4 -1.01
6.43 -9.03 -0.58
6.61 -9.28 2.63
6.28 -8.83 -0.19
6.58 -9.24 3.04
3.29 -4.65 -1.53
6.51 -9.21 0.2
3.72 -5.27 -1.49
7.35 -10.4 0.67
4.23 -5.99 -1.43
7.99 -11.31 1.21
4.87 -6.89 -1.34
15.05 -21.29 3.2
5.59 -7.91 -1.19
15.28 -21.61 4.19
6.41 -9.07 -0.97
8.61 -12.19 2.9
6.57 -9.3 2.63
6.15 -8.71 -0.19
15.36 -21.73 7.13
3.27 -4.67 -1.53
8.83 -12.59 0.27
3.7 -5.27 -1.49
14.78 -21.08 1.35
4.21 -6.01 -1.43
8.29 -11.82 1.26
4.84 -6.89 -1.33
6.89 -9.82 1.47
5.58 -7.96 -1.19
15.11 -21.55 4.17
6.49 -9.25 -0.99
6.57 -9.37 2.22
9.55 -13.61 -0.87
9.09 -12.96 -0.28
7.08 -10.1 3.31
3.26 -4.67 -1.53
7.9 -11.34 0.24
3.68 -5.28 -1.49
8.77 -12.59 0.8
4.19 -6.02 -1.43
7.95 -11.41 1.22
4.82 -6.92 -1.34
6.63 -9.52 1.42
5.67 -8.14 -1.22
6.58 -9.45 1.82
6.36 -9.13 -0.97
6.39 -9.18 -0.59
3.24 -4.69 -1.53
7.31 -10.58 0.22
3.66 -5.3 -1.49
7.92 -11.46 0.73
4.17 -6.03 -1.42
7.57 -10.95 1.16
4.8 -6.95 -1.34
6.58 -9.52 1.42
5.64 -8.16 -1.22
8.58 -12.41 2.39
8.51 -12.31 -1.31
14.93 -21.6 5.1
6.57 -9.5 -0.61
6.4 -9.25 2.6
9.45 -13.67 -0.29
3.22 -4.69 -1.52
7.92 -11.55 0.24
3.65 -5.32 -1.49
7.7 -11.22 0.71
4.14 -6.03 -1.42
6.58 -9.59 1.02
4.78 -6.96 -1.34
13.21 -19.25 2.87
5.6 -8.16 -1.22
15.1 -22 4.23
8.52 -12.41 -1.32
7.23 -10.54 2.48
6.38 -9.3 -0.59
15.15 -22.08 6.18
7.33 -10.68 -0.23
6.17 -9 2.92
3.2 -4.7 -1.52
6.63 -9.73 0.21
3.63 -5.33 -1.49
6.59 -9.67 0.61
4.13 -6.06 -1.42
7.64 -11.21 1.19
4.75 -6.97 -1.34
8.6 -12.63 1.88
5.58 -8.19 -1.22
7.3 -10.72 2.05
6.09 -8.95 -0.95
7.19 -10.56 2.48
15.09 -22.16 6.19
7.63 -11.2 -0.24
6.15 -9.03 2.93
3.19 -4.72 -1.53
6.59 -9.75 0.21
3.6 -5.33 -1.49
7.68 -11.36 0.72
4.11 -6.08 -1.43
7.6 -11.24 1.19
4.73 -6.99 -1.34
14.94 -22.1 3.28
5.62 -8.32 -1.23
5.95 -8.8 1.68
7.16 -10.59 -1.12
8.84 -13.08 -0.83
15.01 -22.19 6.19
9.82 -14.52 -0.31
3.17 -4.72 -1.52
7.52 -11.2 0.24
3.58 -5.34 -1.49
6.85 -10.21 0.64
4.08 -6.09 -1.42
7.65 -11.4 1.2
4.7 -7.01 -1.34
7.26 -10.82 1.6
5.56 -8.29 -1.23
14.48 -21.58 4.12
6.1 -9.08 -0.96
6.64 -9.9 -0.62
10.07 -15.01 4.17
6.07 -9.04 -0.19
10.06 -14.99 4.84
3.16 -4.74 -1.53
7.76 -11.65 0.24
3.57 -5.36 -1.49
7.15 -10.73 0.68
4.06 -6.09 -1.42
7.58 -11.37 1.2
4.68 -7.03 -1.34
7.25 -10.89 1.61
5.55 -8.33 -1.23
10.05 -15.08 2.87
6.64 -9.96 -1.05
10.01 -15.02 3.51
6.61 -9.93 -0.62
10.01 -15.03 4.17
7.36 -11.05 -0.23
6.24 -9.37 3.02
3.13 -4.74 -1.52
8.69 -13.15 0.28
3.55 -5.37 -1.49
7.18 -10.86 0.68
4.04 -6.11 -1.42
7.26 -10.99 1.15
4.65 -7.04 -1.34
10.03 -15.17 2.23
5.68 -8.6 -1.27
9.98 -15.1 2.87
8.69 -13.14 -1.38
7.48 -11.32 -0.71
6.23 -9.42 2.61
7.34 -11.11 -0.23
6.18 -9.35 3
3.11 -4.74 -1.52
6.85 -10.45 0.22
3.53 -5.38 -1.48
8.08 -12.32 0.77
4.02 -6.13 -1.43
7.49 -11.42 1.19
4.63 -7.05 -1.34
14.96 -22.81 3.35
5.56 -8.47 -1.24
8.41 -12.82 -1.34
6.23 -9.49 2.21
8.07 -12.3 -0.77
6.17 -9.41 2.6
7.83 -11.93 -0.25
3.1 -4.76 -1.52
7.76 -11.92 0.25
3.51 -5.39 -1.48
7.21 -11.08 0.69
4 -6.14 -1.42
7.42 -11.39 1.19
4.6 -7.07 -1.34
13.95 -21.43 3.14
6.23 -9.58 1.81
8.07 -12.39 -1.29
6.2 -9.52 2.21
6.11 -9.38 -0.59
10.32 -15.85 4.37
7.4 -11.37 -0.24
3.09 -4.78 -1.53
9.99 -15.46 0.32
3.49 -5.4 -1.48
3.98 -6.15 -1.42
7.32 -11.33 1.18
4.57 -7.08 -1.33
6.22 -9.63 1.41
5.39 -8.34 -1.22
6.2 -9.6 1.81
5.79 -8.96 -0.93
10.25 -15.86 3.67
8.17 -12.64 -0.79
6.88 -10.65 -0.22
6.7 -10.37 3.31
3.08 -4.8 -1.53
7.15 -11.16 0.23
3.47 -5.41 -1.48
6.29 -9.81 0.61
3.94 -6.15 -1.42
6.25 -9.74 1.01
4.55 -7.1 -1.34
5.4 -8.43 -1.23
12.54 -19.56 3.68
8.57 -13.36 -1.39
12.4 -19.34 4.47
8.45 -13.18 -0.82
12.47 -19.46 5.34
6.86 -10.7 -0.22
9.19 -14.33 4.56
3.05 -4.79 -1.52
6.29 -9.89 0.2
3.45 -5.42 -1.48
6.26 -9.83 0.61
3.93 -6.17 -1.42
7.47 -11.73 1.22
4.52 -7.11 -1.33
9.78 -15.36 2.24
8.54 -13.42 -1.95
10.14 -15.93 2.99
8.63 -13.55 -1.41
6.09 -9.56 2.2
6.82 -10.71 -0.67
9.19 -14.44 3.95
6.34 -9.96 -0.21
5.12 -8.05 2.56
3.03 -4.8 -1.52
8.89 -14.08 0.29
3.43 -5.43 -1.48
3.91 -6.19 -1.42
7.53 -11.92 1.23
4.49 -7.11 -1.33
7.54 -11.93 1.73
5.69 -9.01 -1.31
5.34 -8.45 -0.87
9.16 -14.5 3.33
6.35 -10.05 -0.62
6.7 -10.6 2.89
6.31 -9.99 -0.21
5.13 -8.12 2.57
3.02 -4.82 -1.52
8.04 -12.83 0.26
3.41 -5.44 -1.48
7.1 -11.32 0.7
3.89 -6.21 -1.42
7.37 -11.76 1.21
4.46 -7.12 -1.33
7.48 -11.94 1.73
5.23 -8.35 -1.21
9.16 -14.62 2.73
6.36 -10.15 -1.05
9.12 -14.55 3.34
8.47 -13.51 -0.84
7.06 -11.27 -0.23
14.1 -22.49 7.11
3 -4.83 -1.52
11.57 -18.6 0.38
3.39 -5.45 -1.48
7.54 -12.13 0.75
3.87 -6.22 -1.42
7.25 -11.66 1.2
4.43 -7.13 -1.33
9.14 -14.69 2.12
5.18 -8.33 -1.2
9.11 -14.64 2.73
6.71 -10.79 -1.11
5.58 -8.97 2.05
6.9 -11.09 -0.68
13.44 -21.61 5.88
6.63 -10.65 -0.22
11.44 -18.4 5.81
2.99 -4.84 -1.52
7.82 -12.67 0.26
3.38 -5.47 -1.48
7.49 -12.13 0.75
3.84 -6.22 -1.42
7.01 -11.35 1.17
4.4 -7.13 -1.33
7.42 -12.02 1.73
5.55 -8.99 -1.3
9.22 -14.94 -1.54
5.56 -9.01 2.06
7.63 -12.36 -0.76
5.83 -9.45 2.56
11.17 -18.1 -0.37
5.11 -8.28 2.61
2.97 -4.84 -1.52
6.91 -11.27 0.23
3.36 -5.49 -1.49
7.56 -12.34 0.76
3.82 -6.23 -1.42
6.92 -11.29 1.16
4.38 -7.15 -1.33
7.39 -12.06 1.74
5.1 -8.32 -1.2
11.32 -18.48 3.43
6.87 -11.22 -1.15
5.56 -9.07 2.07
4.95 -8.08 2.19
6.33 -10.33 -0.21
5.08 -8.3 2.61
2.95 -4.86 -1.52
6.76 -11.13 0.23
3.34 -5.49 -1.48
7.36 -12.12 0.74
3.79 -6.25 -1.42
6.82 -11.22 1.15
4.34 -7.15 -1.33
11.24 -18.5 2.66
5.23 -8.6 -1.24
11.21 -18.46 3.42
6.9 -11.36 -1.16
5.54 -9.12 2.07
7.02 -11.55 -0.71
9.76 -16.07 -0.33
5.07 -8.34 2.62
2.94 -4.88 -1.53
9.05 -15.01 0.31
3.31 -5.5 -1.48
7.35 -12.19 0.75
3.78 -6.27 -1.42
7.23 -11.99 1.22
4.31 -7.15 -1.32
11.16 -18.52 2.65
5.19 -8.61 -1.23
5.52 -9.16 2.08
5.56 -9.22 -0.56
4.99 -8.29 2.23
6.18 -10.25 -0.21
2.92 -4.88 -1.52
6.46 -10.81 0.22
3.29 -5.5 -1.48
7.43 -12.43 0.76
3.76 -6.28 -1.42
7.22 -12.07 1.23
4.28 -7.16 -1.32
6.79 -11.36 1.62
5.12 -8.56 -1.22
25.82 -43.18 7.97
5.26 -8.79 -0.9
5.09 -8.51 -0.52
6.29 -10.52 -0.21
5.48 -9.16 2.86
2.9 -4.88 -1.52
6.37 -10.74 0.22
3.28 -5.52 -1.48
7.82 -13.18 0.8
3.73 -6.28 -1.42
7.14 -12.03 1.22
4.26 -7.18 -1.32
7.19 -12.13 1.73
5 -8.43 -1.2
25.57 -43.1 7.94
9.04 -15.23 -1.55
7.93 -13.36 -0.81
6.3 -10.62 -0.22
13.14 -22.14 6.9
2.87 -4.88 -1.52
7.25 -12.31 0.25
3.26 -5.53 -1.48
7.25 -12.32 0.75
3.71 -6.3 -1.42
7.11 -12.07 1.23
4.24 -7.2 -1.32
6.84 -11.63 1.66
5.02 -8.53 -1.22
15.18 -25.79 4.74
6.03 -10.24 -1.04
5.09 -8.65 1.95
5.44 -9.25 -0.56
5.03 -8.55 2.29
6.34 -10.78 -0.22
2.86 -4.9 -1.52
9.5 -16.27 0.33
3.24 -5.55 -1.48
5.21 -8.92 0.54
3.69 -6.31 -1.42
7.09 -12.14 1.23
4.2 -7.19 -1.32
7.02 -12.02 1.71
4.94 -8.47 -1.2
25.07 -42.94 7.87
4.88 -8.36 -0.85
5.06 -8.67 1.95
5.89 -10.09 -0.61
5.4 -9.25 2.47
6.13 -10.5 -0.21
4.9 -8.39 2.6
2.85 -4.91 -1.52
5.79 -10 0.2
3.22 -5.55 -1.48
6.36 -10.97 0.66
3.67 -6.33 -1.42
13.42 -23.15 2.34
4.2 -7.24 -1.33
6.99 -12.06 1.71
4.95 -8.54 -1.21
24.86 -42.91 7.85
6.76 -11.66 -1.18
5.44 -9.39 2.11
5.7 -9.83 -0.6
5.02 -8.67 2.31
7.91 -13.65 -0.28
5.09 -8.78 2.72
2.83 -4.93 -1.52
6.32 -10.99 0.22
3.2 -5.57 -1.48
6.39 -11.12 0.67
3.65 -6.34 -1.42
7.15 -12.44 1.26
4.17 -7.26 -1.33
13.35 -23.23 3.29
4.92 -8.56 -1.21
13.07 -22.75 4.16
6.67 -11.6 -1.17
5.89 -10.24 -0.62
12.74 -22.17 5.9
6.01 -10.45 -0.21
5.81 -10.1 3.12
2.81 -4.93 -1.52
6.19 -10.86 0.22
3.18 -5.58 -1.48
7.31 -12.82 0.77
3.62 -6.34 -1.42
6.98 -12.25 1.23
4.14 -7.27 -1.32
5.85 -10.26 1.45
4.88 -8.56 -1.21
5.46 -9.58 1.75
5.54 -9.71 -0.98
4.99 -8.75 1.96
4.87 -8.54 -0.52
5.82 -10.2 2.71
7.53 -13.21 -0.27
2.79 -4.94 -1.52
3.16 -5.59 -1.48
4.88 -8.62 0.52
3.6 -6.37 -1.42
6.89 -12.18 1.22
4.11 -7.26 -1.32
5.5 -9.73 1.37
4.86 -8.6 -1.21
5.92 -10.46 1.9
5.07 -8.97 -0.9
5.82 -10.3 2.3
4.83 -8.54 -0.51
6.51 -11.5 3.05
5.94 -10.5 -0.21
14.89 -26.34 8.11
2.78 -4.95 -1.52
5.22 -9.3 0.19
3.15 -5.61 -1.48
7.2 -12.84 0.77
3.57 -6.37 -1.42
6.8 -12.12 1.22
4.07 -7.26 -1.32
5.47 -9.75 1.37
4.99 -8.9 -1.25
5.15 -9.19 1.67
5.06 -9.03 -0.91
4.79 -8.54 -0.51
6.52 -11.63 -0.23
2.76 -4.96 -1.52
4.81 -8.64 0.17
3.12 -5.6 -1.48
4.84 -8.71 0.52
3.56 -6.39 -1.42
5.51 -9.9 0.99
4.03 -7.24 -1.31
5.83 -10.48 1.47
5.05 -9.08 -1.28
4.99 -8.97 1.63
5.52 -9.91 -0.99
4.78 -8.6 -0.52
12.33 -22.16 5.86
6.18 -11.1 -0.22
14.05 -25.26 7.75
2.75 -4.98 -1.53
5.07 -9.2 0.18
3.1 -5.62 -1.48
4.83 -8.76 0.52
3.53 -6.4 -1.42
4.01 -7.26 -1.31
5.17 -9.38 1.31
4.58 -8.31 -1.17
4.89 -8.86 -0.89
4.77 -8.64 -0.52
9.13 -16.55 5.06
2.72 -4.98 -1.52
5.86 -10.71 0.21
3.08 -5.62 -1.48
3.5 -6.4 -1.42
3.98 -7.27 -1.31
5.03 -9.19 1.29
12.07 -22.06 3.98
4.73 -8.63 -0.52
4.92 -9 -0.18
9.07 -16.58 5.06
2.71 -4.99 -1.52
5.54 -10.21 0.2
3.06 -5.64 -1.48
5.49 -10.11 0.6
3.49 -6.42 -1.42
7.23 -13.33 1.33
3.95 -7.29 -1.31
4.59 -8.46 -1.18
6.51 -11.99 2.16
5.01 -9.24 -0.92
11.8 -21.75 4.81
4.82 -8.89 -0.53
8.99 -16.57 4.35
5.87 -10.81 -0.21
2.69 -5 -1.52
4.78 -8.89 0.18
3.05 -5.66 -1.48
6.02 -11.18 0.67
3.46 -6.43 -1.42
5.08 -9.44 0.94
3.93 -7.3 -1.31
12.65 -23.5 3.28
4.58 -8.51 -1.19
11.84 -22 3.96
5.01 -9.32 -0.93
8.99 -16.7 3.69
4.84 -9 -0.54
8.99 -16.7 4.38
5.64 -10.47 -0.21
5.97 -11.09 3.37
2.68 -5.01 -1.52
6.63 -12.41 0.25
3.02 -5.65 -1.48
5.16 -9.67 0.57
3.44 -6.44 -1.42
5.91 -11.06 1.1
3.91 -7.31 -1.31
7.01 -13.13 1.83
4.58 -8.57 -1.19
8.97 -16.79 3.02
5.08 -9.51 -0.94
8.93 -16.72 3.68
4.74 -8.87 -0.53
14.05 -26.31 6.89
5.54 -10.37 -0.21
6.71 -12.56 3.81
2.66 -5.02 -1.52
3 -5.66 -1.48
5.19 -9.8 0.58
3.42 -6.45 -1.42
5.2 -9.81 0.97
3.88 -7.33 -1.31
6.9 -13.02 1.81
4.55 -8.59 -1.19
8.92 -16.83 3.02
5.03 -9.49 -0.94
6.16 -11.64 2.56
4.62 -8.72 -0.52
6.72 -12.68 3.31
5.32 -10.05 -0.2
6.92 -13.07 3.96
2.64 -5.03 -1.52
4.78 -9.11 0.18
2.98 -5.68 -1.48
6.92 -13.17 0.78
3.39 -6.46 -1.42
6.91 -13.16 1.3
3.85 -7.34 -1.31
6.86 -13.06 1.81
6.8 -12.96 2.32
5.07 -9.65 -0.95
6.13 -11.67 2.56
4.59 -8.74 -0.52
5.28 -10.06 -0.2
8.11 -15.44 4.67
2.62 -5.03 -1.52
4.73 -9.08 0.18
2.96 -5.68 -1.48
6.92 -13.29 0.79
3.37 -6.46 -1.42
8.81 -16.92 1.67
3.81 -7.32 -1.31
8.82 -16.94 2.35
4.59 -8.81 -1.22
6.75 -12.97 2.32
5.42 -10.4 -1.03
6.68 -12.83 2.81
4.59 -8.81 -0.52
4.41 -8.48 2.21
4.82 -9.25 -0.18
8.3 -15.94 4.82
2.61 -5.05 -1.52
4.66 -9.02 0.18
2.94 -5.7 -1.48
6.86 -13.28 0.78
3.35 -6.48 -1.42
3.78 -7.33 -1.31
12.38 -23.99 3.32
4.55 -8.81 -1.22
6.17 -11.96 2.13
5.45 -10.56 -1.04
8.34 -16.17 3.54
4.59 -8.89 -0.52
8.32 -16.11 4.19
4.69 -9.09 -0.18
5.48 -10.61 3.2
2.59 -5.07 -1.52
4.61 -9 0.18
2.91 -5.7 -1.48
6.78 -13.25 0.78
3.33 -6.5 -1.42
12.18 -23.8 2.34
3.76 -7.34 -1.31
12.16 -23.76 3.28
4.52 -8.83 -1.22
8.34 -16.31 2.9
5.35 -10.45 -1.03
8.29 -16.19 3.54
6.51 -12.71 -0.75
5.18 -10.11 -0.2
5.79 -11.31 3.41
2.57 -5.06 -1.52
4.54 -8.95 0.18
2.9 -5.71 -1.48
6.78 -13.36 0.79
3.3 -6.51 -1.42
8.37 -16.5 1.62
3.73 -7.35 -1.31
8.34 -16.44 2.26
4.45 -8.77 -1.21
5.42 -10.69 -1.05
13.89 -27.37 5.97
5.75 -11.33 -0.67
5.01 -9.87 -0.19
6.55 -12.91 3.88
2.55 -5.07 -1.52
4.5 -8.95 0.17
2.88 -5.73 -1.48
4.49 -8.92 0.52
3.28 -6.51 -1.42
8.32 -16.54 1.62
3.7 -7.36 -1.31
8.27 -16.45 2.26
14.62 -29.08 5.16
5.4 -10.73 -1.05
4.51 -8.96 -0.53
4.97 -9.89 -0.19
13.35 -26.54 7.96
2.53 -5.08 -1.52
5.52 -11.06 0.22
2.86 -5.74 -1.48
7.73 -15.5 0.91
3.25 -6.52 -1.42
12.28 -24.62 2.41
3.68 -7.37 -1.31
8.26 -16.56 2.27
4.32 -8.66 -1.19
7.72 -15.48 2.74
4.69 -9.4 -0.92
4.48 -8.98 -0.53
10.95 -21.95 5.66
4.53 -9.08 -0.18
6.47 -12.97 3.88
2.52 -5.09 -1.52
4.45 -9 0.18
2.84 -5.75 -1.48
4.41 -8.91 0.52
3.24 -6.54 -1.42
13.28 -26.86 2.62
3.65 -7.38 -1.3
4.3 -8.7 -1.19
7.71 -15.6 2.76
4.62 -9.34 -0.91
10.89 -22.02 5.67
4.36 -8.81 -0.17
8.24 -16.66 4.98
2.5 -5.11 -1.52
5.07 -10.35 0.2
2.81 -5.74 -1.48
7.8 -15.91 0.93
3.21 -6.55 -1.42
6.49 -13.24 1.29
3.62 -7.39 -1.3
13.51 -27.57 3.77
4.25 -8.68 -1.19
7.64 -15.59 2.75
4.31 -8.79 -0.86
4.47 -9.11 -0.53
12.94 -26.41 6.79
5.22 -10.66 -0.21
8.17 -16.67 4.98
2.48 -5.11 -1.52
4.94 -10.18 0.2
2.8 -5.76 -1.48
11.98 -24.67 1.44
3.19 -6.56 -1.42
6.44 -13.27 1.29
3.6 -7.41 -1.31
8.24 -16.95 2.31
4.19 -8.62 -1.18
8.14 -16.76 2.95
4.29 -8.83 -0.86
8.21 -16.89 3.65
4.42 -9.1 -0.53
8.17 -16.82 4.32
4.77 -9.81 -0.19
5.94 -12.22 3.64
2.46 -5.12 -1.52
4.38 -9.09 0.18
2.78 -5.77 -1.48
8.23 -17.1 0.99
3.16 -6.56 -1.42
8.21 -17.05 1.66
3.58 -7.43 -1.31
8.17 -16.97 2.31
4.38 -9.09 -1.24
8.18 -16.98 2.99
5.83 -12.1 2.61
4.27 -8.87 -0.52
4.74 -9.85 -0.19
5.86 -12.17 3.62
2.44 -5.12 -1.52
8.2 -17.18 0.33
2.76 -5.78 -1.48
8.18 -17.14 1
3.13 -6.57 -1.41
8.17 -17.11 1.66
3.56 -7.46 -1.31
4.54 -9.52 1.29
4.25 -8.9 -1.21
8.12 -17.01 2.99
5.74 -12.04 -1.17
7.31 -15.32 3.3
4.31 -9.02 -0.52
5.8 -12.15 3.11
4.72 -9.89 -0.19
4.8 -10.05 2.98
2.43 -5.13 -1.52
12.7 -26.84 0.52
2.74 -5.79 -1.48
8.73 -18.45 1.07
3.12 -6.58 -1.42
6.18 -13.05 1.26
3.54 -7.48 -1.31
10.37 -21.91 2.98
4.21 -8.9 -1.21
5.79 -12.24 2.14
5.62 -11.87 -1.15
4.94 -10.45 2.25
4.28 -9.04 -0.52
4.91 -10.37 2.65
5.75 -12.16 3.6
2.41 -5.15 -1.52
5.83 -12.44 0.24
2.71 -5.79 -1.48
7.47 -15.92 0.92
3.09 -6.6 -1.42
12.03 -25.65 2.48
3.52 -7.51 -1.31
4.95 -10.56 1.43
4.17 -8.89 -1.21
4.92 -10.5 1.84
4.47 -9.53 -0.92
4.89 -10.42 2.24
4.14 -8.82 -0.51
4.87 -10.39 2.65
5.23 -11.16 -0.22
5.71 -12.18 3.6
2.4 -5.16 -1.52
5.78 -12.44 0.24
2.69 -5.8 -1.48
11.08 -23.84 1.38
3.07 -6.61 -1.42
4.96 -10.68 1.03
3.49 -7.5 -1.31
4.38 -9.44 1.28
4.1 -8.83 -1.2
4.89 -10.52 1.84
4.01 -8.63 -0.83
5.72 -12.32 2.64
4.41 -9.5 -0.55
4.52 -9.72 -0.19
7.66 -16.48 4.87
2.37 -5.16 -1.52
4.52 -9.81 0.19
2.68 -5.81 -1.48
3.04 -6.61 -1.41
4.92 -10.69 1.03
3.45 -7.49 -1.31
4.37 -9.5 1.28
4.22 -9.16 -1.24
5.69 -12.36 2.16
5.06 -10.99 -1.06
4.15 -9.02 -0.52
4.54 -9.87 2.51
4.52 -9.82 -0.19
8.42 -18.28 5.39
2.35 -5.15 -1.52
4.54 -9.96 0.19
2.66 -5.82 -1.48
4.92 -10.78 0.62
3.02 -6.62 -1.41
3.43 -7.51 -1.31
4.33 -9.48 1.28
4.24 -9.29 -1.25
5.65 -12.38 2.15
4.46 -9.78 -0.94
8.35 -18.31 3.91
4.29 -9.41 -0.54
8.36 -18.32 4.65
4.31 -9.45 -0.18
8.34 -18.27 5.38
2.33 -5.16 -1.52
5.73 -12.69 0.24
2.64 -5.83 -1.48
4.57 -10.1 0.58
3 -6.63 -1.41
6.11 -13.53 1.3
3.4 -7.52 -1.31
4.29 -9.5 1.28
4.1 -9.06 -1.22
7.69 -17.02 2.96
6.78 -15 -1.44
7.64 -16.91 3.61
6.33 -14.01 -0.81
7.62 -16.85 4.27
4.16 -9.2 -0.18
10.03 -22.2 6.53
2.32 -5.18 -1.52
4.36 -9.73 0.19
2.61 -5.83 -1.48
7.73 -17.26 0.99
2.97 -6.64 -1.41
5.61 -12.52 1.2
3.38 -7.54 -1.31
5.58 -12.47 1.68
7.63 -17.05 2.96
3.91 -8.72 -0.84
7.59 -16.94 3.61
3.94 -8.81 -0.51
4.06 -9.06 -0.17
2.31 -5.2 -1.52
6.2 -13.98 0.27
2.59 -5.84 -1.47
5.63 -12.68 0.73
2.95 -6.65 -1.42
5.56 -12.54 1.2
3.35 -7.55 -1.31
8.19 -18.46 2.48
4.31 -9.72 -1.3
4.63 -10.45 1.81
3.89 -8.76 -0.84
4.23 -9.53 2.03
4.54 -10.23 2.58
4.03 -9.08 -0.17
7.38 -16.63 4.87
2.29 -5.21 -1.52
4.44 -10.11 0.19
2.57 -5.85 -1.47
5.52 -12.57 0.72
2.92 -6.65 -1.41
8.13 -18.49 1.77
3.32 -7.56 -1.31
4.16 -9.47 1.27
4.05 -9.21 -1.24
11.56 -26.29 4.55
3.84 -8.73 -0.83
4.14 -9.41 2
8.57 -19.5 4.92
4.17 -9.48 -0.18
4.45 -10.12 2.96
2.26 -5.2 -1.52
2.55 -5.86 -1.47
5.49 -12.61 0.72
2.9 -6.67 -1.41
3.29 -7.57 -1.31
4.12 -9.46 1.27
3.85 -8.84 -0.84
8.49 -19.5 4.13
4.35 -9.98 -0.57
8.52 -19.57 4.93
4.1 -9.42 -0.18
7.35 -16.88 4.93
2.25 -5.21 -1.52
4.64 -10.76 0.2
2.53 -5.87 -1.48
6.01 -13.93 0.79
2.89 -6.69 -1.42
6.01 -13.93 1.33
3.26 -7.56 -1.3
4.07 -9.42 1.26
4.5 -10.43 1.8
3.81 -8.82 -0.84
8.43 -19.55 4.14
3.94 -9.14 -0.52
4.45 -10.3 2.59
4.09 -9.48 -0.18
4.36 -10.1 2.95
2.23 -5.22 -1.52
4.61 -10.78 0.2
2.51 -5.87 -1.47
4.56 -10.68 0.61
2.86 -6.69 -1.41
4.53 -10.6 1.01
3.23 -7.56 -1.3
4.05 -9.47 1.26
3.97 -9.28 -1.24
3.79 -8.86 1.53
3.77 -8.83 -0.84
8.39 -19.63 4.15
3.98 -9.32 -0.53
4.39 -10.28 2.58
5.31 -12.44 -0.24
4.32 -10.11 2.95
2.22 -5.24 -1.52
2.48 -5.87 -1.47
4.53 -10.71 0.61
2.83 -6.7 -1.41
4.5 -10.63 1.01
3.2 -7.57 -1.3
4.45 -10.52 1.4
3.75 -8.87 1.53
3.75 -8.88 -0.84
3.96 -9.37 1.98
4 -9.45 -0.54
4.35 -10.28 2.58
5.67 -13.41 -0.25
2.2 -5.24 -1.52
4.42 -10.55 0.2
2.47 -5.89 -1.47
4.98 -11.88 0.68
2.8 -6.69 -1.41
3.18 -7.58 -1.3
8.22 -19.62 2.61
4.21 -10.04 -1.34
3.72 -8.88 1.52
3.78 -9.03 -0.86
3.9 -9.3 1.96
3.98 -9.49 -0.54
4.19 -10.01 -0.19
4.02 -9.58 2.78
2.17 -5.24 -1.52
5.34 -12.88 0.24
2.45 -5.9 -1.47
5.34 -12.87 0.73
2.78 -6.71 -1.41
8.17 -19.68 1.86
3.15 -7.59 -1.3
5.77 -13.91 1.85
3.89 -9.36 -1.24
3.7 -8.92 1.53
4.2 -10.13 -0.96
5.38 -12.96 2.73
4.2 -10.12 -0.57
11.2 -27 6.75
5.47 -13.18 -0.25
2.16 -5.25 -1.52
5.28 -12.84 0.24
2.43 -5.91 -1.47
4.18 -10.16 0.58
2.76 -6.72 -1.41
8.14 -19.8 1.87
3.12 -7.6 -1.3
11.17 -27.18 3.61
3.67 -8.94 1.53
3.96 -9.65 -0.91
11.07 -26.94 5.66
3.95 -9.61 -0.54
4.43 -10.79 2.69
3.89 -9.46 2.74
2.14 -5.26 -1.52
5.2 -12.78 0.24
2.4 -5.91 -1.47
4.22 -10.37 0.59
2.74 -6.73 -1.41
4.98 -12.25 1.16
3.1 -7.62 -1.3
4.25 -10.45 1.39
3.39 -8.32 -1.1
3.68 -9.05 1.55
3.95 -9.7 -0.92
7.28 -17.9 -1.01
4.45 -10.93 2.72
5.53 -13.6 -0.26
3.88 -9.53 2.76
2.12 -5.27 -1.52
5.15 -12.77 0.24
2.38 -5.92 -1.47
2.72 -6.74 -1.41
5.33 -13.22 1.25
3.08 -7.65 -1.31
11.48 -28.49 3.77
3.67 -9.11 -1.21
8.77 -21.76 4.56
3.57 -8.85 -0.5
3.9 -9.68 2.41
5.18 -12.86 -0.24
3.87 -9.6 2.77
2.11 -5.29 -1.53
4.26 -10.68 0.2
2.36 -5.92 -1.47
4 -10.01 0.57
2.69 -6.75 -1.41
3.94 -9.88 0.93
3.05 -7.66 -1.31
3.81 -9.56 1.26
4.37 -10.96 -1.45
11.38 -28.53 4.86
3.65 -9.15 -0.86
7.7 -19.31 4.04
3.54 -8.87 -0.5
7.67 -19.23 4.78
4.04 -10.13 -0.19
7.69 -19.27 5.56
2.08 -5.27 -1.52
2.34 -5.93 -1.47
5.93 -15.01 0.85
2.67 -6.75 -1.41
4.04 -10.23 0.96
3.02 -7.66 -1.3
3.75 -9.5 1.25
3.73 -9.44 -1.25
3.85 -9.75 1.66
3.87 -9.81 -0.92
7.63 -19.31 4.04
3.83 -9.7 -0.55
7.63 -19.32 4.8
4.25 -10.75 -0.2
6.53 -16.53 4.76
2.07 -5.3 -1.52
4.17 -10.66 0.2
2.32 -5.95 -1.47
4.15 -10.61 0.6
2.64 -6.76 -1.41
2.99 -7.66 -1.3
3.74 -9.58 1.26
3.5 -8.94 1.52
3.95 -10.12 -0.95
7.97 -20.39 4.26
3.52 -9 -0.51
8.5 -21.74 5.39
4.18 -10.7 -0.2
2.05 -5.31 -1.52
4.14 -10.69 0.2
2.3 -5.93 -1.47
4.1 -10.59 0.59
2.62 -6.78 -1.41
4.07 -10.51 0.99
2.97 -7.67 -1.3
3.75 -9.68 1.27
3.52 -9.1 -1.2
3.64 -9.39 1.6
3.54 -9.15 -0.86
3.44 -8.9 -0.5
4.29 -11.08 2.74
5.42 -14 -0.26
3.81 -9.85 2.83
2.03 -5.31 -1.52
4.98 -13 0.24
2.28 -5.95 -1.47
4.07 -10.62 0.6
2.6 -6.79 -1.41
4 -10.45 0.98
2.93 -7.65 -1.3
3.99 -10.42 1.37
3.52 -9.2 -1.21
3.59 -9.39 1.59
3.65 -9.54 -0.54
5.07 -13.23 3.27
4.11 -10.73 -0.2
3.76 -9.83 2.82
2.01 -5.31 -1.52
7.4 -19.53 0.36
2.26 -5.96 -1.47
4.33 -11.42 0.64
2.57 -6.79 -1.41
3.75 -9.89 0.93
2.91 -7.68 -1.3
3.57 -9.43 1.24
3.48 -9.2 -1.21
3.52 -9.3 1.57
3.47 -9.16 -0.86
3.47 -9.16 1.9
3.84 -10.14 2.5
4.87 -12.85 -0.24
3.74 -9.88 2.83
1.99 -5.31 -1.52
7.57 -20.2 0.38
2.24 -5.97 -1.47
5.49 -14.66 0.82
2.55 -6.79 -1.41
3.71 -9.89 0.92
2.87 -7.67 -1.3
3.87 -10.32 1.75
3.43 -9.15 -0.85
3.85 -10.27 2.13
3.48 -9.27 -0.52
3.82 -10.2 2.52
4.02 -10.73 -0.2
3.76 -10.03 2.87
1.97 -5.32 -1.52
4.36 -11.75 0.22
2.22 -5.98 -1.47
4.32 -11.65 0.65
2.52 -6.81 -1.41
4.17 -11.25 1.05
2.84 -7.66 -1.29
3.34 -9 1.18
3.81 -10.28 1.74
3.4 -9.16 -0.51
4.36 -11.75 3.36
1.96 -5.33 -1.52
3.7 -10.07 0.19
2.19 -5.97 -1.47
5.35 -14.57 0.81
2.51 -6.83 -1.41
4.1 -11.17 1.04
2.81 -7.67 -1.29
3.5 -9.52 1.25
3.57 -9.72 -1.27
10.4 -28.33 4.78
3.42 -9.31 -0.87
4.26 -11.61 -0.65
4.08 -11.13 2.74
5.07 -13.83 -0.26
3.87 -10.55 3.01
1.94 -5.34 -1.52
4.6 -12.66 0.24
2.17 -5.98 -1.47
5.27 -14.52 0.81
2.48 -6.83 -1.41
3.6 -9.92 0.92
2.8 -7.7 -1.3
3.44 -9.49 1.24
4.04 -11.12 1.87
3.34 -9.2 -0.86
4.22 -11.62 -0.65
4.02 -11.08 2.72
3.5 -9.63 -0.18
3.73 -10.27 2.93
1.92 -5.35 -1.52
4.82 -13.42 0.25
2.16 -6 -1.47
4.72 -13.14 0.73
2.45 -6.83 -1.41
2.78 -7.74 -1.3
3.37 -9.38 1.22
3.69 -10.28 1.73
3.32 -9.25 -0.86
8.14 -22.67 4.68
5.94 -16.56 -0.92
3.8 -10.58 3.01
1.9 -5.35 -1.52
4.31 -12.14 0.22
2.13 -6 -1.47
4.69 -13.19 0.73
2.43 -6.84 -1.41
3.69 -10.39 0.96
2.76 -7.77 -1.31
3.45 -9.71 1.27
3.37 -9.48 1.59
3.29 -9.27 -0.86
3.27 -9.2 1.9
3.19 -8.98 -0.5
3.57 -10.05 2.46
3.6 -10.15 -0.19
3.82 -10.76 3.06
1.88 -5.35 -1.52
4.02 -11.43 0.21
2.11 -6.01 -1.47
4.87 -13.86 0.77
2.41 -6.85 -1.41
4.29 -12.21 1.13
2.72 -7.75 -1.3
3.45 -9.82 1.28
3.26 -9.29 -1.21
3.31 -9.42 1.58
3.29 -9.37 -0.87
3.43 -9.75 -0.54
10.66 -30.34 7.42
3.66 -10.42 -0.19
3.67 -10.43 2.96
1.86 -5.36 -1.52
3.6 -10.35 0.19
2.09 -6.01 -1.47
5.5 -15.82 0.88
2.39 -6.87 -1.41
3.5 -10.06 0.93
2.7 -7.76 -1.3
3.44 -9.91 1.29
3.23 -9.3 -1.21
6.98 -20.09 3.37
3.22 -9.26 -0.86
3.54 -10.18 2.1
3.71 -10.69 -0.59
6.98 -20.1 4.91
3.65 -10.51 2.98
1.84 -5.37 -1.52
3.95 -11.5 0.21
2.07 -6.02 -1.47
3.53 -10.27 0.57
2.36 -6.87 -1.41
3.47 -10.11 0.94
2.67 -7.76 -1.3
3.16 -9.2 1.19
3.23 -9.4 -1.22
3.16 -9.19 1.54
3.11 -9.06 -0.84
6.9 -20.09 4.13
6.91 -20.11 4.91
3.11 -9.05 -0.17
6.92 -20.14 5.71
1.83 -5.38 -1.52
3.64 -10.7 0.2
2.05 -6.04 -1.47
3.53 -10.4 0.58
2.33 -6.87 -1.41
3.71 -10.92 1.01
2.63 -7.74 -1.3
3.26 -9.6 1.25
3.16 -9.32 -1.21
3.08 -9.08 -0.84
3.5 -10.31 2.12
3.17 -9.32 -0.52
10.29 -30.28 7.38
4.35 -12.81 -0.24
3.6 -10.58 2.99
1.8 -5.38 -1.52
3.81 -11.35 0.21
2.03 -6.05 -1.47
3.5 -10.42 0.58
2.31 -6.88 -1.41
3.31 -9.87 0.91
2.6 -7.74 -1.29
3.13 -9.32 -1.21
4.16 -12.4 2.07
5.64 -16.81 -1.55
3.45 -10.28 2.11
4.91 -14.63 -0.81
10.13 -30.19 7.35
4.28 -12.74 -0.23
3.32 -9.9 2.8
1.79 -5.39 -1.52
3.1 -9.33 0.17
2.01 -6.05 -1.47
3.79 -11.42 0.63
2.29 -6.89 -1.41
3.27 -9.86 0.91
2.58 -7.78 -1.3
3.23 -9.73 1.26
3.04 -9.15 -1.18
3.34 -10.06 1.68
3.1 -9.33 -0.86
3.47 -10.47 2.14
3.42 -10.31 -0.57
3.42 -10.3 2.51
4.01 -12.09 -0.22
4.32 -13.01 3.67
1.77 -5.4 -1.52
3.07 -9.35 0.17
1.98 -6.05 -1.47
3.13 -9.55 0.53
2.26 -6.9 -1.41
2.56 -7.8 -1.3
3.23 -9.84 1.27
3.05 -9.29 -1.2
3.29 -10.02 1.67
3.06 -9.34 -0.86
3.24 -9.87 2.02
3.03 -9.25 -0.51
3.33 -10.15 2.47
3.48 -10.61 -0.19
4.24 -12.92 3.64
1.76 -5.41 -1.52
3.04 -9.38 0.17
1.96 -6.05 -1.47
3.35 -10.33 0.57
2.24 -6.91 -1.41
3.41 -10.51 0.97
2.53 -7.81 -1.3
3.49 -10.75 1.39
2.99 -9.21 -1.19
3.44 -10.62 1.77
3.07 -9.47 -0.87
3.2 -9.87 2.02
2.99 -9.22 -0.51
3.17 -9.79 2.38
3.35 -10.33 -0.19
4.18 -12.88 3.63
1.74 -5.42 -1.52
3.28 -10.22 0.19
1.95 -6.07 -1.47
3.32 -10.37 0.57
2.21 -6.91 -1.41
3.11 -9.7 0.89
2.51 -7.83 -1.3
3.46 -10.79 1.39
3.02 -9.43 -1.22
3.18 -9.92 1.65
3.03 -9.46 -0.87
3.12 -9.73 1.99
2.98 -9.3 -0.51
3.83 -11.95 2.9
3.43 -10.71 -0.2
3.11 -9.69 2.73
1.71 -5.4 -1.52
1.93 -6.08 -1.47
3.21 -10.12 0.56
2.19 -6.92 -1.41
3.09 -9.76 0.9
2.48 -7.83 -1.3
3.3 -10.41 1.34
2.97 -9.37 -1.21
2.97 -9.37 -0.86
3.1 -9.8 2
3.89 -12.27 -0.67
3.57 -11.26 2.73
3.4 -10.75 -0.2
4.05 -12.78 3.59
1.7 -5.43 -1.52
3.01 -9.61 0.18
1.9 -6.08 -1.47
3.17 -10.14 0.56
2.17 -6.93 -1.41
3.12 -9.96 0.91
2.45 -7.83 -1.3
3.69 -11.79 1.52
2.98 -9.51 -1.22
3.09 -9.88 1.64
2.94 -9.41 -0.86
3.3 -10.56 2.15
3.82 -12.21 -0.67
3.22 -10.3 2.49
3.93 -12.58 -0.23
2.92 -9.35 2.62
1.68 -5.44 -1.52
8.43 -27.29 0.5
1.88 -6.08 -1.47
3.26 -10.56 0.58
2.15 -6.95 -1.41
3.1 -10.02 0.92
2.42 -7.84 -1.3
3.07 -9.92 1.27
2.95 -9.56 -1.23
3.05 -9.85 1.63
3.21 -10.4 -0.95
3.81 -12.32 2.51
2.79 -9.03 -0.5
3.9 -12.62 -0.23
3.79 -12.26 3.44
1.66 -5.45 -1.53
3.56 -11.67 0.21
1.86 -6.09 -1.47
2.12 -6.96 -1.41
3.16 -10.35 0.95
2.39 -7.82 -1.29
3.42 -11.22 1.44
2.93 -9.62 -1.23
3 -9.84 1.63
3.19 -10.45 -0.96
2.96 -9.71 1.97
2.91 -9.54 -0.52
2.93 -9.59 2.31
4 -13.1 -0.24
3.75 -12.28 3.44
1.64 -5.45 -1.52
3.86 -12.82 0.23
1.84 -6.1 -1.47
3.06 -10.17 0.56
2.1 -6.96 -1.41
3.06 -10.16 0.93
2.37 -7.87 -1.3
3.29 -10.93 1.4
2.75 -9.11 -1.17
3.09 -10.26 1.7
3.16 -10.48 -0.96
3.78 -12.55 2.55
2.89 -9.57 -0.52
3.72 -12.35 2.98
3.65 -12.12 -0.22
3.66 -12.13 3.4
1.62 -5.44 -1.52
1.82 -6.11 -1.47
2.71 -9.1 0.5
2.07 -6.97 -1.41
3.12 -10.5 0.96
2.34 -7.87 -1.3
3.07 -10.31 1.32
2.87 -9.65 -1.24
3.11 -10.47 1.73
3.13 -10.51 -0.96
2.85 -9.57 1.94
4.95 -16.65 -0.91
3.69 -12.41 2.99
2.83 -9.51 -0.17
3.66 -12.29 3.44
1.6 -5.45 -1.52
2.84 -9.68 0.18
1.8 -6.12 -1.47
2.91 -9.92 0.54
2.05 -6.97 -1.41
2.98 -10.13 0.92
2.31 -7.88 -1.3
2.99 -10.19 1.68
3.09 -10.52 -0.96
3.66 -12.46 2.52
2.7 -9.17 -0.5
3.85 -13.11 -0.24
4.54 -15.47 4.32
1.58 -5.46 -1.52
3.57 -12.3 0.22
1.77 -6.11 -1.47
2.87 -9.91 0.54
2.03 -7 -1.42
2.94 -10.15 0.92
2.28 -7.88 -1.3
4.54 -15.67 2
2.96 -10.2 1.68
4.6 -15.88 -1.45
2.83 -9.76 1.97
2.64 -9.11 -0.5
4.51 -15.55 3.74
3.43 -11.83 -0.22
4.5 -15.53 4.33
1.57 -5.47 -1.52
2.79 -9.73 0.18
1.75 -6.13 -1.47
4.53 -15.82 0.86
2 -7 -1.42
4.5 -15.72 1.43
2.26 -7.91 -1.3
4.49 -15.67 2
2.76 -9.66 -1.23
3.6 -12.58 2.07
2.73 -9.54 -0.87
2.89 -10.08 2.04
2.63 -9.18 -0.5
2.86 -9.98 2.4
3.77 -13.16 -0.24
1.55 -5.48 -1.53
2.81 -9.97 0.18
1.73 -6.14 -1.47
2.78 -9.86 0.54
1.98 -7 -1.41
3.31 -11.72 1.07
2.24 -7.93 -1.3
3.09 -10.93 1.39
3.55 -12.57 2.07
2.7 -9.57 -0.87
3 -10.61 2.14
4.49 -15.9 -0.87
2.81 -9.95 2.39
4.48 -15.88 -0.29
2.76 -9.77 2.72
1.53 -5.48 -1.52
2.82 -10.13 0.18
1.71 -6.14 -1.47
3.58 -12.85 0.7
1.95 -7 -1.41
3.26 -11.69 1.06
2.21 -7.92 -1.3
3.09 -11.08 1.41
3.51 -12.6 2.07
4.43 -15.91 -1.45
2.8 -10.04 2.03
4.43 -15.91 -0.87
3.49 -12.51 3
4.42 -15.87 -0.29
2.99 -10.72 2.98
1.51 -5.49 -1.52
2.76 -10.02 0.18
1.69 -6.15 -1.47
4.37 -15.88 0.86
1.93 -7.02 -1.42
2.18 -7.92 -1.3
3.47 -12.61 1.61
2.72 -9.87 -1.26
2.78 -10.09 1.66
3.43 -12.48 -1.13
7.21 -26.18 5.28
4.32 -15.68 -0.85
6.5 -23.62 5.65
3.17 -11.51 -0.21
1.49 -5.5 -1.53
2.72 -10.03 0.18
1.67 -6.14 -1.47
3.81 -14.04 0.76
1.91 -7.04 -1.42
3.45 -12.69 1.15
2.15 -7.93 -1.3
3.43 -12.64 1.61
2.61 -9.61 -1.22
7.12 -26.2 4.3
2.62 -9.66 -0.88
2.52 -9.27 1.87
2.48 -9.12 -0.5
2.71 -9.99 2.39
2.56 -9.43 -0.17
1.47 -5.51 -1.53
2.67 -9.99 0.18
1.64 -6.14 -1.47
2.81 -10.52 0.57
1.88 -7.05 -1.42
2.12 -7.94 -1.3
2.55 -9.55 -1.21
7.03 -26.28 4.31
2.72 -10.16 -0.92
7.57 -28.32 5.7
2.41 -9 -0.49
2.68 -10.01 2.39
2.89 -10.81 -0.2
2.93 -10.97 3.04
1.45 -5.51 -1.53
2.61 -9.88 0.18
1.63 -6.17 -1.47
2.81 -10.64 0.58
1.86 -7.04 -1.42
2.72 -10.33 0.93
2.1 -7.96 -1.3
2.93 -11.11 1.41
2.83 -10.72 -1.36
2.82 -10.69 1.75
3.46 -13.11 -1.19
2.47 -9.38 1.88
3.3 -12.53 -0.68
2.81 -10.66 2.54
3.42 -12.97 -0.23
5.89 -22.32 6.18
1.44 -5.52 -1.53
2.56 -9.83 0.18
1.61 -6.18 -1.47
3.34 -12.82 0.69
1.83 -7.05 -1.42
2.74 -10.55 0.95
2.07 -7.97 -1.3
8.78 -33.74 4.28
7.38 -28.37 4.64
2.56 -9.83 -0.89
3.56 -13.68 -0.74
2.72 -10.46 2.5
4.94 -18.99 -0.34
2.47 -9.5 2.63
1.42 -5.53 -1.53
2.52 -9.82 0.18
1.59 -6.18 -1.47
3.3 -12.85 0.7
1.81 -7.06 -1.42
2.87 -11.2 1.01
2.04 -7.95 -1.3
2.68 -10.45 1.32
2.59 -10.07 1.65
2.82 -10.99 -0.99
3.01 -11.74 -0.64
2.71 -10.56 2.52
3.92 -15.26 -0.28
3.16 -12.32 3.41
1.4 -5.52 -1.53
2.51 -9.91 0.18
1.56 -6.17 -1.47
3.26 -12.9 0.7
1.79 -7.07 -1.42
2.73 -10.82 0.98
2.02 -7.98 -1.3
2.71 -10.73 1.36
2.55 -10.08 1.65
2.47 -9.75 -0.88
2.34 -9.24 -0.5
2.35 -9.29 2.21
3.31 -13.1 -0.24
3.11 -12.31 3.4
1.38 -5.53 -1.53
2.49 -10 0.18
1.54 -6.18 -1.47
2.69 -10.8 0.58
1.76 -7.07 -1.42
2.3 -9.24 0.83
1.99 -7.98 -1.3
2.47 -9.92 1.25
2.36 -9.47 1.55
2.44 -9.8 -0.88
2.58 -10.36 2.08
2.35 -9.42 -0.51
2.29 -9.2 2.19
3.26 -13.08 -0.24
3.07 -12.33 3.41
1.36 -5.54 -1.53
2.28 -9.28 0.17
1.52 -6.19 -1.47
2.63 -10.71 0.58
1.74 -7.07 -1.42
3.6 -14.67 1.32
1.96 -8 -1.3
7.7 -31.38 3.97
2.23 -9.08 -1.15
2.33 -9.48 1.55
2.4 -9.79 -0.88
2.37 -9.65 1.93
2.8 -11.41 -0.62
2.29 -9.32 2.22
3.21 -13.08 -0.24
2.48 -10.09 2.78
1.34 -5.54 -1.53
2.48 -10.25 0.18
1.5 -6.2 -1.47
2.54 -10.52 0.57
1.71 -7.08 -1.42
2.69 -11.12 1
1.93 -7.98 -1.3
2.68 -11.06 1.4
3.67 -15.17 -1.92
2.65 -10.97 1.79
2.68 -11.1 -1
2.82 -11.67 -0.63
2.48 -10.27 2.44
2.55 -10.54 -0.19
1.32 -5.52 -1.52
2.42 -10.17 0.18
1.48 -6.21 -1.47
2.51 -10.53 0.57
1.69 -7.09 -1.42
2.65 -11.11 1
1.9 -7.98 -1.3
2.63 -11.05 1.39
2.32 -9.74 -1.23
2.28 -9.59 1.56
2.6 -10.92 -0.98
2.58 -10.81 2.57
2.8 -11.77 -0.21
2.32 -9.76 2.69
1.3 -5.53 -1.52
2.34 -9.99 0.18
1.45 -6.2 -1.47
2.41 -10.26 0.55
1.67 -7.1 -1.42
2.63 -11.22 1.01
1.87 -7.98 -1.3
2.59 -11.05 1.39
2.47 -10.53 -1.33
4.43 -18.88 3.07
3.04 -12.97 -1.17
2.56 -10.92 2.18
2.74 -11.7 -0.63
2.21 -9.42 2.23
1.28 -5.55 -1.53
2.18 -9.46 0.17
1.43 -6.21 -1.47
2.54 -10.99 0.59
1.64 -7.1 -1.42
2.16 -9.37 0.84
1.85 -8.01 -1.3
2.23 -9.68 -1.22
2.5 -10.82 1.76
3.08 -13.33 -1.2
2.43 -10.54 2.1
2.72 -11.8 -0.63
2.48 -10.73 -0.19
2.26 -9.8 2.69
1.26 -5.56 -1.53
2.14 -9.41 0.17
1.41 -6.21 -1.47
2.35 -10.36 0.56
1.61 -7.1 -1.42
2.13 -9.38 0.84
1.82 -8.02 -1.3
4.15 -18.27 2.3
2.56 -11.25 1.83
3.01 -13.24 -1.19
2.3 -10.14 -0.54
6.45 -28.41 6.73
3.14 -13.84 -0.25
1.24 -5.56 -1.53
2.1 -9.39 0.17
1.39 -6.22 -1.47
1.59 -7.11 -1.42
2.15 -9.63 0.86
1.79 -8.03 -1.3
2.06 -9.24 1.16
2.04 -9.15 -1.15
2.44 -10.91 1.77
2.42 -10.84 -0.97
2.17 -9.7 1.93
2.27 -10.16 -0.55
2.13 -9.53 2.25
2.4 -10.72 -0.19
2.19 -9.79 2.69
1.22 -5.56 -1.53
2.06 -9.38 0.17
1.37 -6.23 -1.47
2.3 -10.48 0.56
1.56 -7.12 -1.42
2.54 -11.55 1.03
1.76 -8.01 -1.3
2.03 -9.25 1.16
2 -9.09 -1.14
6.32 -28.79 4.67
2.93 -13.33 -1.19
2.14 -9.74 1.94
2.57 -11.7 -0.63
2.08 -9.47 2.24
1.21 -5.58 -1.53
3.02 -13.95 0.25
1.34 -6.22 -1.47
2.26 -10.44 0.56
1.54 -7.12 -1.42
3.56 -16.48 1.48
1.74 -8.03 -1.3
2.01 -9.32 1.17
2.93 -13.54 -1.7
2.41 -11.16 1.81
2.9 -13.41 -1.2
2.12 -9.79 1.95
2.53 -11.7 -0.63
2.01 -9.28 2.19
2.39 -11.04 -0.2
1.19 -5.58 -1.53
3.01 -14.17 0.25
1.33 -6.24 -1.47
2.37 -11.16 0.6
1.52 -7.14 -1.42
2.42 -11.39 1.02
1.71 -8.02 -1.3
1.97 -9.27 1.16
2.26 -10.64 -1.34
2.44 -11.49 1.86
2.32 -10.89 -0.97
2.49 -11.71 -0.63
1.97 -9.26 2.19
2.09 -9.81 2.69
1.17 -5.59 -1.53
2 -9.59 0.17
1.3 -6.24 -1.47
1.49 -7.13 -1.42
2.89 -13.85 1.24
1.68 -8.02 -1.3
4.1 -19.62 2.46
2.16 -10.33 -1.3
4.16 -19.92 3.22
2 -9.57 -0.86
2.45 -11.74 -0.63
4.81 -23.03 -0.41
2.29 -10.94 2.99
1.14 -5.57 -1.52
2.39 -11.64 0.21
1.28 -6.25 -1.47
1.93 -9.38 0.5
1.46 -7.14 -1.42
3.05 -14.86 1.33
1.65 -8.02 -1.3
1.91 -9.32 1.17
2.79 -13.58 -1.7
2.93 -14.25 2.3
2.21 -10.77 -0.96
2.11 -10.3 -0.55
1.97 -9.61 2.27
2.28 -11.1 -0.2
1.98 -9.65 2.64
1.13 -5.59 -1.53
2.34 -11.59 0.21
1.26 -6.25 -1.47
2.31 -11.48 0.61
1.44 -7.15 -1.42
1.89 -9.39 0.84
1.61 -8.01 -1.29
1.87 -9.27 1.16
1.81 -8.97 -1.12
2.32 -11.52 -1.03
1.93 -9.59 2.26
2.18 -10.83 -0.19
2.01 -9.98 2.73
1.11 -5.6 -1.53
2.3 -11.61 0.21
1.24 -6.25 -1.47
2.74 -13.84 0.74
1.42 -7.16 -1.42
1.87 -9.42 0.84
1.59 -8.04 -1.3
1.78 -8.97 -1.12
3.86 -19.52 3.15
2.2 -11.13 -0.99
2.25 -11.35 -0.61
1.94 -9.81 2.68
1.09 -5.6 -1.53
1.85 -9.51 0.17
1.22 -6.26 -1.47
1.87 -9.59 0.51
1.4 -7.17 -1.42
1.56 -8.02 -1.29
2.19 -11.28 1.41
1.79 -9.19 -1.15
3.79 -19.49 3.14
2.19 -11.28 -1.01
2.24 -11.49 -0.61
1.89 -9.71 2.28
2.12 -10.89 -0.19
1.07 -5.61 -1.53
1.2 -6.27 -1.47
2.12 -11.09 0.59
1.37 -7.16 -1.42
1.97 -10.31 0.92
1.53 -8.02 -1.29
1.79 -9.38 1.17
3.72 -19.5 3.14
2.14 -11.2 -0.6
1.84 -9.61 2.26
2.08 -10.9 -0.19
1.05 -5.58 -1.52
1.83 -9.78 0.17
1.18 -6.28 -1.47
1.81 -9.65 0.51
1.34 -7.17 -1.42
1.92 -10.27 0.91
1.5 -8.01 -1.29
1.78 -9.48 1.18
1.72 -9.16 -1.14
2.1 -11.24 1.81
2.15 -11.47 -1.02
1.94 -10.35 2.05
3.85 -20.57 -1.1
1.81 -9.64 2.26
2.1 -11.2 -0.2
1.84 -9.84 2.68
1.03 -5.6 -1.53
1.8 -9.77 0.17
1.15 -6.28 -1.47
1.32 -7.18 -1.42
1.79 -9.72 0.86
1.47 -7.99 -1.29
2.47 -13.43 1.68
1.68 -9.12 -1.14
3.6 -19.59 3.15
2.05 -11.15 -0.99
1.9 -10.36 2.05
2.11 -11.5 -0.61
1.77 -9.64 2.26
1.83 -9.95 -0.18
1.81 -9.85 2.68
1.01 -5.6 -1.52
2.31 -12.81 0.23
1.13 -6.28 -1.47
2.08 -11.58 0.62
1.29 -7.19 -1.42
1.43 -7.97 -1.28
2.74 -15.21 -1.9
6.63 -36.85 5.93
1.88 -10.42 2.06
2.08 -11.56 -0.62
1.73 -9.6 2.25
1.78 -9.91 -0.18
1.78 -9.9 2.69
0.99 -5.62 -1.53
1.76 -9.98 0.18
1.11 -6.28 -1.47
2.46 -13.97 0.74
1.27 -7.2 -1.42
2.08 -11.79 1.05
1.41 -7.97 -1.28
1.67 -9.49 1.18
2.66 -15.1 -1.88
2.45 -13.89 2.23
2.04 -11.58 -1.03
1.84 -10.42 2.06
2.02 -11.43 -0.61
1.71 -9.67 2.27
2.55 -14.44 -0.26
6.57 -37.26 10.14
0.97 -5.62 -1.53
2.39 -13.84 0.25
1.09 -6.28 -1.47
3.58 -20.71 1.1
1.24 -7.19 -1.42
1.82 -10.52 0.93
1.39 -8.04 -1.29
3.58 -20.71 2.58
1.52 -8.79 -1.09
5.34 -30.89 4.96
2.09 -12.11 -1.07
1.8 -10.43 2.06
1.74 -10.07 -0.54
1.66 -9.61 2.25
1.98 -11.42 -0.2
2.23 -12.9 3.51
0.95 -5.61 -1.52
1.77 -10.46 0.19
1.07 -6.3 -1.47
2.22 -13.14 0.7
1.22 -7.2 -1.42
1.68 -9.9 0.88
1.37 -8.09 -1.3
3.5 -20.7 2.58
1.49 -8.8 -1.1
2.03 -11.99 1.93
2.43 -14.37 -1.28
1.77 -10.46 2.06
2.46 -14.52 -0.77
1.64 -9.7 2.27
1.92 -11.36 -0.2
3.04 -17.96 4.88
0.93 -5.62 -1.53
1.57 -9.48 0.17
1.04 -6.3 -1.47
2.53 -15.24 0.81
1.2 -7.21 -1.42
1.64 -9.88 0.88
1.34 -8.08 -1.3
1.97 -11.92 1.48
1.99 -12.01 -1.49
2.99 -18.05 2.9
2.98 -17.99 3.54
1.82 -11 -0.58
2.32 -13.97 3.27
1.86 -11.25 -0.2
2.97 -17.93 4.87
0.91 -5.63 -1.53
1.53 -9.42 0.17
1.02 -6.29 -1.47
1.77 -10.93 0.58
1.17 -7.22 -1.42
1.74 -10.76 0.95
1.31 -8.07 -1.29
1.71 -10.55 1.31
1.74 -10.76 -1.34
2.46 -15.16 2.43
1.65 -10.16 -0.9
2.45 -15.11 2.98
1.93 -11.88 -0.63
2.33 -14.37 -0.25
2.43 -15 4.07
0.89 -5.63 -1.53
1.93 -12.18 0.22
1 -6.31 -1.47
1.73 -10.92 0.58
1.15 -7.23 -1.42
1.9 -12.01 1.06
1.28 -8.1 -1.3
1.89 -11.94 1.48
1.53 -9.63 -1.2
1.65 -10.4 1.67
2.31 -14.57 -1.29
2.39 -15.09 2.97
1.9 -11.97 -0.64
2.38 -15.03 3.51
1.98 -12.46 -0.22
0.87 -5.63 -1.53
1.53 -9.87 0.17
0.98 -6.31 -1.48
1.85 -11.94 0.63
1.12 -7.22 -1.42
1.54 -9.96 0.88
1.26 -8.12 -1.3
2.35 -15.19 1.89
2.33 -15.06 -1.87
2.35 -15.17 2.43
2.17 -13.98 -1.24
2.34 -15.1 2.97
1.48 -9.52 -0.51
2.33 -15.05 3.52
1.9 -12.25 -0.22
2.18 -14.09 3.82
0.85 -5.63 -1.53
1.44 -9.53 0.17
0.96 -6.32 -1.48
1.81 -11.91 0.63
1.1 -7.23 -1.42
1.5 -9.92 0.88
1.23 -8.11 -1.3
1.81 -11.96 1.49
2.21 -14.59 -1.29
1.42 -9.35 -0.5
1.96 -12.93 3.02
1.57 -10.36 -0.18
2.08 -13.73 3.72
0.83 -5.64 -1.53
1.8 -12.17 0.21
0.93 -6.32 -1.47
1.76 -11.92 0.63
1.07 -7.23 -1.42
2.02 -13.65 1.21
1.2 -8.14 -1.3
1.66 -11.21 -1.39
3.17 -21.43 3.43
1.45 -9.82 -0.87
2.32 -15.67 3.08
1.37 -9.24 -0.49
2.07 -13.99 3.26
1.54 -10.39 -0.18
2.03 -13.74 3.72
0.81 -5.64 -1.53
1.41 -9.75 0.17
0.91 -6.32 -1.47
1.73 -11.99 0.63
1.05 -7.25 -1.42
1.97 -13.68 1.21
1.18 -8.15 -1.3
2 -13.85 1.72
1.46 -10.11 -1.25
2.18 -15.09 2.41
1.57 -10.87 -0.96
2.23 -15.43 -0.82
1.96 -13.58 3.68
0.79 -5.65 -1.53
1.4 -9.94 0.18
0.89 -6.33 -1.47
1.68 -11.94 0.63
1.02 -7.26 -1.42
1.52 -10.84 0.96
1.15 -8.15 -1.3
1.82 -12.95 1.61
1.3 -9.22 -1.14
1.7 -12.11 1.94
1.48 -10.53 -0.93
1.34 -9.52 -0.5
1.74 -12.35 2.88
1.59 -11.31 -0.2
1.92 -13.64 3.69
0.78 -5.65 -1.53
1.72 -12.52 0.22
0.87 -6.34 -1.48
1.65 -11.98 0.63
1 -7.25 -1.42
1.35 -9.82 0.87
1.12 -8.15 -1.3
2.84 -20.7 2.57
1.99 -14.52 -1.8
1.67 -12.12 1.94
1.97 -14.34 -1.27
1.48 -10.75 -0.57
2.02 -14.71 3.43
2.36 -17.19 -0.3
1.62 -11.79 3.19
0.75 -5.65 -1.53
0.85 -6.35 -1.48
1.6 -11.99 0.63
0.97 -7.25 -1.42
1.31 -9.79 0.86
1.08 -8.11 -1.3
1.25 -9.33 1.16
3.32 -24.8 3.96
1.37 -10.28 -0.91
1.38 -10.31 2.02
1.44 -10.76 -0.57
3.4 -25.4 5.92
2.7 -20.2 -0.36
1.88 -14.05 3.8
0.74 -5.65 -1.53
2.64 -20.26 0.36
0.83 -6.35 -1.48
1.57 -12.04 0.64
0.95 -7.26 -1.42
1.32 -10.12 0.89
1.05 -8.1 -1.29
1.27 -9.76 1.56
1.86 -14.26 -1.26
1.35 -10.4 2.04
1.92 -14.76 -0.78
1.27 -9.75 2.27
1.24 -9.54 -0.17
1.54 -11.79 3.19
0.72 -5.66 -1.53
1.26 -9.96 0.18
0.8 -6.34 -1.48
1.52 -12.02 0.64
0.92 -7.27 -1.42
1.25 -9.86 0.87
1.03 -8.13 -1.3
1.18 -9.3 1.15
1.28 -10.15 -1.26
1.19 -9.39 1.5
1.36 -10.78 -0.95
1.31 -10.37 2.03
1.26 -9.97 -0.53
1.47 -11.59 -0.2
1.3 -10.27 2.77
0.7 -5.67 -1.53
1.22 -9.91 0.17
0.78 -6.35 -1.48
3.15 -25.6 1.35
0.9 -7.28 -1.42
1 -8.12 -1.3
1.25 -10.14 -1.26
3.13 -25.43 4.06
1.3 -10.59 -0.93
1.32 -10.7 2.1
2.52 -20.47 -1.08
1.4 -11.37 -0.2
1.26 -10.24 2.76
0.68 -5.67 -1.53
