# .PCD v0.7 - Point Cloud Data file format
VERSION 0.7
FIELDS x y z
SIZE 4 4 4
TYPE F F F
COUNT 1 1 1
WIDTH 2761
HEIGHT 1
VIEWPOINT 0 0 0 1 0 0 0
POINTS 2761
DATA ascii
-37.83 18.09 3.67
-1.18 0.56 -0.21
-21.2 10.14 2.89
-1.22 0.58 -0.17
-15.13 7.24 -1.47
-17.71 8.47 3.82
-15.24 7.29 -0.89
-65.41 31.28 16.74
-10.97 5.25 3.26
-6.34 3.06 -1.89
-15.33 7.39 0.3
-7.53 3.63 -1.93
-15.43 7.44 0.9
-9.27 4.47 -2
-21.75 10.49 2.11
-1.17 0.56 -0.21
-41.89 20.21 5.71
-1.21 0.58 -0.17
-17.95 8.66 3.16
-20.82 10.05 -2.02
-17.47 8.43 3.77
-15.17 7.32 -0.88
-15.27 7.37 -0.3
-10.92 5.27 3.25
-6.34 3.08 -1.89
-15.21 7.41 0.3
-7.53 3.66 -1.93
-15.32 7.46 0.89
-9.26 4.51 -2
-21.75 10.59 2.12
-1.15 0.56 -0.2
-41.89 20.39 5.72
-1.19 0.58 -0.16
-21.16 10.3 3.73
-20.76 10.11 -2.02
-20.61 10.04 4.46
-22.41 10.91 5.76
-22.01 10.72 -0.43
-18.99 9.24 5.66
-6.33 3.11 -1.89
-15.13 7.43 0.29
-7.52 3.69 -1.94
-15.22 7.47 0.89
-9.24 4.54 -2
-21.66 10.64 2.11
-1.15 0.56 -0.2
-41.89 20.57 5.73
-1.18 0.58 -0.16
-20.71 10.17 -2.02
-16.44 8.08 3.56
-22.01 10.81 -1.29
-22.34 10.97 5.75
-21.9 10.76 -0.43
-10.46 5.14 3.12
-6.31 3.13 -1.89
-7.52 3.72 -1.94
-9.23 4.57 -2
-21.61 10.7 2.11
-1.13 0.56 -0.2
-41.52 20.56 5.69
-1.19 0.59 -0.16
-22.26 11.02 3.93
-20.57 10.19 -2.01
-21.76 10.78 4.72
-21.84 10.82 -1.28
-22.23 11.01 5.73
-21.69 10.74 -0.42
-10.5 5.2 3.14
-6.3 3.15 -1.89
-21.09 10.53 0.41
-7.52 3.75 -1.94
-9.22 4.61 -2
-21.42 10.7 2.09
-1.12 0.56 -0.2
-43.38 21.67 5.95
-1.18 0.59 -0.16
-22.19 11.09 3.93
-20.41 10.2 -2
-21.71 10.85 -1.27
-19.36 9.67 5
-21.72 10.85 -0.42
-10.7 5.34 3.2
-6.3 3.18 -1.89
-21.12 10.65 0.41
-7.49 3.78 -1.94
-22.29 11.24 1.31
-9.22 4.65 -2.01
-21.38 10.78 2.09
-1.12 0.56 -0.2
-20.74 10.45 2.85
-1.16 0.58 -0.16
-17.52 8.83 3.11
-20.28 10.22 -1.99
-19.09 9.62 4.16
-21.43 10.8 -1.26
-22 11.09 5.69
-21.72 10.95 -0.42
-10.65 5.37 3.19
-6.29 3.2 -1.89
-21.07 10.71 0.41
-7.49 3.81 -1.94
-21.55 10.96 1.27
-9.21 4.68 -2.01
-21.45 10.9 2.11
-1.12 0.57 -0.2
-42.78 21.74 5.89
-1.13 0.57 -0.16
-17.63 8.96 3.13
-20.18 10.26 -1.98
-17.57 8.93 3.83
-22.26 11.32 -1.31
-21.97 11.17 5.69
-21.02 10.69 -0.41
-10.62 5.4 3.19
-6.28 3.22 -1.89
-20.48 10.5 0.4
-7.48 3.84 -1.94
-20.77 10.66 1.22
-9.18 4.71 -2.01
-21.36 10.96 2.1
-1.11 0.57 -0.2
-22.9 11.75 3.16
-1.14 0.58 -0.16
-19.57 10.04 3.48
-20.05 10.28 -1.97
-21.45 11 4.69
-22.21 11.4 -1.31
-14.34 7.36 3.72
-20.79 10.67 -0.41
-10.53 5.4 3.17
-6.26 3.24 -1.89
-20.86 10.79 0.41
-7.48 3.87 -1.94
-20.94 10.83 1.24
-9.18 4.75 -2.01
-21.25 10.99 2.09
-1.1 0.57 -0.2
-42.28 21.87 5.84
-1.13 0.58 -0.16
-42.4 21.94 7.56
-19.86 10.27 -1.96
-14.81 7.66 3.24
-20.81 10.76 -1.23
-14.25 7.37 3.7
-20.64 10.68 -0.41
-10.54 5.45 3.18
-6.25 3.26 -1.89
-20.28 10.57 0.4
-7.47 3.89 -1.94
-21.2 11.05 1.25
-9.18 4.79 -2.01
-21.46 11.19 2.12
-1.09 0.57 -0.19
-41.96 21.88 5.81
-1.14 0.59 -0.16
-17.62 9.19 3.15
-19.76 10.3 -1.95
-18.41 9.6 4.03
-20.85 10.87 -1.23
-14.05 7.33 3.66
-20.52 10.7 -0.4
-10.54 5.5 3.18
-6.25 3.28 -1.89
-20.27 10.66 0.4
-7.45 3.92 -1.94
-20.11 10.57 1.19
-9.16 4.82 -2.01
-20.45 10.75 2.02
-1.08 0.57 -0.19
-20.42 10.74 2.83
-21.71 11.42 3.88
-19.59 10.3 -1.94
-16.42 8.63 3.61
-20.1 10.57 -1.19
-14.16 7.45 3.69
-20.84 10.96 -0.41
-10.46 5.5 3.17
-6.24 3.31 -1.89
-20.38 10.81 0.4
-7.44 3.95 -1.94
-20.51 10.88 1.22
-9.15 4.86 -2.01
-20.45 10.85 2.03
-1.07 0.57 -0.19
-20.47 10.86 2.84
-14.09 7.48 -1.96
-14.7 7.8 2.64
-19.47 10.33 -1.93
-14.67 7.78 3.23
-20.28 10.76 -1.2
-14.09 7.48 3.68
-20.17 10.7 -0.4
-6.23 3.33 -1.89
-19.79 10.59 0.39
-7.44 3.98 -1.95
-20.38 10.9 1.21
-9.17 4.91 -2.02
-1.07 0.57 -0.19
-22.88 12.24 3.19
-14.01 7.5 -1.95
-17.45 9.33 3.13
-19.45 10.41 -1.93
-21.15 11.31 4.66
-20.1 10.75 -1.19
-19.29 10.32 5.05
-20.97 11.22 -0.42
-10.24 5.48 3.11
-6.21 3.35 -1.89
-19.96 10.77 0.4
-7.43 4.01 -1.95
-19.85 10.71 1.18
-9.17 4.95 -2.03
-21.24 11.46 2.11
-1.06 0.57 -0.19
-22.76 12.28 3.18
-13.98 7.54 -1.95
-23.21 12.53 4.18
-19.79 10.68 -1.97
-16.35 8.82 3.61
-20 10.79 -1.19
-19.1 10.31 5.01
-19.63 10.59 -0.39
-20.87 11.26 6.36
-6.21 3.38 -1.89
-19.82 10.78 0.39
-7.42 4.03 -1.95
-21.16 11.51 1.26
-9.16 4.98 -2.03
-21.15 11.5 2.11
-1.05 0.57 -0.19
-19.35 10.53 2.71
-1.13 0.62 -0.16
-14.3 7.78 2.58
-20.06 10.91 -2
-20.35 11.07 4.5
-19.9 10.83 -1.19
-14.46 7.87 3.8
-19.22 10.46 -0.38
-19.53 10.62 5.96
-6.2 3.4 -1.9
-22.55 12.36 0.45
-7.4 4.06 -1.95
-20.36 11.16 1.22
-9.14 5.01 -2.03
-19.24 10.55 1.92
-1.04 0.57 -0.19
-22.69 12.44 3.18
-1.11 0.61 -0.16
-14.36 7.88 2.59
-19.52 10.7 -1.95
-20.34 11.15 4.51
-19.76 10.84 -1.18
-17.15 9.4 4.52
-19.46 10.67 -0.39
-14.61 8.01 4.46
-6.19 3.43 -1.9
-19.5 10.78 0.39
-7.39 4.09 -1.95
-21.12 11.68 1.26
-9.13 5.05 -2.03
-19.24 10.64 1.92
-1.04 0.57 -0.19
-22.74 12.58 3.19
-1.08 0.6 -0.15
-20.36 11.26 3.69
-19.34 10.7 -1.93
-18.24 10.09 4.05
-19.77 10.93 -1.18
-18.64 10.31 4.92
-21.82 12.07 -0.44
-14.38 7.95 4.4
-6.19 3.45 -1.9
-19.59 10.93 0.39
-7.38 4.12 -1.95
-19.5 10.88 1.17
-9.1 5.08 -2.03
-22.34 12.46 2.24
-1.03 0.57 -0.19
-30.28 16.89 4.26
-1.07 0.6 -0.15
-20.36 11.35 3.69
-19.14 10.68 -1.92
-18.24 10.17 4.06
-19.21 10.72 -1.15
-20.72 11.56 5.48
-20.43 11.39 -0.41
-10.03 5.59 3.08
-6.17 3.47 -1.9
-19.09 10.74 0.38
-7.37 4.15 -1.95
-19.01 10.69 1.14
-9.06 5.1 -2.02
-22.25 12.52 2.23
-1.03 0.58 -0.19
-34.39 19.34 4.85
-1.06 0.6 -0.15
-22.21 12.49 4.04
-18.89 10.62 -1.9
-17.51 9.85 3.91
-18.97 10.67 -1.14
-18.43 10.37 4.88
-19.28 10.84 -0.39
-10.09 5.67 3.1
-6.17 3.49 -1.9
-19.09 10.82 0.38
-7.36 4.17 -1.95
-19.02 10.78 1.15
-9 5.1 -2.01
-22.48 12.74 2.26
-1.02 0.58 -0.19
-19.27 10.92 2.72
-1.07 0.6 -0.15
-22.02 12.48 4.01
-18.82 10.67 -1.89
-18.27 10.35 4.08
-18.9 10.71 -1.14
-20.47 11.6 5.43
-18.84 10.68 -0.38
-10.22 5.79 3.15
-6.16 3.52 -1.9
-18.9 10.8 0.38
-7.34 4.2 -1.95
-19.54 11.17 1.18
-8.95 5.11 -2
-31.62 18.07 3.19
-1.01 0.57 -0.18
-20.38 11.64 2.88
-13.88 7.93 -1.96
-29.86 17.06 5.45
-18.84 10.77 -1.9
-12.34 7.05 2.76
-19.83 11.33 -1.2
-14.21 8.12 3.78
-18.99 10.85 -0.38
-14.59 8.34 4.5
-6.15 3.54 -1.9
-22.32 12.85 0.45
-7.33 4.22 -1.95
-19.45 11.2 1.18
-8.89 5.12 -1.99
-31.48 18.12 3.18
-1 0.58 -0.18
-30.84 17.75 4.37
-13.82 7.96 -1.96
-14.57 8.39 2.66
-18.69 10.76 -1.89
-12.16 7 2.73
-19.02 10.95 -1.15
-19.9 11.46 5.3
-19.05 10.97 -0.38
-14.6 8.41 4.52
-6.14 3.56 -1.9
-21.39 12.42 0.43
-7.33 4.25 -1.96
-19.44 11.29 1.18
-8.83 5.12 -1.98
-31.34 18.19 3.17
-1 0.58 -0.18
-30.85 17.91 4.38
-13.78 8 -1.96
-14.49 8.41 2.65
-18.57 10.78 -1.88
-20.21 11.73 4.54
-19.05 11.06 -1.15
-19.29 11.2 -0.39
-14.59 8.47 4.52
-6.12 3.58 -1.9
-18.48 10.82 0.37
-7.32 4.28 -1.96
-21.97 12.86 1.33
-8.78 5.14 -1.98
-31.21 18.27 3.16
-0.99 0.58 -0.18
-33.82 19.79 4.81
-13.73 8.04 -1.95
-17.35 10.16 3.18
-18.64 10.91 -1.89
-17.13 10.03 3.86
-18.8 11 -1.14
-13.98 8.18 3.74
-20.96 12.27 -0.42
-6.11 3.61 -1.9
-18.47 10.9 0.37
-7.31 4.31 -1.96
-19.52 11.52 1.19
-8.72 5.15 -1.97
-22.84 13.48 2.32
-0.96 0.57 -0.18
-33.76 19.92 4.81
-9.29 5.48 -1.32
-17.3 10.21 3.18
-18.03 10.64 -1.83
-12.25 7.23 2.76
-18.43 10.88 -1.12
-21.67 12.79 5.81
-18.57 10.96 -0.38
-14.84 8.76 4.62
-6.11 3.63 -1.9
-18.74 11.14 0.38
-7.29 4.33 -1.96
-18.85 11.2 1.15
-8.67 5.15 -1.96
-31.03 18.45 3.16
-0.95 0.57 -0.18
-19.97 11.87 2.85
-9.25 5.5 -1.32
-14.34 8.52 2.64
-18.42 10.95 -1.87
-18.5 11 -1.13
-15.55 9.24 4.18
-18.35 10.91 -0.37
-6.1 3.66 -1.91
-18.54 11.11 0.38
-7.28 4.36 -1.96
-22.68 13.59 1.39
-8.61 5.16 -1.95
-18.76 11.24 1.91
-0.95 0.57 -0.18
-19.98 11.97 2.86
-13.64 8.17 -1.95
-17.25 10.34 3.19
-18.06 10.82 -1.84
-11.94 7.15 2.7
-18.35 11 -1.12
-14 8.39 3.77
-18.27 10.95 -0.37
-8.91 5.34 2.78
-6.09 3.68 -1.91
-18.16 10.97 0.37
-7.27 4.39 -1.96
-19.81 11.97 1.21
-8.55 5.16 -1.94
-18.68 11.28 1.91
-0.95 0.57 -0.18
-17.96 10.85 2.58
-13.6 8.21 -1.95
-17.22 10.4 3.19
-18.45 11.14 -1.89
-11.94 7.21 2.71
-18.25 11.02 -1.12
-13.8 8.34 3.72
-18.34 11.08 -0.37
-6.07 3.7 -1.9
-19.73 12.01 0.4
-7.26 4.42 -1.96
-19.76 12.03 1.21
-8.5 5.18 -1.93
-18.65 11.35 1.91
-0.95 0.58 -0.18
-36.46 22.2 5.24
-13.57 8.26 -1.95
-17.15 10.44 3.18
-21.89 13.33 -2.24
-17.06 10.39 3.88
-18.22 11.09 -1.12
-14.08 8.57 3.81
-18.07 11 -0.37
-8.86 5.39 2.78
-6.06 3.72 -1.91
-19.69 12.08 0.4
-7.25 4.45 -1.96
-8.46 5.19 -1.93
-18.57 11.39 1.91
-0.94 0.58 -0.18
-33.3 20.43 4.8
-13.55 8.32 -1.95
-14.44 8.86 2.68
-17.43 10.69 -1.79
-12.05 7.39 2.75
-17.77 10.91 -1.09
-10.04 6.16 2.72
-17.85 10.95 -0.37
-15.06 9.24 4.74
-6.06 3.75 -1.91
-7.23 4.47 -1.96
-22.28 13.78 1.37
-8.4 5.2 -1.92
-18.38 11.37 1.89
-0.94 0.58 -0.17
-17.96 11.11 2.59
-13.52 8.36 -1.95
-17.14 10.6 3.19
-18.21 11.26 -1.87
-16.73 10.35 3.82
-18.01 11.14 -1.11
-10.03 6.2 2.72
-19.68 12.17 -0.4
-15.15 9.37 4.77
-6.05 3.77 -1.91
-17.69 11.03 0.36
-7.22 4.5 -1.96
-19.05 11.87 1.18
-8.37 5.22 -1.92
-18.24 11.36 1.88
-0.94 0.58 -0.17
-17.9 11.15 2.59
-13.47 8.4 -1.95
-17.15 10.69 3.2
-17.94 11.18 -1.85
-16.56 10.32 3.79
-18.33 11.42 -1.13
-33.12 20.64 9.01
-17.64 10.99 -0.36
-14.93 9.3 4.71
-6.04 3.79 -1.91
-17.48 10.98 0.36
-7.21 4.53 -1.97
-22.43 14.09 1.39
-8.33 5.23 -1.91
-18.22 11.45 1.88
-0.92 0.58 -0.17
-17.9 11.24 2.59
-13.45 8.45 -1.95
-17.05 10.71 3.19
-18.41 11.56 -1.9
-11.99 7.53 2.75
-17.32 10.88 -1.07
-18.1 11.37 4.93
-21.92 13.77 -0.45
-14.91 9.37 4.72
-6.02 3.81 -1.91
-17.41 11.02 0.36
-7.2 4.56 -1.97
-31.79 20.12 1.97
-8.32 5.26 -1.91
-18.16 11.49 1.88
-0.91 0.58 -0.17
-17.9 11.33 2.6
-13.42 8.5 -1.95
-17.16 10.86 3.22
-17.31 10.96 -1.79
-14.7 9.3 3.38
-18.04 11.42 -1.12
-13.53 8.56 3.7
-22.44 14.2 -0.46
-20.42 12.92 6.47
-6.01 3.83 -1.91
-17.19 10.97 0.36
-7.18 4.58 -1.97
-17.26 11.01 1.07
-8.3 5.29 -1.91
-17.88 11.41 1.86
-0.9 0.57 -0.17
-17.97 11.46 2.62
-13.39 8.54 -1.95
-20.95 13.36 3.94
-18.32 11.69 -1.9
-20.97 13.38 4.83
-17.46 11.14 -1.09
-13.59 8.67 3.72
-19.81 12.63 -0.41
-8.82 5.63 2.8
-6 3.86 -1.91
-17.2 11.06 0.36
-7.17 4.61 -1.97
-17.05 10.96 1.06
-8.26 5.31 -1.91
-17.9 11.5 1.86
-0.9 0.58 -0.17
-17.16 11.03 2.5
-13.36 8.59 -1.95
-32.32 20.77 6.09
-18.45 11.86 -1.92
-11.06 7.11 2.56
-17.47 11.23 -1.09
-11.45 7.36 3.14
-17.54 11.27 -0.36
-18.1 11.63 5.77
-5.99 3.88 -1.91
-17 11.01 0.35
-7.16 4.64 -1.97
-17.02 11.02 1.06
-8.22 5.33 -1.9
-17.84 11.55 1.86
-0.89 0.58 -0.17
-17.09 11.07 2.5
-13.32 8.63 -1.95
-21.46 13.9 4.05
-17.43 11.29 -1.82
-11.05 7.16 2.56
-17.5 11.34 -1.09
-22.39 14.5 6.16
-20.53 13.3 -0.43
-10.11 6.55 3.23
-5.98 3.9 -1.91
-19.7 12.85 0.41
-7.15 4.67 -1.97
-16.91 11.03 1.06
-8.17 5.33 -1.9
-17.81 11.62 1.86
-0.89 0.58 -0.17
-17.03 11.11 2.5
-13.28 8.67 -1.95
-16.89 11.02 3.19
-17.09 11.15 -1.79
-10.88 7.1 2.53
-17.14 11.18 -1.07
-13.56 8.85 3.74
-21.83 14.24 -0.45
-10.05 6.56 3.22
-5.96 3.92 -1.91
-22.39 14.72 0.47
-7.14 4.7 -1.97
-19.43 12.77 1.22
-8.15 5.36 -1.9
-16.78 11.03 1.76
-0.89 0.58 -0.17
-17.02 11.19 2.5
-13.26 8.72 -1.95
-16.82 11.06 3.19
-10.91 7.17 2.54
-16.5 10.85 -1.04
-13.61 8.95 3.76
-20.7 13.61 -0.43
-10.04 6.6 3.22
-5.96 3.95 -1.91
-16.6 10.99 0.35
-7.13 4.72 -1.97
-16.6 11 1.04
-8.1 5.36 -1.89
-16.76 11.1 1.76
-0.87 0.57 -0.16
-16.92 11.2 2.49
-13.22 8.76 -1.95
-16.63 11.02 3.16
-16.72 11.08 -1.75
-9.63 6.38 2.24
-16.44 10.89 -1.03
-11.41 7.56 3.16
-16.58 10.99 -0.35
-14.77 9.78 4.75
-5.95 3.97 -1.92
-16.63 11.1 0.35
-7.11 4.74 -1.97
-34.49 23.02 2.17
-8.02 5.35 -1.87
-16.75 11.18 1.76
-0.87 0.58 -0.17
-16.81 11.22 2.48
-13.18 8.79 -1.95
-16.75 11.18 3.19
-16.99 11.34 -1.79
-9.6 6.41 2.24
-17.42 11.63 -1.1
-11.44 7.64 3.18
-22.15 14.78 -0.46
-14.87 9.92 4.79
-5.94 4 -1.92
-16.49 11.09 0.35
-7.1 4.77 -1.97
-16.42 11.04 1.04
-7.97 5.36 -1.87
-16.85 11.33 1.78
-0.86 0.58 -0.16
-26.56 17.86 3.93
-13.13 8.83 -1.94
-16.55 11.13 3.16
-16.52 11.11 -1.74
-11.08 7.45 2.59
-17.75 11.94 -1.12
-14.15 9.52 3.94
-16.38 11.01 -0.34
-14.72 9.9 4.75
-5.93 4.02 -1.92
-16.33 11.06 0.34
-7.08 4.8 -1.98
-16.36 11.08 1.04
-7.96 5.39 -1.87
-19.73 13.37 2.09
-0.87 0.59 -0.17
-16.71 11.32 2.48
-13.09 8.87 -1.94
-30.25 20.49 5.79
-19.11 12.95 -2.02
-11.01 7.46 2.58
-16.94 11.48 -1.07
-16.72 11.33 4.66
-16.28 11.03 -0.34
-8.51 5.76 2.75
-5.91 4.03 -1.92
-16.33 11.15 0.35
-7.07 4.83 -1.98
-16.24 11.08 1.03
-7.91 5.4 -1.86
-19.52 13.33 2.07
-0.86 0.58 -0.16
-16.71 11.41 2.48
-13.07 8.92 -1.94
-16.52 11.28 3.17
-16.77 11.45 -1.78
-11.08 7.56 2.61
-17.21 11.75 -1.09
-8.78 5.99 2.45
-16.27 11.11 -0.34
-8.48 5.79 2.75
-5.9 4.06 -1.92
-16.24 11.17 0.34
-7.06 4.86 -1.98
-16.23 11.16 1.03
-0.85 0.58 -0.2
-16.35 11.25 1.74
-0.84 0.58 -0.16
-16.68 11.47 2.49
-13.03 8.96 -1.94
-9.47 6.52 1.82
-16.96 11.66 -1.8
-9.06 6.23 2.14
-15.87 10.91 -1.01
-8.77 6.03 2.46
-16.06 11.05 -0.34
-18.17 12.5 5.91
-5.89 4.08 -1.92
-48 33.25 1.02
-7.04 4.88 -1.98
-16.1 11.16 1.03
-0.84 0.58 -0.2
-16.7 11.57 1.78
-0.84 0.58 -0.16
-17.93 12.42 2.68
-13 9 -1.94
-17.95 12.44 3.46
-16.98 11.76 -1.81
-10.75 7.45 2.54
-15.84 10.97 -1.01
-13.25 9.18 3.72
-15.99 11.07 -0.34
-14.67 10.16 4.78
-5.88 4.1 -1.92
-16.54 11.54 0.35
-7.03 4.91 -1.98
-16.19 11.3 1.03
-0.84 0.58 -0.2
-16.68 11.64 1.78
-0.83 0.58 -0.16
-17.89 12.48 2.68
-12.95 9.04 -1.94
-16.56 11.56 -1.77
-11.06 7.72 2.62
-15.71 10.96 -1
-31.52 22 8.87
-15.9 11.09 -0.34
-8.64 6.03 2.82
-5.87 4.13 -1.92
-16.69 11.74 0.36
-7.02 4.94 -1.98
-15.77 11.09 1.01
-0.82 0.57 -0.19
-17.79 12.51 1.9
-0.84 0.59 -0.16
-16.19 11.39 2.43
-12.92 9.08 -1.94
-29.15 20.5 5.64
-15.62 10.98 -1.67
-11.1 7.8 2.64
-15.61 10.97 -1
-18.66 13.12 5.27
-19.66 13.82 -0.42
-9.6 6.75 3.15
-5.85 4.14 -1.92
-19.68 13.94 0.42
-7.01 4.96 -1.98
-15.75 11.15 1.01
-0.83 0.58 -0.2
-17.74 12.56 1.9
-0.83 0.59 -0.16
-9.51 6.74 1.43
-12.89 9.13 -1.94
-27.22 19.28 5.28
-16.41 11.63 -1.76
-9.6 6.8 2.29
-15.59 11.04 -1
-33.05 23.41 9.35
-19.54 13.84 -0.42
-5.84 4.17 -1.92
-16.01 11.42 0.34
-6.99 4.99 -1.98
-15.76 11.24 1.01
-0.82 0.58 -0.2
-31.5 22.48 3.39
-0.81 0.58 -0.16
-9.48 6.76 1.43
-12.86 9.18 -1.94
-15.13 10.79 2.94
-20.94 14.94 -2.25
-9.57 6.83 2.28
-15.65 11.17 -1.01
-19.59 13.98 -0.42
-27.56 19.67 9.07
-5.84 4.19 -1.93
-15.77 11.33 0.34
-6.97 5.01 -1.98
-15.7 11.28 1.01
-0.82 0.59 -0.2
-16.08 11.56 1.73
-0.81 0.58 -0.16
-16.44 11.82 2.49
-9.36 6.73 -1.42
-9.74 7 1.9
-9.36 6.73 -1.01
-9.51 6.84 2.28
-9.38 6.74 -0.61
-9.57 6.88 2.72
-9.36 6.73 -0.2
-14.56 10.46 4.8
-5.82 4.22 -1.93
-9.31 6.74 0.2
-6.96 5.04 -1.98
-9.34 6.76 0.6
-0.81 0.58 -0.19
-9.42 6.82 1.02
-0.82 0.6 -0.16
-9.45 6.84 1.43
-9.31 6.74 -1.41
-9.33 6.75 -1.01
-9.48 6.86 2.28
-9.33 6.75 -0.6
-9.52 6.89 2.71
-9.33 6.75 -0.2
-14.37 10.4 4.75
-5.81 4.24 -1.93
-6.95 5.07 -1.98
-9.31 6.79 0.6
-9.35 6.82 1.01
-9.4 6.85 1.43
-9.29 6.78 -1.41
-9.4 6.86 1.84
-9.3 6.78 -1.01
-9.44 6.88 2.27
-9.32 6.8 -0.6
-9.48 6.91 2.71
-9.3 6.78 -0.2
-9.46 6.9 3.14
-5.79 4.25 -1.92
-9.28 6.82 0.2
-6.93 5.1 -1.99
-9.3 6.84 0.61
-9.32 6.85 1.01
-0.84 0.61 -0.16
-9.37 6.89 1.43
-9.29 6.83 -1.42
-9.38 6.9 1.84
-9.31 6.84 -1.01
-9.41 6.92 2.27
-9.31 6.84 -0.61
-9.38 6.89 2.69
-9.3 6.83 -0.2
-9.43 6.93 3.14
-5.78 4.28 -1.93
-6.92 5.12 -1.99
-14.99 11.09 0.98
-0.79 0.59 -0.19
-0.8 0.6 -0.16
-12.7 9.4 -1.94
-9.37 6.94 2.69
-19.52 14.45 -0.42
-14.29 10.58 4.76
-5.77 4.3 -1.93
-18.13 13.52 0.39
-6.91 5.15 -1.99
-14.78 11.02 0.97
-20.56 15.32 2.24
-0.8 0.6 -0.16
-31.86 23.75 4.88
-12.64 9.42 -1.94
-20.46 15.25 -2.23
-15.62 11.64 -1.02
-15.93 11.87 -0.35
-14.22 10.6 4.75
-5.76 4.33 -1.93
-14.72 11.05 0.32
-6.91 5.19 -1.99
-15.15 11.38 0.99
-29.31 22.01 3.21
-0.81 0.61 -0.16
-9.28 6.97 1.43
-12.59 9.46 -1.93
-29.11 21.85 5.76
-14.66 11.01 -1.6
-30.87 23.18 7.5
-14.71 11.04 -0.96
-13.7 10.28 3.95
-14.21 10.67 4.76
-5.75 4.35 -1.93
-14.69 11.11 0.32
-6.91 5.23 -2
-15.22 11.51 1
-29.37 22.21 3.22
-0.82 0.62 -0.16
-15.59 11.79 2.4
-12.54 9.49 -1.93
-28.28 21.39 5.62
-15.26 11.54 -1.67
-9.27 7.01 2.26
-15.44 11.67 -1.01
-10.06 7.61 2.91
-14.92 11.28 -0.33
-9.12 6.9 3.06
-5.74 4.37 -1.93
-14.67 11.17 0.32
-6.91 5.26 -2.01
-15.77 12.01 1.73
-0.8 0.61 -0.16
-23.96 18.25 3.7
-12.52 9.54 -1.93
-15.22 11.6 3.03
-14.91 11.36 -1.64
-9.25 7.04 2.26
-14.82 11.29 -0.98
-10.18 7.76 2.95
-14.78 11.26 -0.32
-14.13 10.77 4.76
-5.72 4.39 -1.93
-14.62 11.21 0.32
-6.9 5.29 -2.01
-20.63 15.83 1.36
-15.78 12.1 1.74
-0.79 0.61 -0.16
-14.11 10.83 2.18
-12.49 9.58 -1.93
-28.36 21.76 5.66
-14.5 11.12 -1.6
-27.71 21.26 6.79
-14.59 11.19 -0.96
-16.34 12.53 4.75
-14.65 11.24 -0.32
-9.02 6.92 3.05
-5.71 4.41 -1.93
-15.52 11.99 0.34
-6.87 5.31 -2
-15.61 12.06 1.03
-15.94 12.32 1.76
-14.07 10.87 2.18
-12.46 9.62 -1.93
-21.12 16.32 4.23
-14.52 11.22 -1.61
-20.89 16.14 5.13
-14.61 11.29 -0.97
-16.3 12.59 4.76
-14.48 11.19 -0.32
-13.79 10.66 4.67
-5.7 4.43 -1.93
-15.55 12.1 0.34
-6.85 5.33 -2
-30.8 23.97 2.05
-27.31 21.25 3.03
-9.33 7.26 -1.87
-16.75 13.04 2.61
-12.42 9.67 -1.93
-25.75 20.04 5.17
-14.58 11.35 -1.62
-13.56 10.55 3.34
-14.52 11.3 -0.96
-10.84 8.44 3.17
-14.21 11.06 -0.31
-13.97 10.87 4.74
-5.69 4.46 -1.94
-15.43 12.09 0.34
-6.82 5.35 -2
-27.37 21.46 3.04
-9.27 7.27 -1.87
-15.47 12.13 2.41
-12.38 9.71 -1.93
-30.43 23.85 6.12
-14.38 11.27 -1.6
-13.53 10.61 3.34
-14.27 11.19 -0.95
-10.84 8.5 3.18
-14.2 11.13 -0.32
-13.97 10.95 4.76
-5.66 4.47 -1.93
-6.79 5.36 -2
-15.48 12.22 1.03
-29.04 22.93 3.24
-9.19 7.26 -1.86
-20.47 16.16 3.2
-12.36 9.76 -1.93
-13.64 10.77 2.75
-14.47 11.42 -1.61
-15.86 12.52 3.93
-14.57 11.5 -0.97
-14.46 11.41 -0.32
-13.93 11 4.76
-5.64 4.49 -1.93
-13.85 11.01 0.31
-6.75 5.37 -1.99
-15.58 12.39 1.04
-20.2 16.06 2.26
-9.21 7.32 -1.86
-27.17 21.6 4.26
-12.33 9.8 -1.93
-8.96 7.12 1.81
-15.81 12.57 3.93
-14.1 11.21 -0.94
-13.39 10.65 3.95
-13.82 10.99 -0.31
-13.13 10.44 4.49
-5.63 4.51 -1.93
-15.41 12.35 0.34
-6.71 5.37 -1.98
-30.2 24.19 3.39
-9.2 7.37 -1.87
-17.16 13.74 2.7
-12.29 9.85 -1.93
-8.93 7.15 1.81
-14.18 11.35 -1.59
-13.96 11.18 -0.94
-14.06 11.26 4.16
-13.84 11.08 -0.31
-13.87 11.11 4.76
-5.63 4.54 -1.94
-14.42 11.63 0.32
-6.67 5.38 -1.98
-14.24 11.49 0.96
-30.08 24.26 3.38
-9.16 7.39 -1.86
-13.97 11.27 2.2
-12.24 9.87 -1.93
-14.02 11.31 2.85
-16.5 13.31 -1.86
-14.03 11.32 -0.94
-12.67 10.22 3.76
-13.82 11.15 -0.31
-13.85 11.17 4.77
-5.61 4.56 -1.94
-19.4 15.76 0.44
-6.63 5.38 -1.97
-19.65 15.96 1.33
-13.96 11.34 1.57
-9.08 7.38 -1.85
-16.58 13.46 2.62
-12.2 9.91 -1.93
-13.58 11.03 2.77
-16.53 13.42 -1.86
-13.53 10.98 3.39
-14.17 11.51 -0.96
-13.52 10.98 4.02
-13.89 11.28 -0.31
-13.76 11.17 4.75
-5.59 4.57 -1.93
-20.19 16.51 0.46
-6.6 5.4 -1.97
-16.48 13.48 1.12
-13.95 11.41 1.58
-9.14 7.47 -1.87
-20.02 16.37 3.17
-12.18 9.96 -1.93
-15.62 12.77 3.2
-13.37 10.93 3.36
-13.73 11.23 -0.93
-12.42 10.16 3.71
-18.15 14.84 -0.41
-13.69 11.2 4.74
-5.58 4.6 -1.94
-13.83 11.39 0.31
-6.56 5.4 -1.96
-16.1 13.27 1.09
-16.15 13.3 1.83
-9.04 7.45 -1.85
-16.2 13.34 2.58
-12.14 10 -1.93
-15.56 12.82 3.19
-16.57 13.65 -1.88
-15.62 12.86 3.93
-13.8 11.37 -0.94
-13.5 11.12 4.04
-14 11.53 -0.32
-13.74 11.32 4.77
-5.57 4.62 -1.94
-19 15.76 0.43
-6.52 5.41 -1.95
-16.07 13.33 1.09
-16.04 13.31 1.82
-8.94 7.41 -1.84
-23.78 19.73 3.79
-12.1 10.04 -1.93
-13.5 11.2 2.78
-13.66 11.34 -1.55
-14.03 11.64 3.54
-13.63 11.31 -0.93
-13.48 11.18 4.04
-13.46 11.17 -0.31
-16.03 13.3 5.58
-5.56 4.64 -1.94
-14.96 12.49 0.34
-6.48 5.41 -1.95
-19.84 16.56 1.35
-14.44 12.06 1.65
-8.9 7.43 -1.84
-13.58 11.34 2.17
-12.06 10.07 -1.93
-13.4 11.19 2.76
-17.51 14.62 -2
-13.63 11.38 3.45
-13.94 11.64 -0.95
-12.48 10.42 3.75
-13.44 11.23 -0.31
-13.66 11.4 4.77
-5.55 4.66 -1.94
-20.72 17.42 0.47
-6.45 5.42 -1.94
-14.87 12.51 1.02
-40.74 34.26 4.66
-8.9 7.48 -1.84
-14.94 12.57 2.4
-12.02 10.11 -1.93
-13.89 11.68 2.87
-16.05 13.5 -1.83
-13.73 11.55 3.49
-13.99 11.76 -0.96
-12.69 10.67 3.83
-13.45 11.31 -0.31
-13.52 11.37 4.73
-5.52 4.68 -1.94
-19.61 16.61 0.45
-6.41 5.43 -1.94
-16.7 14.15 1.15
-13.22 11.2 1.52
-8.84 7.49 -1.83
-13.47 11.41 2.17
-11.99 10.16 -1.93
-13.87 11.75 2.88
-13.73 11.63 -1.57
-15.72 13.32 4
-13.22 11.2 -0.91
-13.38 11.34 4.05
-13.94 11.81 -0.32
-13.47 11.41 4.73
-5.51 4.7 -1.94
-19.69 16.8 0.45
-6.38 5.44 -1.94
-16.5 14.08 1.14
-13.2 11.26 1.52
-8.81 7.52 -1.83
-15.31 13.06 2.47
-11.95 10.2 -1.93
-15.34 13.09 3.19
-13.34 11.38 -1.53
-8.4 7.17 2.15
-13.36 11.4 -0.92
-8.55 7.29 2.59
-13.68 11.67 -0.31
-13.5 11.52 4.76
-5.5 4.72 -1.94
-20.26 17.4 0.47
-6.34 5.45 -1.93
-13.15 11.29 0.91
-8.78 7.54 -1.83
-13.83 11.88 2.24
-11.91 10.23 -1.93
-15.36 13.19 3.21
-13.18 11.32 -1.52
-8.4 7.22 2.15
-13.19 11.33 -0.91
-8.48 7.28 2.58
-13.57 11.65 -0.31
-13.49 11.59 4.76
-5.49 4.75 -1.94
-16.15 13.97 0.37
-6.31 5.46 -1.93
-13.09 11.33 0.91
-13.4 11.59 1.55
-8.77 7.59 -1.84
-14.33 12.4 2.33
-11.87 10.26 -1.93
-13.52 11.7 2.83
-13.32 11.52 -1.54
-8.37 7.24 2.15
-13.14 11.37 -0.91
-13.3 11.5 4.06
-13.45 11.64 -0.31
-11.71 10.13 4.15
-5.47 4.77 -1.95
-15.87 13.83 0.37
-6.3 5.49 -1.93
-15.05 13.11 1.05
-13.68 11.92 1.59
-8.76 7.63 -1.84
-13.8 12.02 2.25
-11.83 10.31 -1.93
-13.15 11.46 -1.53
-15.73 13.7 -1.09
-15.78 13.75 -0.37
-11.77 10.25 4.18
-5.45 4.78 -1.94
-13.77 12.08 0.32
-6.25 5.49 -1.92
-13.37 11.73 0.93
-13.79 12.1 1.61
-8.77 7.69 -1.85
-12.89 11.31 2.11
-11.81 10.36 -1.93
-13.42 11.78 2.83
-12.92 11.33 -1.5
-23.03 20.21 5.96
-17.38 15.25 -1.21
-13.23 11.61 4.06
-13.04 11.44 -0.3
-11.68 10.25 4.16
-5.44 4.8 -1.94
-14.82 13.09 0.35
-6.19 5.47 -1.91
-13.39 11.83 0.94
-13.47 11.9 1.57
-8.76 7.74 -1.85
-12.92 11.41 2.12
-11.77 10.4 -1.93
-15.57 13.75 3.29
-12.84 11.34 -1.5
-15.91 14.05 4.13
-12.94 11.42 -0.9
-13.26 11.71 4.08
-13.71 12.11 -0.32
-9.62 8.49 3.44
-5.43 4.83 -1.95
-6.16 5.48 -1.9
-13.78 12.26 0.97
-13.18 11.72 1.54
-8.76 7.79 -1.86
-13.36 11.88 2.19
-11.73 10.44 -1.93
-12.76 11.35 -1.49
-24.16 21.49 6.28
-14.78 13.14 -1.04
-13.23 11.77 4.09
-12.98 11.55 -0.3
-9.61 8.54 3.44
-5.41 4.85 -1.95
-14.82 13.28 0.35
-6.12 5.49 -1.9
-13.68 12.27 0.96
-13.05 11.7 1.53
-8.74 7.84 -1.86
-7.9 7.08 -1.3
-10.37 9.29 2.21
-13.61 12.2 -1.6
-15.46 13.85 4.03
-13.41 12.02 -0.94
-13.2 11.83 4.09
-13.08 11.73 -0.31
-13.16 11.8 4.74
-5.39 4.87 -1.95
-13.59 12.27 0.32
-6.1 5.51 -1.9
-13.08 11.81 0.92
-13.06 11.79 1.54
-7.88 7.11 -1.68
-12.94 11.68 2.14
-7.87 7.1 -1.3
-10.32 9.31 2.2
-12.52 11.3 -1.48
-13.41 12.1 3.51
-12.76 11.52 -0.9
-11.91 10.75 3.7
-12.7 11.46 -0.3
-13.12 11.84 4.73
-5.37 4.88 -1.94
-12.73 11.57 0.3
-12.67 11.51 0.9
-13.22 12.01 1.56
-7.84 7.12 -1.68
-7.82 7.1 -1.3
-10.34 9.39 2.21
-12.44 11.3 -1.47
-12.73 11.56 -0.9
-11.93 10.83 3.72
-15.97 14.5 -0.38
-11.94 10.85 4.32
-5.36 4.9 -1.95
-13.24 12.11 0.31
-13.05 11.94 0.93
-7.79 7.13 -1.67
-12.45 11.39 2.07
-7.78 7.12 -1.3
-13.33 12.19 -1.58
-23.85 21.82 6.28
-12.65 11.57 -0.9
-11.77 10.76 3.68
-13.29 12.16 -0.31
-9.37 8.57 3.4
-5.35 4.93 -1.95
-12.62 11.62 0.3
-13.04 12.01 0.93
-12.61 11.62 1.5
-7.76 7.15 -1.67
-12.4 11.42 2.07
-7.76 7.15 -1.3
-12.45 11.47 -1.48
-8.08 7.44 2.13
-12.58 11.59 -0.9
-11.74 10.81 3.68
-12.7 11.7 -0.3
-12.97 11.94 4.72
-5.33 4.95 -1.95
-12.88 11.95 0.31
-14.17 13.14 1.01
-13.87 12.87 1.66
-7.74 7.18 -1.67
-12.33 11.44 2.06
-7.74 7.18 -1.3
-13.2 12.25 2.85
-12.36 11.47 -1.48
-14.13 13.11 -1.01
-11.85 10.99 3.73
-12.59 11.68 -0.3
-12.19 11.31 4.46
-5.32 4.97 -1.95
-12.91 12.06 0.31
-12.12 11.32 0.87
-12.42 11.6 1.49
-7.72 7.22 -1.67
-12.21 11.41 2.05
-7.71 7.21 -1.3
-10.28 9.6 2.23
-12.52 11.7 -1.5
-10.49 9.8 2.79
-13.16 12.3 -0.94
-8.09 7.55 2.55
-12.65 11.82 -0.3
-12.21 11.4 4.48
-5.3 4.98 -1.95
-6.85 6.44 0.16
-6.85 6.44 0.49
-6.86 6.45 0.82
-7.72 7.26 -1.68
-11.93 11.22 2.01
-7.71 7.25 -1.3
-15.8 14.86 3.43
-16.33 15.36 -1.96
-6.84 6.43 -0.49
-8.06 7.58 2.55
-6.83 6.42 -0.16
-12.03 11.31 4.42
-5.28 5 -1.95
-6.81 6.45 0.16
-6.83 6.47 0.49
-6.86 6.49 0.83
-8.11 7.68 -1.77
-11.9 11.27 2.01
-7.71 7.3 -1.3
-15.9 15.05 3.47
-6.8 6.44 -0.82
-11.85 11.23 3.17
-6.81 6.45 -0.49
-6.81 6.45 -0.16
-12.62 11.95 4.66
-5.27 5.03 -1.95
-6.82 6.5 0.16
-6.84 6.52 0.5
-6.86 6.54 0.83
-8.23 7.85 -1.8
-12.01 11.45 2.04
-7.73 7.37 -1.31
-24.2 23.07 5.3
-6.77 6.46 -0.82
-7.84 7.47 2.1
-6.77 6.46 -0.49
-6.79 6.48 -0.16
-12.77 12.18 4.73
-5.25 5.05 -1.95
-6.82 6.55 0.17
-6.83 6.57 0.5
-6.85 6.58 0.83
-8.22 7.89 -1.8
-11.92 11.45 2.03
-7.71 7.4 -1.31
-14.17 13.61 3.11
-6.79 6.52 -0.82
-7.81 7.5 2.11
-6.78 6.52 -0.49
-14.95 14.36 4.79
-6.8 6.53 -0.16
-12.48 11.99 4.64
-5.25 5.07 -1.96
-6.83 6.61 0.17
-6.84 6.62 0.5
-6.85 6.63 0.83
-8.21 7.94 -1.81
-16.26 15.73 2.78
-6.83 6.6 -1.17
-11.65 11.26 2.57
-6.8 6.58 -0.83
-7.69 7.44 2.08
-6.8 6.57 -0.5
-14.82 14.33 4.76
-6.8 6.57 -0.17
-12.63 12.21 4.71
-5.22 5.08 -1.95
-6.84 6.66 0.17
-6.86 6.68 0.5
-6.88 6.7 0.84
-6.77 6.59 -1.5
-12.28 11.96 2.11
-11.58 11.28 2.56
-6.79 6.61 -0.83
-7.63 7.43 2.07
-6.81 6.63 -0.5
-11.6 11.3 3.74
-6.81 6.63 -0.17
-12.66 12.33 4.73
-5.2 5.1 -1.95
-6.84 6.7 0.17
-6.86 6.72 0.5
-6.89 6.76 0.84
-6.76 6.63 -1.5
-12.46 12.22 2.14
-6.8 6.67 -1.17
-11.49 11.27 2.55
-6.8 6.66 -0.83
-11.56 11.33 3.15
-6.8 6.67 -0.5
-25.64 25.14 8.29
-6.82 6.69 -0.17
-12.61 12.36 4.73
-5.2 5.13 -1.96
-6.84 6.76 0.17
-6.86 6.78 0.51
-6.9 6.81 0.85
-6.75 6.66 -1.5
-12.14 11.99 2.09
-6.79 6.7 -1.17
-11.45 11.31 2.55
-6.81 6.72 -0.84
-7.71 7.61 2.11
-6.8 6.71 -0.5
-7.7 7.61 2.5
-6.82 6.74 -0.17
-12.56 12.4 4.73
-5.18 5.15 -1.96
-6.85 6.81 0.17
-6.86 6.82 0.51
-6.91 6.87 0.85
-12.08 12.01 2.09
-11.05 10.98 -1.91
-12.17 12.1 2.72
-6.81 6.78 -0.84
-7.66 7.61 2.1
-6.81 6.77 -0.5
-7.59 7.54 2.47
-6.83 6.79 -0.17
-10.51 10.45 3.97
-5.16 5.17 -1.96
-6.86 6.87 0.17
-6.87 6.88 0.51
-6.91 6.92 0.86
-8.32 8.33 -1.86
-11.51 11.53 2
-10.99 11.01 -1.91
-11.99 12.01 2.69
-6.81 6.82 -0.84
-7.61 7.62 2.09
-6.82 6.82 -0.51
-7.6 7.61 2.48
-6.84 6.85 -0.17
-10.44 10.46 3.96
-5.14 5.18 -1.96
-6.87 6.92 0.17
-6.88 6.94 0.51
-6.92 6.98 0.86
-8.32 8.38 -1.87
-11.5 11.59 2
-10.92 11.01 -1.9
-24.2 24.4 5.44
-6.83 6.89 -0.51
-7.58 7.65 2.49
-6.85 6.9 -0.17
-10.34 10.43 3.94
-5.12 5.2 -1.96
-8.27 8.4 -1.87
-11.6 11.78 2.03
-10.86 11.03 -1.9
-18.45 18.74 4.17
-11.46 11.64 -1.43
-7.58 7.7 2.1
-6.81 6.92 -0.51
-13.74 13.96 4.52
-10.43 10.59 3.98
-5.11 5.22 -1.96
-11.28 11.54 0.28
-11.57 11.83 0.87
-8.24 8.43 -1.87
-11.46 11.71 2.01
-10.82 11.06 -1.9
-18.38 18.79 4.16
-11.14 11.39 -1.39
-23.4 23.92 6.5
-12.24 12.51 -0.92
-13.65 13.96 4.51
-11.35 11.61 -0.28
-10.49 10.73 4.02
-5.09 5.24 -1.96
-11.26 11.59 0.28
-11.06 11.39 0.83
-11.11 11.44 1.4
-8.22 8.47 -1.87
-11.41 11.75 2.01
-10.77 11.09 -1.9
-18.28 18.82 4.16
-11.03 11.36 -1.39
-23.34 24.04 6.51
-11.29 11.62 -0.28
-10.36 10.67 3.99
-5.07 5.26 -1.96
-15.9 16.49 0.4
-11.05 11.45 0.83
-11.33 11.75 1.43
-8.2 8.5 -1.87
-18.05 18.71 3.19
-10.72 11.11 -1.9
-23.19 24.04 5.29
-11 11.41 -1.39
-10.98 11.39 -0.83
-13.22 13.71 4.4
-11.13 11.54 -0.28
-10.27 10.65 3.97
-5.06 5.28 -1.96
-11.15 11.64 0.28
-11.04 11.52 0.84
-11.12 11.61 1.41
-8.16 8.52 -1.87
-23.06 24.07 4.09
-10.67 11.14 -1.89
-23.07 24.08 5.28
-10.94 11.43 -1.38
-12.93 13.5 3.63
-10.97 11.45 -0.83
-22.55 23.54 7.53
-11.1 11.59 -0.28
-10.39 10.84 4.02
-5.04 5.3 -1.96
-11.09 11.65 0.28
-11.02 11.58 0.84
-10.98 11.54 1.39
-8.12 8.54 -1.87
-16.51 17.35 2.94
-10.65 11.19 -1.9
-16.55 17.39 3.8
-10.93 11.49 -1.39
-12.86 13.51 3.63
-10.99 11.55 -0.84
-13.09 13.76 4.38
-10.99 11.55 -0.28
-10.32 10.84 4.01
-5.03 5.33 -1.96
-10.94 11.58 0.28
-10.9 11.53 0.83
-10.86 11.49 1.38
-8.09 8.57 -1.87
-11.43 12.1 2.04
-10.57 11.19 -1.89
-10.9 11.53 -1.39
-22.53 23.85 6.38
-10.98 11.62 -0.84
-12.42 13.14 4.17
-10.96 11.6 -0.28
-10.51 11.13 4.1
-10.89 11.6 0.28
-10.89 11.61 0.83
-10.82 11.53 1.38
-8.06 8.59 -1.87
-10.99 11.71 1.97
-10.55 11.24 -1.89
-10.76 11.47 -1.38
-16.45 17.54 4.67
-10.96 11.68 -0.84
-16.43 17.51 5.54
-11.02 11.74 -0.28
-11.87 12.65 4.65
-10.81 11.6 0.28
-10.82 11.61 0.83
-10.76 11.54 1.38
-8.03 8.62 -1.87
-10.92 11.71 1.97
-10.49 11.25 -1.89
-16.32 17.5 3.79
-10.6 11.38 -1.36
-12.58 13.49 3.59
-10.75 11.54 -0.83
-11 11.8 3.73
-10.79 11.58 -0.28
-10.7 11.56 0.83
-8.01 8.65 -1.87
-10.91 11.78 1.97
-10.41 11.24 -1.88
-16.24 17.54 3.79
-10.58 11.43 -1.36
-12.51 13.51 3.58
-10.76 11.62 -0.83
-10.94 11.81 3.72
-10.75 11.61 -0.28
-11.68 12.62 4.61
-4.96 5.39 -1.96
-10.81 11.76 0.28
-10.66 11.6 0.83
-16.11 17.52 2.08
-7.97 8.67 -1.86
-10.76 11.71 1.95
-10.35 11.25 -1.88
-10.42 11.33 2.44
-10.61 11.54 -1.37
-12.41 13.5 3.56
-10.85 11.81 -0.84
-10.96 11.92 3.74
-10.72 11.66 -0.28
-11.67 12.7 4.62
-4.96 5.43 -1.97
-10.63 11.65 0.28
-10.57 11.57 0.82
-22.79 24.97 2.96
-7.93 8.69 -1.86
-10.31 11.29 -1.88
-23.07 25.27 5.42
-10.48 11.48 -1.36
-10.59 11.6 -0.82
-23.42 25.65 8.02
-10.6 11.61 -0.27
-23.4 25.63 9.3
-4.94 5.45 -1.97
-10.54 11.63 0.27
-10.54 11.62 0.82
-22.69 25.04 2.96
-7.91 8.72 -1.87
-10.52 11.6 1.92
-10.22 11.27 -1.87
-23.02 25.4 5.43
-10.43 11.51 -1.36
-38.18 42.12 11.05
-10.64 11.74 -0.83
-10.82 11.94 3.72
-10.62 11.71 -0.28
-11.74 12.95 4.68
-4.93 5.48 -1.98
-10.53 11.7 0.27
-10.52 11.68 0.82
-10.5 11.66 1.37
-7.88 8.76 -1.87
-10.31 11.45 1.89
-10.11 11.24 -1.86
-37.89 42.09 8.97
-10.56 11.73 -0.83
-11.11 12.35 3.84
-10.6 11.78 -0.28
-11.71 13.01 4.69
-4.91 5.5 -1.97
-10.49 11.74 0.27
-10.46 11.7 0.82
-10.53 11.78 1.38
-7.84 8.78 -1.86
-22.45 25.12 4.14
-10.06 11.25 -1.85
-11.63 13.01 2.76
-10.3 11.53 -1.35
-20.24 22.64 5.9
-10.34 11.57 -0.81
-10.71 11.98 3.71
-10.58 11.83 -0.28
-11.43 12.79 4.6
-4.89 5.51 -1.97
-10.45 11.77 0.27
-10.53 11.87 0.83
-10.13 11.41 1.34
-7.81 8.8 -1.86
-10.32 11.63 1.91
-10.04 11.31 -1.86
-11.59 13.05 2.76
-10.24 11.54 -1.35
-37.47 42.22 10.97
-10.65 12 -0.84
-10.6 11.94 3.69
-15.65 17.63 -0.41
-11.62 13.09 4.69
-4.88 5.54 -1.98
-10.35 11.74 0.27
-10.06 11.42 0.8
-7.78 8.83 -1.86
-10.25 11.63 1.9
-9.99 11.34 -1.86
-11.55 13.1 2.77
-10.21 11.59 -1.35
-9.57 10.86 2.81
-10.67 12.1 -0.85
-9.78 11.1 3.42
-10.15 11.52 -0.27
-11.59 13.15 4.7
-4.86 5.55 -1.98
-10.34 11.82 0.82
-10.99 12.56 1.46
-7.75 8.86 -1.86
-9.93 11.34 1.85
-9.92 11.33 -1.85
-11.51 13.15 2.77
-10.17 11.62 -1.35
-11.59 13.24 3.42
-10.65 12.17 -0.85
-9.7 11.09 3.4
-10.4 11.88 -0.28
-11.56 13.21 4.71
-4.85 5.58 -1.98
-15.45 17.78 0.41
-10.11 11.64 0.81
-10.89 12.54 1.45
-7.72 8.89 -1.86
-11.24 12.93 2.1
-9.83 11.31 -1.84
-11.51 13.24 2.78
-10.09 11.61 -1.35
-11.51 13.24 3.41
-10.19 11.73 -0.81
-10.53 12.12 3.71
-10.34 11.9 -0.28
-11.55 13.29 4.72
-4.82 5.58 -1.98
-10.06 11.66 0.27
-10.09 11.69 0.81
-10.14 11.75 1.36
-7.69 8.91 -1.86
-11.2 12.98 2.1
-9.77 11.32 -1.84
-11.52 13.36 2.79
-10.27 11.91 -1.38
-11.42 13.24 3.4
-10.12 11.73 -0.81
-10.59 12.28 3.74
-9.91 11.49 -0.26
-36.5 42.3 14.97
-4.8 5.61 -1.98
-10 11.68 0.27
-10.07 11.75 0.81
-10.16 11.85 1.37
-7.65 8.92 -1.86
-36.12 42.15 6.82
-9.76 11.39 -1.84
-11.42 13.33 2.78
-10.12 11.81 -1.36
-11.34 13.24 3.39
-10.54 12.3 3.74
-10.09 11.78 -0.27
-4.78 5.62 -1.98
-9.99 11.75 0.27
-9.89 11.62 0.8
-10.46 12.3 1.41
-7.61 8.95 -1.86
-11.44 13.45 2.17
-9.64 11.33 -1.83
-11.36 13.35 2.78
-9.95 11.69 -1.34
-11.28 13.26 3.38
-9.87 11.61 -0.8
-11.38 13.38 4.05
-9.96 11.7 -0.27
-35.99 42.3 14.88
-4.76 5.63 -1.97
-10.15 12.01 0.27
-10.32 12.22 1.4
-7.58 8.97 -1.86
-11.38 13.47 2.17
-9.54 11.29 -1.81
-11.3 13.38 2.77
-9.91 11.73 -1.34
-11.24 13.3 3.38
-9.89 11.7 -0.8
-10.88 12.87 3.89
-9.9 11.71 -0.27
-4.73 5.64 -1.97
-9.87 11.76 0.27
-9.8 11.68 0.8
-10.34 12.32 1.41
-7.55 9 -1.86
-11.32 13.49 2.16
-9.48 11.3 -1.81
-11.26 13.41 2.77
-9.86 11.75 -1.34
-11.23 13.38 3.39
-10 11.92 -0.82
-10.78 12.84 3.87
-9.89 11.79 -0.27
-35.41 42.19 14.76
-4.7 5.64 -1.97
-9.79 11.76 0.27
-12.67 15.21 1.04
-10.35 12.43 1.42
-7.52 9.03 -1.86
-11.26 13.51 2.16
-9.54 11.45 -1.83
-11.22 13.47 2.78
-9.93 11.92 -1.36
-11.21 13.46 3.41
-9.71 11.65 -0.79
-10.82 12.99 3.9
-10 12 -0.27
-35.15 42.19 14.72
-4.67 5.64 -1.96
-9.71 11.74 0.27
-11.36 13.73 0.93
-11.24 13.59 1.54
-7.48 9.04 -1.86
-11.21 13.55 2.16
-9.53 11.52 -1.84
-11.21 13.55 2.78
-9.78 11.82 -1.34
-11.16 13.49 3.4
-9.74 11.77 -0.8
-10.67 12.9 3.87
-10.11 12.22 -0.28
-34.91 42.2 14.67
-4.65 5.66 -1.96
-9.67 11.77 0.27
-11.26 13.71 0.93
-10.14 12.35 1.4
-7.45 9.07 -1.86
-11.17 13.6 2.16
-9.91 12.06 -1.92
-9.57 11.65 -1.32
-17.91 21.8 5.48
-9.69 11.8 -0.8
-10.48 12.76 3.81
-10.01 12.19 -0.28
-34.69 42.23 14.64
-4.62 5.66 -1.96
-9.66 11.84 0.27
-11.18 13.71 0.93
-10.43 12.78 1.44
-7.41 9.09 -1.86
-11.15 13.67 2.17
-9.4 11.52 -1.83
-34.35 42.12 8.61
-9.58 11.75 -1.33
-9.74 11.94 -0.81
-10.37 12.72 3.79
-10.05 12.32 -0.28
-10.09 12.37 4.28
-4.6 5.68 -1.96
-9.56 11.8 0.27
-9.53 11.77 0.79
-11.15 13.77 1.55
-7.39 9.12 -1.86
-9.42 11.64 -1.84
-34.1 42.11 8.58
-9.5 11.73 -1.32
-9.63 11.89 -0.8
-10.35 12.78 3.8
-9.37 11.57 -0.26
-10.01 12.36 4.26
-4.56 5.67 -1.95
-9.59 11.93 0.27
-11.08 13.78 0.93
-11.14 13.86 1.56
-7.34 9.13 -1.86
-10.66 13.26 2.09
-9.49 11.8 -1.86
-33.86 42.12 8.56
-9.73 12.1 -1.36
-9.65 12 -0.81
-9.34 11.62 -0.26
-9.94 12.36 4.25
-4.53 5.67 -1.95
-9.49 11.89 0.27
-10.29 12.89 0.86
-5.99 7.5 -1.87
-9.83 12.31 1.38
-7.3 9.15 -1.85
-32.17 40.29 6.33
-9.24 11.57 -1.82
-33.64 42.13 8.54
-9.57 11.99 -1.34
-18.09 22.66 5.64
-9.65 12.09 -0.81
-32.32 40.48 11.96
-10.47 13.11 -0.29
-9.71 12.16 4.17
-4.51 5.68 -1.94
-11.03 13.91 0.31
-10.42 13.14 0.88
-5.96 7.52 -1.86
-14.8 18.66 2.08
-7.27 9.17 -1.85
-31.99 40.35 6.32
-9.3 11.73 -1.84
-33.46 42.2 8.53
-10.18 12.83 -1.43
-11.11 14.01 -0.94
-9 11.35 3.34
-9.29 11.71 -0.26
-4.48 5.7 -1.94
-10.99 13.97 0.31
-11.05 14.03 0.94
-5.94 7.54 -1.87
-9.6 12.2 1.36
-7.24 9.2 -1.85
-9.85 12.51 1.95
-9.26 11.76 -1.84
-33.16 42.12 8.49
-9.18 11.66 -1.3
-33.19 42.16 10.43
-11.05 14.03 -0.94
-20 25.41 7.47
-11.02 14 -0.31
-9.69 12.31 4.2
-4.46 5.71 -1.94
-9.81 12.55 0.28
-13.95 17.85 1.19
-5.89 7.54 -1.86
-9.45 12.1 1.34
-7.21 9.22 -1.85
-9.8 12.54 1.95
-9.23 11.81 -1.84
-32.17 41.16 8.27
-9.12 11.67 -1.3
-32.21 41.21 10.17
-9.21 11.79 -0.78
-31.65 40.5 11.87
-9.19 11.76 -0.26
-9.64 12.34 4.19
-9.75 12.57 0.28
-9.87 12.73 0.84
-5.87 7.56 -1.86
-9.26 11.94 1.32
-7.17 9.25 -1.85
-31.32 40.37 6.27
-9.19 11.85 -1.84
-32.08 41.34 8.29
-9.56 12.31 -1.36
-32.04 41.29 10.16
-9.28 11.96 -0.79
-31.44 40.52 11.84
-9.11 11.75 -0.26
-9.73 12.64 0.84
-5.84 7.58 -1.86
-9.12 11.84 1.31
-7.13 9.26 -1.85
-31.09 40.35 6.25
-9.11 11.82 -1.83
-32.07 41.63 8.32
-10.94 14.2 -1.57
-31.9 41.41 10.16
-9.26 12.02 -0.79
-31.22 40.52 11.81
-10.92 14.18 -0.31
-10.06 13.05 4.42
-9.03 11.81 0.26
-5.81 7.6 -1.86
-9.02 11.79 1.3
-7.1 9.28 -1.85
-30.87 40.36 6.24
-8.94 11.69 -1.81
-32.07 41.93 8.36
-10.91 14.27 -1.57
-30.96 40.48 9.91
-9.35 12.22 -0.81
-9.7 12.68 3.69
-8.96 11.71 -0.26
-21.43 28.02 9.45
-9.23 12.16 0.27
-5.78 7.61 -1.86
-7.07 9.31 -1.85
-9.65 12.7 1.96
-8.92 11.75 -1.81
-19.44 25.6 5.09
-9.11 11.99 -1.32
-9.61 12.66 3.09
-9.36 12.33 -0.81
-9.66 12.73 3.69
-9.27 12.21 -0.27
-9.87 13 4.38
-4.32 5.74 -1.93
-9.05 12 0.26
-8.98 11.92 0.78
-5.75 7.63 -1.86
-8.89 11.8 1.29
-7.03 9.32 -1.85
-30.41 40.34 6.2
-8.89 11.8 -1.81
-9.05 12 -1.31
-9.62 12.77 3.11
-9.1 12.07 -0.79
-9.61 12.75 3.69
-8.94 11.85 -0.26
-9.6 12.73 4.27
-4.29 5.73 -1.92
-9.39 12.55 0.27
-9.1 12.16 0.8
-5.72 7.65 -1.86
-8.73 11.66 1.27
-7 9.35 -1.85
-30.22 40.38 6.19
-8.88 11.87 -1.82
-8.8 11.77 2.33
-9.03 12.06 -1.32
-9.07 12.12 -0.79
-9.62 12.86 3.71
-8.91 11.91 -0.26
-20.34 27.18 9.1
-9.49 12.77 0.28
-8.83 11.88 0.78
-5.69 7.66 -1.86
-17.23 23.19 2.53
-6.96 9.36 -1.85
-20.15 27.13 4.15
-8.79 11.83 -1.81
-8.76 11.79 2.33
-8.98 12.09 -1.32
-20.21 27.2 6.59
-9.02 12.14 -0.79
-20.25 27.26 7.84
-8.92 12.01 -0.26
-18.37 24.72 8.25
-8.69 11.78 0.26
-8.7 11.8 0.77
-5.67 7.68 -1.86
-9.38 12.71 1.38
-6.92 9.38 -1.85
-13.82 18.74 2.86
-8.75 11.87 -1.81
-9.02 12.23 2.41
-8.77 11.89 -1.29
-20.14 27.31 6.6
-8.92 12.09 -0.79
-20.19 27.38 7.85
-8.81 11.94 -0.26
-14.46 19.61 6.53
-8.81 12.02 0.26
-8.64 11.8 0.77
-5.63 7.69 -1.85
-8.65 11.81 1.28
-6.89 9.4 -1.85
-8.56 11.68 1.78
-8.71 11.89 -1.81
-17.89 24.43 4.8
-8.78 11.99 -1.3
-20.23 27.62 6.65
-8.72 11.9 -0.77
-11.51 15.71 4.5
-8.75 11.94 -0.26
-14.4 19.66 6.53
-12.76 17.56 0.38
-8.64 11.88 0.77
-5.58 7.67 -1.84
-8.61 11.84 1.28
-6.86 9.43 -1.85
-13.67 18.8 2.85
-8.66 11.91 -1.81
-17.84 24.54 4.8
-8.64 11.88 -1.29
-18.13 24.94 5.99
-8.68 11.94 -0.77
-10.06 13.84 3.95
-8.6 11.83 -0.26
-14.33 19.71 6.53
-15.03 20.82 0.45
-8.58 11.88 0.77
-5.55 7.69 -1.84
-12.21 16.91 1.83
-6.82 9.45 -1.85
-13.45 18.63 2.82
-8.7 12.05 -1.82
-19.54 27.08 5.29
-8.64 11.97 -1.29
-17.94 24.86 5.96
-8.63 11.96 -0.77
-13.88 19.23 5.48
-9.53 13.21 -0.28
-16.41 22.73 7.51
-5.66 7.91 0.17
-5.7 7.96 0.51
-5.53 7.72 -1.85
-5.7 7.95 0.86
-5.69 7.94 1.2
-5.66 7.9 -1.19
-5.71 7.97 1.55
-5.65 7.89 -0.85
-5.7 7.96 1.9
-5.72 7.98 2.27
-5.69 7.94 -0.17
-5.71 7.97 2.63
-5.65 7.94 0.51
-5.54 7.79 -1.86
-5.66 7.95 0.85
-5.6 7.88 -1.53
-5.65 7.95 1.2
-5.62 7.91 -1.19
-5.67 7.97 1.55
-5.62 7.91 -0.85
-5.66 7.96 1.9
-5.64 7.93 -0.51
-5.68 7.99 2.26
-5.64 7.93 -0.17
-5.68 7.99 2.63
-5.62 7.96 0.51
-5.47 7.75 -1.85
-5.59 7.92 -1.53
-9.14 12.95 1.95
-5.61 7.94 -1.19
-13.59 19.25 3.73
-5.62 7.96 -0.85
-8.23 11.66 2.77
-8.18 11.59 -0.74
-13.67 19.37 5.47
-13.74 19.46 6.38
-8.34 11.9 0.25
-13.48 19.24 1.23
-5.45 7.78 -1.85
-12.78 18.24 1.95
-6.68 9.53 -1.84
-13.52 19.3 2.89
-8.35 11.91 -1.79
-13.43 19.17 3.71
-8.33 11.89 -1.27
-8.14 11.62 2.76
-8.17 11.65 -0.75
-9.02 12.87 3.63
-13.49 19.25 -0.41
-16.3 23.26 7.61
-13.44 19.33 0.41
-13.42 19.29 1.23
-8.26 11.87 1.27
-6.64 9.55 -1.84
-13.45 19.34 2.89
-8.35 12 -1.8
-13.45 19.34 3.73
-8.35 12 -1.28
-12.62 18.14 4.3
-8.44 12.14 -0.77
-8.96 12.88 3.62
-8.39 12.06 -0.26
-16.59 23.86 7.79
-13.39 19.4 0.41
-13.37 19.37 1.23
-13.23 19.17 2.04
-6.61 9.57 -1.84
-13.43 19.45 2.9
-8.32 12.05 -1.8
-11.24 16.29 3.13
-8.23 11.92 -1.27
-7.95 11.52 2.72
-8.11 11.75 -0.75
-7.81 11.31 3.17
-9.33 13.51 4.4
-12.4 18.1 0.38
-16.67 24.33 1.55
-11.75 17.15 1.82
-6.57 9.59 -1.84
-16.58 24.2 3.6
-8.25 12.05 -1.79
-11.14 16.25 3.12
-8.15 11.9 -1.26
-7.93 11.57 2.73
-8.33 12.16 -0.77
-7.78 11.35 3.18
-8.16 11.91 -0.25
-9.29 13.55 4.4
-9.32 13.7 0.29
-9.58 14.07 0.89
-8.1 11.91 1.26
-6.54 9.61 -1.84
-16.41 24.12 3.58
-8.14 11.97 -1.78
-8 11.75 2.25
-8.11 11.92 -1.26
-7.89 11.6 2.73
-8.14 11.96 -0.76
-15.49 22.77 6.36
-8.04 11.81 -0.25
-16.26 23.9 7.75
-13.75 20.37 0.43
-8.02 11.88 0.75
-10.7 15.85 1.67
-6.5 9.63 -1.84
-13.09 19.38 2.87
-8.14 12.05 -1.79
-13.05 19.33 3.69
-8.08 11.97 -1.26
-7.86 11.63 2.73
-8.1 11.99 -0.76
-15.41 22.82 6.36
-10.73 15.89 -0.33
-16.93 25.08 8.11
-10.68 15.93 0.33
-10.7 15.96 1.01
-11.68 17.43 1.84
-6.47 9.65 -1.84
-16.14 24.07 3.56
-8.12 12.11 -1.79
-12.2 18.2 3.47
-8.08 12.06 -1.27
-10.49 15.65 3.66
-8.24 12.29 -0.78
-7.46 11.13 3.09
-9.01 13.43 -0.28
-12.17 18.16 5.86
-8.53 12.82 0.27
-10.68 16.05 1.01
-10.73 16.12 1.69
-6.43 9.66 -1.84
-10.71 16.09 2.37
-8.06 12.11 -1.79
-10.45 15.7 2.99
-8 12.03 -1.26
-8.25 12.4 2.9
-8.15 12.25 -0.77
-7.43 11.17 3.1
-8.03 12.07 -0.25
-15.99 24.03 7.74
-11.72 17.76 0.37
-9.14 13.85 0.87
-7.82 11.84 1.24
-6.39 9.68 -1.84
-11.21 16.98 2.5
-7.98 12.08 -1.78
-10.64 16.12 3.06
-7.99 12.11 -1.27
-15.98 24.21 5.64
-10.03 15.19 -0.95
-7.43 11.26 3.12
-7.76 11.75 -0.25
-10.65 16.14 5.18
-9.21 14.05 0.29
-7.71 11.77 0.74
-7.77 11.87 1.24
-6.36 9.7 -1.84
-10.34 15.78 2.32
-7.92 12.09 -1.77
-11.95 18.25 3.46
-7.94 12.12 -1.27
-10.57 16.13 3.75
-8.69 13.27 -0.83
-10.58 16.15 4.46
-7.78 11.88 -0.25
-10.56 16.12 5.16
-7.67 11.8 0.25
-7.73 11.88 0.74
-12.44 19.12 2
-6.33 9.73 -1.84
-10.29 15.82 2.32
-7.88 12.12 -1.77
-11.78 18.12 3.42
-7.74 11.9 -1.24
-7.93 12.2 2.83
-16.12 24.78 -1.55
-12.58 19.34 5.33
-7.76 11.92 -0.25
-7.83 12.04 3.85
-7.64 11.83 0.25
-17.7 27.42 1.71
-7.7 11.92 1.24
-6.29 9.74 -1.84
-10.89 16.88 2.47
-7.87 12.19 -1.78
-11.94 18.49 3.49
-7.67 11.88 -1.24
-7.92 12.27 2.84
-7.62 11.81 -0.74
-7.33 11.36 3.12
-7.71 11.94 -0.25
-7.75 12.01 3.83
-7.55 11.79 0.24
-7.73 12.07 0.75
-7.64 11.94 1.24
-6.25 9.76 -1.83
-10.79 16.85 2.46
-7.82 12.21 -1.78
-12.02 18.78 3.53
-7.57 11.82 -1.23
-12.11 18.91 4.36
-7.6 11.87 -0.74
-7.3 11.39 3.12
-7.64 11.93 -0.25
-8.52 13.31 4.23
-7.45 11.73 0.24
-8.22 12.93 0.8
-7.59 11.95 1.24
-6.22 9.78 -1.84
-11.2 17.63 2.56
-7.67 12.07 -1.76
-7.51 11.82 2.22
-7.63 12 -1.24
-12.05 18.97 4.37
-7.9 12.44 -0.77
-10.71 16.85 4.61
-7.59 11.95 -0.25
-8.46 13.31 4.23
-7.41 11.76 0.24
-7.58 12.02 0.74
-5.06 8.03 -1.84
-12.14 19.25 1.99
-6.18 9.8 -1.83
-11.19 17.75 2.58
-7.89 12.51 -1.82
-7.55 11.97 2.24
-7.98 12.66 -1.31
-7.72 12.24 2.81
-7.41 11.76 -0.73
-7.25 11.5 3.14
-7.47 11.85 -0.24
-8.42 13.36 4.23
-7.42 11.86 0.24
-11.5 18.38 1.14
-7.41 11.84 1.22
-6.14 9.82 -1.83
-10.67 17.05 2.47
-7.48 11.96 2.23
-7.96 12.73 -1.31
-7.05 11.27 2.58
-7.38 11.8 -0.73
-7.19 11.49 3.13
-7.54 12.06 -0.25
-8.38 13.4 4.23
-7.38 11.89 0.24
-7.39 11.91 0.73
-7.28 11.73 1.21
-6.11 9.84 -1.83
-7.48 12.05 1.74
-7.44 11.98 -1.73
-7.56 12.19 2.27
-7.53 12.13 -1.25
-6.99 11.26 2.58
-7.53 12.12 -0.75
-7.13 11.49 3.12
-7.44 11.99 -0.25
-7.44 12.08 0.25
-7.41 12.02 0.74
-7.24 11.75 1.21
-6.07 9.85 -1.83
-12.49 20.29 2.93
-7.3 11.86 -1.71
-11.8 19.17 3.57
-7.46 12.11 -1.24
-9.57 15.54 3.55
-7.01 11.38 3.09
-7.4 12.01 -0.25
-11.38 18.48 5.82
-8.85 14.48 0.3
-7.36 12.04 0.74
-7.23 11.82 1.21
-6.03 9.87 -1.83
-12.42 20.32 2.92
-7.31 11.96 -1.72
-12.01 19.65 3.65
-7.43 12.15 -1.25
-6.93 11.34 2.58
-7.58 12.4 -0.76
-7.03 11.5 3.11
-7.48 12.24 -0.25
-11.34 18.54 5.82
-7.25 11.95 0.24
-7.53 12.42 0.76
-11.48 18.93 1.94
-6 9.88 -1.83
-15.94 26.28 3.77
-7.29 12.02 -1.73
-12.5 20.61 3.82
-7.32 12.06 -1.23
-6.88 11.34 2.58
-6.97 11.49 3.1
-7.32 12.08 -0.25
-12.52 20.64 6.47
-7.33 12.19 0.25
-7.49 12.44 0.76
-4.88 8.12 -1.84
-7.17 11.91 1.22
-5.96 9.91 -1.83
-12.2 20.27 2.9
-7.23 12.01 -1.72
-7.4 12.29 2.27
-6.95 11.54 2.62
-14.87 24.7 -1.51
-12.82 21.31 5.74
-7.28 12.1 -0.25
-12.46 20.7 6.47
-7.29 12.2 0.25
-7.58 12.69 0.77
-4.85 8.12 -1.84
-7.14 11.95 1.22
-5.92 9.92 -1.83
-7.38 12.37 1.77
-7.21 12.08 -1.73
-7.21 12.08 -1.23
-6.89 11.54 2.61
-8.15 13.65 -0.83
-7.26 12.16 3.27
-7.18 12.02 -0.24
-18.4 30.81 9.62
-7.16 12.08 0.25
-7.46 12.59 0.77
-4.82 8.13 -1.84
-7.1 11.98 1.22
-5.88 9.92 -1.83
-7.35 12.41 1.77
-7.1 11.99 -1.71
-10.97 18.52 3.41
-7.14 12.04 -1.22
-6.87 11.59 2.62
-7.19 12.14 -0.74
-7.21 12.17 3.27
-7.16 12.09 -0.25
-15.27 25.77 8.03
-7.14 12.15 0.25
-7.39 12.57 0.76
-4.79 8.15 -1.84
-7.13 12.12 1.23
-5.84 9.94 -1.83
-11.73 19.95 2.84
-7.15 12.16 -1.73
-10.88 18.5 3.4
-7.02 11.94 -1.21
-7.12 12.11 2.73
-7.21 12.27 -0.75
-6.71 11.41 3.06
-7.12 12.12 -0.25
-12.28 20.89 6.49
-7.32 12.55 0.25
-7.24 12.41 0.75
-4.76 8.17 -1.84
-7.13 12.22 1.24
-5.8 9.96 -1.83
-10.91 18.72 2.66
-7.11 12.2 -1.73
-7.99 13.7 2.51
-7 12.02 -1.22
-7.08 12.15 2.73
-10.05 17.24 4.61
-7.42 12.73 -0.26
-11.66 20 6.2
-4.72 8.17 -1.83
-5.77 9.98 -1.83
-10.25 17.72 2.51
-7.11 12.3 -1.74
-7.29 12.6 2.31
-7.14 12.35 -1.25
-6.59 11.4 2.56
-7.35 12.72 -0.77
-10.91 18.86 5.03
-11.6 20.06 6.21
-4.7 8.19 -1.83
-7.88 13.74 1.39
-5.74 10 -1.83
-7 12.19 1.73
-7.02 12.24 -1.73
-8.01 13.97 2.55
-6.87 11.97 -1.21
-7.11 12.39 2.78
-6.92 12.06 -0.73
-6.94 12.09 3.22
-7.05 12.28 -0.25
-9.07 15.8 4.88
-6.96 12.23 0.25
-7.79 13.69 0.83
-4.67 8.2 -1.83
-25.4 44.62 4.49
-5.71 10.02 -1.83
-11.48 20.16 2.85
-7 12.3 -1.74
-7.97 13.99 2.55
-6.95 12.2 -1.23
-6.73 11.83 2.64
-6.8 11.95 -0.72
-9.03 15.86 4.21
-6.99 12.28 -0.25
-9.03 15.87 4.89
-6.87 12.17 0.24
-10.11 17.91 1.08
-4.64 8.21 -1.83
-7.08 12.55 1.26
-5.66 10.03 -1.82
-8.84 15.65 2.21
-6.96 12.32 -1.74
-12.21 21.63 3.93
-6.84 12.12 -1.22
-12.3 21.79 4.86
-7.3 12.92 -0.78
-6.87 12.17 3.23
-6.95 12.31 -0.25
-9.01 15.95 4.91
-6.73 12.02 0.24
-10.07 17.98 1.08
-4.6 8.22 -1.83
-7.02 12.53 1.26
-5.63 10.05 -1.82
-9.96 17.79 2.5
-6.83 12.19 -1.72
-11.37 20.3 3.69
-6.91 12.33 -1.24
-11.88 21.22 4.73
-7.08 12.64 -0.76
-11.44 20.42 5.4
-11.48 20.51 6.3
-6.62 11.92 0.24
-6.86 12.35 0.74
-4.57 8.23 -1.83
-7.05 12.69 1.27
-5.6 10.07 -1.83
-11.36 20.44 2.87
-6.78 12.2 -1.71
-11.46 20.62 3.74
-7.06 12.71 -1.27
-8.74 15.72 3.5
-6.91 12.43 -0.75
-6.73 12.12 3.2
-6.89 12.4 -0.25
-11.43 20.56 6.3
-6.61 11.99 0.24
-11.27 20.45 1.22
-4.54 8.24 -1.83
-6.94 12.59 1.26
-5.56 10.1 -1.83
-11.22 20.36 2.85
-6.89 12.51 -1.75
-11.3 20.5 3.71
-6.65 12.07 -1.21
-9.09 16.49 3.66
-6.91 12.53 -0.75
-11.3 20.51 5.41
-6.63 12.04 -0.24
-6.69 12.14 3.72
-6.58 12.03 0.24
-11.18 20.45 1.22
-4.52 8.26 -1.83
-6.9 12.62 1.26
-5.52 10.1 -1.82
-7.07 12.92 -1.81
-8.78 16.05 2.9
-11.08 20.26 -2.02
-8.74 15.99 3.54
-6.71 12.28 -0.73
-8.77 16.03 4.22
-6.63 12.12 -0.24
-8.79 16.07 4.91
-6.54 12.06 0.24
-9.88 18.23 1.09
-4.48 8.27 -1.83
-8.79 16.21 1.61
-5.49 10.12 -1.82
-8.73 16.1 2.25
-10.23 18.87 3.4
-6.76 12.47 -1.24
-11.62 21.43 4.74
-6.72 12.39 -0.74
-11.11 20.49 5.38
-6.43 11.86 -0.24
-8.03 14.8 4.51
-7.9 14.69 0.29
-8.33 15.49 0.92
-4.45 8.28 -1.83
-8.69 16.17 1.61
-5.45 10.13 -1.82
-8.66 16.12 2.25
-6.7 12.46 -1.74
-10.11 18.81 3.38
-8.9 16.56 -1.64
-7.72 14.36 3.17
-6.7 12.47 -0.74
-11.04 20.54 5.38
-6.39 11.89 -0.24
-6.41 11.93 3.63
-8 15.02 0.3
-7.27 13.64 0.81
-4.42 8.29 -1.83
-6.33 11.87 1.18
-5.41 10.15 -1.82
-11.15 20.91 2.91
-6.3 11.81 -1.64
-10.14 19.02 3.41
-8.09 15.17 -1.5
-6.46 12.12 2.67
-6.71 12.58 -0.75
-6.4 12 3.14
-6.33 11.88 -0.23
-5.99 11.24 3.41
-6.56 12.42 0.25
-8.29 15.69 0.93
-4.39 8.31 -1.83
-6.27 11.86 1.17
-5.37 10.16 -1.82
-14.26 26.98 3.75
-7.02 13.27 -1.84
-10.05 19.02 3.41
-6.66 12.6 -1.25
-6.45 12.2 2.68
-6.3 11.92 -0.71
-10.81 20.46 5.34
-6.84 12.94 -0.26
-10.75 20.34 6.16
-6.51 12.41 0.24
-9.71 18.53 1.1
-4.36 8.32 -1.83
-6.62 12.62 1.25
-5.33 10.16 -1.82
-9.8 18.69 2.59
-6.86 13.09 -1.81
-6.66 12.7 2.27
-6.25 11.93 -1.18
-11.15 21.27 4.67
-7.35 14.01 -0.83
-7.13 13.59 3.54
-6.26 11.94 -0.24
-5.88 11.21 3.39
-6.44 12.38 0.24
-9.6 18.47 1.09
-4.33 8.34 -1.83
-10.34 19.89 1.96
-5.29 10.18 -1.82
-6.15 11.83 1.64
-6.63 12.75 -1.76
-6.25 12.03 2.15
-6.42 12.34 -1.22
-6.87 13.21 2.89
-6.2 11.92 -0.7
-10.64 20.47 5.33
-6.41 12.33 -0.24
-8.79 16.91 5.11
-7.12 13.81 0.27
-10.3 19.98 1.18
-4.3 8.35 -1.83
-7.56 14.67 1.44
-5.26 10.2 -1.82
-6.12 11.87 1.64
-6.41 12.43 2.21
-6.4 12.41 -1.22
-6.14 11.9 2.6
-6.41 12.43 -0.73
-9.92 19.25 5
-7.72 14.97 4.51
-6.66 13.03 0.26
-7.69 15.05 0.89
-4.27 8.35 -1.82
-6.52 12.76 1.25
-5.22 10.22 -1.82
-7.06 13.82 -1.91
-6.33 12.38 2.2
-7.23 14.15 -1.39
-6.36 12.45 -0.73
-10.53 20.61 5.34
-6.07 11.89 -0.23
-5.77 11.29 3.4
-6.51 12.84 0.25
-7.79 15.38 0.9
-4.24 8.37 -1.82
-6.38 12.6 1.24
-5.18 10.23 -1.82
-11.23 22.17 3.05
-7.01 13.83 -1.9
-6.27 12.36 2.2
-7.37 14.55 -1.43
-5.95 11.75 2.56
-6.25 12.34 -0.72
-10.48 20.69 5.35
-6.03 11.9 -0.23
-7.61 15.01 4.51
-5.97 11.89 0.23
-5.97 11.9 0.7
-4.21 8.38 -1.82
-5.96 11.86 1.16
-5.14 10.24 -1.82
-11.03 21.97 3.02
-6.04 12.02 -1.65
-6.22 12.39 2.2
-7.03 13.99 -1.37
-5.9 11.74 2.55
-7.02 13.98 -0.82
-10.41 20.72 5.35
-21.78 43.36 -0.85
-7.57 15.07 4.52
-6.42 12.89 0.25
-6.43 12.9 0.76
-4.18 8.39 -1.82
-5.99 12.02 1.18
-5.11 10.26 -1.82
-10.33 20.74 2.84
-5.97 11.98 -1.64
-9.99 20.05 3.55
-5.99 12.04 -1.18
-5.89 11.84 2.57
-8.44 16.94 -0.99
-5.95 11.94 3.08
-7 14.05 -0.27
-5.64 11.31 3.39
-6.39 12.93 0.25
-5.91 11.97 0.7
-4.15 8.41 -1.82
-5.07 10.27 -1.81
-10.15 20.57 2.82
-6.19 12.53 -1.72
-9.94 20.14 3.56
-6.94 14.05 -1.37
-5.85 11.86 2.57
-8.31 16.82 -0.98
-9.4 19.03 4.9
-6.97 14.12 -0.27
-6.04 12.23 3.66
-6.34 12.94 0.25
-5.92 12.1 0.71
-4.11 8.4 -1.82
-10.24 20.91 2.04
-5.04 10.3 -1.82
-6.13 12.53 1.71
-6.09 12.44 -1.7
-6.23 12.73 2.24
-6.85 13.99 -1.36
-5.84 11.92 2.58
-5.93 12.11 -0.71
-9.3 19.01 4.89
-6.82 13.92 -0.27
-5.96 12.28 0.24
-5.94 12.25 0.71
-4.09 8.43 -1.82
-6.84 14.08 1.37
-4.99 10.28 -1.81
-5.89 12.13 -1.65
-10.41 21.45 3.78
-7.9 16.28 -1.58
-5.81 11.97 2.59
-5.88 12.11 -0.71
-9.94 20.48 5.26
-6.81 14.04 -0.27
-5.58 11.49 3.42
-6.75 14.03 0.27
-5.87 12.2 0.71
-4.06 8.44 -1.82
-5.71 11.88 1.15
-4.95 10.3 -1.81
-6.55 13.61 1.85
-6.09 12.66 -1.72
-10.34 21.48 3.78
-5.82 12.1 2.61
-5.88 12.21 -0.71
-6.01 12.49 3.2
-6.81 14.15 -0.27
-10.06 20.91 6.22
-5.74 12.04 0.23
-8.35 17.53 1.02
-4.03 8.46 -1.82
-4.92 10.33 -1.81
-9.91 20.81 2.83
-5.94 12.47 -1.7
-9.86 20.68 3.63
-6.34 13.3 -1.29
-9.93 20.83 4.49
-5.85 12.28 -0.71
-9.95 20.88 5.34
-6.76 14.19 -0.27
-9.94 20.85 6.19
-6.63 14.04 0.27
-5.71 12.09 0.7
-4 8.47 -1.82
-5.64 11.95 1.16
-4.89 10.35 -1.81
-9.82 20.78 2.82
-5.94 12.56 -1.71
-9.84 20.83 3.65
-6.26 13.25 -1.28
-9.86 20.87 4.49
-6.41 13.57 -0.79
-5.82 12.32 3.15
-6.81 14.43 -0.28
-9.91 20.98 6.22
-5.78 12.34 0.24
-8.28 17.67 1.02
-3.97 8.47 -1.82
-5.97 12.75 1.23
-4.86 10.36 -1.81
-9.75 20.82 2.82
-5.92 12.65 -1.71
-9.76 20.84 3.65
