# .PCD v0.7 - Point Cloud Data file format
VERSION 0.7
FIELDS x y z
SIZE 4 4 4
TYPE F F F
COUNT 1 1 1
WIDTH 2737
HEIGHT 1
VIEWPOINT 0 0 0 1 0 0 0
POINTS 2737
DATA ascii
6.34 -29.46 2.64
1.82 -8.45 -1.37
2.44 -11.32 -1.42
12.55 -58.33 9.45
3.51 -16.32 -1.46
13.06 -60.7 12.07
3.35 -15.58 -0.83
1.12 -5.28 -1.44
5.18 -24.48 0.44
1.26 -5.95 -1.4
1.45 -6.88 -1.37
6.23 -29.47 2.64
1.79 -8.45 -1.37
2.4 -11.37 -1.43
12.34 -58.34 9.45
3.46 -16.35 -1.46
12.83 -60.68 12.06
3.29 -15.54 -0.83
1.1 -5.28 -1.44
5.19 -24.93 0.44
1.24 -5.94 -1.4
1.43 -6.89 -1.37
6.13 -29.47 2.63
1.76 -8.46 -1.37
2.36 -11.37 -1.43
12.14 -58.35 9.44
3.41 -16.37 -1.46
12.62 -60.69 12.05
3.24 -15.59 -0.83
1.08 -5.29 -1.45
5.19 -25.42 0.45
1.21 -5.95 -1.4
1.41 -6.89 -1.37
6.02 -29.49 2.63
1.73 -8.47 -1.37
11.92 -58.45 7.32
2.32 -11.36 -1.42
11.9 -58.34 9.43
3.35 -16.41 -1.47
12.39 -60.72 12.05
1.06 -5.28 -1.44
5.22 -26 0.46
1.2 -5.96 -1.4
1.38 -6.89 -1.37
5.92 -29.5 2.63
1.7 -8.48 -1.37
11.72 -58.46 7.32
2.28 -11.36 -1.42
11.7 -58.33 9.42
3.3 -16.44 -1.47
11.75 -58.57 11.61
1.04 -5.27 -1.44
5.19 -26.34 0.47
1.18 -5.97 -1.41
1.36 -6.89 -1.36
5.81 -29.49 2.63
1.67 -8.49 -1.37
2.24 -11.38 -1.42
11.49 -58.34 9.42
3.24 -16.46 -1.47
11.96 -60.73 12.03
3.06 -15.54 -0.83
1.02 -5.28 -1.44
6.13 -31.67 0.56
1.16 -5.97 -1.4
6.11 -31.59 1.69
1.34 -6.9 -1.37
5.71 -29.51 2.63
1.64 -8.48 -1.37
2.2 -11.39 -1.42
11.29 -58.36 9.42
3.19 -16.49 -1.47
11.74 -60.7 12.02
3.01 -15.55 -0.83
1 -5.29 -1.44
5.63 -29.68 0.53
1.13 -5.96 -1.4
1.31 -6.91 -1.37
5.6 -29.52 2.63
1.61 -8.49 -1.37
2.16 -11.38 -1.42
11.07 -58.38 9.41
3.13 -16.53 -1.47
11.51 -60.7 12.01
2.95 -15.55 -0.83
0.99 -5.3 -1.44
1.11 -5.97 -1.4
1.29 -6.91 -1.37
5.5 -29.53 2.63
1.58 -8.5 -1.37
2.12 -11.37 -1.42
10.87 -58.35 9.4
3.08 -16.56 -1.47
11.31 -60.71 12
2.9 -15.56 -0.83
0.97 -5.3 -1.44
5.77 -31.64 0.56
1.09 -5.98 -1.4
5.76 -31.6 1.68
1.26 -6.92 -1.37
5.38 -29.54 2.63
1.55 -8.51 -1.37
10.66 -58.51 7.3
2.07 -11.38 -1.42
10.64 -58.35 9.39
3.02 -16.58 -1.47
11.07 -60.74 12
2.84 -15.57 -0.83
0.95 -5.3 -1.44
5.3 -29.65 0.53
1.07 -5.99 -1.4
5.65 -31.59 1.68
1.24 -6.93 -1.37
5.28 -29.53 2.62
1.52 -8.51 -1.37
10.45 -58.42 7.29
2.04 -11.4 -1.42
10.44 -58.37 9.39
2.97 -16.59 -1.47
10.86 -60.74 11.99
2.79 -15.59 -0.83
0.93 -5.31 -1.44
5.24 -29.92 0.53
1.05 -5.98 -1.4
5.54 -31.61 1.68
1.21 -6.93 -1.37
5.18 -29.54 2.62
1.49 -8.51 -1.37
10.24 -58.4 7.28
2 -11.4 -1.42
10.23 -58.38 9.39
2.91 -16.63 -1.48
10.64 -60.73 11.98
2.73 -15.58 -0.83
0.91 -5.31 -1.44
5.15 -29.98 0.53
1.03 -5.98 -1.4
5.17 -30.14 1.6
1.19 -6.94 -1.37
5.07 -29.56 2.62
1.46 -8.51 -1.37
10.03 -58.4 7.28
1.96 -11.4 -1.42
10.02 -58.37 9.38
2.86 -16.66 -1.48
10.43 -60.78 11.99
2.68 -15.59 -0.83
0.89 -5.32 -1.45
5.07 -30.19 0.53
1.01 -5.99 -1.4
5.07 -30.18 1.6
1.17 -6.95 -1.37
4.97 -29.56 2.62
1.43 -8.51 -1.37
9.81 -58.4 7.27
1.92 -11.41 -1.42
9.81 -58.38 9.38
2.81 -16.7 -1.48
10.21 -60.78 11.98
0.88 -5.33 -1.45
4.98 -30.26 0.54
0.99 -6 -1.4
5.2 -31.62 1.68
1.14 -6.94 -1.37
4.86 -29.57 2.62
1.4 -8.52 -1.37
9.61 -58.41 7.27
1.88 -11.43 -1.42
9.6 -58.36 9.37
2.75 -16.72 -1.48
10 -60.78 11.97
2.56 -15.55 -0.83
0.85 -5.31 -1.44
5.09 -31.66 0.56
0.96 -6 -1.4
5.08 -31.64 1.68
1.12 -6.95 -1.37
4.75 -29.57 2.62
1.37 -8.52 -1.37
9.39 -58.42 7.26
1.84 -11.47 -1.43
9.38 -58.37 9.36
2.69 -16.74 -1.48
9.77 -60.82 11.97
2.5 -15.57 -0.83
0.83 -5.31 -1.44
4.98 -31.67 0.56
0.94 -6.01 -1.4
4.97 -31.65 1.68
1.09 -6.96 -1.37
4.65 -29.58 2.62
1.34 -8.53 -1.37
9.18 -58.42 7.26
1.81 -11.53 -1.43
9.17 -58.38 9.36
2.64 -16.78 -1.49
9.55 -60.81 11.96
2.45 -15.58 -0.83
0.82 -5.31 -1.44
4.87 -31.68 0.56
0.92 -6 -1.4
4.87 -31.71 1.68
1.07 -6.96 -1.37
4.55 -29.59 2.62
1.31 -8.51 -1.36
8.98 -58.41 7.26
1.78 -11.56 -1.44
8.98 -58.4 9.36
2.58 -16.81 -1.49
9.01 -58.58 11.52
2.4 -15.58 -0.83
0.8 -5.32 -1.44
4.76 -31.69 0.56
0.9 -6 -1.4
1.05 -6.96 -1.37
4.45 -29.6 2.62
1.28 -8.53 -1.37
8.78 -58.45 7.26
1.74 -11.57 -1.44
8.77 -58.4 9.35
2.53 -16.84 -1.49
8.94 -59.56 11.71
2.34 -15.59 -0.83
0.78 -5.33 -1.44
4.64 -31.7 0.56
0.88 -6.01 -1.4
5.21 -35.6 1.89
1.02 -6.96 -1.37
4.34 -29.62 2.62
1.25 -8.54 -1.37
8.73 -59.62 7.4
1.7 -11.59 -1.44
8.55 -58.38 9.35
2.47 -16.86 -1.49
8.73 -59.6 11.71
2.29 -15.62 -0.83
0.76 -5.32 -1.44
4.53 -31.71 0.56
0.86 -6.01 -1.4
1 -6.97 -1.37
4.23 -29.62 2.62
1.22 -8.54 -1.37
8.52 -59.66 7.4
1.66 -11.62 -1.44
8.34 -58.38 9.34
2.41 -16.89 -1.49
8.51 -59.58 11.7
2.24 -15.65 -0.83
0.74 -5.33 -1.44
4.43 -31.72 0.56
0.84 -6.02 -1.4
4.43 -31.72 1.68
0.97 -6.98 -1.37
4.14 -29.62 2.62
1.19 -8.53 -1.36
8.33 -59.64 7.39
1.63 -11.65 -1.44
8.15 -58.39 9.34
2.36 -16.91 -1.49
2.19 -15.69 -0.83
0.73 -5.33 -1.44
4.32 -31.73 0.56
0.82 -6 -1.4
0.95 -6.98 -1.37
4.03 -29.63 2.62
1.16 -8.54 -1.37
8.12 -59.65 7.39
1.59 -11.68 -1.45
7.95 -58.39 9.33
2.23 -16.39 -1.45
2.15 -15.83 -0.84
0.71 -5.34 -1.44
4.2 -31.75 0.56
0.8 -6.02 -1.4
0.92 -6.99 -1.37
3.92 -29.64 2.62
1.13 -8.54 -1.36
7.9 -59.66 7.39
1.55 -11.7 -1.45
7.73 -58.4 9.33
2.17 -16.4 -1.45
0.69 -5.35 -1.44
3.94 -30.61 0.54
0.78 -6.03 -1.4
0.9 -6.98 -1.37
3.82 -29.65 2.62
1.1 -8.55 -1.36
7.69 -59.67 7.39
1.51 -11.74 -1.45
7.52 -58.4 9.33
2.11 -16.4 -1.45
2.07 -16.04 -0.85
0.67 -5.33 -1.44
3.85 -30.81 0.54
0.75 -6.03 -1.4
0.87 -6.99 -1.37
1.07 -8.55 -1.36
7.46 -59.67 7.38
1.47 -11.78 -1.46
7.3 -58.4 9.32
2.05 -16.39 -1.44
7.46 -59.62 11.68
2.01 -16.1 -0.85
0.65 -5.34 -1.44
3.75 -30.82 0.54
0.73 -6.03 -1.4
3.86 -31.76 1.68
0.85 -7 -1.37
3.85 -31.64 2.79
1.04 -8.54 -1.36
7.25 -59.68 7.38
1.44 -11.83 -1.46
7.1 -58.41 9.32
2 -16.44 -1.45
7.24 -59.59 11.67
1.99 -16.34 -0.86
0.63 -5.34 -1.44
3.65 -30.81 0.54
0.71 -6.02 -1.4
3.76 -31.74 1.68
0.83 -7 -1.37
3.75 -31.66 2.79
1.01 -8.55 -1.36
7.06 -59.67 7.38
1.4 -11.85 -1.46
6.91 -58.41 9.32
2.02 -17.04 -1.5
7.05 -59.61 11.67
2 -16.87 -0.89
3.65 -30.8 -0.54
0.61 -5.35 -1.44
3.65 -31.77 0.56
0.69 -6.02 -1.4
3.65 -31.75 1.68
0.8 -7.01 -1.37
3.64 -31.67 2.79
0.98 -8.56 -1.36
6.85 -59.67 7.38
1.36 -11.87 -1.47
6.71 -58.4 9.31
1.96 -17.04 -1.5
6.84 -59.61 11.66
3.54 -30.81 -0.54
0.6 -5.35 -1.44
3.54 -31.79 0.56
0.67 -6.04 -1.4
3.53 -31.76 1.67
0.78 -7 -1.37
3.52 -31.67 2.79
0.95 -8.56 -1.36
6.64 -59.69 7.37
1.32 -11.89 -1.47
6.5 -58.4 9.31
1.9 -17.05 -1.5
6.63 -59.62 11.66
2.03 -18.25 -0.96
3.43 -30.83 -0.54
0.58 -5.34 -1.44
3.43 -31.8 0.56
0.65 -6.04 -1.4
3.43 -31.79 1.68
0.75 -7.01 -1.37
3.41 -31.68 2.79
0.92 -8.57 -1.36
6.43 -59.68 7.37
1.28 -11.9 -1.47
6.29 -58.41 9.3
1.84 -17.07 -1.5
6.42 -59.62 11.66
3.33 -30.9 -0.54
0.55 -5.34 -1.44
3.3 -31.8 0.56
0.63 -6.05 -1.4
3.31 -31.83 1.68
0.73 -7.02 -1.37
3.29 -31.69 2.79
0.89 -8.55 -1.36
6.2 -59.68 7.37
1.24 -11.93 -1.47
6.07 -58.4 9.3
1.78 -17.12 -1.51
6.19 -59.61 11.65
2 -19.3 -1.02
3.31 -31.87 -0.56
0.54 -5.35 -1.44
3.19 -31.81 0.56
0.61 -6.04 -1.4
0.71 -7.03 -1.37
3.18 -31.7 2.79
0.86 -8.55 -1.36
5.99 -59.68 7.37
1.2 -11.93 -1.47
5.86 -58.42 9.3
1.72 -17.19 -1.51
5.98 -59.6 11.64
2.45 -24.39 -1.28
3.2 -31.9 -0.56
0.52 -5.36 -1.44
3.08 -31.82 0.56
0.59 -6.05 -1.4
3.45 -35.61 1.87
0.68 -7.02 -1.37
3.07 -31.71 2.79
0.83 -8.57 -1.36
5.78 -59.68 7.36
1.15 -11.91 -1.47
5.66 -58.43 9.3
1.43 -14.81 -1.3
5.77 -59.63 11.65
2.36 -24.43 -1.29
3.09 -31.91 -0.56
0.5 -5.36 -1.44
2.97 -31.84 0.56
0.56 -6.06 -1.4
0.66 -7.02 -1.37
2.96 -31.71 2.79
0.8 -8.57 -1.36
5.57 -59.7 7.36
1.11 -11.91 -1.47
5.45 -58.42 9.29
1.38 -14.81 -1.3
5.57 -59.66 11.65
2.28 -24.45 -1.29
2.98 -31.9 -0.56
0.48 -5.35 -1.44
2.86 -31.84 0.56
0.54 -6.06 -1.4
2.86 -31.85 1.68
0.63 -7.04 -1.37
2.85 -31.73 2.79
0.77 -8.57 -1.36
5.36 -59.7 7.36
1.07 -11.9 -1.47
5.25 -58.43 9.29
1.33 -14.8 -1.3
5.35 -59.63 11.64
2.2 -24.54 -1.29
2.86 -31.91 -0.56
0.46 -5.37 -1.44
2.75 -31.85 0.56
0.52 -6.07 -1.41
0.61 -7.04 -1.37
2.74 -31.73 2.79
0.74 -8.58 -1.36
5.16 -59.71 7.36
1.03 -11.91 -1.47
5.05 -58.44 9.29
1.28 -14.82 -1.3
5.15 -59.6 11.63
2.12 -24.48 -1.29
2.76 -31.92 -0.56
0.45 -5.37 -1.44
2.65 -31.86 0.56
0.5 -6.06 -1.4
2.67 -32.08 1.69
0.59 -7.06 -1.38
2.64 -31.74 2.79
0.71 -8.59 -1.37
4.96 -59.7 7.36
0.99 -11.92 -1.47
4.86 -58.43 9.29
1.23 -14.84 -1.3
4.96 -59.63 11.63
2.02 -24.34 -1.28
2.65 -31.95 -0.56
0.43 -5.38 -1.45
2.54 -31.87 0.56
2.53 -31.76 2.79
0.69 -8.61 -1.37
4.76 -59.72 7.36
0.95 -11.92 -1.47
4.66 -58.44 9.29
4.76 -59.63 11.63
2.55 -31.94 -0.56
0.41 -5.38 -1.45
2.41 -31.88 0.56
2.42 -31.99 1.68
2.41 -31.77 2.79
0.65 -8.62 -1.37
0.9 -11.93 -1.47
4.42 -58.43 9.28
4.52 -59.68 11.63
1.52 -20.01 -0.35
0.39 -5.37 -1.44
1.45 -20.03 0.35
1.45 -20.01 1.05
1.45 -20 1.75
0.62 -8.6 -1.37
1.29 -17.77 2.19
0.87 -11.96 -1.47
1.55 -21.44 3.4
1.34 -18.49 3.6
1.45 -20.05 -0.35
0.37 -5.37 -1.44
1.14 -16.49 0.29
1.14 -16.5 0.87
0.49 -7.05 -1.37
1.14 -16.48 1.45
0.59 -8.6 -1.37
1.14 -16.46 2.03
1.14 -16.48 2.62
0.72 -10.45 -0.92
1.14 -16.45 3.21
0.74 -10.66 -0.56
1.14 -16.45 3.81
1.07 -15.45 -0.27
1.13 -16.42 4.41
0.35 -5.38 -1.44
1.08 -16.48 0.29
1.08 -16.48 0.87
0.46 -7.06 -1.38
1.08 -16.46 1.44
0.56 -8.59 -1.36
1.08 -16.44 2.02
1.08 -16.46 2.61
0.65 -9.83 -0.86
1.08 -16.41 3.2
0.66 -10.06 -0.53
1.08 -16.42 3.8
0.83 -12.63 -0.22
1.08 -16.38 4.4
0.33 -5.4 -1.45
1.02 -16.5 0.29
1.02 -16.47 0.87
1.02 -16.48 1.44
0.53 -8.58 -1.36
1.02 -16.44 2.02
1.02 -16.46 2.61
0.6 -9.69 -0.85
1.02 -16.41 3.2
0.6 -9.66 -0.51
1.02 -16.41 3.8
0.77 -12.37 -0.22
1.01 -16.38 4.4
0.97 -16.51 0.29
0.96 -16.48 0.87
0.96 -16.48 1.44
0.47 -8.06 -1.28
0.96 -16.45 2.02
0.51 -8.64 -1.06
0.96 -16.45 2.61
0.54 -9.14 -0.8
0.96 -16.43 3.2
0.56 -9.65 -0.51
0.96 -16.4 3.79
0.72 -12.38 -0.22
0.96 -16.39 4.4
0.61 -11.1 0.19
0.91 -16.48 0.87
0.91 -16.47 1.44
0.44 -7.97 -1.26
0.91 -16.46 2.02
0.45 -8.18 -1.01
0.91 -16.47 2.61
0.47 -8.58 -0.75
0.9 -16.43 3.2
0.53 -9.7 -0.51
0.9 -16.41 3.8
0.54 -9.86 -0.17
0.9 -16.37 4.39
0.56 -10.92 0.19
0.85 -16.49 0.87
0.85 -16.48 1.44
0.42 -8.21 -1.3
0.85 -16.46 2.02
0.41 -7.98 -0.98
0.85 -16.47 2.61
0.42 -8.06 -0.71
0.85 -16.42 3.2
0.49 -9.56 -0.5
0.85 -16.42 3.8
0.51 -9.84 -0.17
0.85 -16.39 4.4
0.52 -10.73 0.19
0.79 -16.49 0.87
0.79 -16.49 1.44
0.39 -8.17 -1.29
0.79 -16.45 2.02
0.39 -8.15 -1
0.79 -16.48 2.61
0.38 -7.98 -0.7
0.79 -16.43 3.2
0.46 -9.53 -0.5
0.79 -16.42 3.8
0.47 -9.79 -0.17
0.79 -16.4 4.4
0.48 -10.63 0.19
0.74 -16.55 0.87
0.74 -16.55 1.45
0.35 -7.74 -1.23
0.74 -16.53 2.03
0.35 -7.89 -0.97
0.74 -16.46 2.61
0.36 -7.98 -0.7
0.73 -16.44 3.2
0.43 -9.54 -0.5
0.74 -16.44 3.8
0.43 -9.55 -0.17
0.73 -16.4 4.4
0.43 -10.6 0.19
0.68 -16.64 0.87
0.68 -16.66 1.46
0.29 -7.21 -1.14
0.68 -16.56 2.03
0.3 -7.43 -0.91
0.67 -16.45 2.61
0.32 -7.72 -0.68
0.67 -16.45 3.2
0.39 -9.54 -0.5
0.67 -16.44 3.8
0.39 -9.5 -0.17
0.67 -16.41 4.4
0.4 -10.58 0.18
0.63 -16.89 0.89
0.25 -6.72 -1.31
0.63 -16.89 1.48
0.25 -6.73 -1.07
0.63 -16.72 2.05
0.25 -6.77 -0.83
0.62 -16.46 2.61
0.27 -7.2 -0.63
0.62 -16.44 3.2
0.36 -9.54 -0.5
0.62 -16.46 3.8
0.35 -9.45 -0.17
0.62 -16.43 4.41
0.36 -10.56 0.18
0.21 -6.11 -1.41
0.57 -16.89 0.89
0.23 -6.72 -1.31
0.57 -16.89 1.48
0.23 -6.72 -1.07
0.57 -16.77 2.06
0.23 -6.75 -0.83
0.56 -16.47 2.61
0.23 -6.7 -0.59
0.56 -16.44 3.2
0.32 -9.55 -0.5
0.56 -16.45 3.8
0.32 -9.42 -0.16
0.56 -16.42 4.4
0.32 -10.55 0.18
0.19 -6.1 -1.41
0.52 -16.9 0.89
0.2 -6.7 -1.3
0.52 -16.92 1.48
0.2 -6.7 -1.06
0.51 -16.79 2.06
0.2 -6.71 -0.82
0.5 -16.48 2.61
0.21 -6.74 -0.59
0.5 -16.45 3.2
0.29 -9.54 -0.5
0.5 -16.46 3.8
0.29 -9.41 -0.16
0.5 -16.42 4.4
0.29 -10.55 0.18
0.17 -6.12 -1.41
0.46 -16.92 0.89
0.18 -6.75 -1.31
0.46 -16.93 1.48
0.18 -6.7 -1.06
0.45 -16.8 2.06
0.18 -6.7 -0.82
0.45 -16.49 2.61
0.18 -6.68 -0.58
0.45 -16.46 3.2
0.26 -9.55 -0.5
0.45 -16.46 3.8
0.25 -9.4 -0.16
0.44 -16.43 4.4
0.25 -10.6 0.18
0.4 -16.93 0.89
0.16 -6.79 -1.32
0.4 -16.93 1.48
0.16 -6.75 -1.07
0.4 -16.84 2.07
0.16 -6.71 -0.82
0.39 -16.49 2.61
0.16 -6.68 -0.58
0.39 -16.46 3.2
0.23 -9.85 -0.52
0.39 -16.45 3.8
0.22 -9.4 -0.16
0.39 -16.43 4.4
0.21 -10.64 0.19
0.34 -16.94 0.89
0.14 -6.79 -1.32
0.34 -16.92 1.48
0.13 -6.78 -1.07
0.34 -16.87 2.07
0.13 -6.78 -0.83
0.33 -16.52 2.62
0.24 -12.29 -1.08
0.33 -16.47 3.2
0.2 -9.83 -0.52
0.33 -16.46 3.8
0.19 -9.41 -0.16
0.33 -16.43 4.4
0.18 -10.63 0.19
0.28 -16.95 0.89
0.12 -7.05 -1.37
0.28 -16.94 1.48
0.11 -6.77 -1.07
0.28 -16.88 2.07
0.11 -6.78 -0.83
0.27 -16.49 2.61
0.19 -11.38 -1
0.27 -16.46 3.2
0.16 -9.83 -0.52
0.27 -16.47 3.8
0.16 -9.35 -0.16
0.27 -16.44 4.41
0.14 -10.72 0.19
0.22 -16.95 0.89
0.09 -6.86 -1.33
0.22 -16.95 1.48
0.11 -8.73 -1.38
0.22 -16.89 2.07
0.09 -6.77 -0.83
0.21 -16.5 2.61
0.15 -11.34 -0.99
0.21 -16.47 3.2
0.13 -9.96 -0.52
0.21 -16.47 3.8
0.12 -9.4 -0.16
0.21 -16.45 4.41
0.1 -10.92 0.19
0.16 -16.95 0.89
0.07 -6.79 -1.32
0.16 -16.95 1.48
0.08 -8.76 -1.39
0.16 -16.89 2.07
0.07 -6.77 -0.83
0.16 -16.5 2.61
0.11 -11.32 -0.99
0.16 -16.47 3.2
0.1 -9.99 -0.52
0.16 -16.47 3.8
0.09 -9.35 -0.16
0.16 -16.46 4.41
0.07 -11.01 0.19
0.1 -16.95 0.89
0.04 -6.71 -1.31
0.1 -16.95 1.48
0.04 -6.73 -1.07
0.1 -16.89 2.07
0.04 -6.76 -0.83
0.1 -16.52 2.62
0.07 -11.36 -0.99
0.1 -16.49 3.21
0.06 -10.26 -0.54
0.1 -16.48 3.8
0.06 -9.29 -0.16
0.1 -16.46 4.41
0.03 -10.4 0.18
0.05 -16.97 0.89
0.02 -6.72 -1.31
0.05 -16.96 1.48
0.02 -6.72 -1.06
0.05 -16.91 2.08
0.02 -6.72 -0.83
0.04 -16.51 2.62
0.02 -6.72 -0.59
0.04 -16.49 3.2
0.03 -10.48 -0.55
0.04 -16.48 3.81
0.03 -9.33 -0.16
0.04 -16.46 4.41
-0.01 -10.36 0.18
-0 -6.12 -1.41
-0.01 -16.97 0.89
-0 -6.92 -1.34
-0.01 -16.97 1.48
-0 -6.71 -1.06
-0.01 -16.91 2.08
-0 -6.73 -0.83
-0.01 -16.52 2.62
-0 -6.7 -0.59
-0.01 -16.49 3.21
-0.01 -10.27 -0.54
-0.01 -16.5 3.81
-0.01 -9.37 -0.16
-0.01 -16.47 4.41
-0.04 -10.36 0.18
-0.03 -6.12 -1.41
-0.03 -6.89 -1.34
-0.07 -16.98 1.49
-0.04 -8.74 -1.38
-0.07 -16.9 2.07
-0.03 -6.77 -0.83
-0.07 -16.53 2.62
-0.03 -6.71 -0.59
-0.07 -16.49 3.21
-0.04 -10.01 -0.52
-0.07 -16.52 3.81
-0.04 -9.38 -0.16
-0.07 -16.48 4.42
-0.13 -16.03 0.28
-0.05 -6.12 -1.41
-0.14 -16.97 0.89
-0.05 -6.85 -1.33
-0.14 -16.98 1.49
-0.07 -8.73 -1.38
-0.14 -16.88 2.07
-0.09 -10.83 -1.33
-0.13 -16.53 2.62
-0.1 -12.55 -1.1
-0.13 -16.5 3.21
-0.08 -10.08 -0.53
-0.13 -16.5 3.81
-0.07 -9.33 -0.16
-0.13 -16.49 4.42
-0.12 -10.59 0.18
-0.07 -6.12 -1.41
-0.18 -15.98 0.84
-0.08 -6.72 -1.31
-0.19 -16.99 1.49
-0.08 -6.75 -1.07
-0.19 -16.88 2.07
-0.12 -10.9 -1.34
-0.19 -16.52 2.62
-0.14 -12.53 -1.1
-0.19 -16.52 3.21
-0.12 -10.35 -0.54
-0.19 -16.5 3.81
-0.11 -9.31 -0.16
-0.19 -16.49 4.42
-0.15 -10.31 0.18
-0.09 -6.12 -1.41
-0.23 -15.79 0.83
-0.1 -6.73 -1.31
-0.25 -16.99 1.49
-0.1 -6.73 -1.07
-0.25 -16.88 2.07
-0.1 -6.71 -0.82
-0.24 -16.54 2.62
-0.1 -6.72 -0.59
-0.24 -16.52 3.21
-0.15 -10.38 -0.54
-0.24 -16.5 3.81
-0.14 -9.33 -0.16
-0.24 -16.48 4.42
-0.19 -10.25 0.18
-0.11 -6.11 -1.41
-0.29 -15.82 0.83
-0.12 -6.78 -1.32
-0.31 -17 1.49
-0.12 -6.72 -1.06
-0.3 -16.86 2.07
-0.12 -6.74 -0.83
-0.3 -16.55 2.62
-0.12 -6.72 -0.59
-0.3 -16.5 3.21
-0.19 -10.29 -0.54
-0.3 -16.52 3.81
-0.17 -9.33 -0.16
-0.3 -16.49 4.42
-0.22 -10.21 0.18
-0.13 -6.11 -1.41
-0.35 -15.89 0.83
-0.15 -6.91 -1.34
-0.37 -17 1.49
-0.19 -8.75 -1.39
-0.37 -16.84 2.07
-0.15 -6.77 -0.83
-0.36 -16.55 2.62
-0.15 -6.73 -0.59
-0.36 -16.51 3.21
-0.22 -10 -0.52
-0.36 -16.53 3.82
-0.2 -9.36 -0.16
-0.36 -16.5 4.42
-0.26 -10.13 0.18
-0.15 -6.11 -1.41
-0.4 -15.91 0.83
-0.17 -6.87 -1.34
-0.43 -17.01 1.49
-0.22 -8.76 -1.39
-0.42 -16.84 2.07
-0.27 -10.71 -1.32
-0.42 -16.55 2.62
-0.26 -10.25 -0.9
-0.42 -16.52 3.21
-0.25 -9.93 -0.52
-0.42 -16.52 3.82
-0.24 -9.33 -0.16
-0.42 -16.5 4.42
-0.28 -9.65 0.17
-0.18 -6.12 -1.41
-0.46 -15.88 0.83
-0.2 -6.77 -1.32
-0.49 -17.02 1.49
-0.25 -8.75 -1.39
-0.49 -16.87 2.07
-0.48 -16.55 2.62
-0.3 -10.23 -0.9
-0.48 -16.54 3.22
-0.29 -9.85 -0.52
-0.48 -16.53 3.82
-0.27 -9.35 -0.16
-0.48 -16.51 4.42
-0.31 -9.62 0.17
-0.2 -6.13 -1.42
-0.51 -15.88 0.83
-0.22 -6.74 -1.31
-0.55 -17.01 1.49
-0.22 -6.75 -1.07
-0.55 -16.89 2.07
-0.22 -6.73 -0.83
-0.54 -16.55 2.62
-0.22 -6.74 -0.59
-0.54 -16.53 3.21
-0.33 -10.2 -0.53
-0.54 -16.53 3.82
-0.3 -9.34 -0.16
-0.53 -16.5 4.42
-0.35 -9.59 0.17
-0.22 -6.13 -1.42
-0.57 -15.75 0.83
-0.24 -6.75 -1.31
-0.61 -17.02 1.49
-0.24 -6.74 -1.07
-0.61 -16.93 2.08
-0.24 -6.73 -0.83
-0.6 -16.56 2.62
-0.24 -6.72 -0.59
-0.59 -16.53 3.21
-0.36 -9.91 -0.52
-0.6 -16.54 3.82
-0.34 -9.35 -0.16
-0.59 -16.52 4.43
-0.38 -9.61 0.17
-0.24 -6.14 -1.42
-0.63 -15.96 0.84
-0.27 -6.86 -1.33
-0.67 -17.03 1.49
-0.27 -6.74 -1.07
-0.67 -16.91 2.08
-0.27 -6.77 -0.83
-0.65 -16.58 2.63
-0.27 -6.74 -0.59
-0.65 -16.54 3.22
-0.38 -9.64 -0.51
-0.65 -16.55 3.82
-0.37 -9.34 -0.16
-0.65 -16.52 4.43
-0.41 -9.54 0.17
-0.26 -6.14 -1.42
-0.67 -15.82 0.83
-0.3 -6.95 -1.35
-0.73 -17.03 1.49
-0.37 -8.74 -1.39
-0.72 -16.88 2.07
-0.44 -10.38 -1.28
-0.71 -16.58 2.63
-0.45 -10.46 -0.92
-0.71 -16.56 3.22
-0.42 -9.79 -0.51
-0.7 -16.54 3.82
-0.4 -9.35 -0.16
-0.7 -16.53 4.43
-0.44 -9.48 0.17
-0.28 -6.15 -1.42
-0.73 -15.94 0.84
-0.31 -6.83 -1.33
-0.78 -17.03 1.49
-0.4 -8.76 -1.39
-0.77 -16.79 2.06
-0.49 -10.57 -1.3
-0.76 -16.57 2.63
-0.64 -13.96 -1.22
-0.76 -16.55 3.22
-0.45 -9.85 -0.52
-0.76 -16.54 3.82
-0.43 -9.33 -0.16
-0.76 -16.53 4.43
-0.47 -9.51 0.17
-0.31 -6.15 -1.42
-0.78 -15.73 0.83
-0.34 -6.76 -1.32
-0.85 -17.03 1.49
-0.34 -6.77 -1.07
-0.83 -16.77 2.06
-0.34 -6.78 -0.83
-0.83 -16.57 2.63
-0.34 -6.76 -0.59
-0.82 -16.56 3.22
-0.49 -9.94 -0.52
-0.82 -16.56 3.83
-0.46 -9.32 -0.16
-0.82 -16.52 4.43
-0.51 -9.52 0.17
-0.33 -6.15 -1.42
-0.84 -15.73 0.83
-0.36 -6.77 -1.32
-0.91 -17.04 1.49
-0.36 -6.75 -1.07
-0.89 -16.72 2.06
-0.36 -6.77 -0.83
-0.88 -16.59 2.63
-0.36 -6.72 -0.59
-0.88 -16.56 3.22
-0.53 -9.9 -0.52
-0.88 -16.56 3.83
-0.5 -9.34 -0.16
-0.88 -16.54 4.44
-0.54 -9.53 0.17
-0.35 -6.15 -1.42
-0.9 -15.86 0.83
-0.39 -6.97 -1.36
-0.96 -17.04 1.49
-0.38 -6.75 -1.07
-0.94 -16.68 2.05
-0.38 -6.77 -0.83
-0.94 -16.59 2.63
-0.38 -6.76 -0.59
-0.94 -16.56 3.22
-0.56 -9.81 -0.51
-0.94 -16.57 3.83
-0.53 -9.35 -0.16
-0.94 -16.54 4.44
-0.57 -9.52 0.17
-0.37 -6.15 -1.42
-0.95 -15.8 0.83
-0.42 -6.97 -1.36
-1.02 -17.05 1.49
-0.52 -8.73 -1.39
-1 -16.68 2.05
-0.59 -9.77 -1.2
-1 -16.59 2.63
-0.63 -10.43 -0.91
-0.99 -16.57 3.23
-0.58 -9.72 -0.51
-1 -16.59 3.84
-0.56 -9.37 -0.16
-0.99 -16.56 4.45
-0.6 -9.48 0.17
-0.39 -6.17 -1.43
-1.01 -15.86 0.83
-0.44 -6.92 -1.35
-1.09 -17.06 1.5
-0.43 -6.82 -1.08
-1.06 -16.69 2.05
-0.64 -10.04 -1.24
-1.06 -16.59 2.63
-0.68 -10.71 -0.94
-1.05 -16.57 3.23
-0.64 -10.02 -0.53
-1.06 -16.63 3.85
-0.6 -9.38 -0.16
-1.06 -16.62 4.46
-0.64 -9.48 0.17
-0.42 -6.21 -1.44
-0.45 -6.77 -1.32
-1.14 -17.06 1.5
-0.45 -6.77 -1.07
-1.12 -16.7 2.06
-0.45 -6.78 -0.83
-1.11 -16.6 2.63
-0.92 -13.67 -1.2
-1.11 -16.58 3.23
-0.68 -10.08 -0.53
-0.63 -9.36 -0.16
-1.14 -16.97 4.56
-0.67 -9.53 0.17
-0.44 -6.17 -1.43
-1.1 -15.59 0.82
-0.48 -6.77 -1.32
-1.21 -17.07 1.5
-0.48 -6.76 -1.07
-1.18 -16.71 2.06
-0.48 -6.78 -0.83
-1.17 -16.61 2.64
-0.48 -6.74 -0.59
-1.17 -16.58 3.23
-0.72 -10.17 -0.53
-1.2 -17.03 3.94
-0.66 -9.35 -0.16
-1.2 -16.98 4.56
-0.71 -9.63 0.17
-0.46 -6.15 -1.42
-1.19 -16.06 0.84
-0.51 -6.83 -1.33
-1.26 -17.08 1.5
-0.5 -6.76 -1.07
-1.24 -16.7 2.06
-0.5 -6.77 -0.83
-1.23 -16.61 2.64
-0.5 -6.73 -0.59
-1.23 -16.58 3.23
-0.74 -9.98 -0.52
-1.26 -17.03 3.94
-0.7 -9.4 -0.16
-1.26 -16.99 4.56
-0.77 -9.88 0.17
-0.48 -6.16 -1.43
-0.83 -10.7 0.56
-0.54 -6.95 -1.36
-1.33 -17.08 1.5
-1.3 -16.7 2.06
-0.76 -9.77 -1.2
-1.29 -16.62 2.64
-1.08 -13.87 -1.22
-1.29 -16.59 3.23
-1.33 -17.03 3.94
-0.73 -9.38 -0.16
-1.32 -16.99 4.57
-0.81 -9.98 0.17
-0.5 -6.18 -1.43
-0.87 -10.68 0.56
-0.57 -6.97 -1.36
-1.39 -17.1 1.5
-0.71 -8.71 -1.38
-1.36 -16.72 2.06
-0.8 -9.79 -1.21
-1.35 -16.61 2.64
-1.12 -13.79 -1.21
-1.35 -16.6 3.24
-0.81 -9.94 -0.52
-1.38 -17.04 3.95
-0.76 -9.35 -0.16
-1.38 -17 4.57
-0.85 -10.03 0.18
-0.52 -6.17 -1.43
-0.91 -10.76 0.57
-0.58 -6.8 -1.33
-1.45 -17.09 1.5
-0.58 -6.79 -1.08
-1.42 -16.73 2.06
-0.58 -6.81 -0.84
-1.41 -16.62 2.64
-0.96 -11.39 -1
-1.41 -16.59 3.24
-0.84 -9.91 -0.52
-1.44 -17.05 3.95
-0.79 -9.36 -0.16
-1.44 -17 4.57
-0.89 -10.1 0.18
-0.54 -6.18 -1.43
-0.96 -10.88 0.57
-0.6 -6.78 -1.32
-1.51 -17.1 1.5
-0.6 -6.77 -1.08
-1.47 -16.73 2.06
-0.6 -6.81 -0.84
-1.47 -16.63 2.64
-0.6 -6.76 -0.59
-1.46 -16.6 3.24
-0.87 -9.92 -0.52
-1.5 -17.05 3.95
-0.82 -9.35 -0.16
-1.5 -17 4.57
-0.94 -10.24 0.18
-0.57 -6.17 -1.43
-0.99 -10.8 0.57
-0.62 -6.8 -1.33
-1.57 -17.11 1.5
-0.62 -6.78 -1.08
-1.53 -16.72 2.06
-0.62 -6.8 -0.84
-1.53 -16.64 2.65
-0.62 -6.78 -0.6
-1.52 -16.6 3.24
-0.91 -9.92 -0.52
-1.56 -17.05 3.95
-0.86 -9.38 -0.16
-1.56 -17.01 4.58
-0.97 -10.2 0.18
-0.59 -6.17 -1.43
-1.04 -10.95 0.58
-0.67 -6.99 -1.37
-1.63 -17.12 1.5
-0.83 -8.72 -1.39
-1.59 -16.72 2.06
-0.93 -9.79 -1.21
-1.58 -16.64 2.65
-1.01 -10.64 -0.93
-1.58 -16.6 3.24
-1.62 -17.05 3.95
-0.89 -9.4 -0.16
-1.62 -17.02 4.58
-1.01 -10.19 0.18
-0.61 -6.18 -1.43
-1.06 -10.73 0.56
-0.69 -6.96 -1.36
-1.69 -17.12 1.51
-0.86 -8.73 -1.39
-1.65 -16.73 2.06
-0.96 -9.76 -1.2
-1.64 -16.64 2.65
-1.12 -11.38 -1
-1.64 -16.62 3.25
-0.97 -9.82 -0.52
-1.69 -17.07 3.96
-0.93 -9.37 -0.16
-1.68 -17.02 4.58
-1.04 -10.21 0.18
-0.63 -6.18 -1.44
-0.69 -6.8 -1.33
-1.75 -17.11 1.51
-0.7 -6.82 -1.09
-1.71 -16.73 2.07
-1 -9.8 -1.21
-1.7 -16.65 2.65
-1.7 -16.62 3.25
-1.05 -10.31 -0.54
-1.74 -17.06 3.96
-0.96 -9.42 -0.17
-1.74 -17.02 4.58
-1.08 -10.24 0.18
-0.66 -6.19 -1.44
-1.16 -10.93 0.58
-0.72 -6.79 -1.33
-1.81 -17.12 1.51
-0.72 -6.8 -1.08
-1.77 -16.74 2.07
-0.72 -6.81 -0.84
-1.76 -16.65 2.65
-0.72 -6.79 -0.6
-1.76 -16.61 3.25
-1.21 -11.48 -0.6
-1.81 -17.08 3.96
-1 -9.44 -0.17
-1.8 -17.02 4.59
-1.12 -10.3 0.18
-0.68 -6.2 -1.44
-1.17 -10.7 0.56
-0.75 -6.84 -1.34
-1.87 -17.13 1.51
-0.74 -6.8 -1.08
-1.83 -16.74 2.07
-0.74 -6.8 -0.84
-1.82 -16.66 2.65
-0.74 -6.78 -0.6
-1.82 -16.62 3.25
-1.23 -11.22 -0.59
-1.87 -17.08 3.97
-1.03 -9.43 -0.17
-1.86 -17.04 4.59
-1.19 -10.56 0.19
-1.23 -10.85 0.57
-0.78 -6.89 -1.35
-1.94 -17.14 1.51
-0.98 -8.7 -1.39
-1.89 -16.74 2.07
-0.77 -6.83 -0.84
-1.88 -16.66 2.66
-0.77 -6.8 -0.6
-1.88 -16.63 3.25
-1.28 -11.32 -0.6
-1.93 -17.07 3.97
-1.07 -9.44 -0.17
-1.93 -17.05 4.6
-1.17 -10.02 0.18
-1.22 -10.44 0.55
-0.81 -6.92 -1.35
-2 -17.13 1.51
-1.01 -8.7 -1.39
-1.95 -16.75 2.07
-1.14 -9.78 -1.21
-1.94 -16.66 2.66
-1.94 -16.64 3.26
-1.2 -10.3 -0.54
-1.99 -17.08 3.97
-1.1 -9.45 -0.17
-1.99 -17.05 4.6
-1.22 -10.19 0.18
-1.27 -10.59 0.56
-0.82 -6.8 -1.33
-2.05 -17.13 1.51
-0.82 -6.82 -1.09
-2.01 -16.76 2.07
-1.17 -9.78 -1.21
-2 -16.66 2.66
-1.27 -10.58 -0.93
-2 -16.64 3.26
-1.24 -10.31 -0.54
-2.05 -17.08 3.97
-1.14 -9.47 -0.17
-2.04 -17.04 4.6
-1.27 -10.3 0.18
-1.29 -10.44 0.55
-0.84 -6.8 -1.33
-2.11 -17.13 1.51
-0.84 -6.8 -1.09
-2.07 -16.76 2.07
-0.84 -6.82 -0.84
-2.06 -16.67 2.66
-0.84 -6.8 -0.6
-2.05 -16.65 3.26
-1.34 -10.87 -0.57
-2.11 -17.1 3.98
-1.18 -9.55 -0.17
-2.1 -17.06 4.6
-1.29 -10.19 0.18
-1.3 -10.22 0.54
-0.87 -6.88 -1.35
-2.18 -17.14 1.51
-0.86 -6.81 -1.09
-2.13 -16.75 2.07
-0.86 -6.8 -0.84
-2.12 -16.68 2.66
-0.86 -6.79 -0.6
-2.12 -16.66 3.26
-1.33 -10.43 -0.55
-2.17 -17.1 3.98
-1.22 -9.59 -0.17
-2.17 -17.06 4.61
-1.28 -9.85 0.17
-1.31 -10.04 0.53
-0.9 -6.93 -1.36
-2.24 -17.16 1.51
-1.13 -8.69 -1.39
-2.19 -16.75 2.07
-0.89 -6.81 -0.84
-2.18 -16.68 2.66
-0.89 -6.79 -0.6
-2.17 -16.67 3.27
-1.43 -10.94 -0.58
-2.23 -17.1 3.98
-1.26 -9.62 -0.17
-2.23 -17.07 4.61
-1.32 -9.86 0.17
-1.38 -10.3 0.54
-0.93 -6.92 -1.36
-2.3 -17.16 1.51
-1.16 -8.68 -1.39
-2.24 -16.73 2.07
-1.32 -9.8 -1.21
-2.24 -16.68 2.67
-2.24 -16.67 3.27
-1.48 -11.07 -0.59
-2.3 -17.11 3.99
-1.29 -9.63 -0.17
-2.29 -17.08 4.62
-1.34 -9.75 0.17
-1.41 -10.23 0.54
-0.94 -6.85 -1.34
-2.32 -16.86 1.49
-1.19 -8.68 -1.39
-2.3 -16.73 2.07
-1.35 -9.8 -1.22
-2.3 -16.69 2.67
-1.99 -14.45 -1.28
-2.29 -16.67 3.27
-2.31 -16.79 -0.89
-2.35 -17.05 3.97
-1.35 -9.77 -0.17
-2.34 -17.01 4.6
-1.38 -9.78 0.17
-1.42 -10.04 0.53
-0.96 -6.81 -1.34
-2.37 -16.79 1.48
-0.96 -6.82 -1.09
-2.36 -16.72 2.07
-0.97 -6.84 -0.85
-2.36 -16.69 2.67
-0.96 -6.83 -0.6
-2.35 -16.66 3.27
-1.61 -11.42 -0.6
-2.36 -16.74 3.9
-1.37 -9.67 -0.17
-2.36 -16.7 4.52
-1.42 -9.81 0.17
-1.44 -9.92 0.53
-0.99 -6.82 -1.34
-2.42 -16.74 1.48
-0.99 -6.81 -1.09
-2.42 -16.7 2.07
-0.99 -6.84 -0.85
-2.42 -16.7 2.67
-0.99 -6.82 -0.6
-2.41 -16.67 3.27
-1.61 -11.11 -0.59
-2.42 -16.74 3.91
-1.42 -9.84 -0.17
-2.42 -16.71 4.52
-1.43 -9.66 0.17
-1.45 -9.8 0.52
-1.03 -6.93 -1.36
-2.48 -16.75 1.48
-1.01 -6.84 -1.1
-2.48 -16.71 2.07
-1.01 -6.83 -0.85
-2.48 -16.71 2.67
-1.01 -6.81 -0.6
-2.47 -16.68 3.28
-1.63 -11.01 -0.58
-2.47 -16.67 3.89
-1.49 -10.08 -0.18
-2.47 -16.66 4.51
-1.49 -9.81 0.17
-1.5 -9.89 0.52
-1.05 -6.92 -1.36
-2.54 -16.75 1.48
-1.04 -6.89 -1.1
-2.54 -16.73 2.08
-1.49 -9.82 -1.22
-2.53 -16.7 2.68
-1.58 -10.39 -0.92
-2.53 -16.69 3.28
-1.68 -11.06 -0.59
-2.53 -16.68 3.89
-2.53 -16.67 4.52
-1.51 -9.69 0.17
-1.53 -9.85 0.52
-1.06 -6.84 -1.35
-2.6 -16.74 1.48
-1.06 -6.85 -1.1
-2.6 -16.73 2.08
-1.53 -9.81 -1.22
-2.6 -16.71 2.68
-1.53 -9.81 -0.87
-2.6 -16.69 3.28
-1.71 -11.02 -0.58
-2.6 -16.69 3.9
-1.53 -9.85 -0.17
-2.59 -16.66 4.52
-1.54 -9.67 0.17
-1.56 -9.79 0.52
-1.08 -6.82 -1.34
-2.66 -16.75 1.48
-1.08 -6.82 -1.09
-2.66 -16.74 2.08
-1.09 -6.85 -0.85
-2.66 -16.72 2.68
-1.09 -6.84 -0.61
-2.65 -16.68 3.28
-1.75 -10.99 -0.58
-2.66 -16.7 3.9
-2.65 -16.67 4.52
-1.57 -9.66 0.17
-1.6 -9.84 0.52
-1.12 -6.86 -1.35
-2.73 -16.76 1.49
-1.11 -6.82 -1.1
-2.72 -16.73 2.08
-1.11 -6.85 -0.85
-2.72 -16.73 2.69
-1.11 -6.83 -0.61
-2.72 -16.69 3.29
-1.8 -11.06 -0.59
-2.72 -16.71 3.91
-1.74 -10.67 -0.19
-2.71 -16.68 4.53
-1.59 -9.54 0.17
-1.62 -9.72 0.52
-1.15 -6.94 -1.37
-2.79 -16.81 1.49
-1.14 -6.88 -1.1
-2.78 -16.73 2.08
-1.14 -6.84 -0.85
-2.78 -16.74 2.69
-1.14 -6.85 -0.61
-2.78 -16.7 3.29
-1.79 -10.75 -0.57
-2.77 -16.7 3.91
-1.92 -11.58 -0.2
-2.77 -16.69 4.53
-1.61 -9.51 0.17
-1.65 -9.72 0.52
-1.18 -6.93 -1.37
-3.07 -18.07 1.6
-1.17 -6.9 -1.11
-2.84 -16.74 2.08
-1.67 -9.82 -1.22
-2.84 -16.73 2.69
-1.77 -10.41 -0.92
-2.84 -16.72 3.3
-2.85 -16.77 -0.89
-2.84 -16.75 3.92
-1.83 -10.78 -0.19
-2.84 -16.73 4.55
-1.63 -9.43 0.17
-1.67 -9.66 0.51
-1.19 -6.84 -1.35
-3.13 -18.06 1.6
-1.19 -6.85 -1.1
-2.9 -16.74 2.09
-1.19 -6.87 -0.86
-2.9 -16.73 2.69
-1.78 -10.29 -0.91
-2.9 -16.72 3.3
-1.84 -10.6 -0.56
-2.91 -16.79 3.93
-1.88 -10.83 -0.19
-2.9 -16.77 4.56
-1.68 -9.49 0.17
-1.71 -9.64 0.51
-1.21 -6.84 -1.35
-3.2 -18.07 1.61
-1.21 -6.83 -1.1
-2.97 -16.77 2.09
-1.21 -6.87 -0.86
-2.96 -16.74 2.69
-1.21 -6.86 -0.61
-2.96 -16.71 3.3
-1.82 -10.27 -0.55
-1.97 -11.12 -0.2
-3.07 -17.33 4.72
-1.71 -9.49 0.17
-1.74 -9.64 0.51
-1.24 -6.9 -1.36
-3.26 -18.08 1.61
-1.23 -6.83 -1.1
-3.02 -16.77 2.09
-1.24 -6.86 -0.86
-3.02 -16.75 2.7
-1.23 -6.84 -0.61
-3.02 -16.73 3.3
-1.85 -10.23 -0.54
-3.14 -17.4 4.08
-1.84 -10.18 -0.18
-3.13 -17.36 4.73
-1.74 -9.46 0.17
-1.77 -9.63 0.51
-1.27 -6.9 -1.36
-3.33 -18.1 1.61
-1.58 -8.58 -1.38
-3.09 -16.77 2.09
-1.81 -9.8 -1.22
-3.09 -16.76 2.7
-1.9 -10.29 -0.92
-3.08 -16.73 3.31
-2.7 -14.65 -0.78
-3.21 -17.4 4.09
-1.86 -10.08 -0.18
-3.2 -17.38 4.74
-1.78 -9.46 0.17
-1.82 -9.68 0.52
-1.29 -6.88 -1.36
-2.74 -14.62 1.3
-2.74 -14.6 1.82
-1.84 -9.83 -1.23
-3.15 -16.75 2.7
-1.92 -10.24 -0.91
-3.14 -16.74 3.31
-2.02 -10.76 -0.57
-3.27 -17.42 4.09
-1.89 -10.09 -0.18
-3.27 -17.41 4.75
-1.8 -9.42 0.17
-1.85 -9.66 0.52
-1.31 -6.85 -1.35
-2.8 -14.61 1.3
-1.32 -6.87 -1.11
-2.8 -14.61 1.83
-1.32 -6.87 -0.86
-3.21 -16.78 2.71
-1.95 -10.17 -0.91
-3.21 -16.74 3.31
-1.99 -10.38 -0.55
-3.33 -17.39 4.09
-3.33 -17.38 4.74
-1.84 -9.45 0.17
-1.88 -9.64 0.51
-1.34 -6.85 -1.36
-3.53 -18.11 1.61
-1.33 -6.83 -1.1
-3.01 -15.42 1.93
-1.34 -6.86 -0.86
-3.27 -16.79 2.71
-1.34 -6.86 -0.61
-3.26 -16.74 3.31
-1.94 -9.97 -0.53
-3.4 -17.42 4.1
-1.91 -9.82 -0.17
-3.39 -17.4 4.75
-1.88 -9.45 0.17
-1.92 -9.69 0.52
-1.37 -6.89 -1.37
-3.59 -18.1 1.61
-1.36 -6.84 -1.11
-3.02 -15.22 1.91
-1.36 -6.86 -0.86
-3.33 -16.8 2.71
-1.36 -6.85 -0.61
-3.32 -16.75 3.32
-1.97 -9.92 -0.53
-3.45 -17.38 4.09
-3.45 -17.37 4.74
-1.9 -9.39 0.17
-1.96 -9.67 0.52
-1.39 -6.89 -1.37
-3.66 -18.12 1.62
-1.4 -6.91 -1.12
-3.07 -15.21 1.91
-1.99 -9.84 -1.23
-3.39 -16.8 2.71
-2.57 -12.73 -1.14
-3.38 -16.75 3.32
-2.01 -9.92 -0.53
-3.52 -17.43 4.11
-1.99 -9.83 -0.17
-3.52 -17.43 4.76
-1.94 -9.44 0.17
-2.04 -9.89 0.53
-1.42 -6.89 -1.37
-3.73 -18.12 1.62
-1.43 -6.95 -1.12
-3.13 -15.21 1.91
-2.03 -9.84 -1.23
-3.45 -16.78 2.71
-2.22 -10.76 -0.96
-3.45 -16.75 3.33
-2.05 -9.94 -0.53
-3.59 -17.42 4.11
-2.03 -9.84 -0.18
-3.58 -17.39 4.76
-1.99 -9.51 0.17
-2.07 -9.87 0.53
-1.44 -6.87 -1.36
-3.79 -18.12 1.62
-1.44 -6.89 -1.12
-3.18 -15.2 1.91
-1.44 -6.88 -0.86
-3.52 -16.79 2.72
-2.31 -11.04 -0.99
-3.51 -16.77 3.33
-3.2 -15.29 -0.82
-3.66 -17.47 4.12
-2.29 -10.94 -0.2
-3.64 -17.41 4.77
-2.03 -9.53 0.17
-2.11 -9.89 0.53
-1.46 -6.86 -1.36
-3.86 -18.12 1.62
-1.46 -6.86 -1.11
-3.24 -15.21 1.91
-1.47 -6.88 -0.86
-3.58 -16.79 2.72
-1.46 -6.87 -0.61
-3.57 -16.76 3.33
-2.1 -9.87 -0.53
-3.71 -17.4 4.11
-2.08 -9.77 -0.17
-3.71 -17.41 4.77
-2.05 -9.48 0.17
-2.16 -9.99 0.54
-1.49 -6.87 -1.37
-3.93 -18.13 1.62
-1.49 -6.86 -1.11
-3.29 -15.2 1.91
-1.49 -6.88 -0.86
-3.64 -16.8 2.72
-1.49 -6.87 -0.62
-3.63 -16.77 3.34
-2.34 -10.79 -0.58
-3.78 -17.44 4.12
-2.11 -9.75 -0.17
-3.77 -17.39 4.77
-2.1 -9.51 0.17
-2.21 -10.03 0.54
-1.52 -6.91 -1.37
-4 -18.14 1.62
-1.53 -6.92 -1.12
-3.35 -15.21 1.91
-2.17 -9.84 -1.24
-3.7 -16.81 2.73
-2.26 -10.24 -0.92
-3.7 -16.78 3.34
-3.85 -17.47 4.13
-2.19 -9.94 -0.18
-3.84 -17.42 4.78
-2.13 -9.53 0.17
-2.23 -9.97 0.54
-1.55 -6.92 -1.38
-4.06 -18.14 1.63
-1.56 -6.95 -1.13
-3.41 -15.22 1.91
-2.2 -9.84 -1.24
-3.76 -16.81 2.73
-2.29 -10.25 -0.92
-3.76 -16.79 3.34
-2.33 -10.38 -0.56
-3.9 -17.43 4.12
-3.9 -17.41 4.78
-2.19 -9.61 0.17
-2.3 -10.1 0.54
-1.57 -6.89 -1.37
-4.13 -18.14 1.63
-1.57 -6.91 -1.12
-3.47 -15.25 1.92
-1.57 -6.9 -0.87
-3.83 -16.81 2.73
-1.57 -6.9 -0.62
-3.82 -16.79 3.35
-2.38 -10.46 -0.56
-3.98 -17.46 4.14
-2.35 -10.31 -0.18
-3.97 -17.44 4.79
-2.2 -9.51 0.17
-2.4 -10.37 0.56
-1.59 -6.87 -1.37
-4.2 -18.15 1.63
-1.59 -6.86 -1.12
-3.53 -15.25 1.92
-1.6 -6.9 -0.87
-3.89 -16.82 2.73
-1.59 -6.87 -0.62
-3.88 -16.79 3.35
-2.39 -10.31 -0.55
-4.04 -17.45 4.14
-2.31 -9.98 -0.18
-4.03 -17.42 4.79
-2.25 -9.56 0.17
-2.47 -10.5 0.57
-1.61 -6.84 -1.37
-4.27 -18.15 1.63
-1.62 -6.87 -1.12
-3.59 -15.27 1.93
-1.62 -6.89 -0.87
-3.96 -16.84 2.74
-1.62 -6.89 -0.62
-3.95 -16.79 3.35
-2.4 -10.22 -0.55
-4.11 -17.5 4.15
-2.53 -10.76 -0.19
-4.11 -17.49 4.82
-2.31 -9.66 0.17
-2.51 -10.54 0.57
-4.34 -18.17 1.63
-1.98 -8.31 -1.35
-3.64 -15.25 1.92
-2.35 -9.85 -1.24
-4.02 -16.84 2.74
-2.42 -10.15 -0.91
-4.01 -16.8 3.36
-2.44 -10.21 -0.55
-4.17 -17.47 4.15
-4.17 -17.46 4.81
-2.35 -9.67 0.17
-2.54 -10.49 0.57
-1.63 -6.71 -1.34
-4.41 -18.17 1.64
-1.63 -6.72 -1.09
-3.7 -15.24 1.93
-1.63 -6.72 -0.85
-4.08 -16.84 2.74
-4.08 -16.81 3.36
-4.25 -17.54 4.17
-2.57 -10.58 -0.19
-4.24 -17.49 4.82
-2.37 -9.64 0.17
-2.58 -10.47 0.56
-1.65 -6.69 -1.34
-4.47 -18.17 1.64
-1.65 -6.71 -1.09
-3.72 -15.1 1.91
-1.65 -6.72 -0.85
-4.14 -16.83 2.75
-1.65 -6.69 -0.6
-4.14 -16.8 3.36
-1.65 -6.71 -0.36
-4.16 -16.89 4.02
-1.66 -6.74 -0.12
-4.15 -16.85 4.65
-1.68 -6.72 0.36
-1.67 -6.7 -1.34
-1.68 -6.73 0.61
-1.67 -6.7 -1.09
-1.68 -6.71 0.85
-1.68 -6.7 -0.85
-4.21 -16.84 2.75
-1.67 -6.69 -0.6
-4.2 -16.81 3.37
-1.68 -6.71 -0.36
-4.22 -16.87 4.01
-1.68 -6.71 -0.12
-4.21 -16.84 4.65
-1.69 -6.68 0.12
-1.7 -6.68 0.36
-1.75 -6.91 -1.39
-1.7 -6.71 -1.1
-1.69 -6.68 0.85
-1.71 -6.73 -0.85
-1.7 -6.71 1.1
-1.7 -6.71 -0.61
-1.69 -6.68 1.34
-1.69 -6.68 -0.36
-1.71 -6.72 1.6
-1.7 -6.7 -0.12
-1.72 -6.7 0.12
-1.71 -6.66 0.36
-1.78 -6.92 -1.39
-1.72 -6.67 0.6
-2.12 -8.22 -1.34
-1.72 -6.67 0.85
-2.54 -9.86 -1.25
-1.72 -6.68 1.09
-2.65 -10.29 -0.93
-1.71 -6.66 1.34
-2.59 -10.08 -0.55
-1.72 -6.67 1.59
-2.64 -10.26 -0.18
-1.72 -6.68 1.85
-1.8 -6.91 -1.39
-1.75 -6.71 0.61
-1.81 -6.92 -1.13
-3.83 -14.67 1.86
-1.81 -6.94 -0.88
-1.75 -6.69 1.09
-1.74 -6.67 1.34
-1.74 -6.68 1.59
-2.64 -10.13 -0.18
-1.74 -6.67 1.85
-2.6 -9.81 0.18
-5.59 -21.1 1.14
-1.82 -6.87 -1.38
-4.82 -18.19 1.65
-1.83 -6.9 -1.13
-3.89 -14.68 1.86
-1.83 -6.9 -0.88
-4.46 -16.86 2.76
-1.83 -6.9 -0.62
-4.46 -16.84 3.39
-2.68 -10.11 -0.55
-4.46 -16.84 4.02
-2.65 -10.02 -0.18
-4.45 -16.82 4.66
-2.63 -9.8 0.18
-1.85 -6.88 -1.39
-4.89 -18.2 1.65
-1.85 -6.89 -1.13
-3.94 -14.68 1.87
-1.85 -6.91 -0.88
-4.53 -16.87 2.77
-1.85 -6.9 -0.62
-4.52 -16.83 3.39
-2.71 -10.08 -0.55
-4.54 -16.89 4.04
-2.67 -9.93 -0.18
-4.52 -16.83 4.67
-2.65 -9.74 0.18
-1.88 -6.89 -1.39
-4.96 -18.21 1.65
-1.89 -6.95 -1.14
-4 -14.68 1.87
-2.69 -9.9 -1.26
-4.6 -16.89 2.77
-1.88 -6.91 -0.63
-4.58 -16.82 3.39
-2.76 -10.13 -0.55
-4.61 -16.92 4.05
-2.7 -9.93 -0.18
-4.6 -16.9 4.69
-2.69 -9.75 0.18
-1.91 -6.94 -1.4
-5.03 -18.23 1.65
-1.93 -6.98 -1.15
-4.05 -14.69 1.87
-2.73 -9.88 -1.26
-4.66 -16.88 2.77
-2.73 -9.89 -0.9
-4.64 -16.82 3.39
-2.78 -10.08 -0.55
-5.11 -18.52 4.44
-2.72 -9.87 -0.18
-4.77 -17.29 4.81
-2.75 -9.84 0.18
-5.65 -20.19 1.1
-1.94 -6.93 -1.4
-5.1 -18.22 1.66
-1.93 -6.91 -1.14
-4.11 -14.69 1.87
-2.77 -9.9 -1.26
-4.72 -16.88 2.78
-2.78 -9.94 -0.9
-4.71 -16.83 3.4
-2.87 -10.27 -0.56
-5.79 -20.71 4.96
-2.76 -9.86 -0.18
-4.84 -17.3 4.81
-2.77 -9.76 0.18
-5.17 -18.22 0.99
-1.96 -6.9 -1.39
-5.17 -18.23 1.66
-1.96 -6.9 -1.14
-4.17 -14.7 1.88
-1.97 -6.94 -0.89
-4.79 -16.88 2.78
-1.96 -6.91 -0.63
-4.77 -16.83 3.4
-5.86 -20.69 4.96
-2.8 -9.88 -0.18
-4.9 -17.29 4.82
-2.79 -9.72 0.18
-5.24 -18.24 0.99
-1.99 -6.91 -1.4
-5.24 -18.23 1.66
-1.99 -6.91 -1.14
-4.22 -14.7 1.88
-1.99 -6.93 -0.88
-4.85 -16.88 2.78
-1.98 -6.91 -0.63
-4.83 -16.83 3.4
-4.42 -15.38 -0.84
-5.89 -20.51 4.93
-2.84 -9.9 -0.18
-4.97 -17.31 4.83
-2.84 -9.75 0.18
-5.31 -18.24 1
-2.02 -6.92 -1.4
-5.31 -18.24 1.66
-2.03 -6.97 -1.15
-4.28 -14.69 1.88
-2.88 -9.9 -1.27
-4.92 -16.9 2.79
-2.99 -10.28 -0.94
-4.91 -16.87 3.41
-4.48 -15.38 -0.84
-5.61 -19.29 4.64
-2.88 -9.9 -0.18
-5.04 -17.31 4.83
-2.86 -9.73 0.18
-2.04 -6.91 -1.4
-5.37 -18.25 1.66
-2.06 -7 -1.16
-4.33 -14.7 1.88
-2.91 -9.89 -1.27
-4.98 -16.9 2.79
-3 -10.18 -0.93
-4.99 -16.94 3.43
-4.53 -15.38 -0.84
-5.64 -19.15 4.61
-2.94 -9.99 -0.18
-5.1 -17.3 4.83
-2.91 -9.75 0.18
-5.74 -19.24 1.05
-2.06 -6.91 -1.4
-5.44 -18.25 1.67
-2.07 -6.93 -1.15
-4.39 -14.71 1.88
-2.07 -6.94 -0.89
-5.04 -16.9 2.79
-2.07 -6.93 -0.63
-5.06 -16.96 3.44
-4.59 -15.39 -0.84
-5.68 -19.03 4.59
-2.98 -10 -0.18
-5.17 -17.32 4.84
-2.95 -9.75 0.18
-2.09 -6.91 -1.4
-5.51 -18.25 1.67
-2.09 -6.91 -1.14
-4.45 -14.72 1.89
-2.09 -6.92 -0.89
-5.11 -16.91 2.8
-2.09 -6.91 -0.63
-5.13 -16.97 3.45
-4.65 -15.4 -0.84
-5.72 -18.94 4.57
-3.03 -10.04 -0.18
-5.24 -17.33 4.85
-2.98 -9.73 0.18
-5.8 -18.95 1.04
-2.12 -6.91 -1.41
-5.59 -18.26 1.67
-2.14 -6.98 -1.16
-4.5 -14.72 1.89
-3.03 -9.91 -1.27
-5.18 -16.93 2.8
-2.12 -6.92 -0.63
-5.19 -16.96 3.45
-4.71 -15.4 -0.84
-5.75 -18.8 4.54
-3.06 -10 -0.18
-5.3 -17.34 4.86
-3.01 -9.7 0.18
-5.68 -18.33 1.01
-2.14 -6.91 -1.41
-5.66 -18.28 1.67
-2.17 -7 -1.16
-4.56 -14.71 1.89
-3.07 -9.9 -1.27
-5.24 -16.93 2.81
-3.11 -10.03 -0.92
-5.26 -16.97 3.45
-4.77 -15.4 -0.84
-5.8 -18.72 4.52
-3.29 -10.61 -0.19
-5.37 -17.35 4.87
-3.05 -9.72 0.18
-5.73 -18.26 1
-2.17 -6.91 -1.41
-5.73 -18.28 1.68
-2.19 -6.97 -1.16
-4.62 -14.73 1.9
-2.18 -6.96 -0.9
-5.31 -16.93 2.81
-2.18 -6.96 -0.64
-5.32 -16.98 3.46
-4.83 -15.41 -0.85
-5.82 -18.55 4.49
-5.71 -18.19 -0.33
-5.44 -17.35 4.87
-5.77 -18.16 1
-2.19 -6.9 -1.41
-5.77 -18.19 1.67
-2.2 -6.94 -1.15
-4.68 -14.73 1.9
-2.2 -6.94 -0.89
-5.37 -16.92 2.81
-2.2 -6.95 -0.64
-5.39 -16.99 3.46
-4.9 -15.43 -0.85
-6.55 -20.65 5
-5.74 -18.07 -0.33
-5.51 -17.35 4.88
-5.77 -17.96 0.33
-5.78 -18 0.99
-2.22 -6.9 -1.41
-5.78 -18.01 1.65
-2.23 -6.94 -1.15
-4.74 -14.74 1.9
-2.23 -6.96 -0.9
-5.44 -16.92 2.82
-2.23 -6.94 -0.64
-5.46 -16.98 3.47
-4.96 -15.43 -0.85
-5.87 -18.26 4.43
-5.53 -17.21 -0.32
-5.57 -17.35 4.88
-5.78 -17.78 0.33
-5.8 -17.84 0.98
-2.24 -6.88 -1.41
-5.8 -17.84 1.64
-2.28 -7 -1.17
-4.79 -14.74 1.9
-3.43 -10.54 -1.36
-5.51 -16.95 2.82
-4.64 -14.26 -1.31
-5.52 -16.98 3.47
-5.01 -15.42 -0.85
-5.93 -18.25 4.43
-5.77 -17.74 -0.33
-5.64 -17.34 4.89
-5.8 -17.63 0.32
-5.81 -17.67 0.97
-2.26 -6.86 -1.4
-5.82 -17.68 1.63
-2.3 -7 -1.17
-4.85 -14.74 1.91
-3.47 -10.54 -1.36
-5.58 -16.95 2.83
-4.69 -14.27 -1.31
-5.59 -16.98 3.47
-5.03 -15.29 -0.84
-5.73 -17.43 4.24
-5.78 -17.58 -0.32
-5.72 -17.37 4.9
-5.81 -17.47 0.32
-5.82 -17.49 0.97
-2.28 -6.85 -1.4
-5.83 -17.52 1.62
-2.32 -6.96 -1.16
-4.91 -14.75 1.91
-2.31 -6.94 -0.9
-5.65 -16.97 2.83
-2.32 -6.96 -0.64
-5.66 -16.99 3.48
-4.95 -14.86 -0.82
-5.79 -17.4 4.23
-5.8 -17.43 -0.32
-5.79 -17.39 4.91
-5.83 -17.3 0.32
-5.84 -17.34 0.96
-2.3 -6.83 -1.4
-5.84 -17.35 1.6
-2.34 -6.95 -1.16
-4.97 -14.76 1.91
-2.34 -6.94 -0.9
-5.71 -16.95 2.83
-2.34 -6.94 -0.64
-5.72 -17 3.49
-5.08 -15.1 -0.83
-5.86 -17.41 4.24
-5.81 -17.26 -0.32
-5.86 -17.39 4.92
-5.84 -17.15 0.32
-5.86 -17.19 0.95
-2.33 -6.83 -1.4
-5.86 -17.2 1.59
-2.38 -6.98 -1.17
-5.03 -14.76 1.91
-2.38 -6.99 -0.91
-5.77 -16.95 2.84
-2.37 -6.95 -0.64
-5.79 -17 3.49
-5.16 -15.14 -0.84
-5.93 -17.4 4.24
-5.83 -17.11 -0.32
-5.92 -17.39 4.92
-5.87 -17.04 0.31
-5.88 -17.06 0.95
-2.35 -6.83 -1.4
-5.87 -17.04 1.58
-2.4 -6.98 -1.17
-5.09 -14.76 1.92
-3.63 -10.55 -1.37
-5.84 -16.96 2.84
-4.92 -14.29 -1.32
-5.86 -17 3.49
-5.22 -15.15 -0.84
-5.86 -17.02 4.16
-5.83 -16.92 -0.31
-5.85 -16.99 4.81
-5.93 -17.02 0.31
-5.93 -17.01 0.94
-2.38 -6.83 -1.41
-5.92 -17 1.57
-2.42 -6.96 -1.17
-4.85 -13.91 1.81
-2.44 -6.99 -0.91
-5.91 -16.98 2.85
-4.98 -14.29 -1.32
-5.93 -17.01 3.5
-5.28 -15.14 -0.84
-5.92 -17 4.16
-5.95 -17.07 -0.32
-5.92 -16.98 4.82
-6 -17.03 0.32
-5.99 -17 0.94
-2.41 -6.83 -1.41
-5.99 -16.99 1.58
-2.45 -6.95 -1.17
-4.9 -13.92 1.81
-2.45 -6.96 -0.91
-5.98 -16.98 2.85
-2.45 -6.96 -0.65
-5.98 -16.97 3.5
-5.34 -15.15 -0.84
-5.97 -16.95 4.15
-6.01 -17.07 -0.32
-5.96 -16.92 4.81
-6.07 -17.04 0.32
-6.06 -17.01 0.95
-2.43 -6.81 -1.4
-6.06 -17.02 1.58
-2.48 -6.97 -1.17
-4.96 -13.91 1.81
-2.48 -6.95 -0.91
-6.05 -16.98 2.85
-2.48 -6.96 -0.65
-6.04 -16.96 3.5
-5.4 -15.15 -0.84
-6.04 -16.94 4.15
-6.08 -17.08 -0.32
-6.04 -16.94 4.82
-6.14 -17.05 0.32
-6.13 -17.02 0.95
-2.45 -6.81 -1.41
-6.13 -17.01 1.58
-2.52 -6.99 -1.18
-5.01 -13.92 1.82
-3.79 -10.52 -1.37
-6.12 -16.99 2.86
-6.11 -16.96 3.5
-5.46 -15.17 -0.84
-6.11 -16.96 4.16
-6.15 -17.08 -0.32
-6.1 -16.93 4.82
-6.21 -17.05 0.32
-6.2 -17.03 0.95
-2.48 -6.82 -1.41
-6.2 -17.03 1.59
-2.54 -6.97 -1.17
-5.07 -13.92 1.82
-3.84 -10.54 -1.38
-6.19 -17 2.87
-5.2 -14.28 -1.33
-6.18 -16.96 3.51
-5.53 -15.18 -0.85
-6.18 -16.97 4.17
-6.23 -17.1 -0.32
-6.17 -16.95 4.83
-6.3 -17.11 0.32
-6.28 -17.05 0.95
-2.51 -6.82 -1.41
-6.27 -17.04 1.59
-2.56 -6.96 -1.17
-5.13 -13.93 1.82
-2.57 -6.98 -0.91
-6.26 -17.01 2.87
-2.57 -6.98 -0.65
-6.24 -16.96 3.51
-5.58 -15.17 -0.85
-6.25 -16.98 4.18
-6.24 -16.96 4.84
-2.54 -6.82 -1.41
-2.6 -6.98 -1.18
-5.18 -13.92 1.82
-2.6 -6.97 -0.91
-6.33 -17.01 2.87
-2.59 -6.97 -0.65
-6.32 -17 3.53
-5.65 -15.18 -0.85
-6.32 -16.98 4.18
-6.41 -17.23 -0.32
-6.31 -16.96 4.85
-6.46 -17.18 0.32
-6.45 -17.15 0.96
-2.56 -6.81 -1.42
-6.59 -17.51 1.64
-2.63 -6.99 -1.18
-5.24 -13.93 1.83
-3.94 -10.49 -1.38
-6.39 -17 2.88
-2.62 -6.96 -0.65
-6.42 -17.08 3.55
-5.71 -15.19 -0.85
-6.42 -17.06 4.21
-6.47 -17.21 -0.32
-6.41 -17.04 4.88
-6.53 -17.19 0.32
-6.53 -17.17 0.96
-2.59 -6.81 -1.42
-6.65 -17.51 1.64
-2.66 -6.99 -1.18
-5.3 -13.94 1.83
-3.98 -10.47 -1.38
-6.47 -17.02 2.88
-6.63 -17.44 3.63
-5.77 -15.19 -0.85
-6.64 -17.46 4.31
-6.55 -17.24 -0.32
-6.62 -17.42 4.99
-6.61 -17.2 0.32
-6.6 -17.19 0.97
-2.62 -6.82 -1.42
-6.73 -17.52 1.64
-2.68 -6.98 -1.18
-5.35 -13.94 1.83
-2.69 -7 -0.92
-6.54 -17.03 2.89
-2.69 -6.99 -0.66
-6.7 -17.44 3.63
-5.83 -15.19 -0.85
-6.71 -17.47 4.32
-6.63 -17.27 -0.32
-6.69 -17.42 5
-6.67 -17.19 0.32
-6.67 -17.2 0.97
-2.66 -6.84 -1.43
-6.8 -17.52 1.64
-2.7 -6.96 -1.18
-5.41 -13.94 1.84
-2.71 -6.98 -0.92
-6.61 -17.04 2.89
-2.71 -6.98 -0.66
-6.77 -17.45 3.64
-5.88 -15.16 -0.85
-6.78 -17.47 4.33
-6.7 -17.27 -0.32
-6.77 -17.44 5.01
-6.75 -17.2 0.32
-6.74 -17.2 0.97
-2.68 -6.84 -1.43
-6.88 -17.55 1.65
-2.74 -6.98 -1.19
-5.47 -13.95 1.84
-2.73 -6.97 -0.92
-6.68 -17.05 2.9
-2.74 -6.98 -0.66
-6.84 -17.45 3.64
-5.92 -15.09 -0.85
-6.85 -17.47 4.33
-6.77 -17.28 -0.32
-6.84 -17.46 5.02
-6.81 -17.2 0.32
-6.81 -17.19 0.97
-2.7 -6.83 -1.43
-6.95 -17.55 1.65
-2.77 -6.99 -1.19
-5.52 -13.95 1.84
-2.8 -7.07 -0.93
-6.75 -17.04 2.9
-5.32 -13.44 -1.26
-6.91 -17.46 3.65
-5.91 -14.93 -0.84
-6.92 -17.49 4.34
-6.6 -16.66 -0.31
-6.91 -17.45 5.03
-6.89 -17.22 0.32
-6.88 -17.19 0.97
-2.73 -6.82 -1.43
-7.02 -17.55 1.65
-2.8 -7 -1.19
-5.58 -13.96 1.85
-2.82 -7.06 -0.93
-6.82 -17.04 2.91
-2.82 -7.06 -0.66
-6.99 -17.48 3.66
-5.98 -14.94 -0.84
-6.99 -17.49 4.35
-5.96 -14.91 -0.28
-6.97 -17.44 5.03
-6.96 -17.21 0.32
-6.96 -17.22 0.97
-2.76 -6.82 -1.43
-7.09 -17.55 1.66
-2.83 -7 -1.2
-5.64 -13.96 1.85
-2.83 -7.01 -0.93
-6.89 -17.05 2.91
-2.84 -7.02 -0.66
-7.06 -17.48 3.66
-6.48 -16.04 -0.91
-7.07 -17.49 4.36
-6.03 -14.92 -0.28
-7.05 -17.45 5.04
-7.04 -17.23 0.32
-7.04 -17.24 0.98
-2.78 -6.81 -1.43
-7.17 -17.56 1.66
-2.85 -6.98 -1.19
-5.7 -13.96 1.85
-2.86 -7 -0.93
-6.97 -17.06 2.92
-2.84 -6.97 -0.66
-7.14 -17.49 3.67
-6.69 -16.37 -0.93
-7.14 -17.5 4.36
-7.07 -17.31 -0.33
-7.12 -17.44 5.05
-7.11 -17.24 0.33
-7.11 -17.23 0.98
-2.81 -6.81 -1.43
-7.24 -17.57 1.66
-2.88 -6.99 -1.2
-5.76 -13.97 1.85
-2.88 -6.98 -0.93
-7.04 -17.08 2.93
-2.87 -6.97 -0.66
-7.21 -17.48 3.68
-7.08 -17.17 -0.97
-7.21 -17.49 4.37
-6.22 -15.07 -0.28
-7.19 -17.43 5.05
-6.21 -14.92 0.28
-6.23 -14.95 0.85
-2.83 -6.8 -1.43
-6.23 -14.97 1.42
-2.93 -7.03 -1.21
-5.82 -13.97 1.86
-4.3 -10.32 -1.37
-7.11 -17.08 2.93
-5.6 -13.44 -1.27
-7.28 -17.49 3.68
-6.22 -14.94 -0.85
-7.29 -17.51 4.38
-6.22 -14.93 -0.28
-7.18 -17.23 5
-6.26 -14.9 0.28
-6.25 -14.88 0.85
-2.86 -6.8 -1.43
-6.25 -14.86 1.41
-2.95 -7.03 -1.21
-5.88 -13.98 1.86
-4.33 -10.3 -1.37
-7.18 -17.08 2.94
-5.65 -13.44 -1.28
-7.36 -17.5 3.69
-6.8 -16.18 -0.92
-7.36 -17.51 4.39
-7.2 -17.12 4.98
-2.89 -6.8 -1.44
-2.97 -6.99 -1.2
-5.94 -13.99 1.87
-2.98 -7.03 -0.94
-7.25 -17.07 2.94
-2.97 -7 -0.67
-7.43 -17.51 3.7
-6.86 -16.17 -0.92
-7.44 -17.53 4.4
-7.35 -17.32 -0.33
-7.26 -17.11 4.98
-7.41 -17.28 0.33
-7.4 -17.25 0.98
-2.91 -6.8 -1.44
-7.54 -17.59 1.67
-3 -7 -1.21
-6 -13.99 1.87
-3 -7 -0.94
-7.32 -17.09 2.94
-2.99 -6.98 -0.66
-7.51 -17.51 3.7
-7.37 -17.2 -0.98
-7.51 -17.52 4.4
-7.43 -17.34 -0.33
-7.34 -17.12 4.99
-7.47 -17.27 0.33
-7.46 -17.24 0.98
-2.94 -6.79 -1.44
-7.63 -17.62 1.68
-3.04 -7.03 -1.21
-6.06 -13.99 1.87
-4.44 -10.26 -1.37
-7.4 -17.1 2.95
-3.02 -6.99 -0.67
-7.59 -17.53 3.71
-7.45 -17.2 -0.98
-7.59 -17.54 4.41
-7.51 -17.35 -0.33
-7.41 -17.12 5
-7.55 -17.29 0.33
-7.54 -17.27 0.99
-2.96 -6.77 -1.44
-7.7 -17.63 1.68
-3.08 -7.04 -1.22
-6.12 -14.01 1.88
-4.48 -10.24 -1.37
-7.47 -17.1 2.96
-7.66 -17.53 3.72
-7.52 -17.21 -0.98
-7.66 -17.53 4.42
-7.58 -17.35 -0.33
-7.49 -17.13 5.01
-7.62 -17.28 0.33
-7.61 -17.26 0.99
-2.98 -6.76 -1.44
-7.77 -17.61 1.68
-3.1 -7.02 -1.22
-6.18 -14.01 1.88
-3.1 -7.03 -0.94
-7.55 -17.11 2.96
-5.95 -13.5 -1.29
-7.75 -17.57 3.73
-6.7 -15.18 -0.87
-7.75 -17.58 4.43
-7.65 -17.34 -0.33
-7.56 -17.13 5.02
-7.71 -17.32 0.33
-7.69 -17.28 0.99
-3.01 -6.76 -1.44
-6.52 -14.65 1.4
-3.12 -7 -1.21
-6.24 -14.01 1.88
-3.12 -7.02 -0.94
-7.62 -17.11 2.97
-3.12 -7 -0.67
-7.65 -17.18 3.66
-7.18 -16.13 -0.93
-7.68 -17.26 4.36
-7.74 -17.38 -0.33
-7.63 -17.13 5.02
-7.78 -17.3 0.33
-7.77 -17.28 0.99
-3.04 -6.76 -1.44
-7.91 -17.61 1.69
-3.16 -7.04 -1.22
-6.3 -14.01 1.89
-3.16 -7.03 -0.95
-7.69 -17.12 2.97
-3.15 -7 -0.67
-7.71 -17.15 3.65
-7.32 -16.28 -0.94
-7.71 -17.16 4.34
-7.82 -17.39 -0.33
-7.7 -17.13 5.03
-7.86 -17.32 0.33
-7.84 -17.28 0.99
-3.07 -6.76 -1.44
-7.99 -17.62 1.69
-3.2 -7.06 -1.23
-6.37 -14.04 1.89
-4.63 -10.2 -1.38
-7.77 -17.12 2.98
-7.76 -17.11 3.65
-7.27 -16.03 -0.92
-7.76 -17.11 4.34
-7.88 -17.37 -0.33
-7.76 -17.11 5.04
-7.94 -17.34 0.33
-7.92 -17.29 1
-3.08 -6.73 -1.44
-8.08 -17.64 1.7
-3.23 -7.04 -1.23
-6.44 -14.06 1.9
-3.22 -7.04 -0.95
-7.83 -17.11 2.98
-6.08 -13.27 -1.28
-7.83 -17.1 3.65
-7.39 -16.15 -0.93
-7.82 -17.08 4.34
-7.95 -17.37 -0.33
-7.82 -17.08 5.03
-8 -17.32 0.33
-7.98 -17.28 1
-3.12 -6.75 -1.45
-8.15 -17.65 1.7
-3.24 -7.02 -1.22
-6.5 -14.06 1.9
-3.25 -7.03 -0.95
-7.91 -17.13 2.99
-3.24 -7.01 -0.68
-7.9 -17.1 3.66
-7.38 -15.98 -0.92
-7.9 -17.09 4.35
-8.03 -17.38 -0.33
-7.89 -17.07 5.04
-8.08 -17.33 0.33
-8.07 -17.31 1
-8.23 -17.65 1.7
-3.29 -7.05 -1.23
-6.57 -14.08 1.91
-3.28 -7.03 -0.95
-7.99 -17.14 3
-3.26 -7 -0.68
-7.98 -17.1 3.67
-7.37 -15.82 -0.91
-7.98 -17.11 4.36
-8.13 -17.43 -0.34
-7.97 -17.1 5.06
-8.17 -17.35 0.33
-8.17 -17.36 1.01
-8.31 -17.66 1.71
-3.52 -7.49 -1.31
-8.07 -17.16 2.33
-4.78 -10.16 -1.38
-8.07 -17.14 3
-6.18 -13.14 -1.27
-8.08 -17.18 3.69
-7.58 -16.11 -0.93
-8.09 -17.18 4.38
-8.21 -17.45 -0.34
-8.04 -17.09 5.06
-8.24 -17.36 0.34
-8.24 -17.36 1.01
-8.39 -17.68 1.71
-3.35 -7.06 -1.24
-8.15 -17.17 2.33
-3.34 -7.04 -0.96
-8.14 -17.15 3.01
-6.19 -13.04 -1.26
-10.8 -22.74 4.89
-7.53 -15.86 -0.92
-8.34 -17.56 4.49
-8.28 -17.44 -0.34
-8.12 -17.1 5.07
-6.02 -12.57 0.24
-8.3 -17.33 1.01
-3.23 -6.74 -1.45
-8.46 -17.67 1.71
-3.38 -7.05 -1.24
-8.22 -17.16 2.34
-3.37 -7.03 -0.96
-8.22 -17.15 3.01
-3.37 -7.04 -0.68
-10.9 -22.76 4.9
-7.7 -16.08 -0.93
-8.41 -17.56 4.49
-8.34 -17.41 -0.34
-8.2 -17.11 5.08
-5.96 -12.33 0.24
-8.39 -17.35 1.01
-3.24 -6.71 -1.45
-8.54 -17.68 1.72
-3.41 -7.05 -1.24
-8.31 -17.18 2.34
-3.42 -7.07 -0.96
-8.3 -17.17 3.02
-3.39 -7.02 -0.68
-11 -22.76 4.91
-7.66 -15.85 -0.92
-8.49 -17.57 4.51
-6.14 -12.69 -0.25
-8.27 -17.11 5.09
-5.95 -12.2 0.24
-8.47 -17.36 1.01
-3.27 -6.7 -1.45
-8.63 -17.69 1.72
-3.75 -7.69 -1.36
-8.39 -17.19 2.35
-4.94 -10.14 -1.38
-8.37 -17.17 3.03
-6.23 -12.78 -1.24
-11.1 -22.77 4.92
-7.62 -15.63 -0.91
-8.58 -17.59 4.52
-6.11 -12.53 -0.24
-8.35 -17.12 5.1
-5.97 -12.14 0.24
-8.57 -17.42 1.02
-8.7 -17.69 1.72
-3.47 -7.06 -1.25
-8.46 -17.19 2.35
-3.48 -7.08 -0.97
-8.45 -17.17 3.03
-3.48 -7.06 -0.69
-11.2 -22.76 4.93
-7.61 -15.47 -0.9
-8.66 -17.6 4.53
-6.15 -12.5 -0.24
-8.43 -17.12 5.11
-5.99 -12.07 0.24
-8.63 -17.39 1.02
-8.79 -17.71 1.73
-3.5 -7.05 -1.25
-8.53 -17.19 2.36
-3.5 -7.05 -0.97
-8.53 -17.18 3.04
-3.5 -7.06 -0.69
-11.31 -22.79 4.95
-7.78 -15.66 -0.92
-8.73 -17.59 4.53
-6.03 -12.15 -0.24
-8.5 -17.13 5.12
-5.99 -11.96 0.23
-8.69 -17.36 1.02
-8.88 -17.73 1.73
-3.56 -7.11 -1.26
-8.61 -17.2 2.36
-3.54 -7.08 -0.97
-8.61 -17.18 3.04
-3.52 -7.04 -0.69
-11.42 -22.8 4.96
-7.84 -15.65 -0.92
-8.81 -17.6 4.54
-6.11 -12.2 -0.24
-8.58 -17.14 5.14
-6 -11.87 0.23
-8.79 -17.39 1.02
-8.94 -17.7 1.73
-3.82 -7.55 -1.34
-8.69 -17.21 2.37
-5.1 -10.09 -1.39
-8.68 -17.19 3.05
-6.34 -12.55 -1.23
-11.53 -22.82 4.97
-7.9 -15.64 -0.92
-8.89 -17.6 4.55
-6.15 -12.17 -0.24
-8.66 -17.14 5.15
-6 -11.77 0.23
-8.86 -17.39 1.02
-9.02 -17.71 1.74
-3.6 -7.07 -1.26
-8.77 -17.22 2.37
-3.61 -7.09 -0.98
-8.76 -17.2 3.06
-3.6 -7.06 -0.69
-11.63 -22.83 4.98
-7.97 -15.64 -0.92
-8.98 -17.62 4.57
-6.11 -11.98 -0.23
-8.74 -17.15 5.16
-5.99 -11.65 0.23
-9.1 -17.7 1.74
-3.63 -7.06 -1.26
-8.85 -17.22 2.38
-3.64 -7.08 -0.98
-8.84 -17.2 3.06
-3.62 -7.05 -0.69
-11.73 -22.83 4.99
-7.95 -15.48 -0.91
-9.06 -17.62 4.57
-6.12 -11.91 -0.23
-8.82 -17.16 5.17
-6.05 -11.68 0.23
-9.03 -17.41 1.03
-3.44 -6.64 -1.45
-9.18 -17.71 1.75
-3.97 -7.65 -1.37
-8.93 -17.22 2.38
-5.24 -10.11 -1.4
-8.92 -17.2 3.07
-3.66 -7.07 -0.7
-11.84 -22.85 5
-7.96 -15.35 -0.91
-9.13 -17.61 4.58
-6.16 -11.88 -0.23
-8.9 -17.16 5.18
-6.05 -11.58 0.23
-9.13 -17.47 1.03
-3.46 -6.63 -1.45
-9.27 -17.73 1.75
-3.96 -7.57 -1.35
-9 -17.22 2.39
-5.29 -10.12 -1.4
-9 -17.21 3.08
-11.94 -22.84 5.01
-8.17 -15.63 -0.92
-9.21 -17.62 4.59
-6.09 -11.64 -0.23
-8.98 -17.17 5.19
-6 -11.38 0.22
-3.49 -6.63 -1.46
-9.36 -17.75 1.76
-3.74 -7.09 -1.27
-9.09 -17.24 2.39
-3.74 -7.09 -0.98
-9.08 -17.22 3.08
-3.72 -7.05 -0.7
-12.05 -22.85 5.02
-8.17 -15.49 -0.92
-9.3 -17.64 4.6
-6.18 -11.72 -0.23
-9.05 -17.17 5.2
-6.04 -11.36 0.22
-9.33 -17.54 1.04
-3.52 -6.62 -1.46
-9.39 -17.67 1.75
-3.76 -7.08 -1.27
-9.17 -17.25 2.4
-3.76 -7.08 -0.98
-9.16 -17.23 3.09
-3.75 -7.05 -0.7
-12.15 -22.86 5.03
-8.21 -15.44 -0.92
-9.39 -17.65 4.62
-6.12 -11.5 -0.23
-9.13 -17.18 5.21
-6.04 -11.27 0.22
-9.36 -17.45 1.04
-3.54 -6.6 -1.46
-9.41 -17.55 1.74
-4.08 -7.61 -1.37
-9.25 -17.25 2.4
-5.4 -10.08 -1.4
-9.24 -17.24 3.1
-6.42 -11.98 -1.19
-9.42 -17.58 3.88
-8.52 -15.89 -0.94
-9.46 -17.65 4.62
-6.1 -11.37 -0.23
-9.22 -17.19 5.23
-6.07 -11.23 0.22
-9.38 -17.35 1.03
-9.39 -17.36 1.73
-3.91 -7.23 -1.3
-9.33 -17.25 2.41
-3.85 -7.11 -0.99
-9.32 -17.24 3.1
-6.47 -11.96 -1.19
-9.35 -17.29 3.82
