# .PCD v0.7 - Point Cloud Data file format
VERSION 0.7
FIELDS x y z
SIZE 4 4 4
TYPE F F F
COUNT 1 1 1
WIDTH 2847
HEIGHT 1
VIEWPOINT 0 0 0 1 0 0 0
POINTS 2847
DATA ascii
-61.53 60.42 -1.51
-4.9 4.85 -1.85
-8.81 8.72 -1.96
-61.39 60.71 -1.51
-4.94 4.92 -1.87
-8.78 8.74 -1.96
-14.95 14.89 -2.59
-61.23 60.97 -1.51
-4.91 4.93 -1.86
-8.7 8.72 -1.95
-4.91 4.96 -1.87
-8.64 8.73 -1.95
-13.62 13.76 -2.38
-4.88 4.96 -1.86
-8.63 8.77 -1.95
-13.61 13.84 -2.38
-4.82 4.93 -1.85
-8.56 8.77 -1.94
-13.6 13.92 -2.39
-67.27 68.87 -5.05
-4.79 4.93 -1.84
-8.53 8.79 -1.94
-13.61 14.03 -2.4
-67.24 69.33 -5.06
-4.75 4.94 -1.84
-8.42 8.74 -1.92
-13.57 14.09 -2.4
-26.95 27.99 -3.4
-4.74 4.96 -1.84
-8.3 8.67 -1.9
-13.53 14.14 -2.4
-26.51 27.7 -3.35
-4.72 4.97 -1.84
-8.26 8.69 -1.9
-13.44 14.15 -2.4
-26.35 27.72 -3.35
-4.68 4.96 -1.83
-8.17 8.65 -1.88
-13.38 14.18 -2.39
-26.27 27.84 -3.35
-4.65 4.96 -1.82
-8.14 8.69 -1.89
-13.36 14.25 -2.4
-26.18 27.94 -3.35
-4.64 4.98 -1.82
-8.11 8.71 -1.89
-13.31 14.3 -2.4
-26.11 28.06 -3.35
-4.61 4.99 -1.82
-8.08 8.75 -1.89
-13.41 14.51 -2.43
-26.03 28.17 -3.36
-4.62 5.03 -1.83
-8.02 8.74 -1.88
-13.4 14.6 -2.43
-25.95 28.28 -3.36
-4.57 5.02 -1.82
-7.94 8.71 -1.87
-12.76 14 -2.33
-25.86 28.38 -3.36
-4.56 5.03 -1.82
-7.91 8.74 -1.87
-13.19 14.57 -2.41
-25.79 28.5 -3.36
-4.54 5.05 -1.82
-7.78 8.65 -1.84
-13.1 14.58 -2.41
-25.72 28.61 -3.37
-4.51 5.06 -1.82
-7.73 8.66 -1.84
-12.96 14.53 -2.39
-25.62 28.72 -3.37
-4.48 5.06 -1.81
-7.68 8.67 -1.84
-13.04 14.72 -2.41
-25.54 28.83 -3.37
-4.47 5.08 -1.81
-7.59 8.62 -1.82
-12.95 14.72 -2.41
-25.48 28.95 -3.37
-4.45 5.1 -1.81
-7.57 8.66 -1.82
-12.91 14.77 -2.41
-25.39 29.06 -3.38
-4.45 5.13 -1.82
-7.54 8.69 -1.82
-12.88 14.85 -2.41
-25.32 29.19 -3.38
-4.44 5.15 -1.82
-7.47 8.68 -1.81
-12.91 14.99 -2.43
-19.93 23.14 -2.67
-4.41 5.16 -1.82
-7.17 8.38 -1.75
-12.9 15.09 -2.44
-25.16 29.41 -3.39
-4.4 5.18 -1.82
-7.12 8.39 -1.74
-12.83 15.11 -2.43
-25.09 29.55 -3.39
-4.39 5.2 -1.82
-7.26 8.61 -1.78
-12.86 15.24 -2.45
-25.11 29.75 -3.41
-4.37 5.22 -1.82
-7.21 8.61 -1.78
-12.81 15.29 -2.45
-4.34 5.22 -1.82
-7.11 8.54 -1.76
-12.72 15.3 -2.44
-12 14.43 -1.64
-4.31 5.22 -1.82
-7.08 8.58 -1.76
-12.67 15.34 -2.44
-11.96 14.48 -1.64
-4.29 5.23 -1.81
-7.04 8.58 -1.76
-12.58 15.34 -2.44
-11.92 14.53 -1.64
-4.27 5.24 -1.81
-7.02 8.63 -1.76
-11.83 14.53 -2.3
-11.85 14.55 -1.64
-4.24 5.25 -1.81
-5.69 7.03 -1.76
-6.95 8.6 -1.75
-12.62 15.61 -2.46
-11.84 14.64 -1.65
-4.22 5.25 -1.81
-5.61 6.98 -1.74
-6.89 8.58 -1.74
-12.57 15.66 -2.47
-11.8 14.7 -1.65
-4.19 5.26 -1.8
-5.57 6.99 -1.74
-6.84 8.58 -1.74
-12.51 15.7 -2.46
-11.77 14.77 -1.65
-4.17 5.27 -1.8
-5.55 7.01 -1.74
-6.81 8.61 -1.74
-4.15 5.28 -1.8
-5.52 7.02 -1.73
-6.79 8.64 -1.74
-12.4 15.78 -2.46
-4.15 5.32 -1.81
-5.46 6.99 -1.72
-6.69 8.57 -1.72
-12.39 15.88 -2.47
-4.13 5.32 -1.81
-34.59 44.64 0.99
-34.73 44.82 2.97
-5.44 7.02 -1.73
-6.64 8.58 -1.72
-12.36 15.96 -2.48
-34.42 44.75 0.99
-34.58 44.96 2.97
-5.44 7.07 -1.73
-6.65 8.65 -1.73
-12.35 16.05 -2.49
-4.07 5.33 -1.8
-34.36 45 0.99
-34.43 45.08 2.97
-5.4 7.07 -1.73
-6.61 8.66 -1.73
-11.85 15.51 -2.4
-4.07 5.37 -1.81
-34.25 45.18 0.99
-34.27 45.21 2.97
-5.36 7.07 -1.73
-6.51 8.59 -1.71
-12.28 16.19 -2.5
-22.92 30.23 -3.32
-4.05 5.37 -1.8
-34.16 45.38 0.99
-34.12 45.33 2.97
-5.33 7.09 -1.72
-6.45 8.57 -1.7
-12.31 16.35 -2.51
-22.65 30.09 -3.29
-4.01 5.37 -1.8
-34 45.5 0.99
-33.95 45.44 2.97
-5.27 7.06 -1.71
-6.44 8.63 -1.71
-12.26 16.41 -2.51
-3.99 5.38 -1.79
-33.79 45.54 0.99
-33.82 45.59 2.97
-5.25 7.08 -1.71
-6.36 8.57 -1.69
-12.14 16.37 -2.5
-22.26 30.01 -3.27
-3.96 5.38 -1.79
-33.64 45.67 0.99
-33.73 45.78 2.98
-5.23 7.1 -1.71
-6.31 8.57 -1.69
-11.96 16.24 -2.48
-33.59 45.59 -0.99
-3.94 5.39 -1.79
-5.2 7.11 -1.71
-6.31 8.62 -1.69
-11.91 16.28 -2.48
-5.18 7.13 -1.71
-6.29 8.66 -1.7
-11.8 16.24 -2.46
-5.13 7.12 -1.71
-6.21 8.61 -1.68
-11.59 16.07 -2.43
-5.09 7.11 -1.7
-6.2 8.66 -1.69
-11.39 15.91 -2.4
-5 7.04 -1.68
-6.15 8.66 -1.68
-11.18 15.73 -2.37
-4.99 7.07 -1.68
-6.02 8.54 -1.66
-11.35 16.1 -2.42
-29.11 41.59 0.89
-28.95 41.36 2.65
-4.97 7.1 -1.69
-6.01 8.59 -1.66
-11.3 16.14 -2.42
-20.53 29.33 -3.13
-28.98 41.69 0.89
-28.86 41.52 2.65
-4.97 7.15 -1.69
-5.98 8.61 -1.66
-11.22 16.15 -2.41
-20.33 29.25 -3.12
-28.85 41.83 0.89
-28.79 41.73 2.66
-5.95 8.62 -1.66
-11.2 16.23 -2.42
-20.11 29.15 -3.1
-28.74 41.96 0.89
-28.71 41.91 2.66
-5.89 8.6 -1.65
-11.17 16.31 -2.43
-28.6 42.09 0.89
-28.63 42.13 2.67
-5.84 8.6 -1.65
-11.12 16.36 -2.43
-19.75 29.06 -3.07
-28.59 42.37 0.89
-28.59 42.38 2.68
-5.76 8.54 -1.63
-9.66 14.32 -2.12
-19.6 29.05 -3.07
-28.55 42.65 0.9
-28.6 42.72 2.69
-5.74 8.58 -1.64
-9.8 14.64 -2.16
-19.47 29.08 -3.06
-5.7 8.57 -1.63
-11.28 16.97 -2.5
-19.38 29.16 -3.06
-5.64 8.55 -1.62
-9.93 15.06 -2.21
-4.66 7.12 -1.65
-5.56 8.5 -1.61
-9.6 14.67 -2.15
-19.28 29.45 -3.08
-4.62 7.12 -1.65
-5.56 8.57 -1.62
-9.61 14.79 -2.17
-19.21 29.58 -3.09
-4.63 7.18 -1.66
-5.54 8.59 -1.62
-9.49 14.72 -2.15
-19.14 29.69 -3.09
-4.56 7.12 -1.64
-5.5 8.59 -1.62
-9.46 14.78 -2.15
-19.08 29.82 -3.1
-47.9 75.42 1.56
-4.53 7.13 -1.64
-5.37 8.46 -1.59
-9.39 14.79 -2.15
-19.06 30.01 -3.11
-47.19 74.91 1.55
-4.51 7.16 -1.65
-5.34 8.48 -1.59
-9.35 14.84 -2.15
-19.03 30.2 -3.12
-4.47 7.14 -1.64
-5.27 8.42 -1.57
-9.21 14.72 -2.13
-18.97 30.34 -3.13
-24.23 38.75 -2.4
-4.46 7.19 -1.64
-5.27 8.5 -1.58
-9.22 14.86 -2.15
-21.32 34.37 -3.54
-24.11 38.86 -2.4
-4.42 7.18 -1.64
-5.21 8.47 -1.58
-9.22 14.99 -2.16
-21.15 34.37 -3.53
-24.02 39.04 -2.4
-44.79 73.35 1.5
-4.38 7.17 -1.63
-5.18 8.48 -1.57
-9.09 14.88 -2.14
-20.99 34.37 -3.52
-23.91 39.15 -2.4
-4.31 7.12 -1.62
-5.17 8.54 -1.58
-8.86 14.62 -2.1
-20.83 34.38 -3.52
-23.78 39.26 -2.41
-4.32 7.18 -1.63
-5.11 8.5 -1.57
-8.1 13.46 -1.93
-20.69 34.41 -3.51
-23.72 39.45 -2.41
-4.3 7.21 -1.63
-5.11 8.57 -1.58
-8.06 13.51 -1.93
-20.52 34.4 -3.5
-23.62 39.59 -2.42
-4.26 7.2 -1.63
-5.07 8.57 -1.58
-8.3 14.03 -2
-20.37 34.42 -3.5
-23.53 39.76 -2.42
-4.2 7.16 -1.61
-5.04 8.58 -1.58
-8.26 14.06 -2
-20.23 34.45 -3.49
-4.18 7.18 -1.62
-4.98 8.55 -1.57
-8.61 14.78 -2.1
-20.07 34.45 -3.49
-4.17 7.21 -1.62
-4.96 8.58 -1.57
-8.47 14.66 -2.08
-19.91 34.46 -3.48
-4.14 7.23 -1.62
-4.91 8.56 -1.56
-8.29 14.46 -2.05
-19.77 34.49 -3.48
-4.1 7.22 -1.61
-4.89 8.6 -1.57
-8.23 14.48 -2.05
-19.61 34.49 -3.47
-39.37 69.81 1.4
-4.07 7.22 -1.61
-4.87 8.63 -1.57
-8.15 14.46 -2.04
-19.47 34.53 -3.47
-4.01 7.18 -1.6
-4.84 8.65 -1.57
-8.23 14.72 -2.07
-19.33 34.55 -3.46
-3.98 7.17 -1.59
-4.81 8.67 -1.57
-8.19 14.75 -2.07
-19.19 34.56 -3.46
-3.97 7.21 -1.6
-4.77 8.65 -1.56
-8.01 14.55 -2.04
-19.03 34.56 -3.45
-3.98 7.29 -1.61
-4.74 8.69 -1.57
-18.87 34.57 -3.45
-3.93 7.25 -1.6
-4.68 8.64 -1.56
-7.81 14.43 -2.01
-18.74 34.62 -3.44
-3.89 7.25 -1.6
-4.63 8.63 -1.55
-7.04 13.11 -1.83
-18.6 34.65 -3.44
-3.85 7.24 -1.59
-4.61 8.66 -1.55
-6.99 13.12 -1.83
-18.44 34.63 -3.43
-3.84 7.27 -1.6
-4.61 8.73 -1.56
-7.28 13.79 -1.91
-18.28 34.62 -3.43
-35.13 67.08 1.32
-3.82 7.3 -1.6
-4.59 8.76 -1.57
-7.39 14.12 -1.96
-18.12 34.6 -3.42
-32.66 62.38 -1.23
-3.79 7.31 -1.6
-4.55 8.76 -1.56
-7.23 13.93 -1.93
-17.97 34.63 -3.41
-32.53 62.67 -1.23
-3.77 7.33 -1.6
-4.53 8.8 -1.57
-6.83 13.27 -1.83
-17.81 34.61 -3.41
-32.34 62.85 -1.23
-3.76 7.36 -1.61
-4.47 8.76 -1.56
-6.78 13.28 -1.83
-17.65 34.59 -3.4
-32.18 63.08 -1.24
-3.73 7.38 -1.61
-4.44 8.77 -1.56
-6.59 13.03 -1.79
-17.5 34.59 -3.39
-32.06 63.36 -1.24
-3.7 7.36 -1.6
-4.41 8.79 -1.56
-6.6 13.15 -1.81
-17.37 34.6 -3.39
-31.94 63.65 -1.24
-3.67 7.38 -1.6
-4.38 8.8 -1.56
-6.59 13.25 -1.82
-17.22 34.59 -3.38
-31.76 63.82 -1.24
-3.65 7.4 -1.6
-4.35 8.81 -1.56
-6.51 13.19 -1.81
-8.23 16.69 -1.63
-31.58 64.05 -1.25
-3.61 7.39 -1.6
-4.32 8.83 -1.56
-6.38 13.04 -1.78
-16.95 34.67 -3.38
-5.68 11.61 2.51
-31.46 64.33 -1.25
-31.13 64.27 1.25
-3.57 7.37 -1.59
-4.27 8.83 -1.55
-6.29 13 -1.77
-8 16.52 -1.61
-5.6 11.56 2.5
-31.05 64.12 -3.73
-30.89 64.33 1.25
-3.55 7.4 -1.6
-4.24 8.84 -1.55
-6.23 12.98 -1.77
-7.96 16.57 -1.61
-5.57 11.59 2.5
-7.8 16.24 -0.94
-3.53 7.42 -1.6
-4.22 8.87 -1.56
-6.11 12.83 -1.74
-7.9 16.6 -1.61
-7.87 16.53 -0.96
-3.51 7.43 -1.6
-4.19 8.89 -1.56
-6.02 12.75 -1.73
-7.9 16.74 -1.62
-5.61 11.89 2.56
-7.78 16.48 -0.96
-36.4 77.87 4.5
-3.48 7.44 -1.6
-4.15 8.89 -1.55
-5.62 12.02 -1.63
-7.61 16.28 -1.57
-5.51 11.79 2.53
-7.71 16.51 -0.95
-35.95 77.59 4.48
-3.46 7.47 -1.6
-4.1 8.84 -1.54
-5.71 12.33 -1.67
-7.65 16.52 -1.59
-5.38 11.62 2.49
-7.49 16.16 -0.93
-3.43 7.48 -1.6
-4.05 8.83 -1.54
-5.66 12.33 -1.67
-7.61 16.57 -1.59
-5.34 11.62 2.49
-7.48 16.3 -0.94
-6.18 13.47 3.42
-35.02 76.95 4.43
-3.4 7.48 -1.6
-4.02 8.83 -1.54
-5.6 12.3 -1.66
-7.56 16.62 -1.6
-5.76 12.66 2.7
-7.51 16.51 -0.95
-5.72 12.57 3.19
-34.54 76.68 4.41
-3.37 7.49 -1.6
-3.99 8.87 -1.54
-5.54 12.29 -1.66
-7.32 16.25 -1.56
-7.37 16.37 -0.94
-5.66 12.55 3.18
-34.11 76.4 4.38
-3.34 7.48 -1.59
-3.96 8.87 -1.54
-5.42 12.14 -1.63
-7.32 16.4 -1.57
-5.51 12.35 2.63
-7.25 16.23 -0.93
-5.67 12.7 3.21
-33.66 76.1 4.36
-3.32 7.51 -1.6
-3.94 8.9 -1.54
-7.11 16.08 -1.54
-5.45 12.33 2.62
-7.28 16.46 -0.94
-5.82 13.15 3.32
-6.03 13.64 4
-13.55 30.91 0.59
-33.27 75.9 4.34
-3.3 7.52 -1.6
-13.21 30.13 2.88
-3.89 8.88 -1.54
-5.2 11.87 -1.59
-7.15 16.32 -1.56
-5.54 12.63 2.68
-7.17 16.36 -0.94
-5.77 13.17 3.32
-26.7 61.52 1.17
-3.28 7.55 -1.6
-13.11 30.21 2.88
-3.86 8.88 -1.53
-4.98 11.48 -1.54
-7.12 16.41 -1.57
-5.38 12.39 2.63
-7.12 16.41 -0.94
-5.08 11.71 2.95
-26.6 61.29 -1.17
-5.95 13.72 4.01
-13 30.24 0.57
-16.22 37.71 2.15
-3.26 7.58 -1.6
-3.82 8.89 -1.53
-4.94 11.49 -1.54
-7.16 16.64 -1.58
-5.33 12.39 2.62
-7 16.29 -0.93
-5.04 11.73 2.95
-13.62 32.01 0.61
-13.52 31.76 1.81
-3.23 7.58 -1.6
-13.66 32.1 3.05
-3.79 8.9 -1.53
-13.66 32.08 4.28
-4.89 11.5 -1.53
-7.06 16.59 -1.58
-5.21 12.23 2.58
-7.2 16.9 -0.96
-13.6 31.95 -0.61
-5.22 12.26 3.57
-13.49 31.98 0.61
-16 37.93 2.16
-3.19 7.57 -1.6
-12.61 29.89 2.84
-3.75 8.89 -1.53
-4.79 11.35 -1.51
-7.08 16.79 -1.59
-5.08 12.04 2.54
-5.24 12.42 3.11
-15.81 37.47 -0.71
-5.17 12.26 3.57
-15.76 37.74 0.71
-15.87 38.01 2.16
-3.17 7.59 -1.6
-12.71 30.44 2.89
-3.71 8.88 -1.52
-4.71 11.28 -1.5
-5.93 14.19 2.44
-7.06 16.9 -1.6
-5.02 12.02 2.53
-6.94 16.63 -0.94
-5.19 12.44 3.11
-15.68 37.57 -0.71
-5.12 12.25 3.56
-15.67 37.88 0.72
-15.77 38.13 2.16
-3.14 7.6 -1.6
-12.59 30.43 2.88
-3.67 8.88 -1.52
-13 31.44 4.18
-4.64 11.22 -1.49
-5.78 13.97 2.39
-7.05 17.04 -1.61
-5.1 12.33 2.59
-7.03 17 -0.96
-4.83 11.67 2.92
-15.59 37.69 -0.71
-4.76 11.52 3.34
-12.78 31.2 0.59
-15.66 38.25 2.17
-3.11 7.6 -1.6
-13.2 32.24 3.05
-3.64 8.89 -1.52
-12.93 31.57 4.19
-4.56 11.14 -1.48
-5.74 14.02 2.4
-6.93 16.92 -1.6
-5.16 12.61 2.65
-7.01 17.12 -0.97
-4.82 11.78 2.94
-15.52 37.89 -0.71
-4.73 11.54 3.34
-13.49 33.27 0.63
-2.7 6.65 -1.66
-12.54 30.93 1.75
-3.08 7.59 -1.59
-12.27 30.26 2.86
-3.61 8.91 -1.52
-12.77 31.49 4.17
-4.48 11.04 -1.46
-5.79 14.28 2.44
-6.75 16.65 -1.57
-24.3 59.94 -3.39
-4.79 11.81 2.94
-15.45 38.12 -0.72
-4.69 11.56 3.34
-15.42 38.42 0.72
-2.68 6.67 -1.66
-15.45 38.48 2.17
-3.04 7.57 -1.59
-3.59 8.95 -1.53
-4.44 11.05 -1.46
-5.72 14.26 2.43
-6.69 16.67 -1.57
-4.78 11.9 2.49
-5.44 13.56 3.37
-15.39 38.33 -0.72
-13.1 32.96 0.62
-2.66 6.69 -1.66
-15.36 38.65 2.18
-3.02 7.61 -1.59
-12.91 32.5 3.06
-3.56 8.96 -1.53
-4.38 11.02 -1.46
-5.66 14.24 2.43
-14.01 35.26 -3.32
-4.79 12.06 2.52
-6.84 17.21 -0.97
-4.97 12.5 3.11
-15.31 38.53 -0.72
-4.23 10.64 3.07
-15.25 38.74 0.73
-2.64 6.7 -1.66
-12.3 31.26 1.76
-3 7.63 -1.59
-12.81 32.56 3.06
-3.55 9.01 -1.53
-12.44 31.62 4.17
-4.2 10.67 -1.41
-5.6 14.24 2.42
-13.89 35.3 -3.32
-4.8 12.2 2.55
-15.21 38.65 -2.18
-4.13 10.5 2.6
-15.23 38.69 -0.73
-4.21 10.71 3.08
-22.92 58.85 1.1
-2.58 6.61 -1.64
-12.82 32.92 1.85
-2.97 7.62 -1.59
-12.23 31.39 2.95
-3.51 9.02 -1.53
-5.32 13.66 1.8
-4.15 10.65 -1.4
-5.51 14.14 2.4
-6.69 17.17 -1.61
-4.76 12.22 2.55
-5.03 12.92 3.2
-22.94 58.91 -1.1
-4.16 10.67 3.07
-12.26 31.82 0.6
-2.56 6.64 -1.64
-12.2 31.66 1.78
-2.93 7.61 -1.58
-11.96 31.02 2.91
-3.46 8.98 -1.52
-5.25 13.63 1.79
-4.11 10.65 -1.4
-5.42 14.05 2.39
-13.66 35.43 -3.32
-4.72 12.24 2.55
-6.46 16.77 -0.94
-4.08 10.6 2.62
-22.61 58.66 -1.1
-4.5 11.66 3.35
-12.09 31.7 0.59
-11.62 30.46 1.71
-2.91 7.63 -1.59
-12.14 31.83 2.98
-3.42 8.98 -1.52
-12.08 31.66 4.16
-4.07 10.66 -1.4
-5.35 14.03 2.38
-6.4 16.77 -1.57
-4.62 12.12 2.52
-6.43 16.84 -0.94
-4.04 10.6 2.62
-22.32 58.51 -1.09
-4.45 11.65 3.34
-11.88 31.44 0.59
-11.54 30.54 1.71
-2.88 7.63 -1.59
-11.56 30.58 2.86
-3.4 8.99 -1.52
-5.17 13.69 1.8
-4.05 10.72 -1.41
-5.31 14.05 2.38
-13.45 35.59 -3.33
-4.62 12.22 2.54
-4.68 12.38 3.06
-21.99 58.2 -1.09
-4.41 11.68 3.34
-11.63 31.1 0.58
-21.8 58.3 3.26
-2.85 7.61 -1.58
-3.36 9 -1.52
-11.67 31.21 4.09
-4.03 10.78 -1.41
-13.33 35.66 -3.33
-4.6 12.3 2.55
-21.65 57.9 -3.24
-3.77 10.08 2.49
-11.93 31.92 -0.59
-3.91 10.45 2.99
-11.65 31.53 0.59
-11.32 30.63 1.71
-2.82 7.63 -1.58
-3.33 9.01 -1.52
-3.93 10.64 -1.39
-5.14 13.91 2.35
-13.2 35.71 -3.33
-4.55 12.32 2.55
-21.33 57.72 -3.22
-3.69 9.98 2.46
-11.81 31.97 -0.59
-4.31 11.66 3.33
-11.39 31.15 0.58
-21.19 57.97 3.23
-2.79 7.64 -1.58
-11.75 32.14 2.99
-3.27 8.96 -1.51
-11.78 32.22 4.21
-3.9 10.66 -1.39
-11.77 32.21 5.43
-11.68 31.95 -2.98
-4.51 12.34 2.55
-11.69 31.98 -1.78
-11.73 32.09 -0.6
-3.87 10.58 3.02
-11.12 30.71 1.71
-2.77 7.64 -1.58
-11.68 32.27 3
-3.23 8.93 -1.5
-3.87 10.68 -1.39
-11.72 32.37 5.45
-11.57 31.95 -2.97
-3.96 10.93 2.26
-11.57 31.97 -1.78
-11.59 32.03 -0.59
-4.27 11.79 3.36
-11.45 31.98 0.59
-20.62 57.6 3.21
-2.74 7.64 -1.58
-10.78 30.11 2.8
-2.78 7.76 -1.31
-4.94 13.78 1.8
-3.82 10.67 -1.39
-11.66 32.55 5.48
-12.82 35.81 -3.33
-4.43 12.38 2.56
-11.5 32.13 -1.79
-11.49 32.1 -0.6
-4.23 11.83 3.37
-11.74 33.19 0.61
-11.18 31.61 1.76
-2.69 7.6 -1.57
-11.79 33.34 3.09
-3.18 8.99 -1.51
-4.87 13.76 1.79
-3.79 10.7 -1.39
-12.68 35.84 -3.33
-3.83 10.84 2.24
-3.49 9.86 2.41
-20.19 57.08 -1.06
-11.82 33.79 0.62
-10.46 29.9 1.66
-2.66 7.62 -1.57
-10.63 30.38 2.82
-3.15 9.02 -1.51
-4.82 13.77 1.79
-3.66 10.48 -1.36
-5.27 15.06 2.53
-12.55 35.87 -3.32
-3.81 10.89 2.24
-3.48 9.93 2.43
-19.88 56.84 -1.05
-11.74 33.9 0.63
-10.5 30.31 1.68
-2.62 7.57 -1.56
-10.8 31.19 2.89
-3.12 9.02 -1.51
-4.98 14.38 1.87
-3.61 10.44 -1.36
-5.21 15.04 2.52
-12.44 35.93 -3.33
-3.61 10.42 2.14
-3.25 9.38 2.29
-4.05 11.71 3.32
-11.58 33.82 0.62
-2.6 7.6 -1.56
-10.71 31.28 2.89
-3.09 9.02 -1.51
-4.96 14.48 1.88
-3.57 10.42 -1.35
-5.13 14.99 2.51
-3.73 10.88 -1.01
-3.57 10.44 2.15
-3.41 9.95 2.43
-5.12 14.94 4.23
-10.86 32.11 0.59
-11.16 33 1.83
-2.54 7.5 -1.54
-4.75 14.03 1.3
-3.05 9.01 -1.51
-4.89 14.45 1.87
-3.53 10.44 -1.35
-5.09 15.06 2.52
-3.69 10.89 -1.01
-3.52 10.42 2.14
-3.23 9.55 2.33
-19.04 56.29 -1.04
-3.59 10.61 3
-18.75 56.08 1.03
-10.2 30.5 1.69
-2.51 7.5 -1.54
-4.7 14.06 1.3
-2.98 8.92 -1.49
-4.57 13.68 1.77
-3.5 10.48 -1.36
-5.06 15.13 2.53
-12.06 36.06 -3.33
-3.34 9.99 2.43
-18.78 56.17 -1.03
-3.55 10.63 3
-18.5 55.93 1.03
-10.24 30.97 1.71
-2.48 7.5 -1.54
-4.72 14.28 1.32
-2.97 8.97 -1.5
-4.53 13.69 1.77
-3.48 10.52 -1.36
-5 15.11 2.52
-3.61 10.91 -1.01
-5.27 15.93 3.26
-3.15 9.52 2.32
-18.49 55.91 -1.03
-4.99 15.08 4.25
-18.33 56.09 1.03
-10.14 31.03 1.71
-2.45 7.5 -1.53
-10.13 30.98 2.85
-2.93 8.96 -1.49
-3.44 10.53 -1.36
-3.65 11.18 -1.03
-5.2 15.9 3.25
-18.18 55.62 -3.07
-4.33 13.23 3.21
-18.23 55.77 -1.02
-3.61 11.05 3.11
-2.43 7.51 -1.53
-4.64 14.36 1.32
-2.9 8.98 -1.49
-4.74 14.67 1.89
-3.41 10.55 -1.36
-4.89 15.13 2.52
-3.54 10.97 -1.01
-5.12 15.86 3.24
-4.32 13.37 -0.74
-3.75 11.61 2.82
-4.65 14.4 4.05
-10.02 31.39 0.58
-9.87 30.93 1.7
-2.4 7.53 -1.54
-2.86 8.97 -1.49
-4.71 14.75 1.9
-3.39 10.62 -1.37
-3.63 11.36 -1.04
-5.02 15.73 3.21
-17.68 55.41 -3.05
-3.72 11.65 2.82
-17.7 55.47 -1.02
-4.6 14.41 4.05
-10.2 32.32 0.59
-9.57 30.34 1.67
-2.38 7.54 -1.54
-10.26 32.51 2.98
-2.82 8.93 -1.48
-4.92 15.59 2.01
-3.27 10.37 -1.33
-4.79 15.18 2.52
-3.55 11.25 -1.03
-3.29 10.44 2.13
-4.36 13.82 -0.76
-3.69 11.68 2.83
-3.43 10.88 3.06
-17.17 55.11 3.03
-2.35 7.54 -1.54
-2.77 8.9 -1.48
-4.31 13.82 1.78
-3.2 10.27 -1.32
-4.7 15.07 2.5
-3.51 11.26 -1.03
-4.65 14.92 3.04
-3.35 10.76 -0.59
-3.66 11.74 2.84
-17.15 55.05 -1.01
-4.55 14.59 4.1
-16.92 54.98 3.01
-2.34 7.61 -1.55
-9.69 31.5 2.88
-2.76 8.98 -1.49
-4.25 13.8 1.77
-3.16 10.28 -1.32
-3.05 9.92 1.64
-4.59 14.92 3.03
-3.32 10.78 -0.59
-3.62 11.78 2.84
-16.89 54.89 -1
-3.51 11.41 3.2
-10.42 34.31 0.63
-9.84 32.4 1.77
-2.33 7.67 -1.56
-10.24 33.72 3.08
-2.72 8.95 -1.48
-4.79 15.79 2.03
-3.13 10.3 -1.32
-3.02 9.96 1.65
-3.54 11.67 -1.07
-4.42 14.57 2.96
-3.52 11.59 -0.63
-3.59 11.81 2.85
-16.63 54.76 -1
-3.1 10.21 2.86
-9.46 31.51 1.72
-2.29 7.64 -1.55
-4.49 14.95 1.37
-2.68 8.93 -1.48
-9.81 32.67 4.19
-3.09 10.3 -1.32
-3 9.99 1.65
-3.31 11.04 -1.01
-3.21 10.7 2.17
-3.56 11.86 -0.65
-3.57 11.88 2.86
-16.37 54.52 -0.99
-3.1 10.32 2.89
-9.7 32.73 1.79
-2.26 7.64 -1.55
-4.45 15.03 1.37
-2.65 8.94 -1.48
-4.18 14.1 1.81
-3.05 10.3 -1.32
-2.97 10.02 1.66
-3.28 11.05 -1.01
-3.08 10.39 2.11
-3.42 11.55 -0.63
-3.54 11.94 2.87
-16.09 54.29 -0.99
-4.33 14.63 4.09
-15.88 54.26 2.96
-2.24 7.64 -1.55
-4.42 15.09 1.38
-2.6 8.89 -1.47
-4.12 14.09 1.8
-3.02 10.33 -1.32
-2.99 10.2 1.68
-3.41 11.65 -1.06
-3.12 10.65 2.16
-3.97 13.55 -0.74
-15.86 54.19 -0.99
-2.98 10.2 2.85
-9.36 32.43 1.77
-2.2 7.63 -1.54
-2.57 8.89 -1.46
-2.98 10.33 -1.32
-3.18 11.01 -1
-2.95 10.21 2.07
-3.87 13.39 -0.73
-15.6 54.04 -0.98
-2.95 10.23 2.85
-9.24 32.39 1.77
-2.17 7.62 -1.54
-9.52 33.39 3.04
-2.53 8.87 -1.46
-2.96 10.37 -1.32
-3.15 11.03 -1
-2.89 10.14 2.05
-3.1 10.87 -0.59
-3.36 11.79 2.83
-15.37 53.88 -0.98
-2.91 10.19 2.84
-8.83 31.39 0.57
-9.34 33.18 1.81
-2.14 7.62 -1.54
-4.33 15.4 1.4
-2.51 8.91 -1.47
-4.08 14.49 1.85
-2.93 10.4 -1.33
-2.9 10.29 1.69
-3.17 11.26 -1.02
-2.8 9.95 2.01
-3.06 10.87 -0.59
-3.33 11.82 2.84
-15.11 53.7 -0.97
-2.65 9.42 2.62
-8.72 31.43 1.71
-2.13 7.66 -1.55
-4.31 15.51 1.41
-2.47 8.92 -1.47
-2.9 10.45 -1.33
-4.04 14.54 2.39
-3.83 13.81 -1.25
-3.64 13.13 2.65
-3.24 11.66 -0.63
-3.29 11.85 2.84
-3.88 13.98 -0.25
-14.61 53.37 0.97
-14.62 53.44 2.9
-2.1 7.68 -1.55
-4.3 15.72 1.43
-2.43 8.9 -1.46
-3.8 13.88 1.77
-2.79 10.21 -1.3
-3.79 13.85 -1.26
-3.59 13.13 2.65
-2.96 10.82 -0.59
-14.6 53.36 -0.97
-14.37 53.19 0.96
-14.4 53.3 2.89
-2.05 7.6 -1.53
-4.24 15.71 1.42
-2.4 8.89 -1.46
-3.77 13.96 1.78
-2.76 10.2 -1.3
-4 14.82 2.43
-3.07 11.36 -1.03
-3.54 13.12 2.64
-2.94 10.86 -0.59
-3.74 13.84 -0.25
-2.56 9.46 2.63
-14.18 53.23 0.96
-14.15 53.13 2.88
-2.03 7.64 -1.54
-17.67 66.34 6.01
-2.37 8.9 -1.46
-3.74 14.03 1.78
-2.72 10.22 -1.3
-3.95 14.83 2.43
-3.66 13.75 -1.24
-2.91 10.94 -0.59
-3.76 14.13 -0.26
-3.53 13.25 3.67
-13.93 52.97 2.87
-2.02 7.68 -1.54
-2.36 8.96 -1.47
-3.69 14.02 1.78
-2.69 10.21 -1.3
-2.99 11.36 -1.03
-2.87 10.93 -0.59
-3.4 12.92 3.08
-3.67 13.97 -0.25
-3.49 13.26 3.67
-13.68 52.81 2.86
-1.99 7.69 -1.54
-2.33 9 -1.47
-3.63 13.99 1.77
-2.65 10.22 -1.3
-3.87 14.93 2.44
-3.65 14.1 -1.27
-2.84 10.98 -0.59
-2.79 10.76 2.57
-3.56 13.74 -0.25
-2.54 9.8 2.71
-13.46 52.65 2.85
-1.97 7.71 -1.55
-3.9 15.24 1.38
-2.28 8.92 -1.46
-2.59 10.14 -1.29
-4.17 16.29 2.66
-2.81 11 -0.99
-2.81 11 -0.6
-3.6 14.07 -0.25
-2.48 9.71 2.69
-13.22 52.5 2.84
-1.94 7.7 -1.54
-2.25 8.92 -1.46
-18.78 74.59 9.44
-2.56 10.17 -1.29
-4.09 16.25 2.65
-3.44 13.68 -1.23
-3.09 12.25 2.46
-3.52 14 -0.76
-3.88 15.4 3.67
-3.53 14.02 -0.25
-2.36 9.39 2.59
-12.99 52.34 2.83
-1.91 7.71 -1.54
-2.21 8.89 -1.45
-18.46 74.39 9.41
-2.52 10.16 -1.28
-3.69 14.88 2.43
-3.41 13.73 -1.24
-3.05 12.27 2.46
-2.96 11.94 -0.64
-3.84 15.47 3.68
-12.97 52.24 -0.94
-2.36 9.52 2.63
-12.75 52.18 2.81
-1.89 7.72 -1.55
-15.57 63.7 5.74
-2.18 8.93 -1.46
-18.11 74.11 9.37
-2.48 10.15 -1.28
-3.65 14.94 2.44
-2.7 11.07 -1
-3 12.27 2.46
-3.41 13.97 -0.75
-3.36 13.76 3.27
-3.42 13.98 -0.25
-2.29 9.37 2.59
-12.54 52.03 2.8
-1.87 7.75 -1.55
-3.95 16.4 1.48
-2.15 8.93 -1.45
-17.78 73.8 9.32
-2.49 10.34 -1.31
-3.6 14.93 2.43
-3.34 13.87 -1.25
-3.11 12.9 2.58
-3.37 13.96 -0.75
-3.32 13.78 3.27
-3.38 14.04 -0.25
-2.25 9.34 2.57
-12.31 51.88 2.79
-1.84 7.74 -1.55
-3.86 16.29 1.46
-2.12 8.95 -1.46
-3.51 14.78 1.87
-2.48 10.46 -1.32
-3.73 15.73 2.56
-3.06 12.92 2.58
-2.67 11.26 -0.61
-12.28 51.78 -0.93
-2.7 11.39 3.14
-12.16 52.11 0.93
-1.6 6.87 -1.63
-12.06 51.65 2.78
-1.81 7.74 -1.54
-14.7 62.95 5.66
-2.09 8.96 -1.46
-2.44 10.44 -1.32
-3.68 15.75 2.56
-3.2 13.71 -0.74
-3.03 12.98 3.08
-3.2 13.71 -0.25
-2.65 11.35 3.12
-1.59 6.94 -1.64
-11.79 51.34 2.76
-1.78 7.76 -1.55
-14.42 62.77 5.63
-2.07 9 -1.46
-2.42 10.53 -1.33
-3.62 15.74 2.56
-3.36 14.62 -1.31
-2.98 12.98 2.59
-3.24 14.1 -0.76
-2.96 12.88 3.05
-11.82 51.48 -0.92
-2.39 10.4 2.86
-1.57 6.94 -1.64
-11.58 51.17 2.75
-1.76 7.76 -1.55
-3.42 15.1 1.35
-2.04 9 -1.46
-3.48 15.36 1.93
-2.34 10.35 -1.3
-2.92 12.89 -1.16
-2.93 12.97 2.58
-11.6 51.26 -2.75
-2.91 12.85 3.04
-11.62 51.36 -0.92
-2.94 12.98 3.57
-1.53 6.9 -1.63
-11.35 51.03 2.74
-1.74 7.81 -1.55
-3.35 15.05 1.35
-2 8.98 -1.46
-3.45 15.51 1.95
-2.3 10.35 -1.3
-2.89 12.98 2.11
-2.93 13.18 -1.18
-2.88 12.95 2.58
-3.22 14.45 -0.78
-2.88 12.93 3.06
-11.4 51.23 -0.92
-3.11 13.97 3.84
-1.51 6.88 -1.63
-11.14 50.93 2.73
-1.7 7.76 -1.54
-13.64 62.37 5.59
-1.97 8.98 -1.46
-3.25 14.83 1.86
-2.28 10.43 -1.31
-2.84 12.98 2.1
-3.15 14.42 -1.29
-2.84 12.99 2.58
-3.15 14.38 -0.77
-11.17 51.06 -0.91
-3.06 13.99 3.84
-1.48 6.89 -1.63
-10.93 50.81 2.72
-1.66 7.71 -1.53
-3.3 15.33 1.37
-1.94 9 -1.46
-2.82 13.12 1.65
-2.25 10.45 -1.31
-2.74 12.75 2.06
-3.1 14.42 -1.29
-2.88 13.37 2.66
-3.06 14.22 -0.76
-10.95 50.9 -0.91
-1.46 6.89 -1.63
-10.71 50.62 2.71
-1.62 7.65 -1.52
-3.24 15.32 1.37
-1.9 8.98 -1.45
-2.77 13.11 1.64
-2.23 10.52 -1.32
-2.7 12.77 2.07
-2.84 13.4 2.66
-10.85 51.26 -2.75
-10.74 50.76 -0.91
-2.23 10.53 2.88
-1.43 6.89 -1.62
-10.5 50.49 2.7
-1.6 7.72 -1.53
-3.19 15.34 1.37
-1.86 8.94 -1.45
-2.72 13.08 1.64
-2.18 10.48 -1.31
-2.71 13.05 2.11
-2.57 12.34 -1.1
-3.12 15 2.98
-2.7 12.97 3.06
-10.53 50.63 -0.9
-3.33 16.02 4.38
-10.31 50.49 0.9
-1.41 6.91 -1.63
-10.28 50.34 2.69
-1.58 7.76 -1.54
-3.14 15.36 1.37
-1.83 8.96 -1.45
-2.68 13.11 1.64
-2.11 10.35 -1.3
-2.4 11.75 1.9
-2.84 13.89 3.27
-10.31 50.49 -0.9
-3.05 14.92 4.08
-10.1 50.38 0.9
-1.39 6.92 -1.63
-10.06 50.2 2.68
-1.55 7.75 -1.54
-2.65 13.2 1.18
-1.79 8.93 -1.44
-2.64 13.18 1.65
-2.07 10.34 -1.29
-2.78 13.86 3.26
-10.09 50.34 -0.9
-9.95 50.54 0.9
-1.37 6.94 -1.63
-9.87 50.11 2.68
-1.53 7.76 -1.54
-2.59 13.17 1.17
-1.77 8.96 -1.45
-2.04 10.34 -1.29
-3.05 15.46 2.5
-2.99 15.2 -1.36
-2.97 15.07 -0.81
-2.8 14.21 3.34
-9.88 50.19 -0.89
-2.12 10.75 2.94
-1.34 6.94 -1.63
-1.51 7.81 -1.55
-2.54 13.16 1.17
-1.73 8.93 -1.44
-13.36 69.16 8.65
-2 10.37 -1.3
-2.01 10.4 1.68
-2.46 12.73 -1.13
-3.01 15.57 3.08
-2.89 14.97 -0.8
-2.72 14.09 3.31
-9.67 50.06 -0.89
-2.08 10.77 2.94
-1.3 6.84 -1.61
-1.49 7.82 -1.55
-2.51 13.19 1.18
-1.71 8.97 -1.45
-2.34 12.31 1.54
-1.96 10.31 -1.29
-1.98 10.43 1.68
-2.47 13 -1.16
-2.59 13.64 2.7
-2.84 14.96 -0.8
-2.1 11.04 2.59
-9.49 49.93 -0.89
-2.23 11.76 3.21
-1.27 6.84 -1.61
-1.46 7.81 -1.54
-2.36 12.64 1.12
-1.67 8.96 -1.44
-2.29 12.26 1.53
-1.92 10.28 -1.28
-1.95 10.48 1.69
-2.42 12.99 -1.16
-2.14 11.48 2.27
-2.43 13.03 -0.69
-2.06 11.03 2.59
-9.28 49.82 -0.88
-1.98 10.61 2.89
-2.39 13.09 0.23
-1.25 6.83 -1.6
-2.39 13.08 0.7
-1.43 7.83 -1.55
-2.3 12.6 1.12
-1.65 9.02 -1.45
-2.24 12.26 1.53
-1.88 10.29 -1.28
-2.16 11.84 1.91
-2.37 12.94 -1.15
-2.27 12.4 2.45
-2.38 12.99 -0.69
-1.79 9.8 2.3
-2.39 13.08 -0.23
-1.97 10.78 2.94
-2.34 13.05 0.23
-1.22 6.83 -1.6
-2.34 13.04 0.69
-1.4 7.83 -1.55
-2.25 12.58 1.12
-1.61 9.01 -1.45
-2.21 12.32 1.54
-1.84 10.28 -1.28
-2.21 12.31 1.98
-2.31 12.91 -1.15
-2.22 12.37 2.44
-2.32 12.97 -0.69
-1.74 9.73 2.28
-2.33 13.01 -0.23
-2.17 12.12 3.3
-2.29 13.03 0.23
-1.2 6.84 -1.6
-2.28 13.01 0.69
-1.37 7.81 -1.54
-2.21 12.6 1.12
-1.59 9.05 -1.45
-2.19 12.48 1.56
-1.8 10.26 -1.28
-2.18 12.44 2
-2.26 12.88 -1.14
-2.17 12.37 2.44
-2.27 12.96 -0.69
-1.76 10.02 2.35
-2.28 13 -0.23
-2.12 12.09 3.29
-2.23 12.99 0.23
-1.18 6.89 -1.61
-2.23 13.01 0.69
-1.34 7.81 -1.54
-2.17 12.66 1.12
-1.55 9.04 -1.45
-2.16 12.57 1.57
-1.77 10.28 -1.28
-2.15 12.5 2.01
-2.21 12.9 -1.14
-2.13 12.42 2.45
-2.23 12.97 -0.69
-1.67 9.74 2.28
-2.23 12.99 -0.23
-2.08 12.09 3.29
-2.19 13 0.23
-1.17 6.93 -1.62
-2.2 13.02 0.69
-1.32 7.85 -1.55
-2.21 13.08 1.16
-1.53 9.07 -1.46
-2.18 12.91 1.61
-1.74 10.33 -1.29
-2.23 13.24 2.13
-2.18 12.91 -1.15
-2.22 13.2 2.6
-2.19 12.98 -0.69
-1.64 9.75 2.28
-2.19 13 -0.23
-2.04 12.11 3.29
-2.15 13.02 0.23
-1.14 6.94 -1.62
-2.15 13.03 0.69
-1.3 7.88 -1.55
-2.16 13.09 1.16
-1.5 9.07 -1.46
-2.17 13.17 1.64
-1.7 10.33 -1.29
-1.96 11.87 1.91
-2.13 12.93 -1.15
-2.18 13.19 2.6
-2.14 12.99 -0.69
-2.01 12.17 2.85
-2.15 13.02 -0.23
-1.98 12.01 3.26
-2.11 13.07 0.23
-1.12 6.93 -1.62
-2.11 13.06 0.69
-1.27 7.85 -1.55
-2.11 13.11 1.16
-1.45 8.99 -1.44
-2.13 13.19 1.64
-1.66 10.32 -1.28
-1.91 11.83 1.9
-2.09 12.98 -1.15
-2.13 13.21 2.6
-2.1 13.04 -0.69
-1.97 12.21 2.86
-2.11 13.08 -0.23
-2.07 13.15 0.23
-1.09 6.93 -1.62
-2.07 13.16 0.7
-1.24 7.84 -1.54
-2.08 13.17 1.17
-1.42 9.02 -1.45
-1.63 10.33 -1.28
-1.85 11.75 1.88
-2.06 13.08 -1.16
-2.05 13.01 2.56
-2.4 15.25 -0.81
-2.6 16.48 3.85
-1.64 10.42 2.83
-1.07 6.93 -1.62
-1.21 7.87 -1.55
-1.39 9.02 -1.45
-9.7 62.9 7.81
-1.59 10.32 -1.28
-1.8 11.65 1.87
-2.28 14.78 -1.31
-1.88 12.2 2.4
-2.3 14.9 -0.79
-1.97 12.77 2.98
-7.5 48.62 -0.86
-1.87 12.1 3.28
-5.32 35.35 0.62
-1.03 6.84 -1.6
-4.97 33.01 1.75
-1.19 7.89 -1.55
-2.06 13.7 1.21
-1.37 9.07 -1.45
-9.52 63.19 7.85
-1.56 10.33 -1.28
-1.75 11.6 1.86
-1.81 12.05 2.37
-2.28 15.16 -0.8
-1.92 12.77 2.98
-7.31 48.51 -0.86
-1.9 12.63 3.42
-4.79 32.54 0.57
-1.01 6.84 -1.6
-7.14 48.52 2.57
-1.16 7.88 -1.55
-2 13.6 1.2
-1.34 9.12 -1.46
-1.95 13.27 1.65
-1.52 10.3 -1.28
-1.99 13.51 -1.2
-1.77 12.05 2.37
-2.21 15.04 -0.8
-7.12 48.38 -0.85
-5 34.84 0.61
-0.99 6.89 -1.61
-6.94 48.37 2.56
-1.13 7.88 -1.55
-1.95 13.58 1.2
-1.31 9.13 -1.46
-1.9 13.27 1.65
-1.49 10.37 -1.29
-2.44 17.02 2.72
-1.9 13.23 -1.17
-2.47 17.23 3.38
-2.16 15.08 -0.8
-2.42 16.9 3.94
-6.92 48.24 -0.85
-2.31 16.13 4.37
-4.89 34.9 0.62
-0.97 6.92 -1.61
-6.76 48.28 2.56
-1.1 7.89 -1.55
-1.91 13.61 1.2
-1.28 9.12 -1.46
-1.86 13.28 1.65
-1.45 10.39 -1.29
-2.41 17.21 2.75
-1.6 11.4 -1.01
-1.48 10.61 2.08
-2.08 14.88 -0.79
-1.84 13.14 3.06
-6.74 48.12 -0.85
-2.24 15.97 4.32
-4.8 35.17 0.62
-0.94 6.87 -1.6
-6.57 48.18 2.55
-1.08 7.89 -1.55
-1.87 13.68 1.21
-1.24 9.12 -1.46
-1.82 13.32 1.65
-1.42 10.37 -1.29
-1.89 13.82 2.21
-2.09 15.35 -1.36
-2.23 16.37 3.21
-6.54 47.93 -2.54
-1.79 13.14 3.06
-6.55 47.99 -0.85
-2.17 15.88 4.3
-4.54 34.14 0.6
-0.91 6.84 -1.59
-6.38 48.04 2.54
-1.05 7.88 -1.55
-1.21 9.13 -1.46
-1.83 13.74 1.7
-1.44 10.83 -1.34
-1.78 13.42 2.14
-2.06 15.52 -1.37
-1.85 13.96 2.74
-1.5 11.27 -0.6
-2.2 16.54 3.85
-6.37 47.9 -0.84
-2.11 15.88 4.29
-6.18 47.78 0.84
-0.88 6.84 -1.59
-6.18 47.81 2.53
-1.02 7.89 -1.55
-4.24 32.76 2.89
-1.18 9.11 -1.45
-1.83 14.11 1.75
-1.4 10.8 -1.34
-1.73 13.36 2.13
-1.51 11.64 -1.03
-1.43 11.04 -0.58
-2.15 16.61 3.87
-1.46 11.25 -0.2
-1.34 10.32 2.79
-4.24 33.64 0.59
-0.86 6.82 -1.59
-6.01 47.67 2.52
-0.98 7.8 -1.53
-4.24 33.58 2.96
-1.15 9.15 -1.46
-1.79 14.18 1.75
-1.34 10.65 -1.32
-1.68 13.34 2.13
-1.46 11.56 -1.02
-1.7 13.5 2.64
-1.39 11.01 -0.58
-1.73 13.71 3.19
-1.42 11.29 -0.2
-1.29 10.26 2.77
-3.93 32.08 0.56
-0.84 6.84 -1.59
-4.09 33.39 1.76
-0.96 7.81 -1.53
-1.87 15.25 1.34
-1.12 9.17 -1.46
-2.01 16.4 2.03
-1.31 10.64 -1.32
-1.64 13.39 2.14
-4.1 33.45 -2.95
-1.43 11.64 -0.61
-1.67 13.58 3.16
-1.41 11.51 -0.2
-3.98 33.43 0.59
-0.82 6.87 -1.6
-3.99 33.51 1.77
-0.82 6.87 -1.34
-1.82 15.27 1.35
-1.1 9.2 -1.47
-1.96 16.45 2.03
-1.26 10.61 -1.31
-2 16.81 2.68
-3.99 33.47 -2.95
-1.61 13.52 2.65
-1.36 11.42 -0.6
-1.62 13.64 3.17
-1.36 11.46 -0.2
-1.22 10.25 2.77
-5.52 47.79 0.84
-0.79 6.88 -1.6
-5.53 47.85 2.52
-0.79 6.83 -1.34
-3.9 33.72 2.97
-1.06 9.18 -1.46
-1.93 16.69 2.06
-1.23 10.63 -1.31
-1.56 13.46 2.15
-1.35 11.65 -1.03
-1.23 10.68 2.09
-1.3 11.29 -0.6
-1.34 11.56 -0.2
-1.18 10.22 2.76
-3.65 32.6 0.57
-0.77 6.88 -1.6
-3.74 33.38 1.76
-1.71 15.27 1.34
-1.02 9.11 -1.45
-1.8 16.05 1.98
-1.19 10.6 -1.31
-1.51 13.46 2.15
-1.3 11.57 -1.02
-1.2 10.73 2.1
-1.3 11.58 -0.61
-1.09 9.76 2.27
-1.29 11.49 -0.2
-1.16 10.36 2.79
-3.52 32.41 0.57
-0.75 6.92 -1.61
-3.65 33.64 1.77
-0.85 7.8 -1.52
-1.69 15.55 1.37
-0.99 9.1 -1.45
-1.75 16.18 2
-1.15 10.61 -1.31
-1.46 13.46 2.14
-1.22 11.21 -0.99
-1.48 13.62 2.66
-1.23 11.38 -0.6
-1.22 11.28 -0.2
-1.15 10.57 2.85
-3.41 32.43 0.57
-0.73 6.96 -1.62
-5.11 48.64 2.56
-0.82 7.84 -1.53
-1.62 15.46 1.36
-0.96 9.09 -1.45
-1.76 16.7 2.06
-1.12 10.62 -1.31
-1.12 10.68 1.7
-1.21 11.48 -1.01
-1.12 10.62 2.08
-1.22 11.57 -0.61
-1.03 9.79 2.27
-1.23 11.73 -0.21
-1.13 10.74 2.89
-3.3 32.44 0.57
-0.71 6.98 -1.62
-3.25 31.95 1.68
-0.8 7.85 -1.53
-1.57 15.42 1.36
-0.92 9.09 -1.45
-1.72 16.9 2.09
-1.08 10.6 -1.31
-1.37 13.49 2.15
-1.35 13.3 -1.17
-1.33 13.11 2.56
-1.18 11.57 -0.61
-0.98 9.69 2.25
-1.21 11.88 -0.21
-1.1 10.79 2.9
-3.18 32.46 0.57
-0.68 6.95 -1.61
-3.18 32.48 1.71
-0.77 7.82 -1.53
-3.36 34.22 3.01
-0.89 9.09 -1.45
-5.85 59.71 7.37
-1.04 10.59 -1.31
-1.32 13.51 2.15
-1.3 13.23 -1.16
-1.14 11.59 2.26
-1.14 11.65 -0.2
-1 10.17 2.74
-3.07 32.47 0.57
-0.66 6.95 -1.61
-4.64 49.13 2.59
-0.74 7.84 -1.53
-5.42 57.28 5.03
-0.86 9.09 -1.45
-1.06 11.25 1.39
-0.99 10.52 -1.3
-1 10.62 1.69
-1.37 14.44 -1.27
-1.24 13.1 2.56
-1.09 11.49 -0.61
-0.95 10.08 2.34
-4.65 49.18 -0.86
-0.96 10.17 2.74
-2.96 32.54 0.57
-0.63 6.91 -1.6
-0.72 7.87 -1.54
-5.21 57.2 5.03
-0.83 9.09 -1.45
-1.55 17.01 2.1
-0.96 10.52 -1.3
-1.58 17.37 2.76
-1.33 14.62 -1.28
-1.04 11.39 2.22
-1.04 11.47 -0.6
-0.92 10.08 2.34
-4.49 49.39 -0.87
-1.29 14.15 3.81
-2.85 32.6 0.57
-0.61 6.93 -1.61
-0.69 7.91 -1.54
-0.79 9.05 -1.44
-0.98 11.22 1.38
-0.92 10.52 -1.3
-1.04 11.84 1.88
-1.27 14.47 -1.27
-1 11.39 2.22
-1 11.44 -0.6
-1.32 15.05 3.49
-4.34 49.61 -0.87
-1.24 14.14 3.8
-2.95 35 0.61
-0.59 6.97 -1.61
-2.69 31.95 1.68
-0.67 7.9 -1.54
-0.76 9.05 -1.44
-1.24 14.77 1.82
-0.89 10.52 -1.3
-1 11.87 1.89
-1.22 14.52 -1.28
-1.16 13.74 2.68
-0.96 11.45 -0.6
-4.2 49.87 -0.87
-0.85 10.05 2.7
-0.56 6.95 -1.61
-4.02 49.85 2.62
-0.64 7.91 -1.54
-0.73 9.06 -1.44
-0.9 11.14 1.37
-0.86 10.66 -1.31
-2.87 35.54 -3.12
-1.11 13.77 2.69
-1.19 14.75 -0.78
-0.8 9.89 2.29
-4.04 50.11 -0.88
-1.1 13.63 3.66
-0.53 6.94 -1.61
-3.85 50.07 2.63
-0.61 7.92 -1.54
-1.19 15.44 1.35
-0.7 9.05 -1.44
-4.6 59.74 7.36
-0.83 10.84 -1.34
-1.25 16.23 2.58
-1.11 14.48 -1.27
-1.06 13.78 2.69
-0.89 11.52 -0.61
-0.77 10.04 2.32
-3.87 50.31 -0.88
-0.9 11.63 3.13
-0.51 6.95 -1.61
-2.49 33.95 1.78
-0.58 7.89 -1.54
-1.13 15.37 1.35
-0.66 9.05 -1.44
-4.33 58.94 7.26
-0.8 10.85 -1.34
-1.22 16.6 2.64
-2.76 37.61 -3.3
-1.01 13.81 2.69
-1.08 14.76 -0.78
-0.74 10.02 2.32
-3.71 50.56 -0.88
-0.74 10.07 2.71
-2.34 33.45 0.59
-0.49 7.02 -1.62
-2.38 34 1.79
-0.55 7.87 -1.53
-1.08 15.37 1.35
-0.64 9.08 -1.44
-1.15 16.46 2.03
-0.76 10.88 -1.34
-1.17 16.65 2.64
-0.88 12.62 -1.11
-0.97 13.82 2.69
-0.81 11.61 -0.61
-0.71 10.06 2.33
-3.56 50.82 -0.89
-0.81 11.56 3.1
-0.42 6.25 -1.68
-2.18 32.78 0.57
-0.47 7.03 -1.63
-2.19 32.83 1.72
-0.52 7.87 -1.53
-0.61 9.1 -1.44
-3.91 58.68 7.22
-0.73 10.91 -1.34
-0.84 12.64 -1.11
-0.92 13.8 2.69
-1 15.04 -0.79
-3.4 51.06 -0.89
-0.77 11.58 3.11
-0.39 6.23 -1.67
-2.07 32.88 0.58
-0.44 6.95 -1.61
-2.09 33.07 1.74
-0.5 7.85 -1.53
-0.57 9.09 -1.44
-1 15.91 1.96
-0.69 10.91 -1.34
-0.8 12.71 -1.11
-0.87 13.81 2.69
-0.63 10.01 2.32
-3.24 51.32 -0.9
-0.37 6.26 -1.68
-3.09 51.93 0.91
-0.41 6.95 -1.61
-1.97 33.13 1.74
-0.47 7.82 -1.52
-0.54 9.11 -1.45
-3.48 58.36 7.18
-0.65 10.99 -1.35
-0.76 12.73 -1.12
-0.82 13.81 2.69
-0.6 10.06 2.33
-3.07 51.53 -0.9
-0.96 16.12 4.33
-0.35 6.2 -1.66
-2.91 51.84 0.91
-0.39 6.94 -1.6
-0.44 7.81 -1.52
-3.14 55.93 4.9
-0.51 9.11 -1.44
-3.26 58.18 7.15
-0.61 10.94 -1.35
-0.71 12.66 -1.11
-0.58 10.39 2.02
-0.57 10.19 2.36
-2.9 51.78 -0.91
-0.91 16.23 4.36
-0.33 6.18 -1.66
-2.74 51.96 0.91
-0.37 6.97 -1.61
-0.41 7.83 -1.52
-0.48 9.08 -1.44
-3.05 57.88 7.12
-0.57 10.89 -1.34
-0.75 14.22 2.26
-0.66 12.46 -1.09
-0.52 9.93 1.93
-0.54 10.33 2.39
-2.74 52.02 -0.91
-0.62 11.69 3.14
-0.3 6.19 -1.66
-0.35 7.01 -1.62
-0.39 7.85 -1.53
-0.45 9.11 -1.44
-0.59 12.05 1.48
-0.55 11.1 -1.36
-0.77 15.62 2.48
-0.62 12.53 -1.1
-0.72 14.57 2.83
-2.58 52.29 -0.91
-0.58 11.72 3.14
-0.28 6.19 -1.66
-0.32 7.01 -1.62
-0.36 7.89 -1.53
-0.42 9.09 -1.44
-0.77 16.69 2.05
-0.51 11.11 -1.37
-0.72 15.66 2.48
-0.57 12.47 -1.09
-0.46 10.05 1.95
-2.41 52.53 -2.76
-0.47 10.28 2.38
-2.41 52.55 -0.92
-0.73 15.93 4.27
-0.26 6.2 -1.66
-0.3 7.01 -1.62
-0.33 7.89 -1.53
-0.38 9.09 -1.44
-0.69 16.25 2
-0.47 11.12 -1.37
-0.48 11.35 1.8
-0.53 12.57 -1.1
-0.43 10.11 1.97
-2.23 52.65 -2.76
-0.43 10.22 2.36
-2.23 52.82 -0.92
-0.24 6.1 -1.64
-0.27 6.95 -1.61
-0.3 7.84 -1.53
-2.14 55.14 4.83
-0.35 9.07 -1.44
-0.63 16.26 2
-0.43 11.1 -1.36
-0.42 10.88 1.73
-0.49 12.59 -1.1
-0.4 10.17 1.98
-2.06 52.91 -2.77
-0.64 16.42 3.79
-2.06 53.02 -0.93
-0.44 11.45 3.07
-0.21 6.06 -1.62
-0.24 6.93 -1.6
-1.88 53.35 2.8
-0.28 7.82 -1.52
-1.94 54.98 4.81
-0.32 9.08 -1.44
-0.43 12.09 1.49
-0.39 11.11 -1.37
-0.49 13.87 2.2
-0.45 12.7 -1.11
-0.51 14.32 2.79
-1.87 53.15 -2.79
-0.35 9.83 2.27
-1.88 53.34 -0.93
-0.37 10.44 2.8
-0.19 6.06 -1.62
-0.22 6.91 -1.6
-1.71 53.59 2.81
-0.25 7.84 -1.52
-1.75 54.87 4.8
-0.29 9.07 -1.44
-0.39 12.12 1.49
-0.35 11.04 -1.36
-0.44 13.88 2.2
-0.4 12.7 -1.11
-0.32 10.2 1.98
-1.7 53.44 -2.8
-0.31 9.83 2.27
-1.71 53.57 -0.94
-0.34 10.75 2.88
-0.17 6.08 -1.63
-1.53 54.19 0.95
-0.2 6.96 -1.61
-1.52 53.85 2.82
-0.22 7.87 -1.53
-1.55 54.73 4.79
-0.26 9.08 -1.44
-0.35 12.2 1.5
-0.31 11 -1.35
-0.48 16.99 2.69
-0.36 12.72 -1.11
-1.52 53.71 -2.82
-0.28 10.07 2.33
-1.52 53.86 -0.94
-0.3 10.61 2.84
-0.15 6.13 -1.64
-0.17 6.97 -1.61
-1.35 54.12 2.84
-0.2 7.88 -1.53
-1.36 54.6 4.78
-0.23 9.1 -1.44
-0.38 15.12 1.86
-0.27 11.01 -1.35
-0.28 11.16 1.77
-0.32 12.8 -1.12
-0.36 14.43 2.81
-1.34 53.97 -2.83
-0.25 9.93 2.29
-1.35 54.16 -0.95
-0.37 15.01 4.02
-0.13 6.13 -1.64
-0.15 7.01 -1.62
-1.16 54.4 2.85
-0.17 7.86 -1.53
-0.34 15.95 1.4
-0.19 9.14 -1.45
-0.26 12.34 1.52
-0.23 11.02 -1.35
-0.34 15.8 2.5
-0.27 12.82 -1.12
-0.31 14.45 2.81
-1.16 54.25 -2.84
-0.21 9.97 2.3
-1.16 54.39 -0.95
-0.26 12 3.22
-0.11 6.14 -1.65
-0.13 7.02 -1.62
-0.98 54.66 2.86
-0.14 7.85 -1.53
-0.98 54.85 4.8
-0.16 9.2 -1.46
-0.28 15.83 1.94
-0.2 11.09 -1.36
-0.2 11.17 1.77
-0.18 10.28 2
-0.41 22.79 -1.19
-0.23 12.81 2.96
-0.98 54.68 -0.95
-0.19 10.51 2.82
-0.09 6.15 -1.65
-0.1 6.95 -1.6
-0.79 54.96 2.88
-0.11 7.82 -1.52
-0.79 55.1 4.82
-0.13 9.2 -1.46
-0.22 15.68 1.93
-0.16 11.26 -1.38
-0.16 10.92 1.73
-0.53 37.28 -3.26
-0.15 10.27 2
-0.78 54.8 -2.87
-0.79 54.92 -0.96
-0.07 6.15 -1.65
-0.08 6.94 -1.6
-0.6 55.22 2.89
-0.09 7.8 -1.52
-0.45 41.37 3.62
-0.1 9.22 -1.46
-0.6 55.42 6.8
-0.12 11.34 -1.39
-0.68 62.08 9.83
-0.15 13.64 -1.19
-0.11 10.28 2
-0.6 55.07 -2.89
-0.14 13.12 3.03
-0.6 55.24 -0.96
-0.12 10.6 2.84
-0.05 6.18 -1.66
-0.05 6.97 -1.61
-0.31 41.43 2.17
-0.06 7.8 -1.52
-0.31 41.47 3.63
-0.07 9.21 -1.46
-0.42 55.41 6.8
-0.09 11.34 -1.39
-0.11 14.26 2.26
-0.1 13.64 -1.19
-0.08 10.29 2
-0.42 55.35 -2.9
-0.1 13.1 3.02
-0.42 55.52 -0.97
-0.09 12.14 3.25
-0.03 6.16 -1.65
-0.17 41.74 0.73
-0.03 6.97 -1.61
-0.17 41.66 2.18
-0.03 7.83 -1.52
-0.17 41.57 3.64
-0.04 9.22 -1.46
-0.05 11.36 -1.39
-0.04 10.89 1.73
-0.15 37.23 -3.26
-0.07 16.61 3.23
-0.23 55.63 -2.92
-0.05 13.13 3.03
-0.23 55.83 -0.97
-0.04 10.89 2.92
-0 6.16 -1.65
-0.02 41.88 0.73
-0 6.99 -1.61
-0.02 41.79 2.19
-0 7.85 -1.53
-0.02 41.67 3.65
-0 9.36 -1.48
-0.01 14.63 1.8
-0.01 11.39 -1.4
-0.01 14.37 2.28
-0.02 37.19 -3.25
-0.01 10.71 2.08
-0.03 55.92 -2.93
-0.01 15.3 3.53
-0.02 41.82 -0.73
-0.01 10.41 2.79
0.02 6.16 -1.65
0.12 41.93 0.73
0.02 7 -1.62
0.12 41.92 2.2
0.02 7.88 -1.53
0.12 41.78 3.66
0.03 9.34 -1.48
0.16 56.64 6.96
0.03 11.38 -1.4
0.04 14.4 2.28
0.11 37.22 -3.26
0.03 10.73 2.09
0.16 56.22 -2.95
0.04 15.35 3.54
0.12 41.78 -0.73
0.03 10.64 2.85
0.04 6.15 -1.65
0.27 41.96 0.73
0.05 6.99 -1.61
0.27 42.02 2.2
0.05 7.86 -1.53
0.27 41.9 3.67
0.06 9.36 -1.48
0.37 56.98 7
0.07 11.43 -1.4
0.09 14.43 2.29
0.24 37.22 -3.26
0.07 10.65 2.07
0.25 39.13 -2.05
0.07 10.89 2.51
0.25 39.24 -0.69
0.06 6.16 -1.65
0.41 41.97 0.73
0.07 6.99 -1.61
0.41 42.03 2.2
0.08 7.89 -1.53
0.41 42 3.67
0.09 9.41 -1.49
0.56 57.25 7.03
0.11 11.49 -1.41
0.11 10.8 1.71
0.37 37.2 -3.25
0.13 13.55 2.63
0.56 56.8 -2.98
0.11 10.91 2.52
0.41 41.81 -0.73
0.12 12.12 3.25
0.08 6.17 -1.65
0.56 41.96 0.73
0.09 6.99 -1.61
0.56 42.07 2.2
0.11 7.95 -1.55
0.56 42.11 3.68
0.13 9.53 -1.51
0.76 57.56 7.07
0.15 11.53 -1.42
0.14 10.81 1.71
0.25 18.92 -1.66
0.18 13.56 2.64
0.15 11.01 2.54
0.56 41.96 -0.73
0.1 6.18 -1.66
0.58 34.53 0.6
0.12 7.03 -1.62
0.7 42.11 2.21
0.13 7.96 -1.55
0.7 42.19 3.69
0.16 9.55 -1.51
0.23 14.03 1.72
0.19 11.62 -1.43
0.24 14.56 2.31
0.62 37.19 -3.25
0.23 13.52 2.63
0.18 11.06 2.55
0.7 41.97 -0.73
0.18 10.53 2.82
0.12 6.19 -1.66
0.14 7.03 -1.62
0.85 42.13 2.21
0.16 8.03 -1.56
1.17 58.1 5.08
0.19 9.52 -1.51
0.28 13.99 1.72
0.23 11.61 -1.43
0.29 14.62 2.32
0.38 18.91 -1.65
0.27 13.5 2.62
0.84 41.97 -2.2
0.22 11.1 2.56
0.21 10.55 2.83
0.15 6.2 -1.66
0.16 7 -1.62
1.37 58.19 3.05
0.19 8.03 -1.56
1.37 58.38 5.11
0.22 9.45 -1.5
1.37 58.51 7.19
0.27 11.65 -1.43
0.26 10.87 1.72
0.44 18.94 -1.66
0.32 13.5 2.62
1.36 58.04 -3.04
0.26 11.09 2.56
0.25 10.66 2.86
0.17 6.22 -1.67
0.95 34.81 0.61
0.19 6.98 -1.61
1.59 58.49 3.07
0.22 7.99 -1.55
1.6 58.69 5.14
0.26 9.43 -1.49
0.96 35.18 4.32
0.32 11.66 -1.43
0.35 13.02 2.06
0.95 34.94 -3.06
1.59 58.3 -3.06
0.3 11.03 2.55
0.28 10.46 2.8
0.19 6.2 -1.66
1.07 34.93 0.61
0.21 7.01 -1.62
1.07 35.07 1.84
0.24 7.98 -1.55
1.07 35.16 3.08
0.29 9.4 -1.49
0.46 14.94 1.84
0.36 11.9 -1.46
0.45 14.76 2.34
0.58 18.89 -1.65
0.39 12.66 2.46
1.07 34.91 -1.83
0.34 11.23 2.59
0.32 10.47 2.81
0.21 6.15 -1.65
1.19 35.05 0.61
0.24 7.03 -1.62
2 59.13 3.1
0.27 7.96 -1.55
2.01 59.31 5.19
0.32 9.43 -1.49
0.51 14.91 1.83
0.4 11.94 -1.47
2.02 59.75 9.47
0.52 15.37 -1.35
0.39 11.44 2.22
0.38 11.19 2.59
1.19 35 -0.61
0.42 12.3 3.3
0.23 6.19 -1.66
1.31 35.15 0.61
0.26 7.06 -1.63
2.21 59.47 3.12
0.3 8.07 -1.57
2.22 59.68 5.22
0.35 9.44 -1.5
0.56 14.96 1.84
0.44 11.96 -1.47
0.59 15.85 2.51
0.7 18.9 -1.66
0.46 12.44 2.42
0.41 10.99 2.54
1.31 35.16 -0.61
0.46 12.3 3.3
0.25 6.2 -1.66
1.45 35.28 0.62
0.29 6.99 -1.61
2.45 59.78 3.14
0.33 8.13 -1.58
2.46 60.02 5.26
0.39 9.45 -1.5
0.59 14.26 1.75
0.49 11.99 -1.47
0.54 13.21 2.09
0.77 18.73 -1.64
0.51 12.37 2.41
0.77 18.83 -0.99
0.44 10.69 2.47
1.45 35.32 -0.62
0.54 13.12 3.52
0.27 6.19 -1.66
0.31 6.98 -1.61
2.67 60.11 3.15
0.36 8.06 -1.57
2.68 60.31 5.28
0.42 9.51 -1.51
0.7 15.69 1.93
0.53 12.03 -1.48
0.6 13.45 2.13
0.83 18.7 -1.64
0.6 13.43 2.61
0.84 18.86 -0.99
0.48 10.83 2.5
1.57 35.46 -0.62
0.52 11.66 3.13
0.3 6.2 -1.66
0.34 7.02 -1.62
2.9 60.46 3.17
0.39 8.1 -1.58
2.91 60.67 5.31
0.46 9.63 -1.53
0.75 15.7 1.93
0.59 12.23 -1.5
0.67 13.85 2.2
0.91 18.87 -1.65
0.73 15.27 2.97
0.52 10.75 2.48
0.51 10.57 2.84
0.32 6.21 -1.67
1.75 34.02 0.59
0.36 7.05 -1.63
3.12 60.8 3.19
0.41 8.05 -1.57
3.13 61 5.34
0.5 9.64 -1.53
0.63 12.3 -1.51
0.72 14 2.22
0.96 18.75 -1.64
0.78 15.21 2.96
0.97 18.84 -0.99
0.56 10.84 2.51
0.81 15.75 4.23
0.34 6.2 -1.66
0.38 7.01 -1.62
3.35 61.13 3.21
0.44 8.04 -1.57
3.37 61.36 5.38
0.53 9.62 -1.53
0.69 12.6 -1.55
0.75 13.72 2.18
1.03 18.72 -1.64
0.7 12.72 2.48
3.37 61.46 -3.23
0.6 10.98 2.54
0.58 10.54 2.83
0.36 6.22 -1.67
2.07 35.54 0.62
0.41 6.99 -1.62
3.58 61.49 3.23
0.47 8.04 -1.57
3.59 61.74 5.41
0.56 9.65 -1.53
0.73 12.5 -1.54
0.8 13.68 2.17
1.09 18.8 -1.65
0.8 13.75 2.68
3.57 61.35 -3.22
0.64 10.95 2.53
3.58 61.52 -1.08
0.67 11.53 3.1
0.38 6.15 -1.65
2.2 35.42 0.62
0.43 7.01 -1.62
3.84 61.84 3.25
0.5 8.05 -1.57
3.85 62.06 5.44
0.6 9.62 -1.53
0.92 14.85 1.83
0.78 12.57 -1.55
0.87 13.98 2.22
1.18 18.98 -1.66
0.8 12.83 2.5
0.68 10.95 2.53
3.84 61.9 -1.08
0.65 10.45 2.81
0.4 6.15 -1.65
2.24 34.28 0.6
0.46 7.02 -1.62
4.06 62.18 3.27
0.53 8.05 -1.57
4.09 62.5 5.48
0.63 9.61 -1.53
0.98 14.95 1.84
0.83 12.71 -1.56
0.9 13.7 2.17
2.3 35.11 -3.08
0.84 12.86 2.5
0.71 10.88 2.52
4.07 62.19 -1.09
0.69 10.53 2.83
0.42 6.14 -1.65
2.36 34.28 0.6
0.48 7.03 -1.63
4.31 62.54 3.29
0.55 8.01 -1.56
2.34 34.04 2.99
0.66 9.63 -1.53
0.88 12.73 -1.57
0.95 13.73 2.18
2.41 34.94 -3.06
0.88 12.75 2.48
0.75 10.9 2.52
4.3 62.47 -1.09
0.92 13.32 3.58
0.44 6.15 -1.65
0.51 7 -1.62
4.55 62.99 3.31
0.58 8.04 -1.57
2.5 34.63 3.04
0.7 9.73 -1.54
4.6 63.65 7.84
1.02 14.16 2.25
2.53 35.01 -3.07
0.92 12.77 2.49
0.79 10.89 2.52
4.54 62.86 -1.1
0.76 10.51 2.82
0.47 6.15 -1.65
0.53 7 -1.62
2.53 33.36 1.75
0.61 8.04 -1.57
2.64 34.78 3.05
0.74 9.75 -1.55
4.83 63.65 7.84
0.87 11.5 -1.42
1.19 15.65 2.49
2.65 34.93 -3.06
0.96 12.65 2.47
0.84 11 2.55
4.8 63.23 -1.11
1.06 14 3.76
0.49 6.15 -1.65
2.73 34.42 0.6
0.56 7.02 -1.63
5.04 63.65 3.35
0.64 8.04 -1.57
2.81 35.5 3.12
0.77 9.71 -1.54
5.07 64.03 7.89
1 12.62 -1.55
1.24 15.68 2.49
2.77 34.9 -3.06
0.99 12.47 2.43
5.04 63.62 -1.11
0.51 6.17 -1.66
2.85 34.42 0.6
0.58 7.02 -1.63
5.3 64.02 3.37
0.66 7.95 -1.55
2.79 33.67 2.96
0.8 9.66 -1.53
5.33 64.43 7.94
0.99 11.98 -1.48
1.17 14.11 2.24
2.89 34.91 -3.06
1.15 13.9 2.71
2.89 34.96 -1.84
2.9 34.99 -0.61
1.15 13.95 3.75
0.53 6.19 -1.67
5.54 64.33 1.13
0.61 7.04 -1.63
3.03 35.21 1.85
0.69 8.05 -1.57
2.91 33.8 2.97
0.83 9.69 -1.54
5.58 64.81 7.99
1.01 11.68 -1.44
3.01 34.94 -3.07
1.07 12.41 2.42
3.01 34.99 -1.84
3 34.87 -0.61
1.24 14.38 3.87
0.56 6.19 -1.67
3.08 34.3 0.6
0.63 7.05 -1.63
3.02 33.6 1.77
0.73 8.13 -1.59
3.19 35.57 3.12
0.86 9.55 -1.52
5.85 65.19 8.04
1 11.11 -1.37
3.15 35.08 -3.08
1.11 12.39 2.42
5.81 64.71 -3.4
1.26 13.99 3.24
1.31 14.58 3.92
0.58 6.2 -1.67
3.19 34.22 0.6
0.66 7.06 -1.64
3.18 34.19 1.8
0.73 7.88 -1.54
3.3 35.39 3.11
0.9 9.67 -1.54
6.11 65.58 8.09
1.03 11.09 -1.37
1.03 11.08 -0.97
1.16 12.43 2.43
6.05 64.97 -3.42
1.31 14.03 3.25
1.31 14.08 3.79
0.6 6.2 -1.67
3.3 34.13 0.6
0.68 7.06 -1.64
3.46 35.69 1.88
0.78 8.09 -1.58
3.29 34.01 2.99
0.94 9.73 -1.55
1.08 11.12 -1.37
1.08 11.11 -0.98
1.19 12.29 2.4
1.33 13.69 3.18
0.62 6.19 -1.67
3.49 34.88 0.61
0.7 7.03 -1.63
6.61 66.02 3.48
0.81 8.06 -1.58
6.64 66.28 5.83
0.98 9.77 -1.56
1.12 11.15 -1.38
1.12 11.19 -0.98
0.64 6.19 -1.67
3.62 34.87 0.61
0.73 7.03 -1.63
6.9 66.39 3.5
0.84 8.07 -1.58
6.92 66.64 5.86
1.01 9.7 -1.54
1.32 12.76 -1.57
1.16 11.17 -0.98
1.28 12.32 2.41
1.4 13.52 3.14
0.66 6.2 -1.67
3.74 34.86 0.61
0.76 7.08 -1.64
3.65 34.06 1.8
0.87 8.08 -1.58
7.19 67.06 5.9
1.04 9.67 -1.54
1.44 13.46 -1.66
1.5 13.95 3.24
0.69 6.2 -1.67
3.75 33.82 0.59
0.78 7.06 -1.64
3.96 35.72 1.88
0.9 8.1 -1.58
7.48 67.5 5.94
1.07 9.65 -1.54
1.5 13.55 -1.67
3.93 35.51 -3.13
1.55 13.96 3.24
0.71 6.22 -1.68
0.81 7.07 -1.64
4.05 35.42 1.87
0.93 8.12 -1.59
7.76 67.91 5.98
1.12 9.81 -1.56
1.55 13.58 -1.68
4.06 35.56 -3.13
7.79 68.2 -3.6
1.6 13.98 3.25
0.73 6.19 -1.67
0.83 7.07 -1.64
4.11 34.89 1.84
0.95 8.07 -1.58
8.05 68.34 6.02
1.16 9.81 -1.56
1.6 13.6 -1.68
4.19 35.53 -3.13
8.01 68.01 -3.59
0.75 6.19 -1.67
4.47 36.84 0.65
0.86 7.07 -1.64
0.98 8.06 -1.58
1.19 9.77 -1.56
1.66 13.71 -1.7
4.32 35.57 -3.13
8.29 68.34 -3.61
0.77 6.14 -1.66
8.6 68.83 1.21
0.88 7.08 -1.65
4.38 35.1 1.85
1.01 8.08 -1.58
4.21 33.72 2.97
1.22 9.74 -1.55
1.7 13.64 -1.69
4.44 35.55 -3.13
8.59 68.75 -3.63
8.6 68.88 -1.21
1.66 13.26 3.58
0.79 6.14 -1.66
4.42 34.44 0.61
0.91 7.07 -1.65
4.44 34.53 1.82
1.04 8.09 -1.59
1.25 9.75 -1.56
1.77 13.8 -1.71
4.57 35.57 -3.14
8.88 69.1 -3.65
8.9 69.32 -1.22
0.81 6.14 -1.66
0.93 7.06 -1.64
1.06 8 -1.57
1.28 9.68 -1.55
1.81 13.73 -1.7
4.7 35.59 -3.14
9.18 69.54 -3.68
1.76 13.35 3.61
0.84 6.17 -1.67
4.78 35.28 0.62
0.96 7.07 -1.65
1.08 7.99 -1.57
1.31 9.66 -1.54
1.86 13.69 -1.7
4.82 35.55 -3.14
9.5 70.05 -3.7
4.86 35.85 -0.63
1.8 13.25 3.58
0.86 6.16 -1.67
9.84 70.72 1.25
0.98 7.03 -1.64
4.82 34.64 1.83
1.12 8.02 -1.57
1.34 9.66 -1.54
1.85 13.28 -1.65
4.94 35.52 -3.14
9.8 70.48 -3.73
4.99 35.9 -0.63
0.88 6.14 -1.66
1 7.03 -1.64
1.15 8.06 -1.58
1.38 9.65 -1.54
1.94 13.58 -1.68
5.07 35.56 -3.14
10.12 70.95 -3.76
10.16 71.19 -1.26
0.89 6.11 -1.66
5.15 35.28 0.62
1.03 7.02 -1.64
1.17 8.04 -1.58
1.41 9.68 -1.55
1.93 13.22 -1.64
5.19 35.53 -3.14
10.46 71.65 -1.26
0.91 6.11 -1.66
5.27 35.24 0.62
1.05 7.04 -1.64
1.2 8.03 -1.58
1.46 9.76 -1.56
2 13.38 -1.66
5.32 35.56 -3.15
10.76 71.9 -3.81
5.38 35.98 -0.63
0.94 6.11 -1.66
1.08 7.06 -1.65
1.23 8.05 -1.58
1.5 9.79 -1.57
2.1 13.7 -1.7
5.44 35.5 -3.14
0.95 6.06 -1.64
1.11 7.07 -1.65
1.26 8.06 -1.58
1.53 9.78 -1.57
2.13 13.58 -1.69
5.59 35.67 -3.16
0.97 6.08 -1.65
1.13 7.04 -1.65
1.29 8.05 -1.58
1.56 9.75 -1.56
2.18 13.62 -1.69
5.71 35.7 -3.16
1 6.1 -1.66
1.15 7.03 -1.64
1.31 8.03 -1.58
1.59 9.73 -1.56
2.26 13.79 -1.72
5.84 35.72 -3.17
1.02 6.12 -1.66
1.17 7.01 -1.64
1.34 7.98 -1.57
1.63 9.77 -1.57
2.27 13.56 -1.69
5.99 35.79 -3.17
1.05 6.13 -1.67
1.19 6.95 -1.63
1.35 7.91 -1.56
1.68 9.82 -1.58
2.44 14.27 -1.78
6.54 38.27 -3.4
1.08 6.18 -1.68
1.21 6.95 -1.63
1.38 7.93 -1.56
1.71 9.81 -1.58
2.49 14.3 -1.78
6.68 38.34 -3.4
1.09 6.15 -1.67
1.24 6.95 -1.63
1.43 8.03 -1.58
1.75 9.84 -1.58
2.39 13.44 -1.68
6.83 38.36 -3.41
1.12 6.15 -1.67
1.25 6.9 -1.62
1.46 8.02 -1.58
1.78 9.82 -1.58
2.44 13.42 -1.67
6.98 38.42 -3.42
1.13 6.12 -1.67
1.29 6.99 -1.64
1.47 7.94 -1.57
1.82 9.83 -1.58
2.5 13.5 -1.69
7.13 38.48 -3.42
1.16 6.15 -1.68
1.32 6.97 -1.64
1.49 7.9 -1.56
1.87 9.88 -1.59
2.67 14.15 -1.77
7.27 38.53 -3.43
1.19 6.18 -1.69
1.34 6.98 -1.64
1.53 7.93 -1.57
1.77 9.19 -1.48
2.72 14.12 -1.77
7.42 38.58 -3.44
1.21 6.16 -1.68
1.36 6.94 -1.63
1.56 7.94 -1.57
1.79 9.11 -1.47
2.74 14 -1.75
7.57 38.62 -3.44
1.22 6.12 -1.67
1.38 6.94 -1.63
1.59 7.95 -1.58
1.81 9.09 -1.47
2.8 14.05 -1.76
7.72 38.69 -3.45
1.24 6.12 -1.67
1.42 6.97 -1.64
1.63 8.03 -1.59
1.85 9.08 -1.47
2.92 14.39 -1.8
7.87 38.77 -3.46
1.27 6.15 -1.68
1.44 6.98 -1.65
1.66 8.03 -1.59
1.89 9.15 -1.48
3.01 14.56 -1.83
8.04 38.91 -3.48
1.29 6.13 -1.68
1.47 6.99 -1.65
1.68 8 -1.59
1.92 9.14 -1.48
3.05 14.51 -1.82
1.31 6.13 -1.68
1.5 6.99 -1.65
1.72 8.03 -1.6
1.98 9.26 -1.5
3.1 14.47 -1.82
1.33 6.12 -1.68
1.53 7.01 -1.66
1.75 8.05 -1.6
1.97 9.07 -1.47
3.03 13.92 -1.75
5.17 23.73 -2.12
11.59 53.23 -2.86
1.35 6.1 -1.68
1.56 7.03 -1.66
1.78 8.06 -1.61
2.03 9.18 -1.49
3.07 13.87 -1.74
5.25 23.74 -2.13
1.37 6.09 -1.67
1.58 7 -1.66
1.81 8.05 -1.6
2.02 8.96 -1.45
3.11 13.84 -1.74
5.32 23.66 -2.12
1.39 6.08 -1.67
1.59 6.97 -1.65
1.84 8.03 -1.6
2.03 8.89 -1.45
3.16 13.83 -1.74
5.42 23.69 -2.13
1.41 6.08 -1.67
1.62 7 -1.66
1.86 8.02 -1.6
2.16 9.33 -1.52
3.27 14.08 -1.77
5.48 23.63 -2.12
1.43 6.08 -1.67
1.64 6.98 -1.65
1.89 8.02 -1.6
2.14 9.07 -1.48
3.26 13.83 -1.74
5.54 23.52 -2.11
19.54 82.94 -4.47
1.46 6.09 -1.68
1.67 6.99 -1.66
1.92 8 -1.6
2.19 9.15 -1.49
3.32 13.85 -1.75
5.63 23.54 -2.12
1.48 6.1 -1.68
1.71 7.02 -1.67
1.92 7.89 -1.58
2.25 9.28 -1.51
3.42 14.07 -1.78
1.49 6.06 -1.67
1.73 7 -1.67
1.94 7.88 -1.58
2.22 9.02 -1.47
3.55 14.41 -1.82
1.53 6.11 -1.69
1.75 6.98 -1.66
1.97 7.88 -1.58
2.53 10.12 -1.65
3.66 14.61 -1.85
1.56 6.15 -1.7
1.77 6.96 -1.66
2 7.88 -1.58
2.29 9.01 -1.47
3.54 13.94 -1.77
1.59 6.16 -1.71
1.79 6.94 -1.65
2.03 7.89 -1.58
2.32 9.01 -1.47
3.71 14.4 -1.83
1.62 6.18 -1.71
1.82 6.95 -1.66
2.07 7.91 -1.59
2.35 8.99 -1.47
18.02 68.93 -3.73
1.63 6.14 -1.7
27.83 104.99 1.9
1.84 6.94 -1.66
2.1 7.91 -1.59
2.35 8.88 -1.46
3.79 14.32 -1.82
18.23 68.79 -3.73
1.64 6.09 -1.69
28.18 104.8 1.89
1.84 6.86 -1.64
2.13 7.92 -1.59
2.46 9.15 -1.5
3.85 14.3 -1.82
18.48 68.73 -3.73
1.66 6.08 -1.69
28.48 104.51 1.89
1.89 6.92 -1.66
2.15 7.9 -1.59
3.82 14.03 -1.79
18.72 68.7 -3.73
1.7 6.14 -1.71
1.92 6.95 -1.67
2.18 7.88 -1.59
3.93 14.23 -1.81
1.72 6.12 -1.7
29.18 104.11 1.89
1.94 6.92 -1.66
2.2 7.86 -1.59
2.5 8.93 -1.47
4.05 14.44 -1.84
1.73 6.09 -1.7
29.5 103.91 1.89
1.95 6.88 -1.65
2.23 7.86 -1.59
4.11 14.49 -1.85
1.75 6.08 -1.7
29.83 103.72 1.88
1.97 6.86 -1.65
2.24 7.79 -1.58
2.73 9.48 -1.56
4.18 14.52 -1.86
1.78 6.11 -1.71
30.13 103.42 1.88
2.02 6.92 -1.66
30.15 103.51 5.65
2.25 7.71 -1.56
2.83 9.72 -1.6
4.27 14.65 -1.87
1.81 6.13 -1.71
30.42 103.13 1.88
2.05 6.94 -1.67
2.27 7.7 -1.56
2.58 8.75 -1.44
