# .PCD v0.7 - Point Cloud Data file format
VERSION 0.7
FIELDS x y z
SIZE 4 4 4
TYPE F F F
COUNT 1 1 1
WIDTH 2897
HEIGHT 1
VIEWPOINT 0 0 0 1 0 0 0
POINTS 2897
DATA ascii
6.76 -1.68 -1.61
9.51 -2.37 0.51
7.92 -1.97 -1.59
9.69 -2.41 0.87
9.32 -2.32 -1.52
9.22 -2.3 -1.17
9.14 -2.28 -0.82
9.13 -2.27 -0.49
9.26 -2.31 -0.17
5.88 -1.49 -1.63
9.23 -2.33 0.17
6.75 -1.71 -1.61
9.39 -2.37 0.51
7.91 -2 -1.59
9.56 -2.42 0.86
9.32 -2.36 -1.52
9.05 -2.29 -1.15
9.08 -2.3 -0.82
9.04 -2.29 -0.49
9.16 -2.32 -0.16
5.88 -1.51 -1.63
9.14 -2.34 0.16
6.74 -1.73 -1.61
9.28 -2.38 0.5
7.9 -2.03 -1.59
9.46 -2.43 0.85
9.35 -2.4 -1.53
9.02 -2.31 -1.14
8.98 -2.3 -0.81
8.93 -2.29 -0.48
9.05 -2.32 -0.16
5.87 -1.53 -1.63
9.04 -2.35 0.16
6.73 -1.75 -1.6
9.17 -2.39 0.5
7.89 -2.05 -1.59
9.33 -2.43 0.84
9.34 -2.43 -1.53
8.93 -2.32 -1.13
8.9 -2.32 -0.8
8.85 -2.3 -0.48
8.94 -2.33 -0.16
5.86 -1.55 -1.62
8.93 -2.36 0.16
6.73 -1.78 -1.61
9.07 -2.39 0.49
7.89 -2.08 -1.59
9.22 -2.43 0.83
9.37 -2.47 -1.53
8.84 -2.33 -1.12
8.79 -2.32 -0.8
8.74 -2.31 -0.47
8.84 -2.33 -0.16
5.85 -1.57 -1.62
8.82 -2.36 0.16
6.72 -1.8 -1.61
8.97 -2.4 0.49
7.88 -2.11 -1.59
9.11 -2.44 0.83
9.47 -2.54 -1.55
8.72 -2.33 -1.11
8.69 -2.33 -0.79
8.66 -2.32 -0.47
8.75 -2.34 -0.16
5.85 -1.59 -1.62
8.73 -2.37 0.16
6.7 -1.82 -1.6
8.87 -2.41 0.48
7.89 -2.14 -1.59
9.02 -2.45 0.82
9.46 -2.57 -1.55
8.64 -2.34 -1.1
8.57 -2.33 -0.78
8.56 -2.32 -0.46
8.66 -2.35 -0.16
5.85 -1.61 -1.63
8.64 -2.38 0.16
6.7 -1.84 -1.6
8.76 -2.41 0.48
7.87 -2.17 -1.59
8.91 -2.45 0.81
9.46 -2.6 -1.55
8.51 -2.34 -1.08
8.49 -2.34 -0.77
8.46 -2.33 -0.46
8.55 -2.35 -0.15
5.84 -1.63 -1.63
8.55 -2.39 0.15
6.73 -1.88 -1.61
8.67 -2.42 0.47
7.87 -2.2 -1.59
8.82 -2.46 0.8
9.45 -2.64 -1.55
8.41 -2.35 -1.07
8.39 -2.34 -0.76
8.39 -2.34 -0.46
8.47 -2.36 -0.15
5.84 -1.65 -1.63
8.47 -2.39 0.15
6.72 -1.9 -1.61
8.58 -2.43 0.47
7.86 -2.22 -1.59
8.71 -2.46 0.79
9.45 -2.67 -1.55
8.33 -2.36 -1.06
8.3 -2.35 -0.75
8.29 -2.34 -0.45
8.37 -2.37 -0.15
5.84 -1.67 -1.63
8.37 -2.4 0.15
6.71 -1.92 -1.61
8.49 -2.43 0.46
7.86 -2.25 -1.59
8.62 -2.47 0.78
9.42 -2.7 -1.55
8.25 -2.36 -1.05
8.21 -2.35 -0.75
8.23 -2.36 -0.45
8.3 -2.38 -0.15
5.82 -1.69 -1.62
8.27 -2.4 0.15
6.69 -1.94 -1.61
8.41 -2.44 0.46
7.86 -2.28 -1.59
8.53 -2.48 0.78
9.41 -2.73 -1.55
8.15 -2.37 -1.04
8.12 -2.36 -0.74
8.13 -2.36 -0.44
8.18 -2.37 -0.15
5.83 -1.71 -1.63
8.14 -2.39 0.15
6.69 -1.97 -1.61
8.29 -2.44 0.45
7.85 -2.31 -1.59
8.44 -2.48 0.77
9.41 -2.77 -1.55
8.05 -2.37 -1.03
8.05 -2.37 -0.73
8.04 -2.36 -0.44
8.08 -2.37 -0.15
5.81 -1.73 -1.62
8.06 -2.4 0.15
6.68 -1.99 -1.61
8.18 -2.44 0.45
7.84 -2.33 -1.59
8.34 -2.48 0.76
9.4 -2.8 -1.55
7.98 -2.38 -1.02
7.95 -2.37 -0.73
7.98 -2.38 -0.44
7.99 -2.38 -0.15
5.79 -1.75 -1.62
7.99 -2.41 0.15
6.68 -2.01 -1.61
8.09 -2.44 0.44
7.83 -2.36 -1.59
8.25 -2.49 0.75
9.38 -2.83 -1.55
7.89 -2.38 -1.01
7.87 -2.37 -0.72
7.9 -2.38 -0.43
7.91 -2.38 -0.14
5.79 -1.77 -1.62
7.89 -2.41 0.14
6.67 -2.04 -1.61
8.02 -2.45 0.44
7.84 -2.39 -1.59
8.16 -2.49 0.75
9.36 -2.86 -1.55
7.83 -2.39 -1.01
7.8 -2.38 -0.71
7.82 -2.39 -0.43
7.83 -2.39 -0.14
5.78 -1.79 -1.62
7.82 -2.42 0.14
6.66 -2.06 -1.61
7.92 -2.45 0.43
7.83 -2.42 -1.59
8.08 -2.5 0.74
9.36 -2.89 -1.55
7.74 -2.39 -1
7.76 -2.4 -0.71
7.76 -2.4 -0.43
7.76 -2.4 -0.14
5.77 -1.81 -1.62
7.75 -2.43 0.14
6.67 -2.09 -1.61
7.84 -2.45 0.43
7.82 -2.45 -1.59
8 -2.5 0.73
9.34 -2.92 -1.55
7.67 -2.4 -0.99
7.7 -2.41 -0.71
7.7 -2.41 -0.42
7.69 -2.41 -0.14
5.78 -1.83 -1.62
7.68 -2.43 0.14
6.65 -2.11 -1.61
7.77 -2.46 0.43
7.81 -2.47 -1.59
7.91 -2.51 0.73
9.34 -2.96 -1.55
7.62 -2.42 -0.98
7.64 -2.42 -0.7
7.66 -2.43 -0.42
7.65 -2.42 -0.14
5.76 -1.85 -1.62
7.64 -2.45 0.14
6.65 -2.13 -1.61
7.72 -2.47 0.42
7.8 -2.5 -1.59
7.82 -2.51 0.72
9.32 -2.99 -1.55
7.6 -2.44 -0.98
7.6 -2.44 -0.7
7.63 -2.45 -0.42
7.6 -2.44 -0.14
5.75 -1.87 -1.62
7.59 -2.46 0.14
6.65 -2.16 -1.61
7.67 -2.49 0.42
7.8 -2.53 -1.59
7.76 -2.52 0.71
9.31 -3.02 -1.55
7.59 -2.46 -0.98
7.57 -2.46 -0.7
7.61 -2.47 -0.42
7.6 -2.47 -0.14
5.75 -1.89 -1.62
7.57 -2.49 0.14
6.64 -2.18 -1.61
7.63 -2.5 0.42
7.79 -2.56 -1.59
7.7 -2.53 0.71
9.29 -3.05 -1.55
7.58 -2.49 -0.98
7.61 -2.5 -0.7
7.58 -2.49 -0.42
7.58 -2.49 -0.14
5.75 -1.91 -1.62
7.56 -2.51 0.14
6.63 -2.2 -1.61
7.6 -2.53 0.42
7.78 -2.58 -1.59
7.67 -2.55 0.71
9.28 -3.08 -1.55
7.56 -2.51 -0.98
7.58 -2.52 -0.7
7.58 -2.52 -0.42
7.58 -2.52 -0.14
5.76 -1.94 -1.63
7.56 -2.54 0.14
6.62 -2.23 -1.61
7.62 -2.56 0.42
7.76 -2.61 -1.59
7.65 -2.57 0.71
9.27 -3.12 -1.55
7.58 -2.55 -0.98
7.56 -2.54 -0.7
7.57 -2.55 -0.42
7.56 -2.54 -0.14
5.74 -1.95 -1.62
7.58 -2.57 0.14
6.62 -2.25 -1.61
7.59 -2.58 0.42
7.76 -2.64 -1.59
7.68 -2.61 0.71
9.27 -3.15 -1.55
7.57 -2.57 -0.98
7.54 -2.56 -0.7
7.57 -2.57 -0.42
7.56 -2.57 -0.14
5.74 -1.97 -1.62
7.58 -2.6 0.14
6.62 -2.27 -1.62
7.6 -2.61 0.42
7.75 -2.66 -1.59
7.64 -2.62 0.71
9.25 -3.18 -1.55
7.59 -2.61 -0.99
7.54 -2.59 -0.7
7.56 -2.6 -0.42
7.57 -2.6 -0.14
5.73 -1.99 -1.63
7.57 -2.63 0.14
6.6 -2.29 -1.61
7.6 -2.64 0.42
7.74 -2.69 -1.59
7.64 -2.66 0.71
9.24 -3.21 -1.55
7.6 -2.64 -0.99
7.55 -2.62 -0.7
7.54 -2.62 -0.42
7.58 -2.64 -0.14
5.73 -2.01 -1.63
7.57 -2.66 0.14
6.6 -2.32 -1.62
7.59 -2.67 0.42
7.73 -2.72 -1.59
7.64 -2.68 0.71
9.24 -3.25 -1.55
7.58 -2.67 -0.99
7.55 -2.65 -0.7
7.54 -2.65 -0.42
7.57 -2.66 -0.14
5.72 -2.03 -1.63
7.57 -2.69 0.14
6.59 -2.34 -1.62
7.59 -2.7 0.42
7.71 -2.74 -1.59
7.63 -2.71 0.71
9.22 -3.28 -1.55
7.58 -2.7 -0.99
7.54 -2.68 -0.7
7.54 -2.68 -0.42
7.56 -2.69 -0.14
5.7 -2.05 -1.62
7.56 -2.72 0.14
6.6 -2.37 -1.62
7.59 -2.73 0.42
7.71 -2.77 -1.59
7.62 -2.74 0.71
9.21 -3.31 -1.55
7.54 -2.71 -0.7
7.54 -2.71 -0.42
7.56 -2.72 -0.14
5.7 -2.07 -1.63
7.56 -2.75 0.14
6.59 -2.39 -1.62
7.59 -2.76 0.42
7.7 -2.8 -1.59
7.62 -2.77 0.71
9.19 -3.34 -1.55
7.57 -2.75 -0.99
7.54 -2.74 -0.7
7.53 -2.74 -0.42
7.56 -2.75 -0.14
5.7 -2.09 -1.63
7.55 -2.77 0.14
6.57 -2.41 -1.61
7.59 -2.79 0.42
7.69 -2.83 -1.59
7.62 -2.8 0.71
9.18 -3.37 -1.55
7.59 -2.79 -0.99
7.54 -2.77 -0.7
7.52 -2.76 -0.42
7.57 -2.78 -0.14
5.69 -2.11 -1.63
7.55 -2.8 0.14
6.57 -2.44 -1.62
7.58 -2.82 0.42
7.68 -2.85 -1.59
7.63 -2.83 0.71
9.18 -3.41 -1.55
7.59 -2.82 -0.99
7.54 -2.8 -0.7
7.53 -2.8 -0.42
7.56 -2.81 -0.14
5.69 -2.13 -1.63
7.56 -2.84 0.14
6.56 -2.46 -1.62
7.58 -2.84 0.42
7.66 -2.88 -1.59
7.62 -2.86 0.71
9.17 -3.44 -1.55
7.57 -2.84 -0.99
7.54 -2.83 -0.7
7.53 -2.83 -0.42
7.56 -2.84 -0.14
5.68 -2.15 -1.63
7.56 -2.86 0.14
6.56 -2.49 -1.62
7.59 -2.88 0.43
7.65 -2.9 -1.59
7.61 -2.88 0.71
9.16 -3.47 -1.55
7.57 -2.87 -0.99
7.53 -2.85 -0.7
7.54 -2.86 -0.42
7.55 -2.86 -0.14
5.68 -2.18 -1.63
7.54 -2.89 0.14
6.55 -2.51 -1.62
7.59 -2.91 0.43
7.65 -2.93 -1.59
7.62 -2.92 0.71
9.14 -3.5 -1.55
7.58 -2.9 -1
7.53 -2.88 -0.71
7.54 -2.89 -0.42
7.56 -2.89 -0.14
5.67 -2.2 -1.63
7.55 -2.92 0.14
6.53 -2.53 -1.62
7.59 -2.94 0.43
7.64 -2.96 -1.59
7.62 -2.95 0.71
9.13 -3.54 -1.55
7.57 -2.93 -1
7.53 -2.92 -0.71
7.53 -2.92 -0.42
7.56 -2.93 -0.14
5.67 -2.22 -1.63
7.55 -2.96 0.14
6.53 -2.55 -1.62
7.58 -2.97 0.43
7.63 -2.98 -1.59
7.62 -2.98 0.72
9.12 -3.57 -1.55
7.56 -2.96 -1
7.53 -2.95 -0.71
7.53 -2.95 -0.42
7.56 -2.96 -0.14
5.67 -2.24 -1.63
7.56 -2.99 0.14
6.53 -2.58 -1.62
7.59 -3 0.43
7.6 -3.01 -1.59
7.62 -3.01 0.72
9.12 -3.6 -1.55
7.57 -2.99 -1
7.54 -2.98 -0.71
7.53 -2.98 -0.42
7.55 -2.98 -0.14
5.65 -2.25 -1.63
7.55 -3.02 0.14
6.52 -2.6 -1.62
7.58 -3.03 0.43
7.6 -3.03 -1.59
7.61 -3.04 0.72
9.11 -3.64 -1.55
7.56 -3.02 -1
7.53 -3.01 -0.71
7.53 -3.01 -0.43
7.55 -3.02 -0.14
5.64 -2.28 -1.63
7.55 -3.05 0.14
6.51 -2.63 -1.62
7.59 -3.06 0.43
7.59 -3.06 -1.59
7.62 -3.07 0.72
9.09 -3.67 -1.55
7.57 -3.05 -1
7.53 -3.04 -0.71
7.54 -3.04 -0.43
7.56 -3.05 -0.14
5.64 -2.3 -1.63
7.55 -3.08 0.14
6.49 -2.64 -1.62
7.59 -3.09 0.43
7.58 -3.09 -1.59
7.62 -3.1 0.72
9.08 -3.7 -1.55
7.57 -3.09 -1
7.54 -3.07 -0.71
7.52 -3.06 -0.43
7.55 -3.08 -0.14
5.63 -2.32 -1.63
7.56 -3.11 0.14
6.48 -2.67 -1.62
7.57 -3.12 0.43
7.57 -3.12 -1.59
7.62 -3.14 0.72
9.08 -3.73 -1.55
7.56 -3.11 -1
7.55 -3.11 -0.71
7.52 -3.1 -0.43
7.55 -3.11 -0.14
5.64 -2.34 -1.64
7.56 -3.14 0.14
6.47 -2.69 -1.62
7.58 -3.15 0.43
7.55 -3.14 -1.59
7.62 -3.17 0.72
9.06 -3.77 -1.55
7.57 -3.14 -1.01
7.55 -3.14 -0.72
7.52 -3.13 -0.43
7.55 -3.14 -0.14
5.61 -2.35 -1.63
7.56 -3.17 0.14
6.47 -2.72 -1.62
7.58 -3.18 0.43
7.54 -3.16 -1.59
7.62 -3.2 0.72
9.05 -3.8 -1.55
7.57 -3.18 -1.01
7.53 -3.16 -0.71
7.53 -3.16 -0.43
7.54 -3.16 -0.14
5.6 -2.37 -1.63
7.55 -3.2 0.14
6.47 -2.74 -1.62
7.58 -3.21 0.43
7.53 -3.19 -1.59
7.62 -3.23 0.72
9.04 -3.83 -1.55
7.71 -3.27 1.03
7.58 -3.21 -1.01
7.54 -3.2 -0.72
7.53 -3.19 -0.43
7.55 -3.2 -0.14
5.6 -2.4 -1.63
7.55 -3.23 0.14
6.45 -2.76 -1.62
7.58 -3.24 0.43
7.53 -3.22 -1.59
7.62 -3.26 0.73
9.03 -3.86 -1.56
7.66 -3.28 1.02
7.59 -3.25 -1.01
7.55 -3.23 -0.72
7.52 -3.22 -0.43
7.56 -3.23 -0.14
5.6 -2.42 -1.63
7.56 -3.26 0.14
6.44 -2.78 -1.62
7.57 -3.27 0.43
7.52 -3.25 -1.59
7.63 -3.29 0.73
9.01 -3.89 -1.55
7.63 -3.29 1.02
7.58 -3.27 -1.01
7.55 -3.26 -0.72
7.53 -3.25 -0.43
7.56 -3.26 -0.14
5.59 -2.44 -1.63
7.56 -3.3 0.14
6.44 -2.81 -1.62
7.58 -3.3 0.43
7.5 -3.27 -1.59
7.63 -3.32 0.73
9.01 -3.93 -1.56
7.61 -3.32 1.02
7.59 -3.31 -1.02
7.55 -3.29 -0.72
7.53 -3.28 -0.43
7.55 -3.29 -0.14
5.57 -2.45 -1.63
7.56 -3.32 0.14
6.43 -2.83 -1.62
7.59 -3.34 0.43
7.48 -3.29 -1.59
7.63 -3.36 0.73
9 -3.96 -1.56
7.6 -3.34 1.02
7.6 -3.34 -1.02
7.55 -3.32 -0.72
7.53 -3.31 -0.43
7.55 -3.32 -0.14
5.57 -2.47 -1.63
7.56 -3.36 0.14
6.42 -2.85 -1.62
7.6 -3.37 0.44
7.47 -3.32 -1.59
7.63 -3.39 0.73
8.98 -3.99 -1.56
7.62 -3.38 1.02
7.6 -3.38 -1.02
7.55 -3.35 -0.72
7.54 -3.35 -0.43
7.54 -3.35 -0.14
5.57 -2.49 -1.63
7.56 -3.39 0.14
6.4 -2.87 -1.62
7.6 -3.4 0.44
7.47 -3.35 -1.59
7.64 -3.42 0.73
8.97 -4.02 -1.56
7.61 -3.41 -1.02
7.55 -3.38 -0.72
7.54 -3.38 -0.43
7.57 -3.39 -0.14
5.57 -2.52 -1.64
7.57 -3.42 0.14
6.39 -2.89 -1.62
7.59 -3.44 0.44
7.45 -3.37 -1.59
7.64 -3.46 0.73
8.96 -4.05 -1.56
7.59 -3.44 -1.02
7.56 -3.42 -0.73
7.54 -3.41 -0.43
7.58 -3.43 -0.15
5.56 -2.54 -1.64
7.58 -3.46 0.15
6.38 -2.91 -1.62
7.6 -3.47 0.44
7.44 -3.4 -1.59
7.65 -3.49 0.74
8.95 -4.09 -1.56
7.6 -3.47 -1.03
7.56 -3.45 -0.73
7.54 -3.44 -0.43
7.57 -3.45 -0.15
5.54 -2.55 -1.63
7.58 -3.49 0.15
6.38 -2.94 -1.62
7.6 -3.5 0.44
7.43 -3.43 -1.59
7.64 -3.52 0.74
8.94 -4.12 -1.56
7.6 -3.5 -1.03
7.56 -3.48 -0.73
7.55 -3.48 -0.44
7.56 -3.49 -0.15
5.53 -2.57 -1.64
7.58 -3.52 0.15
6.36 -2.96 -1.62
7.61 -3.54 0.44
7.42 -3.45 -1.59
7.65 -3.56 0.74
8.93 -4.15 -1.56
7.6 -3.54 -1.03
7.56 -3.52 -0.73
7.54 -3.5 -0.44
7.58 -3.53 -0.15
5.53 -2.59 -1.64
7.57 -3.55 0.15
6.34 -2.98 -1.62
7.61 -3.57 0.44
7.41 -3.48 -1.59
7.65 -3.59 0.74
8.91 -4.18 -1.56
7.6 -3.57 -1.03
7.56 -3.55 -0.73
7.56 -3.55 -0.44
7.58 -3.56 -0.15
5.52 -2.61 -1.64
7.58 -3.59 0.15
6.33 -3 -1.62
7.61 -3.6 0.44
7.4 -3.5 -1.59
7.66 -3.63 0.74
8.9 -4.21 -1.56
7.59 -3.59 -1.03
7.57 -3.58 -0.73
7.56 -3.58 -0.44
7.58 -3.59 -0.15
5.52 -2.64 -1.64
7.59 -3.63 0.15
6.33 -3.02 -1.62
7.61 -3.63 0.44
7.37 -3.52 -1.59
7.67 -3.66 0.74
8.89 -4.25 -1.56
7.6 -3.63 -1.03
7.57 -3.62 -0.73
7.56 -3.61 -0.44
7.57 -3.62 -0.15
5.5 -2.65 -1.64
7.6 -3.66 0.15
6.32 -3.05 -1.62
7.62 -3.67 0.44
7.37 -3.55 -1.59
7.66 -3.69 0.74
8.87 -4.28 -1.56
7.61 -3.67 -1.04
7.57 -3.65 -0.73
7.56 -3.64 -0.44
7.58 -3.65 -0.15
5.49 -2.67 -1.64
7.59 -3.69 0.15
6.31 -3.07 -1.62
7.62 -3.71 0.44
7.37 -3.58 -1.59
7.66 -3.73 0.75
8.86 -4.31 -1.56
7.62 -3.7 -1.04
7.58 -3.68 -0.74
7.56 -3.68 -0.44
7.59 -3.69 -0.15
5.49 -2.69 -1.64
7.59 -3.72 0.15
6.28 -3.08 -1.62
7.63 -3.74 0.45
7.36 -3.61 -1.59
7.67 -3.76 0.75
8.84 -4.34 -1.56
7.62 -3.74 -1.04
7.58 -3.72 -0.74
7.56 -3.71 -0.44
7.59 -3.72 -0.15
5.48 -2.71 -1.64
7.6 -3.76 0.15
6.28 -3.11 -1.62
7.62 -3.77 0.45
7.34 -3.63 -1.59
7.69 -3.8 0.75
8.83 -4.37 -1.56
7.61 -3.77 -1.04
7.59 -3.76 -0.74
7.57 -3.75 -0.44
7.6 -3.76 -0.15
5.47 -2.73 -1.64
7.61 -3.8 0.15
6.27 -3.13 -1.62
7.64 -3.81 0.45
7.32 -3.65 -1.59
7.69 -3.84 0.75
8.82 -4.4 -1.56
7.62 -3.8 -1.05
7.59 -3.79 -0.74
7.59 -3.79 -0.44
7.6 -3.79 -0.15
5.45 -2.74 -1.63
7.62 -3.84 0.15
6.27 -3.16 -1.62
7.64 -3.85 0.45
7.31 -3.68 -1.59
7.69 -3.87 0.75
8.8 -4.43 -1.56
7.65 -3.85 -1.05
7.58 -3.82 -0.74
7.6 -3.83 -0.45
7.6 -3.83 -0.15
5.44 -2.76 -1.64
7.61 -3.87 0.15
6.26 -3.18 -1.62
7.66 -3.89 0.45
7.3 -3.71 -1.59
7.7 -3.91 0.76
8.79 -4.46 -1.56
7.65 -3.88 -1.05
7.59 -3.85 -0.74
7.6 -3.86 -0.45
7.61 -3.87 -0.15
5.44 -2.79 -1.64
7.62 -3.91 0.15
6.23 -3.19 -1.62
7.66 -3.93 0.45
7.3 -3.74 -1.59
7.71 -3.95 0.76
8.77 -4.5 -1.56
7.64 -3.92 -1.05
7.6 -3.89 -0.75
7.6 -3.89 -0.45
7.62 -3.9 -0.15
5.43 -2.81 -1.64
7.64 -3.95 0.15
6.22 -3.21 -1.62
7.67 -3.96 0.45
7.29 -3.76 -1.59
7.72 -3.99 0.76
8.76 -4.53 -1.56
7.63 -3.94 -1.05
7.61 -3.93 -0.75
7.6 -3.93 -0.45
7.63 -3.94 -0.15
5.43 -2.83 -1.64
7.64 -3.98 0.15
6.22 -3.24 -1.62
7.67 -4 0.45
7.27 -3.79 -1.59
7.73 -4.03 0.76
8.75 -4.56 -1.56
7.63 -3.97 -1.06
7.62 -3.97 -0.75
7.6 -3.96 -0.45
7.62 -3.97 -0.15
5.41 -2.84 -1.64
7.65 -4.02 0.15
6.21 -3.26 -1.62
7.69 -4.04 0.46
7.26 -3.81 -1.59
7.74 -4.07 0.76
8.73 -4.59 -1.56
7.63 -4.01 -1.06
7.61 -4 -0.75
7.61 -4 -0.45
7.63 -4.01 -0.15
5.4 -2.86 -1.64
7.65 -4.06 0.15
6.21 -3.29 -1.62
7.7 -4.08 0.46
7.25 -3.84 -1.59
7.76 -4.11 0.77
8.71 -4.62 -1.56
7.63 -4.04 -1.06
7.62 -4.04 -0.75
7.62 -4.04 -0.45
7.65 -4.05 -0.15
5.39 -2.88 -1.64
7.67 -4.1 0.15
6.18 -3.3 -1.62
7.7 -4.11 0.46
7.24 -3.87 -1.6
8.69 -4.65 -1.56
7.63 -4.08 -1.06
7.63 -4.08 -0.76
7.62 -4.07 -0.45
7.66 -4.09 -0.15
5.38 -2.9 -1.64
7.66 -4.13 0.15
6.17 -3.33 -1.62
7.7 -4.15 0.46
7.22 -3.89 -1.6
8.68 -4.68 -1.56
7.64 -4.12 -1.07
7.65 -4.12 -0.76
7.63 -4.11 -0.45
7.66 -4.13 -0.15
5.38 -2.92 -1.64
7.66 -4.16 0.15
6.17 -3.35 -1.62
7.21 -3.92 -1.59
8.67 -4.71 -1.56
7.63 -4.15 -1.07
7.66 -4.16 -0.76
7.65 -4.15 -0.46
7.66 -4.16 -0.15
5.36 -2.93 -1.64
7.67 -4.2 0.15
6.16 -3.37 -1.62
7.19 -3.94 -1.59
8.66 -4.74 -1.56
7.66 -4.2 -1.07
7.66 -4.19 -0.76
7.65 -4.19 -0.46
7.67 -4.2 -0.15
5.35 -2.95 -1.64
7.67 -4.24 0.15
6.15 -3.4 -1.62
7.19 -3.97 -1.6
8.63 -4.76 -1.56
7.66 -4.23 -1.07
7.69 -4.25 -0.77
7.68 -4.24 -0.46
7.7 -4.25 -0.15
5.34 -2.98 -1.64
6.13 -3.41 -1.62
7.18 -4 -1.6
8.61 -4.8 -1.56
7.71 -4.29 -0.77
7.69 -4.28 -0.46
5.33 -3 -1.64
6.12 -3.44 -1.62
7.17 -4.02 -1.6
8.6 -4.83 -1.56
10.88 -6.11 -1.53
14.73 -8.27 -1.48
5.32 -3.01 -1.64
6.11 -3.46 -1.62
7.15 -4.05 -1.6
8.58 -4.86 -1.56
10.86 -6.15 -1.53
14.7 -8.33 -1.48
5.31 -3.03 -1.64
6.1 -3.48 -1.62
7.14 -4.07 -1.6
8.57 -4.89 -1.56
10.84 -6.19 -1.53
14.69 -8.38 -1.48
5.29 -3.04 -1.64
6.09 -3.5 -1.62
7.13 -4.1 -1.6
8.55 -4.91 -1.56
10.83 -6.23 -1.53
14.67 -8.43 -1.48
5.29 -3.07 -1.64
6.07 -3.52 -1.62
7.12 -4.12 -1.6
8.52 -4.94 -1.56
10.82 -6.27 -1.54
14.64 -8.49 -1.48
22.25 -12.89 -1.35
5.28 -3.09 -1.64
6.07 -3.54 -1.62
7.1 -4.15 -1.6
22.98 -13.43 2.33
8.51 -4.98 -1.56
10.78 -6.3 -1.53
14.63 -8.55 -1.48
21.88 -12.79 -1.33
5.27 -3.1 -1.64
6.05 -3.57 -1.62
7.08 -4.17 -1.6
22.94 -13.51 2.33
8.5 -5.01 -1.56
10.78 -6.35 -1.54
14.61 -8.6 -1.48
21.71 -12.78 -1.32
5.25 -3.12 -1.64
22.97 -13.64 0.47
6.04 -3.59 -1.62
7.07 -4.2 -1.6
22.87 -13.59 2.33
8.48 -5.04 -1.56
10.76 -6.39 -1.54
14.58 -8.66 -1.48
21.6 -12.83 -1.32
5.24 -3.14 -1.64
22.86 -13.68 0.47
6.04 -3.62 -1.63
7.06 -4.23 -1.6
8.46 -5.06 -1.56
10.74 -6.43 -1.54
14.57 -8.72 -1.49
21.58 -12.92 -1.32
5.23 -3.16 -1.64
6.01 -3.63 -1.62
22.66 -13.67 1.39
7.05 -4.26 -1.6
8.45 -5.1 -1.56
10.72 -6.47 -1.54
14.54 -8.77 -1.49
21.34 -12.88 -1.31
5.23 -3.18 -1.64
6 -3.65 -1.62
22.62 -13.75 1.39
7.04 -4.28 -1.6
8.45 -5.14 -1.57
10.69 -6.5 -1.54
14.52 -8.83 -1.49
21.16 -12.87 -1.3
5.21 -3.2 -1.64
6 -3.68 -1.63
22.56 -13.83 1.39
7.02 -4.3 -1.6
8.44 -5.17 -1.57
10.68 -6.55 -1.54
14.51 -8.89 -1.49
21.33 -13.07 -1.31
22.84 -14 -0.47
5.2 -3.21 -1.64
5.99 -3.7 -1.63
22.52 -13.91 1.39
7 -4.33 -1.6
22.66 -14 2.33
8.42 -5.2 -1.57
10.67 -6.59 -1.54
14.49 -8.95 -1.49
21.39 -13.21 -1.32
5.19 -3.23 -1.64
22.71 -14.13 0.47
5.98 -3.72 -1.63
7 -4.35 -1.6
22.65 -14.09 2.33
8.39 -5.22 -1.57
10.66 -6.63 -1.54
14.47 -9 -1.49
21.28 -13.24 -1.31
5.18 -3.25 -1.64
5.96 -3.74 -1.63
6.99 -4.38 -1.6
22.61 -14.18 2.34
8.37 -5.25 -1.57
10.63 -6.67 -1.54
14.45 -9.06 -1.49
21.37 -13.4 -1.32
5.17 -3.27 -1.64
22.59 -14.28 0.47
5.94 -3.76 -1.62
6.98 -4.41 -1.61
8.38 -5.29 -1.57
10.61 -6.71 -1.54
14.43 -9.12 -1.49
21.35 -13.5 -1.32
5.16 -3.29 -1.64
22.55 -14.37 0.47
5.94 -3.78 -1.63
6.96 -4.43 -1.6
22.5 -14.33 2.33
8.35 -5.32 -1.57
10.59 -6.75 -1.54
14.42 -9.19 -1.5
21.31 -13.58 -1.32
5.15 -3.3 -1.64
5.93 -3.8 -1.63
6.94 -4.46 -1.6
22.45 -14.41 2.33
8.34 -5.35 -1.57
10.58 -6.79 -1.54
14.39 -9.23 -1.5
21.24 -13.63 -1.32
5.14 -3.32 -1.64
5.91 -3.82 -1.63
6.93 -4.48 -1.61
22.42 -14.5 2.34
8.32 -5.38 -1.57
10.57 -6.84 -1.55
14.37 -9.29 -1.5
21.28 -13.76 -1.33
5.13 -3.34 -1.64
5.89 -3.84 -1.62
6.92 -4.51 -1.61
22.42 -14.61 2.34
8.29 -5.41 -1.57
10.55 -6.87 -1.55
14.34 -9.34 -1.5
21.28 -13.87 -1.33
5.12 -3.36 -1.64
5.88 -3.86 -1.63
6.91 -4.54 -1.61
8.3 -5.45 -1.57
10.51 -6.9 -1.54
14.32 -9.4 -1.5
21.26 -13.96 -1.33
5.1 -3.38 -1.64
5.88 -3.89 -1.63
6.89 -4.56 -1.61
8.26 -5.47 -1.57
10.5 -6.95 -1.55
14.28 -9.45 -1.5
21.21 -14.04 -1.33
5.09 -3.39 -1.64
5.87 -3.91 -1.63
6.87 -4.58 -1.61
8.24 -5.5 -1.57
10.48 -6.99 -1.55
14.26 -9.51 -1.5
21.22 -14.15 -1.34
5.09 -3.42 -1.64
5.86 -3.93 -1.63
6.86 -4.61 -1.61
8.22 -5.52 -1.57
10.48 -7.04 -1.55
14.24 -9.56 -1.5
21.14 -14.2 -1.33
5.08 -3.44 -1.64
5.84 -3.95 -1.63
6.85 -4.64 -1.61
8.2 -5.55 -1.57
10.45 -7.07 -1.55
14.21 -9.62 -1.5
21.08 -14.27 -1.33
5.07 -3.46 -1.65
5.82 -3.97 -1.63
6.84 -4.66 -1.61
8.2 -5.59 -1.57
10.42 -7.1 -1.55
14.18 -9.67 -1.5
21.01 -14.33 -1.33
5.05 -3.47 -1.64
5.81 -4 -1.63
6.81 -4.68 -1.61
8.18 -5.62 -1.57
10.41 -7.15 -1.55
14.16 -9.73 -1.5
20.83 -14.31 -1.32
5.03 -3.48 -1.64
5.8 -4.02 -1.63
6.79 -4.7 -1.6
8.15 -5.64 -1.57
10.38 -7.18 -1.55
14.12 -9.77 -1.5
20.77 -14.37 -1.32
34.49 -23.87 -0.73
5.02 -3.5 -1.64
5.79 -4.04 -1.63
6.78 -4.73 -1.61
8.12 -5.66 -1.57
10.37 -7.23 -1.55
14.11 -9.84 -1.5
20.72 -14.45 -1.32
34.57 -24.1 -0.74
5.02 -3.53 -1.64
5.77 -4.05 -1.63
6.77 -4.75 -1.61
8.1 -5.69 -1.57
10.34 -7.26 -1.55
14.08 -9.89 -1.5
20.8 -14.61 -1.33
34.44 -24.19 -0.73
5.01 -3.55 -1.65
5.76 -4.07 -1.63
6.75 -4.77 -1.61
8.1 -5.73 -1.57
10.31 -7.3 -1.55
14.05 -9.94 -1.51
20.85 -14.75 -1.34
5.01 -3.57 -1.65
5.75 -4.1 -1.63
6.73 -4.79 -1.61
8.09 -5.77 -1.57
10.27 -7.32 -1.55
14.02 -9.99 -1.51
20.84 -14.85 -1.34
4.97 -3.57 -1.64
5.74 -4.12 -1.63
6.71 -4.82 -1.6
8.07 -5.8 -1.57
10.26 -7.37 -1.55
14 -10.06 -1.51
20.82 -14.95 -1.34
4.96 -3.59 -1.64
5.73 -4.14 -1.63
6.7 -4.84 -1.61
8.05 -5.82 -1.57
10.23 -7.4 -1.55
13.97 -10.1 -1.51
20.63 -14.92 -1.33
4.95 -3.61 -1.64
5.71 -4.16 -1.63
6.68 -4.87 -1.61
8.03 -5.85 -1.57
10.21 -7.44 -1.55
13.92 -10.14 -1.51
20.61 -15.02 -1.34
4.95 -3.63 -1.64
5.7 -4.18 -1.63
6.66 -4.89 -1.61
8.02 -5.88 -1.57
10.17 -7.46 -1.55
13.85 -10.16 -1.5
20.58 -15.1 -1.34
33.09 -24.28 -0.72
4.93 -3.64 -1.64
5.69 -4.21 -1.63
6.64 -4.91 -1.6
8 -5.91 -1.58
10.15 -7.5 -1.55
13.81 -10.21 -1.5
20.46 -15.13 -1.33
33.01 -24.4 -0.72
4.91 -3.66 -1.64
5.68 -4.23 -1.63
6.62 -4.93 -1.61
7.98 -5.94 -1.57
10.13 -7.54 -1.55
13.71 -10.21 -1.5
20.46 -15.23 -1.34
32.93 -24.51 -0.72
4.9 -3.68 -1.64
5.66 -4.25 -1.63
6.61 -4.96 -1.61
7.96 -5.97 -1.58
10.11 -7.58 -1.55
13.63 -10.22 -1.49
20.45 -15.34 -1.34
4.9 -3.7 -1.64
5.64 -4.26 -1.63
6.6 -4.99 -1.61
7.94 -6 -1.58
10.08 -7.62 -1.55
13.54 -10.23 -1.48
20.4 -15.41 -1.34
4.89 -3.72 -1.65
5.63 -4.28 -1.63
6.59 -5.01 -1.61
7.92 -6.03 -1.58
10.05 -7.65 -1.55
13.46 -10.25 -1.48
20.33 -15.47 -1.34
32.66 -24.86 -0.72
4.87 -3.74 -1.65
5.62 -4.3 -1.63
6.57 -5.04 -1.61
7.9 -6.06 -1.58
10.02 -7.68 -1.55
13.42 -10.28 -1.48
20.31 -15.56 -1.34
32.82 -25.15 -0.72
4.85 -3.75 -1.64
5.61 -4.33 -1.64
6.56 -5.06 -1.61
7.89 -6.09 -1.58
10 -7.72 -1.55
13.42 -10.36 -1.48
20.21 -15.6 -1.34
33.02 -25.49 -0.73
4.84 -3.77 -1.64
5.59 -4.35 -1.64
6.54 -5.08 -1.61
7.86 -6.11 -1.58
9.99 -7.76 -1.55
13.31 -10.34 -1.47
20.21 -15.71 -1.34
4.84 -3.79 -1.65
5.57 -4.37 -1.63
6.53 -5.12 -1.61
7.85 -6.14 -1.58
9.96 -7.8 -1.55
13.24 -10.37 -1.47
20.07 -15.72 -1.34
33.26 -26.05 -0.74
4.83 -3.81 -1.65
5.56 -4.39 -1.63
6.51 -5.14 -1.61
7.83 -6.18 -1.58
9.94 -7.84 -1.55
13.16 -10.38 -1.47
20.02 -15.79 -1.34
4.82 -3.83 -1.65
5.55 -4.41 -1.64
6.49 -5.15 -1.61
7.82 -6.21 -1.58
9.91 -7.88 -1.55
13.08 -10.4 -1.46
19.72 -15.67 -1.32
33.07 -26.28 -0.74
4.79 -3.83 -1.65
5.54 -4.43 -1.64
6.48 -5.18 -1.61
7.8 -6.24 -1.58
9.9 -7.92 -1.56
13 -10.4 -1.46
19.36 -15.48 -1.3
33.15 -26.51 -0.74
4.79 -3.86 -1.65
5.52 -4.45 -1.64
6.47 -5.21 -1.61
7.78 -6.26 -1.58
9.89 -7.97 -1.56
13.05 -10.52 -1.47
19.28 -15.53 -1.3
32.99 -26.58 -0.74
4.78 -3.88 -1.65
5.5 -4.46 -1.64
6.46 -5.24 -1.62
7.76 -6.29 -1.58
9.86 -8 -1.56
13.24 -10.74 -1.49
19.47 -15.79 -1.31
4.77 -3.9 -1.65
5.49 -4.49 -1.64
6.44 -5.26 -1.62
7.75 -6.33 -1.58
9.83 -8.04 -1.56
13.28 -10.85 -1.5
19.43 -15.88 -1.32
33.18 -27.11 -0.75
4.76 -3.91 -1.65
5.48 -4.51 -1.64
6.41 -5.27 -1.61
7.73 -6.36 -1.59
9.79 -8.06 -1.56
13.19 -10.86 -1.49
19.45 -16.01 -1.32
4.73 -3.92 -1.65
5.46 -4.53 -1.64
6.39 -5.3 -1.61
7.71 -6.39 -1.59
9.77 -8.1 -1.56
12.9 -10.69 -1.47
19.36 -16.04 -1.32
4.72 -3.94 -1.65
5.45 -4.55 -1.64
6.38 -5.33 -1.62
7.68 -6.41 -1.58
9.76 -8.15 -1.56
12.79 -10.68 -1.46
19.19 -16.02 -1.31
4.71 -3.97 -1.65
5.43 -4.56 -1.64
6.36 -5.35 -1.62
7.67 -6.45 -1.59
9.73 -8.19 -1.56
12.73 -10.7 -1.45
19.08 -16.04 -1.31
32.41 -27.26 -0.74
4.7 -3.98 -1.65
5.41 -4.58 -1.64
6.35 -5.38 -1.62
7.64 -6.47 -1.59
9.7 -8.22 -1.56
12.7 -10.75 -1.46
19.04 -16.12 -1.31
32.7 -27.68 -0.75
4.69 -4 -1.65
5.4 -4.61 -1.64
6.33 -5.39 -1.62
7.63 -6.51 -1.59
9.69 -8.26 -1.56
12.67 -10.8 -1.46
19.06 -16.25 -1.31
32.75 -27.93 -0.75
4.67 -4.01 -1.65
5.39 -4.63 -1.64
6.31 -5.42 -1.62
7.61 -6.53 -1.59
9.67 -8.31 -1.57
12.77 -10.97 -1.47
19.1 -16.4 -1.32
32.95 -28.31 -0.76
4.66 -4.03 -1.65
5.37 -4.65 -1.64
6.29 -5.44 -1.62
7.58 -6.56 -1.59
9.65 -8.35 -1.57
12.8 -11.08 -1.48
19.09 -16.51 -1.32
33.16 -28.68 -0.77
4.65 -4.05 -1.65
5.35 -4.66 -1.64
6.28 -5.47 -1.62
7.57 -6.59 -1.59
9.63 -8.38 -1.57
12.77 -11.12 -1.48
19 -16.54 -1.32
33.22 -28.92 -0.77
4.64 -4.07 -1.65
5.33 -4.68 -1.64
6.26 -5.49 -1.62
7.54 -6.61 -1.59
9.6 -8.42 -1.57
11.55 -10.13 -1.34
18.95 -16.62 -1.32
4.62 -4.08 -1.65
5.32 -4.7 -1.64
6.23 -5.5 -1.62
7.52 -6.64 -1.59
9.57 -8.45 -1.57
12.72 -11.23 -1.48
18.87 -16.66 -1.32
4.6 -4.09 -1.65
5.31 -4.72 -1.64
6.22 -5.53 -1.62
7.5 -6.67 -1.59
9.55 -8.49 -1.57
12.63 -11.24 -1.48
18.89 -16.8 -1.32
4.59 -4.11 -1.65
5.29 -4.74 -1.64
6.2 -5.56 -1.62
7.48 -6.7 -1.59
9.52 -8.53 -1.57
12.56 -11.25 -1.48
18.76 -16.81 -1.32
4.58 -4.13 -1.65
5.27 -4.75 -1.64
6.19 -5.58 -1.62
7.45 -6.72 -1.59
9.49 -8.56 -1.57
12.63 -11.39 -1.49
18.94 -17.08 -1.34
4.57 -4.15 -1.65
5.25 -4.77 -1.64
6.17 -5.6 -1.62
7.43 -6.75 -1.59
9.46 -8.59 -1.57
12.49 -11.34 -1.48
18.79 -17.06 -1.33
4.56 -4.17 -1.65
5.24 -4.8 -1.64
6.14 -5.62 -1.62
7.42 -6.78 -1.59
9.43 -8.62 -1.57
12.7 -11.61 -1.51
18.78 -17.17 -1.33
4.54 -4.18 -1.65
5.23 -4.81 -1.64
6.13 -5.65 -1.62
7.39 -6.81 -1.59
9.41 -8.66 -1.57
12.63 -11.63 -1.5
18.72 -17.24 -1.33
4.52 -4.19 -1.65
5.21 -4.83 -1.64
6.12 -5.67 -1.62
7.37 -6.83 -1.59
9.38 -8.7 -1.57
12.63 -11.71 -1.51
18.59 -17.24 -1.33
4.52 -4.22 -1.66
5.19 -4.85 -1.64
6.11 -5.7 -1.62
7.34 -6.85 -1.59
9.36 -8.74 -1.57
12.57 -11.74 -1.51
18.54 -17.31 -1.33
4.51 -4.24 -1.66
5.18 -4.87 -1.64
6.08 -5.72 -1.62
7.32 -6.89 -1.59
9.32 -8.76 -1.57
12.52 -11.77 -1.5
18.47 -17.36 -1.33
4.49 -4.25 -1.66
5.16 -4.89 -1.64
6.05 -5.73 -1.62
7.3 -6.91 -1.59
9.29 -8.8 -1.57
12.5 -11.84 -1.51
18.38 -17.41 -1.33
4.47 -4.26 -1.66
5.15 -4.91 -1.64
6.04 -5.76 -1.62
7.28 -6.95 -1.59
9.27 -8.84 -1.57
12.42 -11.85 -1.5
18.39 -17.54 -1.33
4.46 -4.28 -1.66
5.13 -4.93 -1.64
6.03 -5.79 -1.63
7.25 -6.96 -1.59
9.25 -8.88 -1.57
12.45 -11.95 -1.51
18.3 -17.57 -1.33
4.45 -4.3 -1.66
5.12 -4.95 -1.64
6.01 -5.81 -1.62
7.22 -6.98 -1.59
9.22 -8.91 -1.57
12.4 -11.99 -1.51
18.25 -17.64 -1.33
4.44 -4.32 -1.66
5.1 -4.97 -1.64
5.99 -5.83 -1.63
7.2 -7.01 -1.59
9.18 -8.94 -1.57
12.38 -12.05 -1.51
18.35 -17.87 -1.34
4.42 -4.33 -1.66
5.09 -4.99 -1.65
5.97 -5.85 -1.62
7.18 -7.04 -1.59
9.15 -8.97 -1.57
12.34 -12.1 -1.51
18.23 -17.87 -1.34
4.4 -4.34 -1.66
5.08 -5.01 -1.65
5.95 -5.87 -1.62
5.28 -5.21 0.65
7.16 -7.07 -1.59
9.13 -9.02 -1.58
12.26 -12.1 -1.51
18.31 -18.08 -1.35
4.39 -4.37 -1.66
5.06 -5.03 -1.65
5.93 -5.89 -1.62
5.23 -5.2 0.65
7.13 -7.08 -1.59
5.25 -5.22 0.91
9.11 -9.06 -1.58
12.17 -12.1 -1.5
18.22 -18.11 -1.35
4.38 -4.38 -1.66
5.5 -5.51 0.14
5.04 -5.04 -1.65
5.91 -5.92 -1.63
5.22 -5.23 0.65
7.1 -7.11 -1.59
5.16 -5.17 0.9
5.53 -5.53 -0.96
5.53 -5.54 -0.68
17.99 -18.01 -1.33
5.52 -5.53 -0.14
4.37 -4.41 -1.66
5.47 -5.52 0.14
5.02 -5.06 -1.65
5.51 -5.55 0.41
5.89 -5.94 -1.63
5.5 -5.54 -1.24
5.48 -5.53 -0.96
5.47 -5.51 -0.68
17.97 -18.12 -1.34
5.48 -5.52 -0.14
4.35 -4.42 -1.66
5.46 -5.54 0.14
5.01 -5.08 -1.65
5.42 -5.51 0.41
5.87 -5.96 -1.63
5.45 -5.53 -1.23
5.46 -5.54 -0.96
5.45 -5.53 -0.68
5.47 -5.55 -0.41
5.47 -5.55 -0.14
4.33 -4.42 -1.66
5.41 -5.53 0.14
4.99 -5.1 -1.65
5.37 -5.49 0.4
5.85 -5.98 -1.63
5.44 -5.56 -1.23
5.4 -5.52 -0.95
5.43 -5.55 -0.68
5.45 -5.57 -0.41
5.41 -5.53 -0.14
4.32 -4.44 -1.66
5.36 -5.52 0.13
4.98 -5.12 -1.65
5.29 -5.45 0.4
5.84 -6.01 -1.63
5.36 -5.51 0.67
5.37 -5.53 -1.22
5.37 -5.52 0.95
5.37 -5.53 -0.95
5.38 -5.53 -0.67
5.43 -5.58 -0.41
5.37 -5.52 -0.13
4.31 -4.46 -1.66
5.32 -5.51 0.13
4.96 -5.14 -1.65
5.29 -5.48 0.4
5.82 -6.03 -1.63
5.35 -5.54 0.67
5.35 -5.55 -1.22
5.33 -5.52 0.94
5.32 -5.51 -0.94
5.44 -5.63 1.24
5.32 -5.51 -0.67
5.38 -5.57 -0.41
5.33 -5.52 -0.13
4.29 -4.48 -1.66
5.28 -5.51 0.13
4.94 -5.15 -1.65
5.25 -5.48 0.4
5.79 -6.04 -1.63
5.38 -5.61 0.68
5.35 -5.58 -1.22
5.3 -5.53 0.94
5.27 -5.49 -0.93
5.27 -5.5 1.21
5.29 -5.51 -0.67
5.34 -5.57 -0.4
5.29 -5.52 -0.13
4.28 -4.49 -1.66
5.25 -5.51 0.13
4.93 -5.18 -1.65
5.22 -5.49 0.4
5.77 -6.06 -1.63
5.33 -5.6 -1.23
5.24 -5.5 -0.93
5.23 -5.49 1.2
5.24 -5.51 -0.67
5.29 -5.56 -0.4
5.25 -5.51 -0.13
4.26 -4.5 -1.66
5.21 -5.51 0.13
4.91 -5.2 -1.65
5.19 -5.49 0.4
5.75 -6.09 -1.63
5.32 -5.63 -1.23
5.21 -5.51 -0.93
5.22 -5.52 1.2
5.19 -5.49 -0.66
5.25 -5.56 -0.4
5.21 -5.51 -0.13
4.24 -4.52 -1.66
5.17 -5.5 0.13
4.9 -5.22 -1.65
5.16 -5.49 0.39
5.74 -6.11 -1.63
5.3 -5.65 -1.23
5.17 -5.51 -0.93
5.21 -5.54 1.2
5.16 -5.5 -0.66
5.24 -5.58 1.49
5.21 -5.55 -0.4
5.17 -5.51 -0.13
4.23 -4.54 -1.66
5.13 -5.5 0.13
4.87 -5.23 -1.65
5.13 -5.5 0.39
5.71 -6.13 -1.63
5.29 -5.68 -1.23
5.13 -5.51 -0.92
5.18 -5.55 1.2
5.12 -5.49 -0.66
5.21 -5.59 1.49
5.17 -5.54 -0.4
5.14 -5.51 -0.13
4.22 -4.56 -1.66
5.09 -5.5 0.13
4.85 -5.24 -1.65
5.09 -5.49 0.39
5.7 -6.16 -1.63
5.27 -5.69 -1.23
5.09 -5.49 -0.92
5.14 -5.55 1.2
5.09 -5.49 -0.66
5.16 -5.57 1.48
5.14 -5.56 -0.4
5.1 -5.51 -0.13
4.21 -4.57 -1.66
5.06 -5.5 0.13
4.83 -5.26 -1.65
5.05 -5.49 0.39
5.67 -6.17 -1.63
5.23 -5.69 -1.22
5.05 -5.49 -0.92
5.1 -5.55 1.19
5.05 -5.49 -0.65
5.13 -5.58 1.47
5.11 -5.56 -0.4
5.05 -5.49 -0.13
4.18 -4.58 -1.66
5.02 -5.5 0.13
4.82 -5.28 -1.65
5.01 -5.49 0.39
5.65 -6.19 -1.63
5.2 -5.69 -1.22
5.01 -5.49 -0.91
5.06 -5.55 1.19
5.01 -5.49 -0.65
5.09 -5.57 1.47
5.07 -5.55 -0.39
5.02 -5.5 -0.13
4.16 -4.59 -1.66
4.98 -5.49 0.13
4.8 -5.3 -1.65
4.99 -5.5 0.39
5.64 -6.22 -1.63
5.16 -5.69 -1.22
4.98 -5.49 -0.91
5.03 -5.55 1.19
4.98 -5.49 -0.65
5.04 -5.56 1.46
5.02 -5.54 -0.39
4.99 -5.5 -0.13
4.15 -4.61 -1.66
4.95 -5.49 0.13
4.78 -5.3 -1.65
4.95 -5.5 0.39
5.61 -6.24 -1.63
5.12 -5.69 -1.21
4.95 -5.49 -0.91
5.01 -5.56 1.19
4.95 -5.49 -0.65
5.01 -5.56 1.45
4.98 -5.53 -0.39
4.95 -5.5 -0.13
4.14 -4.63 -1.67
4.91 -5.5 0.13
4.76 -5.32 -1.65
4.91 -5.5 0.39
5.59 -6.26 -1.63
4.9 -5.48 -1.16
4.94 -5.52 -0.91
4.98 -5.57 1.18
4.91 -5.5 -0.64
4.97 -5.56 1.45
4.94 -5.53 -0.39
4.92 -5.51 -0.13
4.12 -4.64 -1.66
4.88 -5.5 0.13
4.74 -5.34 -1.65
4.88 -5.5 0.39
5.57 -6.27 -1.63
4.86 -5.48 -1.16
4.86 -5.47 -0.9
4.94 -5.57 1.18
4.88 -5.5 -0.64
4.93 -5.55 1.44
4.91 -5.53 -0.39
4.88 -5.5 -0.13
4.1 -4.65 -1.66
4.84 -5.49 0.13
4.73 -5.37 -1.65
4.84 -5.49 0.38
5.55 -6.29 -1.63
4.83 -5.48 -1.16
4.82 -5.46 -0.89
4.95 -5.62 1.19
4.83 -5.48 -0.64
4.9 -5.56 1.44
4.88 -5.54 -0.39
4.85 -5.5 -0.13
4.09 -4.67 -1.66
4.8 -5.49 0.13
4.71 -5.38 -1.65
4.81 -5.5 0.38
5.53 -6.32 -1.63
4.79 -5.48 -1.15
4.81 -5.5 -0.9
4.8 -5.48 -0.64
4.86 -5.55 1.43
4.85 -5.54 -0.39
4.82 -5.5 -0.13
4.07 -4.69 -1.66
4.77 -5.48 0.13
4.69 -5.39 -1.65
4.78 -5.49 0.38
5.51 -6.34 -1.63
4.77 -5.48 -0.89
4.77 -5.49 -0.64
4.82 -5.55 1.43
4.81 -5.53 -0.38
4.94 -5.69 1.74
4.79 -5.51 -0.13
4.06 -4.7 -1.66
4.74 -5.49 0.13
4.67 -5.41 -1.65
4.74 -5.49 0.38
5.49 -6.37 -1.63
5.47 -6.34 -1.33
4.74 -5.49 -0.89
4.73 -5.48 -0.63
4.79 -5.55 1.42
4.78 -5.54 -0.38
4.88 -5.66 1.73
4.75 -5.5 -0.13
4.04 -4.71 -1.66
4.71 -5.49 0.13
4.65 -5.43 -1.65
4.7 -5.49 0.38
5.47 -6.38 -1.63
5.48 -6.39 -1.33
4.94 -5.77 -0.93
4.7 -5.48 -0.63
4.76 -5.55 1.42
4.75 -5.54 -0.38
4.84 -5.65 1.72
4.71 -5.5 -0.13
4.02 -4.72 -1.66
4.68 -5.49 0.13
4.64 -5.45 -1.65
4.68 -5.49 0.38
5.45 -6.4 -1.63
4.78 -5.62 0.65
4.67 -5.49 -1.14
4.94 -5.81 -0.94
4.67 -5.48 -0.63
4.72 -5.55 1.42
4.72 -5.54 -0.38
4.8 -5.64 1.71
4.68 -5.5 -0.13
4.01 -4.74 -1.66
4.64 -5.49 0.13
4.62 -5.47 -1.65
4.65 -5.5 0.38
4.63 -5.47 -1.39
4.74 -5.61 0.64
4.62 -5.46 -1.13
4.95 -5.86 -0.94
4.63 -5.48 -0.63
4.68 -5.54 1.41
4.68 -5.54 -0.38
4.78 -5.65 1.71
4.65 -5.5 -0.13
3.99 -4.76 -1.66
4.61 -5.49 0.13
4.6 -5.48 -1.65
4.61 -5.5 0.38
4.6 -5.48 -1.39
4.71 -5.61 0.64
4.58 -5.46 -1.13
4.94 -5.89 -0.94
4.6 -5.49 -0.63
4.65 -5.54 1.41
4.64 -5.53 -0.38
4.74 -5.64 1.7
4.62 -5.51 -0.13
3.98 -4.78 -1.67
4.58 -5.49 0.12
4.58 -5.5 -1.65
4.58 -5.49 0.37
4.55 -5.46 -1.38
4.69 -5.62 0.64
4.56 -5.47 -1.13
4.58 -5.49 -0.88
4.57 -5.49 -0.62
4.62 -5.55 1.4
4.61 -5.53 -0.38
4.69 -5.63 1.69
4.59 -5.51 -0.13
3.96 -4.79 -1.67
4.55 -5.5 0.12
4.56 -5.52 -1.65
4.54 -5.49 0.37
4.52 -5.46 -1.38
4.65 -5.62 0.64
4.53 -5.47 -1.13
4.53 -5.48 -0.87
4.53 -5.48 -0.62
4.59 -5.55 1.4
4.58 -5.53 -0.38
4.66 -5.63 1.69
4.55 -5.5 -0.12
3.94 -4.8 -1.66
4.51 -5.49 0.12
4.55 -5.54 -1.65
4.51 -5.49 0.37
4.49 -5.46 -1.37
4.57 -5.56 0.63
4.51 -5.49 -1.13
4.5 -5.48 -0.87
4.5 -5.47 -0.62
4.56 -5.55 1.4
4.56 -5.54 -0.38
4.62 -5.63 1.68
4.53 -5.52 -0.12
3.93 -4.81 -1.66
4.47 -5.48 0.12
4.53 -5.55 -1.65
4.48 -5.49 0.37
4.47 -5.47 -1.37
4.52 -5.53 0.62
4.49 -5.5 -1.12
4.47 -5.48 -0.87
4.47 -5.48 -0.62
4.52 -5.54 1.39
4.52 -5.54 -0.37
4.59 -5.63 1.68
4.48 -5.48 -0.12
3.91 -4.82 -1.66
4.44 -5.49 0.12
4.5 -5.56 -1.65
4.45 -5.49 0.37
4.45 -5.49 -1.37
4.48 -5.53 0.62
4.47 -5.52 -1.12
4.43 -5.47 -0.86
4.46 -5.5 -0.62
4.49 -5.55 1.39
4.49 -5.54 -0.37
4.56 -5.63 1.67
4.45 -5.5 -0.12
3.89 -4.84 -1.66
4.42 -5.49 0.12
4.47 -5.55 -1.64
4.42 -5.49 0.37
4.42 -5.5 -1.37
4.46 -5.55 0.62
4.47 -5.56 -1.13
4.46 -5.55 0.87
4.39 -5.46 -0.86
4.4 -5.47 -0.61
4.46 -5.55 1.38
4.46 -5.55 -0.37
4.52 -5.62 1.67
3.88 -4.85 -1.66
4.39 -5.5 0.12
4.39 -5.49 -1.62
4.39 -5.49 0.37
4.4 -5.51 -1.37
4.44 -5.56 0.62
4.45 -5.57 -1.13
4.43 -5.55 0.87
4.37 -5.47 -0.86
4.44 -5.56 1.13
4.7 -5.89 -0.66
4.43 -5.55 1.38
4.43 -5.55 -0.37
4.49 -5.62 1.66
4.41 -5.52 -0.12
3.85 -4.86 -1.66
4.36 -5.5 0.12
4.34 -5.48 -1.61
4.36 -5.5 0.37
4.39 -5.54 -1.37
4.38 -5.53 0.62
4.39 -5.53 -1.12
4.41 -5.57 0.87
4.34 -5.48 -0.86
4.41 -5.56 1.12
4.77 -6.02 -0.67
4.4 -5.55 1.38
4.41 -5.56 -0.37
4.46 -5.63 1.66
4.4 -5.55 -0.12
3.84 -4.88 -1.66
4.33 -5.5 0.12
4.31 -5.48 -1.61
4.33 -5.51 0.37
4.38 -5.56 -1.38
4.34 -5.51 0.61
4.36 -5.54 -1.12
4.35 -5.52 0.86
4.32 -5.48 -0.86
4.39 -5.57 1.12
4.75 -6.04 -0.67
4.36 -5.54 1.37
4.36 -5.54 -0.37
4.43 -5.63 1.65
4.35 -5.52 -0.12
3.83 -4.9 -1.67
4.3 -5.5 0.12
4.28 -5.47 -1.6
4.3 -5.5 0.37
4.36 -5.57 -1.38
4.31 -5.52 0.61
4.32 -5.52 -1.11
4.31 -5.51 0.86
4.29 -5.49 -0.86
4.34 -5.55 1.12
4.73 -6.05 -0.67
4.33 -5.54 1.37
4.31 -5.52 -0.37
4.4 -5.63 1.65
4.32 -5.53 -0.12
3.81 -4.91 -1.67
4.27 -5.5 0.12
4.24 -5.47 -1.6
4.26 -5.49 0.36
4.29 -5.53 -1.36
4.29 -5.53 0.61
4.31 -5.55 -1.11
4.28 -5.52 0.86
4.26 -5.49 -0.85
4.31 -5.56 1.11
4.7 -6.06 -0.67
4.3 -5.55 1.36
4.28 -5.52 -0.37
4.35 -5.61 1.64
4.27 -5.51 -0.12
3.8 -4.93 -1.67
4.24 -5.5 0.12
4.21 -5.46 -1.59
4.24 -5.5 0.36
4.24 -5.5 -1.35
4.26 -5.53 0.61
4.29 -5.57 -1.11
4.25 -5.52 0.86
4.22 -5.48 -0.85
4.26 -5.53 1.11
4.68 -6.08 -0.67
4.28 -5.55 1.36
4.26 -5.53 -0.37
4.32 -5.61 1.64
4.25 -5.51 -0.12
3.78 -4.94 -1.67
4.21 -5.5 0.12
4.18 -5.46 -1.59
4.21 -5.5 0.36
4.23 -5.53 -1.35
4.22 -5.52 0.61
4.24 -5.55 -1.11
4.22 -5.52 0.85
4.19 -5.48 -0.85
4.24 -5.54 1.1
4.69 -6.13 -0.68
4.25 -5.55 1.36
4.24 -5.54 -0.37
4.3 -5.62 1.63
4.22 -5.51 -0.12
3.76 -4.95 -1.67
4.17 -5.49 0.12
4.15 -5.46 -1.58
4.18 -5.5 0.36
4.2 -5.53 -1.35
4.19 -5.51 0.61
4.22 -5.56 -1.11
4.2 -5.52 0.85
4.16 -5.48 -0.85
4.21 -5.54 1.1
4.68 -6.16 -0.68
4.21 -5.55 1.35
4.21 -5.54 -0.36
4.27 -5.62 1.63
4.19 -5.51 -0.12
3.74 -4.96 -1.67
4.14 -5.49 0.12
4.11 -5.46 -1.58
4.15 -5.5 0.36
4.15 -5.5 -1.34
4.16 -5.51 0.6
4.19 -5.56 -1.1
4.16 -5.51 0.85
4.13 -5.47 -0.84
4.18 -5.54 1.1
4.65 -6.16 -0.68
4.18 -5.55 1.35
4.18 -5.54 -0.36
4.24 -5.62 1.63
4.16 -5.52 -0.12
3.73 -4.98 -1.67
4.11 -5.49 0.12
4.09 -5.47 -1.58
4.11 -5.49 0.36
4.13 -5.52 -1.34
4.12 -5.51 0.6
4.15 -5.55 -1.1
4.13 -5.52 0.85
4.1 -5.48 -0.84
4.15 -5.54 1.1
4.66 -6.22 -0.68
4.16 -5.55 1.35
4.14 -5.53 -0.36
4.2 -5.61 1.62
4.13 -5.51 -0.12
3.71 -4.99 -1.67
4.08 -5.5 0.12
4.07 -5.47 -1.57
4.08 -5.5 0.36
4.11 -5.53 -1.34
4.09 -5.5 0.6
4.14 -5.57 -1.1
4.11 -5.52 0.85
4.07 -5.48 -0.84
4.12 -5.54 1.09
4.06 -5.47 -0.6
4.12 -5.55 1.34
4.11 -5.54 -0.36
4.17 -5.62 1.62
4.09 -5.5 -0.12
3.69 -5 -1.66
4.06 -5.5 0.12
4.04 -5.48 -1.57
4.06 -5.5 0.36
4.08 -5.53 -1.34
4.06 -5.5 0.6
4.08 -5.53 -1.09
4.07 -5.52 0.84
4.05 -5.49 -0.84
4.09 -5.54 1.09
4.05 -5.48 -0.6
4.09 -5.55 1.34
4.08 -5.54 -0.36
4.14 -5.62 1.61
4.07 -5.51 -0.12
3.67 -5.01 -1.66
4.03 -5.5 0.12
4.02 -5.49 -1.57
4.03 -5.51 0.36
4.06 -5.54 -1.33
4.03 -5.51 0.6
4.05 -5.53 -1.09
4.05 -5.52 0.84
4.02 -5.49 -0.84
4.06 -5.55 1.09
4.03 -5.5 -0.6
4.06 -5.54 1.33
4.05 -5.53 -0.36
4.11 -5.62 1.61
4.04 -5.52 -0.12
3.66 -5.03 -1.67
4 -5.5 0.12
3.98 -5.48 -1.56
4 -5.51 0.36
4.01 -5.51 0.6
4.02 -5.52 -1.08
4.01 -5.52 0.84
3.99 -5.48 -0.83
4.04 -5.56 1.09
3.99 -5.49 -0.59
4.03 -5.54 1.33
4.01 -5.52 -0.36
4.08 -5.61 1.6
4.02 -5.52 -0.12
4.38 -6.02 2
3.64 -5.04 -1.67
3.97 -5.5 0.12
3.96 -5.48 -1.56
3.97 -5.5 0.36
4.06 -5.62 -1.35
3.98 -5.52 0.6
4 -5.55 -1.08
3.98 -5.51 0.83
3.96 -5.48 -0.83
4.01 -5.55 1.08
3.96 -5.49 -0.59
4 -5.54 1.33
3.99 -5.53 -0.36
4.04 -5.6 1.59
3.99 -5.52 -0.12
4.33 -6 1.98
3.62 -5.06 -1.67
3.95 -5.51 0.12
3.94 -5.49 -1.56
3.94 -5.51 0.35
3.93 -5.49 -1.31
3.95 -5.52 0.59
3.98 -5.56 -1.08
3.95 -5.51 0.83
3.93 -5.49 -0.83
3.97 -5.54 1.08
3.93 -5.49 -0.59
3.98 -5.55 1.33
3.96 -5.53 -0.36
4.01 -5.6 1.59
3.96 -5.52 -0.12
4.29 -5.99 1.97
3.6 -5.06 -1.66
3.92 -5.51 0.12
3.92 -5.51 -1.56
3.92 -5.51 0.35
3.9 -5.48 -1.31
3.92 -5.51 0.59
3.91 -5.49 -1.07
3.92 -5.51 0.83
3.91 -5.5 -0.83
3.94 -5.54 1.08
3.9 -5.49 -0.59
3.95 -5.55 1.32
3.94 -5.53 -0.36
3.99 -5.61 1.59
3.93 -5.52 -0.12
4.24 -5.97 1.96
3.58 -5.08 -1.66
3.88 -5.5 0.12
3.89 -5.51 -1.56
3.89 -5.51 0.35
3.87 -5.48 -1.3
3.89 -5.51 0.59
3.87 -5.48 -1.06
3.89 -5.52 0.83
3.89 -5.5 -0.83
3.91 -5.54 1.07
3.87 -5.48 -0.59
3.92 -5.55 1.32
3.91 -5.54 -0.36
3.96 -5.61 1.59
3.9 -5.52 -0.12
4.21 -5.96 1.96
3.57 -5.09 -1.67
3.85 -5.5 0.12
3.89 -5.55 -1.56
3.86 -5.51 0.35
3.84 -5.48 -1.3
3.87 -5.51 0.59
3.83 -5.47 -1.06
3.86 -5.51 0.83
3.88 -5.53 -0.83
3.89 -5.55 1.07
3.85 -5.49 -0.59
3.89 -5.55 1.32
3.88 -5.53 -0.35
3.94 -5.61 1.58
3.87 -5.52 -0.12
4.17 -5.96 1.95
3.56 -5.12 -1.67
3.83 -5.5 0.12
3.92 -5.63 -1.58
3.83 -5.5 0.35
3.81 -5.48 -1.3
3.84 -5.52 0.59
3.81 -5.47 -1.06
3.83 -5.51 0.82
3.86 -5.55 -0.83
3.86 -5.54 1.07
3.82 -5.48 -0.58
3.86 -5.55 1.32
3.85 -5.54 -0.35
3.91 -5.61 1.58
3.84 -5.52 -0.12
4.14 -5.94 1.94
3.54 -5.12 -1.67
3.8 -5.5 0.12
3.98 -5.76 -1.62
3.8 -5.5 0.35
3.78 -5.47 -1.29
3.81 -5.51 0.59
3.8 -5.5 -1.06
3.81 -5.52 0.82
3.86 -5.58 -0.83
3.82 -5.53 1.07
3.79 -5.49 -0.58
3.83 -5.54 1.31
3.83 -5.54 -0.35
3.88 -5.61 1.58
3.81 -5.51 -0.12
4.09 -5.92 1.93
3.51 -5.13 -1.67
3.77 -5.51 0.12
4.05 -5.91 -1.66
3.77 -5.5 0.35
3.76 -5.49 -1.29
3.77 -5.5 0.58
3.78 -5.51 -1.06
3.78 -5.52 0.82
3.83 -5.58 -0.83
3.79 -5.53 1.06
3.76 -5.48 -0.58
3.8 -5.55 1.31
3.8 -5.55 -0.35
3.84 -5.61 1.57
3.78 -5.51 -0.12
4.04 -5.89 1.91
3.5 -5.14 -1.67
3.74 -5.49 0.12
4.04 -5.93 -1.66
3.75 -5.51 0.35
3.74 -5.5 -1.29
3.74 -5.5 0.58
3.75 -5.51 -1.06
3.76 -5.52 0.82
3.74 -5.49 -0.82
3.77 -5.54 1.06
3.74 -5.49 -0.58
3.77 -5.54 1.3
3.78 -5.55 -0.35
3.82 -5.61 1.57
3.76 -5.52 -0.12
4 -5.88 1.91
3.48 -5.16 -1.67
3.71 -5.5 0.12
4.01 -5.94 -1.65
3.72 -5.5 0.35
3.73 -5.53 -1.3
3.72 -5.51 0.58
3.74 -5.53 -1.06
3.73 -5.52 0.82
3.75 -5.55 1.06
3.71 -5.49 -0.58
3.75 -5.55 1.3
3.74 -5.54 -0.35
3.79 -5.61 1.56
3.73 -5.52 -0.12
3.97 -5.87 1.9
3.46 -5.17 -1.67
3.69 -5.5 0.12
3.99 -5.95 -1.65
3.68 -5.5 0.35
3.73 -5.57 -1.3
3.7 -5.52 0.58
3.73 -5.56 -1.06
3.69 -5.51 0.81
3.68 -5.49 -0.81
3.72 -5.55 1.06
3.69 -5.5 -0.58
3.72 -5.55 1.3
3.71 -5.54 -0.35
3.76 -5.61 1.56
3.7 -5.53 -0.12
3.93 -5.87 1.89
3.45 -5.18 -1.67
3.66 -5.51 0.12
3.97 -5.97 -1.66
3.66 -5.5 0.35
3.72 -5.6 -1.31
3.67 -5.52 0.58
3.65 -5.5 -1.05
3.67 -5.52 0.81
3.66 -5.5 -0.81
3.68 -5.54 1.05
3.66 -5.5 -0.58
3.69 -5.55 1.3
3.69 -5.54 -0.35
3.73 -5.61 1.56
3.67 -5.52 -0.12
3.93 -5.91 1.9
3.42 -5.19 -1.67
3.64 -5.51 0.12
3.95 -5.99 -1.66
3.64 -5.51 0.35
3.61 -5.47 -1.27
3.64 -5.51 0.58
3.63 -5.5 -1.04
3.64 -5.52 0.81
3.63 -5.5 -0.81
3.66 -5.55 1.05
3.63 -5.5 -0.58
3.66 -5.55 1.29
3.66 -5.55 -0.35
3.71 -5.61 1.55
3.65 -5.52 -0.12
3.9 -5.91 1.9
3.41 -5.2 -1.67
3.61 -5.51 0.11
3.94 -6.01 -1.66
3.61 -5.52 0.35
3.59 -5.48 -1.27
3.61 -5.52 0.58
3.59 -5.48 -1.04
3.62 -5.52 0.81
3.6 -5.5 -0.81
3.63 -5.55 1.05
3.6 -5.5 -0.58
3.63 -5.54 1.29
3.63 -5.54 -0.35
3.68 -5.62 1.55
3.63 -5.54 -0.12
3.87 -5.91 1.89
3.39 -5.22 -1.67
3.58 -5.51 0.11
3.91 -6.01 -1.66
3.59 -5.52 0.34
3.57 -5.48 -1.27
3.59 -5.52 0.58
3.57 -5.49 -1.04
3.58 -5.51 0.81
3.58 -5.5 -0.81
3.61 -5.55 1.05
3.57 -5.5 -0.57
3.6 -5.54 1.28
3.59 -5.53 -0.35
3.65 -5.61 1.54
3.6 -5.54 -0.12
3.84 -5.91 1.89
3.38 -5.23 -1.67
3.56 -5.52 0.11
3.52 -5.46 -1.5
3.56 -5.51 0.34
3.54 -5.49 -1.27
3.57 -5.53 0.58
3.55 -5.5 -1.04
3.55 -5.5 -0.8
3.59 -5.56 1.05
3.55 -5.5 -0.57
3.58 -5.54 1.28
3.57 -5.54 -0.35
3.61 -5.6 1.54
3.58 -5.54 -0.12
3.8 -5.9 1.88
3.36 -5.24 -1.67
3.53 -5.51 -1.51
3.54 -5.53 0.34
3.52 -5.49 -1.27
3.56 -5.56 0.58
3.52 -5.49 -1.03
3.55 -5.55 0.81
3.53 -5.51 -0.8
3.58 -5.59 1.05
3.52 -5.5 -0.57
3.55 -5.54 1.28
3.55 -5.54 -0.34
3.59 -5.6 1.54
3.77 -5.89 1.87
3.33 -5.25 -1.67
3.51 -5.52 0.11
3.52 -5.55 -1.52
3.55 -5.6 0.35
3.49 -5.49 -1.27
3.49 -5.49 -1.03
3.56 -5.6 0.81
3.5 -5.51 -0.8
3.49 -5.49 -0.57
3.52 -5.55 1.28
3.52 -5.55 -0.34
3.56 -5.6 1.53
3.52 -5.55 -0.11
3.73 -5.87 1.86
3.32 -5.26 -1.67
3.48 -5.52 0.11
3.52 -5.58 -1.52
3.55 -5.63 0.35
3.46 -5.49 -1.26
3.51 -5.56 0.58
3.46 -5.49 -1.03
3.58 -5.67 0.82
3.48 -5.51 -0.8
3.53 -5.59 1.05
3.47 -5.5 -0.57
3.5 -5.54 1.27
3.5 -5.55 -0.34
3.53 -5.6 1.53
3.5 -5.55 -0.11
3.7 -5.86 1.86
3.3 -5.27 -1.67
3.46 -5.54 0.11
3.52 -5.62 -1.53
3.44 -5.5 -1.26
3.49 -5.57 0.58
3.44 -5.49 -1.03
3.48 -5.56 0.81
3.45 -5.52 -0.8
3.49 -5.58 1.04
3.44 -5.49 -0.57
3.48 -5.56 1.27
3.47 -5.54 -0.34
3.5 -5.6 1.53
3.48 -5.56 -0.11
3.58 -5.72 1.81
3.29 -5.29 -1.67
3.43 -5.52 0.11
3.52 -5.67 -1.54
3.43 -5.52 0.34
3.43 -5.52 0.57
3.5 -5.63 -1.05
3.42 -5.51 0.8
3.45 -5.56 1.04
3.41 -5.5 -0.57
3.45 -5.56 1.27
3.45 -5.55 -0.34
3.47 -5.6 1.52
3.44 -5.54 -0.11
3.53 -5.69 1.79
3.27 -5.3 -1.67
3.4 -5.51 0.11
3.52 -5.71 -1.55
3.4 -5.52 0.34
3.52 -5.71 -1.3
3.4 -5.52 0.57
3.47 -5.64 -1.05
3.4 -5.52 0.8
3.42 -5.54 -0.8
3.42 -5.55 1.03
3.39 -5.5 -0.56
3.42 -5.55 1.27
3.42 -5.55 -0.34
3.44 -5.59 1.52
3.4 -5.51 -0.11
3.49 -5.67 1.78
3.24 -5.31 -1.67
3.38 -5.52 0.11
3.51 -5.74 -1.55
3.38 -5.52 0.34
3.44 -5.62 -1.28
3.37 -5.52 0.57
3.45 -5.64 -1.05
3.38 -5.53 0.8
3.38 -5.53 -0.8
3.39 -5.54 1.03
3.36 -5.5 -0.56
3.4 -5.56 1.27
3.4 -5.56 -0.34
3.42 -5.59 1.51
3.38 -5.53 -0.11
3.45 -5.65 1.77
3.23 -5.32 -1.67
3.35 -5.51 0.11
3.52 -5.79 -1.56
3.35 -5.52 0.34
3.42 -5.63 -1.28
3.35 -5.52 0.57
3.41 -5.63 -1.04
3.35 -5.53 0.79
3.37 -5.56 -0.8
3.36 -5.54 1.03
3.33 -5.49 -0.56
3.44 -5.66 1.29
3.37 -5.55 -0.34
3.39 -5.59 1.51
3.36 -5.54 -0.11
3.41 -5.62 1.76
3.21 -5.34 -1.67
3.32 -5.52 0.11
3.51 -5.84 -1.57
3.32 -5.52 0.34
3.39 -5.63 -1.28
3.31 -5.51 0.56
3.39 -5.63 -1.04
3.32 -5.51 0.79
3.33 -5.54 -0.79
3.34 -5.54 1.02
3.31 -5.5 -0.56
3.34 -5.55 1.26
3.34 -5.54 -0.34
3.36 -5.58 1.5
3.33 -5.53 -0.11
3.38 -5.61 1.76
3.2 -5.35 -1.67
3.29 -5.52 0.11
3.61 -6.05 -1.63
3.29 -5.51 0.34
3.31 -5.54 -1.25
3.3 -5.52 0.56
3.3 -5.53 -1.02
3.29 -5.52 0.79
3.3 -5.53 -0.79
3.31 -5.54 1.02
3.29 -5.51 -0.56
3.31 -5.54 1.25
3.31 -5.55 -0.34
3.32 -5.56 1.49
3.3 -5.52 -0.11
3.34 -5.6 1.75
3.18 -5.36 -1.67
3.27 -5.52 0.11
3.68 -6.2 -1.67
3.27 -5.51 0.34
3.28 -5.53 -1.25
3.27 -5.52 0.56
3.26 -5.5 -1.01
3.27 -5.51 0.79
3.27 -5.51 -0.79
3.28 -5.53 1.02
3.26 -5.51 -0.56
3.28 -5.53 1.25
3.29 -5.55 -0.34
3.28 -5.54 1.49
3.28 -5.53 -0.11
3.31 -5.58 1.74
3.15 -5.36 -1.67
3.24 -5.52 0.11
3.66 -6.23 -1.67
3.24 -5.52 0.34
3.31 -5.63 -1.27
3.24 -5.52 0.56
3.24 -5.51 -1.01
3.24 -5.51 0.79
3.25 -5.53 -0.79
3.25 -5.52 1.01
3.24 -5.51 -0.56
3.25 -5.52 1.25
3.26 -5.55 -0.34
3.25 -5.53 1.48
3.25 -5.53 -0.11
3.26 -5.55 1.72
3.14 -5.38 -1.67
3.21 -5.51 0.11
3.64 -6.24 -1.67
3.22 -5.52 0.34
3.31 -5.67 -1.28
3.22 -5.52 0.56
3.21 -5.5 -1.01
3.21 -5.51 0.78
3.23 -5.53 -0.79
3.22 -5.53 1.01
3.21 -5.5 -0.56
3.21 -5.5 1.24
3.24 -5.55 -0.34
3.22 -5.52 1.48
3.23 -5.54 -0.11
3.22 -5.52 1.71
3.12 -5.39 -1.67
3.19 -5.51 0.11
3.61 -6.25 -1.67
3.19 -5.52 0.33
3.29 -5.69 -1.28
3.19 -5.52 0.56
3.18 -5.5 -1.01
3.18 -5.49 0.78
3.2 -5.53 -0.78
3.19 -5.51 1.01
3.19 -5.51 -0.56
3.18 -5.5 1.23
3.2 -5.54 -0.34
3.19 -5.51 1.47
3.2 -5.54 -0.11
3.19 -5.52 1.71
3.1 -5.41 -1.67
3.17 -5.51 0.11
3.59 -6.26 -1.67
3.16 -5.51 0.33
3.27 -5.69 -1.28
3.17 -5.52 0.56
3.16 -5.5 -1
3.15 -5.49 0.78
3.17 -5.52 -0.78
3.16 -5.51 1.01
3.16 -5.51 -0.56
3.16 -5.5 1.23
3.18 -5.54 -0.33
3.17 -5.53 -0.11
3.09 -5.42 -1.67
3.14 -5.52 0.11
3.57 -6.28 -1.67
3.13 -5.5 0.33
3.24 -5.69 -1.27
3.14 -5.51 0.55
3.13 -5.5 -1
3.13 -5.5 0.78
3.15 -5.53 -0.78
3.13 -5.5 1
3.14 -5.51 -0.56
3.16 -5.55 -0.33
3.56 -6.25 1.66
3.14 -5.52 -0.11
3.95 -6.94 2.14
3.06 -5.42 -1.67
3.12 -5.52 0.11
3.56 -6.3 -1.67
3.11 -5.51 0.33
3.21 -5.69 -1.27
3.12 -5.52 0.55
3.11 -5.51 -1
3.12 -5.53 0.78
3.13 -5.54 -0.78
3.12 -5.52 -0.56
3.16 -5.6 1.25
3.13 -5.55 -0.33
3.56 -6.31 1.67
3.12 -5.52 -0.11
3.92 -6.94 2.14
3.04 -5.44 -1.67
3.41 -6.09 0.12
3.54 -6.32 -1.67
3.41 -6.09 0.37
3.19 -5.69 -1.27
3.42 -6.11 0.61
3.08 -5.5 -1
3.46 -6.17 0.87
3.1 -5.54 -0.78
3.49 -6.24 1.13
3.43 -6.13 -0.61
3.52 -6.29 1.4
3.57 -6.37 1.69
3.91 -6.99 2.15
3.03 -5.45 -1.67
3.45 -6.21 0.12
3.51 -6.32 -1.67
3.41 -6.15 0.37
3.17 -5.7 -1.27
3.42 -6.16 0.62
3.06 -5.51 -1
3.46 -6.22 0.87
3.08 -5.54 -0.78
3.5 -6.3 1.14
3.44 -6.2 -0.62
3.52 -6.33 1.41
3.49 -6.28 -0.38
3.57 -6.43 1.7
3.92 -7.05 2.16
3.01 -5.47 -1.67
3.47 -6.3 0.13
3.49 -6.34 -1.67
3.41 -6.19 0.37
3.14 -5.7 -1.26
3.44 -6.23 0.62
3.04 -5.52 -1
3.46 -6.28 0.88
3.04 -5.52 -0.77
3.51 -6.36 1.15
3.45 -6.27 -0.63
3.52 -6.38 1.42
3.47 -6.29 -0.38
3.57 -6.48 1.71
3.52 -6.38 -0.13
3.49 -6.34 1.94
2.99 -5.47 -1.67
3.47 -6.35 0.13
3.47 -6.35 -1.67
3.42 -6.25 0.37
3.11 -5.69 -1.26
3.43 -6.28 0.63
3.03 -5.54 -1
3.47 -6.34 0.89
3.02 -5.52 -0.77
3.49 -6.39 1.15
3.43 -6.27 -0.62
3.53 -6.45 1.43
3.44 -6.3 -0.38
3.58 -6.54 1.72
3.49 -6.38 -0.13
3.5 -6.39 1.95
2.97 -5.47 -1.67
3.47 -6.39 0.13
3.45 -6.37 -1.67
3.42 -6.3 0.38
3.11 -5.73 -1.27
3.43 -6.33 0.63
3.01 -5.55 -1
3.47 -6.4 0.89
3 -5.53 -0.77
3.5 -6.45 1.16
3.38 -6.22 -0.62
3.53 -6.5 1.44
3.39 -6.25 -0.37
3.58 -6.6 1.73
3.36 -6.19 -0.12
3.5 -6.44 1.96
2.95 -5.49 -1.67
3.47 -6.45 0.13
3.43 -6.38 -1.67
3.42 -6.37 0.38
3.04 -5.65 -1.25
3.43 -6.38 0.63
2.98 -5.54 -1
3.47 -6.45 0.9
2.98 -5.54 -0.77
3.5 -6.51 1.17
3.39 -6.3 -0.63
3.52 -6.54 1.44
3.42 -6.35 -0.38
3.57 -6.64 1.74
3.39 -6.31 -0.13
3.5 -6.5 1.98
2.94 -5.51 -1.67
3.47 -6.51 0.13
3.41 -6.39 -1.67
3.42 -6.42 0.38
2.97 -5.57 -1.23
3.44 -6.44 0.64
2.96 -5.54 -1
3.46 -6.49 0.9
2.95 -5.54 -0.77
3.51 -6.58 1.18
3.44 -6.44 -0.64
3.53 -6.61 1.46
3.38 -6.34 -0.38
3.59 -6.73 1.76
3.38 -6.34 -0.13
3.85 -7.22 2.19
2.92 -5.53 -1.68
3.47 -6.57 0.13
3.39 -6.41 -1.67
3.42 -6.47 0.38
2.96 -5.6 -1.23
3.44 -6.5 0.64
2.99 -5.66 -1.01
3.47 -6.56 0.91
3.51 -6.64 1.19
3.66 -6.93 -0.69
3.53 -6.68 1.47
3.36 -6.35 -0.38
3.59 -6.79 1.77
3.37 -6.37 -0.13
3.83 -7.24 2.19
2.9 -5.53 -1.67
3.47 -6.62 0.13
3.37 -6.42 -1.67
3.43 -6.53 0.39
2.98 -5.67 -1.25
3.44 -6.56 0.65
2.97 -5.66 -1.01
3.47 -6.62 0.92
2.97 -5.67 -0.79
3.51 -6.69 1.2
3.65 -6.97 -0.69
3.54 -6.74 1.48
3.41 -6.51 -0.38
3.6 -6.86 1.79
3.36 -6.41 -0.13
3.81 -7.27 2.2
2.88 -5.54 -1.67
3.39 -6.52 0.13
3.35 -6.44 -1.68
3.43 -6.59 0.39
2.95 -5.68 -1.24
3.45 -6.63 0.65
2.94 -5.65 -1.01
3.47 -6.68 0.92
2.95 -5.67 -0.78
3.51 -6.76 1.21
3.74 -7.2 -0.71
3.53 -6.8 1.49
3.42 -6.58 -0.39
3.6 -6.92 1.8
3.5 -6.73 -0.13
3.81 -7.33 2.21
2.86 -5.54 -1.67
3.48 -6.74 0.13
3.33 -6.45 -1.68
3.43 -6.65 0.39
2.87 -5.56 -1.22
3.45 -6.69 0.66
2.9 -5.63 -1
3.48 -6.74 0.93
2.93 -5.68 -0.78
3.52 -6.82 1.21
3.72 -7.21 -0.71
3.54 -6.86 1.5
3.43 -6.65 -0.39
3.61 -7 1.82
3.33 -6.47 -0.13
3.8 -7.37 2.22
2.84 -5.56 -1.67
3.44 -6.74 0.13
3.3 -6.45 -1.67
3.43 -6.71 0.4
2.83 -5.54 -1.21
3.45 -6.75 0.66
2.87 -5.62 -1
3.47 -6.79 0.94
2.9 -5.68 -0.78
3.51 -6.88 1.22
3.72 -7.29 -0.72
3.54 -6.92 1.51
3.43 -6.7 -0.39
3.61 -7.07 1.83
3.39 -6.64 -0.13
3.79 -7.41 2.23
2.82 -5.57 -1.67
3.38 -6.67 0.13
3.28 -6.47 -1.67
3.43 -6.77 0.4
2.82 -5.56 -1.21
3.45 -6.81 0.67
2.85 -5.63 -1
3.48 -6.86 0.94
2.87 -5.67 -0.78
3.51 -6.93 1.23
3.62 -7.15 -0.7
3.55 -7 1.52
3.42 -6.75 -0.4
3.61 -7.12 1.84
3.37 -6.66 -0.13
3.72 -7.34 2.21
2.8 -5.58 -1.67
3.49 -6.94 0.14
3.26 -6.48 -1.67
3.43 -6.83 0.4
2.8 -5.57 -1.21
3.45 -6.88 0.67
2.83 -5.64 -1
3.48 -6.92 0.95
2.85 -5.68 -0.78
3.51 -6.99 1.24
3.64 -7.26 -0.71
3.5 -6.97 1.52
3.25 -6.46 -0.38
3.77 -7.5 1.94
3.33 -6.64 -0.13
3.69 -7.34 2.2
2.78 -5.58 -1.67
3.49 -7 0.14
3.24 -6.5 -1.68
3.43 -6.89 0.4
2.81 -5.65 -1.23
3.46 -6.95 0.68
2.81 -5.64 -1
3.49 -7.01 0.96
2.83 -5.68 -0.78
3.52 -7.06 1.25
3.61 -7.25 -0.71
3.55 -7.13 1.55
3.23 -6.5 -0.38
3.69 -7.4 1.91
3.36 -6.74 -0.13
3.65 -7.34 2.2
2.77 -5.6 -1.67
3.48 -7.04 0.14
3.21 -6.51 -1.68
3.44 -6.97 0.41
2.8 -5.67 -1.23
3.46 -7.01 0.68
2.79 -5.64 -1
3.49 -7.07 0.97
2.81 -5.69 -0.78
3.52 -7.13 1.26
3.59 -7.27 -0.71
3.55 -7.19 1.56
3.3 -6.69 -0.39
3.66 -7.42 1.91
3.28 -6.65 -0.13
3.62 -7.33 2.19
2.75 -5.61 -1.67
3.48 -7.11 0.14
3.19 -6.51 -1.67
3.44 -7.03 0.41
2.73 -5.58 -1.21
3.46 -7.08 0.69
2.76 -5.64 -1
3.47 -7.09 0.97
2.78 -5.69 -0.78
3.53 -7.2 1.27
3.56 -7.27 -0.71
3.56 -7.26 1.57
3.45 -7.04 -0.41
3.61 -7.37 1.89
3.47 -7.09 -0.14
3.62 -7.38 2.2
2.73 -5.62 -1.67
3.43 -7.08 0.14
3.17 -6.53 -1.67
3.44 -7.08 0.41
2.75 -5.67 -1.23
3.47 -7.15 0.7
2.75 -5.67 -1
3.49 -7.2 0.98
2.76 -5.68 -0.78
3.52 -7.26 1.28
3.55 -7.31 -0.71
3.5 -7.21 1.56
3.55 -7.31 -0.43
3.44 -7.08 1.82
3.45 -7.11 -0.14
3.59 -7.4 2.2
2.71 -5.63 -1.67
3.5 -7.27 0.14
3.15 -6.55 -1.68
3.44 -7.15 0.42
2.71 -5.64 -1.22
3.47 -7.21 0.7
2.73 -5.67 -1
3.43 -7.13 0.97
2.74 -5.68 -0.77
3.43 -7.12 1.25
3.52 -7.32 -0.71
3.41 -7.09 1.53
3.65 -7.59 -0.44
3.41 -7.09 1.82
3.39 -7.05 -0.14
3.62 -7.53 2.24
2.69 -5.64 -1.67
3.46 -7.26 0.14
3.13 -6.56 -1.68
3.41 -7.15 0.42
2.7 -5.66 -1.22
3.4 -7.13 0.69
2.7 -5.68 -1
3.39 -7.12 0.97
2.72 -5.71 -0.78
3.39 -7.11 1.25
3.5 -7.35 -0.71
3.38 -7.09 1.53
3.29 -6.9 -0.4
3.4 -7.14 1.83
3.36 -7.05 -0.14
3.6 -7.56 2.24
2.67 -5.66 -1.68
3.34 -7.08 0.14
2.63 -5.57 -1.42
3.38 -7.16 0.41
2.61 -5.53 -1.19
3.37 -7.13 0.69
2.61 -5.52 -0.97
3.37 -7.13 0.97
2.72 -5.75 -0.78
3.37 -7.14 1.25
3.06 -6.47 -0.63
3.36 -7.12 1.53
3.31 -7.01 -0.41
3.57 -7.56 1.93
3.33 -7.05 -0.14
3.58 -7.58 2.25
2.66 -5.67 -1.68
3.34 -7.14 0.14
2.6 -5.56 -1.42
3.35 -7.15 0.41
2.59 -5.53 -1.19
3.36 -7.18 0.69
2.59 -5.53 -0.97
3.35 -7.15 0.97
2.71 -5.79 -0.79
3.36 -7.17 1.25
3.02 -6.45 -0.62
3.36 -7.18 1.54
3.32 -7.1 -0.41
3.56 -7.61 1.94
3.35 -7.16 -0.14
3.56 -7.62 2.25
2.63 -5.68 -1.68
3.34 -7.2 0.14
2.58 -5.55 -1.41
3.33 -7.19 0.42
2.57 -5.53 -1.18
3.35 -7.22 0.7
2.57 -5.53 -0.97
3.35 -7.22 0.98
2.71 -5.84 -0.79
3.35 -7.22 1.26
3 -6.46 -0.62
