# .PCD v0.7 - Point Cloud Data file format
VERSION 0.7
FIELDS x y z
SIZE 4 4 4
TYPE F F F
COUNT 1 1 1
WIDTH 2952
HEIGHT 1
VIEWPOINT 0 0 0 1 0 0 0
POINTS 2952
DATA ascii
7.96 8.1 -1.8
8.71 8.87 -1.53
8.71 8.86 -1.09
9 9.17 -0.22
4 4.04 -1.52
5.41 5.48 -1.78
6.44 6.52 -1.78
7.98 8.07 -1.8
8.78 8.88 -1.53
8.77 8.87 -1.09
9.06 9.17 -0.23
4.01 4.03 -1.52
5.44 5.46 -1.78
6.47 6.5 -1.78
8 8.04 -1.8
8.85 8.89 -1.54
8.84 8.88 -1.1
9.12 9.17 -0.23
3.99 3.98 -1.51
5.45 5.44 -1.78
6.49 6.48 -1.78
8.02 8 -1.79
8.92 8.9 -1.55
8.91 8.89 -1.1
9.05 9.03 -0.67
9.2 9.18 -0.23
4.02 3.98 -1.52
5.46 5.41 -1.78
6.51 6.45 -1.78
8.05 7.97 -1.79
8.99 8.91 -1.55
8.98 8.89 -1.11
9.26 9.17 -0.23
3.99 3.93 -1.5
5.48 5.39 -1.78
6.53 6.42 -1.78
8.07 7.93 -1.79
9.09 8.94 -1.57
9.05 8.9 -1.11
9.33 9.18 -0.23
4.01 3.91 -1.5
5.5 5.37 -1.77
6.54 6.39 -1.78
8.09 7.9 -1.79
9.16 8.95 -1.57
9.11 8.9 -1.11
9.4 9.19 -0.23
4.01 3.89 -1.5
5.51 5.35 -1.77
6.56 6.37 -1.78
8.11 7.87 -1.79
9.18 8.91 -1.57
9.16 8.89 -1.12
9.48 9.21 -0.23
4.02 3.88 -1.5
5.53 5.33 -1.77
6.58 6.34 -1.78
8.12 7.82 -1.79
9.26 8.92 -1.58
9.24 8.91 -1.12
9.42 9.08 -0.69
9.56 9.22 -0.23
4.04 3.87 -1.5
5.54 5.3 -1.77
6.6 6.31 -1.77
8.14 7.79 -1.79
9.32 8.92 -1.58
9.47 9.06 -1.15
9.43 9.03 -0.68
9.65 9.23 -0.23
4.06 3.85 -1.5
5.55 5.27 -1.77
6.62 6.28 -1.77
8.17 7.76 -1.79
9.38 8.91 -1.59
9.71 9.22 -1.17
9.51 9.03 -0.69
9.74 9.25 -0.23
4.08 3.85 -1.5
5.57 5.26 -1.77
6.63 6.25 -1.77
8.19 7.73 -1.78
9.47 8.93 -1.6
9.73 9.18 -1.17
9.58 9.04 -0.69
9.82 9.26 -0.24
4.08 3.82 -1.5
5.59 5.24 -1.77
6.65 6.23 -1.77
8.2 7.68 -1.78
48.78 45.69 8.21
9.52 8.92 -1.6
9.73 9.12 -1.17
9.64 9.03 -0.69
4.1 3.81 -1.5
29.48 27.43 0.7
5.6 5.21 -1.77
6.68 6.21 -1.77
8.22 7.65 -1.78
9.61 8.94 -1.61
9.74 9.06 -1.16
9.72 9.04 -0.7
4.1 3.79 -1.49
5.61 5.19 -1.76
6.69 6.18 -1.77
8.24 7.61 -1.78
9.68 8.94 -1.62
9.68 8.94 -1.15
9.79 9.04 -0.7
4.09 3.76 -1.49
5.63 5.17 -1.76
6.71 6.16 -1.77
8.26 7.58 -1.78
9.76 8.96 -1.63
9.75 8.95 -1.16
9.86 9.05 -0.7
4.11 3.74 -1.49
5.65 5.15 -1.76
6.72 6.12 -1.77
8.28 7.55 -1.78
10.96 9.99 -1.82
9.85 8.98 -1.17
9.95 9.06 -0.71
4.11 3.72 -1.48
5.66 5.12 -1.76
6.74 6.1 -1.77
8.31 7.52 -1.78
50.06 45.3 8.29
11.01 9.96 -1.82
9.94 9 -1.17
10.04 9.08 -0.71
4.12 3.7 -1.48
5.68 5.1 -1.76
6.76 6.07 -1.77
8.32 7.47 -1.77
11.03 9.9 -1.82
10.03 9.01 -1.18
4.14 3.69 -1.49
5.69 5.07 -1.76
6.78 6.05 -1.77
8.34 7.44 -1.77
49.55 44.2 8.15
11.03 9.84 -1.81
10.14 9.04 -1.19
22.87 20.4 -1.61
4.14 3.67 -1.48
31.13 27.59 0.73
5.7 5.05 -1.76
6.8 6.03 -1.77
8.36 7.41 -1.77
49.88 44.21 8.18
11.03 9.77 -1.81
14.79 13.11 -1.73
22.97 20.36 -1.61
4.15 3.66 -1.48
5.72 5.03 -1.76
6.8 5.99 -1.76
8.38 7.38 -1.77
11.02 9.7 -1.8
14.9 13.12 -1.74
22.97 20.22 -1.6
4.19 3.66 -1.49
5.73 5.01 -1.76
6.82 5.96 -1.76
8.4 7.34 -1.77
11.05 9.66 -1.8
15.01 13.12 -1.74
23.16 20.24 -1.61
4.23 3.67 -1.5
5.75 4.99 -1.76
6.85 5.94 -1.76
8.41 7.3 -1.76
11.05 9.59 -1.8
15.13 13.13 -1.75
23.4 20.31 -1.62
4.23 3.65 -1.5
5.75 4.95 -1.75
6.87 5.91 -1.76
8.44 7.26 -1.76
11.1 9.56 -1.8
15.24 13.12 -1.76
23.24 20.01 -1.61
4.25 3.63 -1.5
5.78 4.94 -1.75
6.88 5.88 -1.76
8.45 7.23 -1.76
11.1 9.49 -1.79
15.38 13.15 -1.77
23.21 19.85 -1.6
23.74 20.29 -0.55
4.26 3.61 -1.5
5.02 4.26 -1.52
6.89 5.85 -1.76
8.47 7.19 -1.76
11.12 9.44 -1.79
15.48 13.15 -1.78
23.17 19.67 -1.59
23.73 20.15 -0.54
4.26 3.59 -1.49
5.08 4.28 -1.53
6.9 5.82 -1.76
8.49 7.16 -1.76
11.14 9.39 -1.79
15.57 13.12 -1.78
23.28 19.62 -1.6
23.73 20.01 -0.54
4.25 3.56 -1.49
5.07 4.25 -1.53
6.93 5.8 -1.76
8.49 7.11 -1.75
11.16 9.35 -1.79
15.59 13.06 -1.78
23.28 19.5 -1.59
23.75 19.89 -0.54
4.28 3.56 -1.49
5.82 4.84 -1.75
6.94 5.77 -1.76
8.51 7.08 -1.75
11.17 9.29 -1.78
15.61 12.98 -1.78
23.35 19.42 -1.59
4.3 3.55 -1.49
5.1 4.21 -1.53
6.95 5.74 -1.75
8.53 7.04 -1.75
11.17 9.22 -1.78
15.67 12.94 -1.78
23.49 19.4 -1.6
4.32 3.55 -1.5
5.12 4.2 -1.53
6.96 5.71 -1.75
8.55 7.01 -1.75
11.2 9.18 -1.78
15.67 12.85 -1.77
23.59 19.34 -1.6
24.27 19.9 -0.55
4.32 3.52 -1.49
5.1 4.15 -1.52
6.98 5.68 -1.75
8.58 6.98 -1.75
11.22 9.13 -1.78
15.7 12.78 -1.77
23.72 19.31 -1.6
4.32 3.5 -1.49
5.1 4.13 -1.52
7 5.66 -1.75
8.57 6.93 -1.75
11.24 9.09 -1.78
15.74 12.72 -1.77
23.81 19.24 -1.6
4.33 3.48 -1.49
5.08 4.08 -1.5
7.02 5.63 -1.75
8.59 6.89 -1.74
11.26 9.03 -1.77
15.77 12.66 -1.77
23.89 19.17 -1.61
4.35 3.47 -1.49
5.07 4.04 -1.5
7.03 5.6 -1.75
8.62 6.87 -1.75
11.26 8.98 -1.77
15.79 12.58 -1.77
24.05 19.16 -1.61
4.38 3.46 -1.5
5.08 4.02 -1.5
7.04 5.56 -1.74
8.63 6.82 -1.74
11.28 8.92 -1.77
15.82 12.51 -1.76
24.26 19.18 -1.62
4.38 3.44 -1.49
5.04 3.96 -1.48
7.06 5.54 -1.75
8.65 6.79 -1.74
11.27 8.85 -1.76
15.85 12.44 -1.76
24.43 19.17 -1.63
4.39 3.42 -1.49
5.08 3.96 -1.49
7.07 5.51 -1.74
8.66 6.75 -1.74
11.28 8.79 -1.76
15.9 12.39 -1.76
24.57 19.15 -1.63
4.39 3.4 -1.49
5.09 3.94 -1.49
7.08 5.48 -1.74
8.68 6.72 -1.74
11.32 8.76 -1.76
15.94 12.33 -1.76
24.74 19.14 -1.64
4.39 3.37 -1.48
5.08 3.91 -1.48
7.1 5.46 -1.74
8.7 6.68 -1.74
11.34 8.72 -1.76
15.96 12.27 -1.76
24.8 19.06 -1.64
4.39 3.35 -1.48
5.15 3.93 -1.5
7.11 5.43 -1.74
8.71 6.65 -1.74
15.97 12.19 -1.76
24.96 19.05 -1.65
4.4 3.33 -1.48
5.16 3.91 -1.5
7.12 5.39 -1.74
8.73 6.61 -1.74
11.41 8.64 -1.76
16 12.12 -1.76
25.16 19.06 -1.65
4.43 3.33 -1.48
5.16 3.88 -1.49
7.13 5.36 -1.74
8.75 6.58 -1.73
11.42 8.59 -1.75
16.02 12.05 -1.75
25.32 19.04 -1.66
4.45 3.32 -1.49
5.16 3.85 -1.49
7.16 5.35 -1.74
8.76 6.54 -1.73
11.43 8.54 -1.75
16.06 11.99 -1.75
25.5 19.04 -1.67
4.42 3.28 -1.47
5.16 3.83 -1.48
7.17 5.31 -1.73
8.78 6.51 -1.73
11.46 8.5 -1.75
16.08 11.92 -1.75
25.68 19.04 -1.68
4.43 3.26 -1.48
5.16 3.8 -1.48
7.17 5.28 -1.73
8.8 6.48 -1.73
11.48 8.45 -1.75
16.08 11.84 -1.75
25.87 19.04 -1.68
4.44 3.24 -1.47
5.17 3.78 -1.48
7.19 5.25 -1.73
8.82 6.44 -1.73
11.5 8.41 -1.75
16.08 11.75 -1.74
26.06 19.04 -1.69
4.46 3.23 -1.48
5.18 3.76 -1.48
7.21 5.22 -1.73
8.83 6.4 -1.73
11.51 8.35 -1.75
16.12 11.68 -1.74
26.24 19.02 -1.7
4.49 3.23 -1.48
5.17 3.72 -1.47
7.22 5.2 -1.73
8.85 6.37 -1.73
11.53 8.3 -1.74
16.14 11.62 -1.74
26.45 19.04 -1.71
4.5 3.22 -1.48
5.17 3.7 -1.47
7.24 5.17 -1.73
8.86 6.34 -1.73
11.54 8.25 -1.74
16.15 11.55 -1.74
26.6 19.02 -1.71
4.52 3.21 -1.49
5.19 3.68 -1.47
7.24 5.14 -1.72
8.88 6.31 -1.73
11.55 8.2 -1.74
16.15 11.46 -1.73
26.78 19.01 -1.72
4.53 3.19 -1.49
5.2 3.66 -1.47
7.26 5.11 -1.73
8.9 6.27 -1.72
11.57 8.15 -1.74
16.16 11.38 -1.73
26.86 18.92 -1.72
4.57 3.19 -1.49
5.21 3.64 -1.47
7.27 5.08 -1.72
8.9 6.22 -1.72
11.6 8.12 -1.74
16.17 11.31 -1.73
26.94 18.84 -1.72
4.55 3.16 -1.48
5.24 3.63 -1.47
7.29 5.06 -1.72
8.92 6.19 -1.72
11.61 8.05 -1.73
16.19 11.24 -1.72
4.52 3.11 -1.47
5.26 3.63 -1.48
7.29 5.03 -1.72
8.94 6.16 -1.72
11.63 8.02 -1.73
16.2 11.17 -1.72
26.96 18.57 -1.72
4.52 3.09 -1.47
5.27 3.6 -1.47
7.3 4.99 -1.72
8.96 6.13 -1.72
11.63 7.95 -1.73
16.21 11.08 -1.72
4.53 3.08 -1.47
5.28 3.59 -1.47
7.31 4.97 -1.72
8.96 6.08 -1.72
11.65 7.91 -1.73
16.21 11.01 -1.71
22.94 15.57 -1.45
4.55 3.06 -1.47
5.31 3.57 -1.48
7.33 4.94 -1.72
8.96 6.04 -1.71
11.67 7.86 -1.73
16.21 10.92 -1.71
23 15.49 -1.45
4.58 3.06 -1.47
5.31 3.55 -1.48
7.35 4.91 -1.72
8.97 6 -1.71
11.68 7.81 -1.73
16.24 10.86 -1.71
22.98 15.37 -1.45
4.6 3.05 -1.48
5.32 3.53 -1.47
6.6 4.38 -1.54
9 5.97 -1.71
11.71 7.77 -1.73
16.27 10.79 -1.71
23.04 15.28 -1.45
4.6 3.03 -1.48
5.3 3.49 -1.47
6.53 4.3 -1.52
9.02 5.94 -1.71
11.72 7.72 -1.72
16.27 10.71 -1.7
23.08 15.2 -1.45
4.56 2.98 -1.46
5.28 3.45 -1.45
6.53 4.27 -1.52
9.03 5.9 -1.71
11.73 7.67 -1.72
16.28 10.64 -1.7
23.11 15.1 -1.45
22.46 14.67 -0.47
4.56 2.96 -1.46
5.3 3.44 -1.46
6.46 4.19 -1.5
9.03 5.86 -1.7
11.76 7.63 -1.72
16.33 10.59 -1.7
4.54 2.92 -1.45
5.31 3.41 -1.46
6.48 4.17 -1.5
9.05 5.82 -1.7
11.78 7.58 -1.72
16.36 10.53 -1.7
22.52 14.49 -1.4
4.55 2.9 -1.45
5.33 3.41 -1.46
6.5 4.15 -1.5
9.07 5.79 -1.7
11.77 7.52 -1.72
16.4 10.48 -1.7
22.63 14.45 -1.41
4.55 2.88 -1.44
5.36 3.4 -1.47
6.49 4.11 -1.49
9.08 5.75 -1.7
11.78 7.47 -1.71
16.45 10.42 -1.7
22.7 14.38 -1.41
4.55 2.86 -1.44
5.42 3.41 -1.48
6.47 4.07 -1.49
9.09 5.72 -1.7
11.8 7.42 -1.71
16.47 10.36 -1.7
22.83 14.36 -1.41
4.58 2.86 -1.45
33.22 20.73 0.68
5.4 3.37 -1.47
6.47 4.04 -1.48
9.1 5.68 -1.7
11.82 7.37 -1.71
16.51 10.3 -1.7
22.89 14.28 -1.41
4.59 2.84 -1.45
33.3 20.62 0.68
5.37 3.33 -1.46
6.49 4.02 -1.48
9.12 5.65 -1.7
11.82 7.32 -1.71
16.46 10.19 -1.69
22.94 14.21 -1.41
4.59 2.82 -1.44
5.42 3.33 -1.47
6.53 4.01 -1.49
33.32 20.46 3.42
9.13 5.61 -1.7
11.82 7.26 -1.7
16.46 10.11 -1.69
23.1 14.19 -1.42
4.58 2.79 -1.44
5.44 3.31 -1.47
6.53 3.98 -1.49
9.14 5.57 -1.7
11.84 7.22 -1.7
16.49 10.05 -1.69
23.18 14.13 -1.42
4.59 2.78 -1.44
24.45 14.78 0.5
5.46 3.3 -1.47
24.45 14.78 1.5
6.54 3.95 -1.48
9.16 5.54 -1.7
11.85 7.16 -1.7
16.49 9.97 -1.69
23.29 14.08 -1.43
24.48 14.8 -0.5
4.6 2.76 -1.44
5.48 3.29 -1.48
6.47 3.88 -1.47
9.16 5.49 -1.69
11.88 7.12 -1.7
16.51 9.9 -1.68
23.35 14 -1.43
4.61 2.74 -1.44
5.49 3.27 -1.48
24.42 14.54 1.49
6.46 3.84 -1.46
9.18 5.46 -1.69
11.89 7.08 -1.7
16.52 9.83 -1.68
23.55 14.02 -1.44
4.62 2.73 -1.44
5.51 3.26 -1.48
6.52 3.85 -1.47
9.19 5.43 -1.69
11.89 7.02 -1.69
16.52 9.76 -1.68
23.67 13.98 -1.44
4.62 2.71 -1.43
5.56 3.26 -1.49
6.52 3.82 -1.47
9.2 5.39 -1.69
11.93 6.99 -1.7
16.53 9.68 -1.68
23.8 13.94 -1.45
4.63 2.69 -1.43
5.57 3.24 -1.49
6.56 3.81 -1.47
9.21 5.35 -1.69
36.17 21.02 5.14
11.93 6.93 -1.69
16.51 9.6 -1.67
23.87 13.87 -1.45
4.63 2.67 -1.43
5.53 3.19 -1.47
6.55 3.78 -1.47
9.21 5.31 -1.68
11.95 6.89 -1.69
16.53 9.53 -1.67
24 13.84 -1.45
4.64 2.65 -1.43
5.51 3.15 -1.46
6.54 3.74 -1.47
9.22 5.27 -1.68
11.96 6.84 -1.69
16.54 9.46 -1.67
24.12 13.8 -1.46
4.66 2.64 -1.43
5.5 3.12 -1.46
6.54 3.71 -1.46
9.23 5.24 -1.68
11.96 6.78 -1.69
16.54 9.38 -1.66
24.28 13.77 -1.46
4.67 2.63 -1.43
5.52 3.11 -1.46
6.56 3.69 -1.46
9.25 5.2 -1.68
11.96 6.73 -1.69
16.57 9.32 -1.66
24.43 13.75 -1.47
4.67 2.61 -1.43
5.53 3.09 -1.46
6.6 3.68 -1.47
9.26 5.17 -1.68
12 6.7 -1.69
16.56 9.25 -1.66
24.62 13.74 -1.48
4.68 2.59 -1.43
5.53 3.06 -1.46
6.61 3.66 -1.47
9.26 5.13 -1.68
12 6.65 -1.68
16.58 9.18 -1.66
24.74 13.7 -1.48
4.72 2.59 -1.44
5.53 3.04 -1.46
6.65 3.65 -1.47
9.28 5.09 -1.68
12.02 6.6 -1.68
16.59 9.11 -1.66
4.72 2.57 -1.44
5.54 3.02 -1.46
6.68 3.64 -1.48
9.29 5.06 -1.68
12 6.54 -1.68
16.6 9.04 -1.65
4.74 2.56 -1.44
5.53 2.99 -1.45
6.69 3.61 -1.48
8.08 4.37 -1.46
38.81 20.96 5.42
12.03 6.5 -1.68
16.62 8.97 -1.65
4.74 2.54 -1.44
5.52 2.96 -1.45
6.71 3.59 -1.48
8.15 4.37 -1.46
12.05 6.46 -1.68
16.65 8.92 -1.65
4.75 2.52 -1.44
5.53 2.94 -1.45
6.65 3.53 -1.46
8.17 4.34 -1.47
12.07 6.41 -1.68
16.66 8.84 -1.65
4.77 2.51 -1.45
5.51 2.9 -1.44
6.69 3.52 -1.47
8.16 4.3 -1.46
12.08 6.36 -1.68
16.67 8.78 -1.65
4.8 2.51 -1.45
5.54 2.89 -1.44
6.68 3.49 -1.46
8.12 4.24 -1.45
12.1 6.32 -1.68
16.68 8.71 -1.65
4.83 2.5 -1.46
5.54 2.87 -1.44
6.67 3.45 -1.46
8.13 4.21 -1.45
12.09 6.26 -1.67
16.7 8.65 -1.65
4.83 2.48 -1.45
5.47 2.81 -1.42
6.68 3.43 -1.46
8.12 4.17 -1.45
12.12 6.22 -1.67
16.7 8.57 -1.64
4.84 2.46 -1.46
5.47 2.78 -1.42
6.72 3.42 -1.47
8.1 4.12 -1.44
12.12 6.17 -1.67
16.72 8.51 -1.64
4.83 2.44 -1.45
5.47 2.76 -1.42
6.74 3.4 -1.47
8.08 4.08 -1.43
12.15 6.13 -1.67
16.73 8.44 -1.64
4.83 2.42 -1.45
5.49 2.75 -1.42
6.75 3.38 -1.47
8.08 4.04 -1.43
12.14 6.07 -1.67
16.75 8.38 -1.64
4.84 2.4 -1.45
5.55 2.75 -1.43
6.74 3.34 -1.46
8.09 4.01 -1.43
12.15 6.02 -1.66
16.76 8.31 -1.64
4.86 2.39 -1.45
5.59 2.75 -1.44
6.73 3.31 -1.46
8.06 3.96 -1.42
12.16 5.98 -1.66
16.76 8.24 -1.63
4.89 2.38 -1.46
5.6 2.73 -1.44
6.69 3.26 -1.45
8.06 3.93 -1.42
12.18 5.93 -1.66
16.78 8.17 -1.63
4.9 2.36 -1.46
5.57 2.69 -1.43
6.73 3.25 -1.45
8.09 3.91 -1.42
12.18 5.88 -1.66
16.8 8.11 -1.63
4.9 2.35 -1.46
5.57 2.67 -1.43
6.72 3.22 -1.45
8.13 3.89 -1.43
12.17 5.83 -1.66
16.83 8.05 -1.63
4.92 2.33 -1.46
5.58 2.65 -1.43
6.7 3.18 -1.44
8.16 3.87 -1.43
12.17 5.77 -1.65
16.83 7.98 -1.63
4.93 2.32 -1.46
5.59 2.63 -1.43
6.7 3.15 -1.44
8.16 3.84 -1.43
12.18 5.72 -1.65
16.81 7.9 -1.63
4.95 2.31 -1.46
5.59 2.6 -1.42
6.69 3.12 -1.43
8.21 3.82 -1.43
12.21 5.68 -1.65
16.82 7.83 -1.62
4.97 2.3 -1.47
5.6 2.59 -1.42
6.71 3.1 -1.44
8.17 3.77 -1.43
12.2 5.63 -1.65
16.82 7.77 -1.62
4.99 2.28 -1.47
5.6 2.56 -1.42
6.72 3.07 -1.44
8.17 3.74 -1.42
12.2 5.58 -1.65
16.84 7.71 -1.62
5.01 2.27 -1.47
5.64 2.56 -1.43
6.74 3.05 -1.44
8.2 3.72 -1.43
12.22 5.54 -1.65
16.84 7.64 -1.62
5 2.24 -1.47
5.68 2.55 -1.44
6.72 3.02 -1.43
8.2 3.68 -1.42
12.22 5.49 -1.65
16.82 7.56 -1.61
5 2.22 -1.47
5.69 2.53 -1.44
6.76 3.01 -1.44
8.18 3.64 -1.42
12.24 5.44 -1.64
16.84 7.49 -1.61
5.03 2.21 -1.47
5.71 2.51 -1.44
6.78 2.99 -1.44
8.23 3.62 -1.42
12.24 5.39 -1.64
16.87 7.43 -1.61
5.05 2.2 -1.48
5.73 2.5 -1.44
6.79 2.96 -1.44
8.17 3.57 -1.41
12.24 5.34 -1.64
16.85 7.36 -1.61
5.04 2.18 -1.47
5.74 2.48 -1.44
6.73 2.91 -1.43
8.12 3.51 -1.4
12.25 5.3 -1.64
16.87 7.3 -1.61
5.06 2.17 -1.47
5.76 2.47 -1.45
6.77 2.9 -1.43
8.12 3.48 -1.4
12.26 5.25 -1.64
16.89 7.24 -1.61
5.09 2.16 -1.48
5.76 2.45 -1.45
6.76 2.87 -1.43
8.19 3.48 -1.41
10.79 4.58 -1.44
16.88 7.16 -1.6
5.09 2.14 -1.48
5.77 2.42 -1.44
6.75 2.84 -1.42
8.24 3.46 -1.42
10.82 4.54 -1.44
16.86 7.09 -1.6
5.1 2.12 -1.48
5.8 2.41 -1.45
6.77 2.82 -1.43
8.29 3.45 -1.42
10.93 4.55 -1.45
16.9 7.03 -1.6
5.09 2.1 -1.48
5.81 2.39 -1.45
6.75 2.78 -1.42
8.28 3.41 -1.42
10.9 4.49 -1.45
16.92 6.97 -1.6
5.1 2.08 -1.48
5.87 2.39 -1.46
6.76 2.76 -1.42
8.36 3.41 -1.43
10.76 4.39 -1.43
16.94 6.91 -1.6
5.14 2.08 -1.49
5.89 2.38 -1.47
6.77 2.74 -1.42
8.36 3.38 -1.43
10.69 4.31 -1.41
16.95 6.84 -1.6
5.18 2.07 -1.49
5.88 2.35 -1.46
6.78 2.71 -1.42
8.37 3.35 -1.43
10.63 4.25 -1.41
16.94 6.77 -1.6
5.21 2.06 -1.5
5.92 2.34 -1.47
6.75 2.67 -1.41
8.37 3.31 -1.43
10.6 4.19 -1.4
16.96 6.71 -1.6
5.23 2.05 -1.5
5.92 2.32 -1.47
6.75 2.64 -1.41
8.32 3.26 -1.42
10.59 4.15 -1.4
16.99 6.65 -1.6
5.22 2.03 -1.5
5.94 2.3 -1.47
6.76 2.62 -1.41
8.28 3.21 -1.41
10.59 4.11 -1.4
16.95 6.57 -1.59
5.24 2.01 -1.5
5.96 2.29 -1.47
6.79 2.6 -1.41
8.27 3.17 -1.4
10.64 4.08 -1.4
16.99 6.52 -1.59
5.32 2.02 -1.52
6 2.28 -1.48
6.84 2.6 -1.42
8.22 3.12 -1.39
10.64 4.04 -1.4
16.97 6.44 -1.59
5.33 2 -1.53
6.04 2.27 -1.49
6.92 2.6 -1.44
8.24 3.1 -1.39
10.68 4.01 -1.4
16.97 6.37 -1.59
5.36 1.99 -1.53
6 2.23 -1.48
6.89 2.56 -1.43
8.27 3.07 -1.4
10.65 3.96 -1.4
16.99 6.31 -1.59
5.36 1.97 -1.53
6 2.21 -1.48
6.87 2.53 -1.42
8.28 3.05 -1.4
10.65 3.92 -1.39
16.98 6.25 -1.58
5.37 1.95 -1.53
6.02 2.19 -1.48
6.88 2.5 -1.42
8.28 3.01 -1.4
10.66 3.88 -1.39
16.98 6.18 -1.58
5.39 1.94 -1.54
5.99 2.15 -1.47
6.88 2.48 -1.42
8.27 2.97 -1.39
10.67 3.84 -1.39
17 6.12 -1.58
5.43 1.93 -1.55
6 2.14 -1.47
6.91 2.46 -1.43
8.25 2.94 -1.39
10.68 3.8 -1.39
17.02 6.06 -1.58
5.49 1.93 -1.56
6.01 2.12 -1.47
6.91 2.43 -1.42
8.28 2.91 -1.39
10.55 3.71 -1.37
16.97 5.97 -1.57
5.53 1.93 -1.57
6.09 2.12 -1.49
6.95 2.42 -1.43
8.34 2.9 -1.4
10.75 3.74 -1.4
16.98 5.91 -1.57
5.62 1.93 -1.59
6.11 2.1 -1.49
6.98 2.4 -1.44
8.31 2.86 -1.39
10.64 3.66 -1.38
16.96 5.84 -1.57
5.7 1.94 -1.61
6.14 2.09 -1.5
7 2.38 -1.44
8.31 2.83 -1.39
10.72 3.65 -1.39
16.97 5.77 -1.57
5.75 1.93 -1.62
6.2 2.08 -1.51
7 2.36 -1.44
8.33 2.8 -1.39
10.73 3.61 -1.39
16.99 5.71 -1.57
5.76 1.91 -1.63
6.22 2.07 -1.51
7 2.33 -1.43
8.31 2.76 -1.39
10.68 3.55 -1.38
16.98 5.65 -1.57
5.75 1.89 -1.62
6.24 2.05 -1.52
7.03 2.31 -1.44
8.25 2.71 -1.38
10.78 3.54 -1.39
16.97 5.58 -1.56
5.77 1.87 -1.63
6.25 2.03 -1.52
7.05 2.29 -1.44
8.3 2.7 -1.38
10.65 3.46 -1.38
14.85 4.83 -1.37
5.78 1.86 -1.63
6.25 2.01 -1.52
7.23 2.32 -1.48
8.31 2.67 -1.38
10.74 3.45 -1.38
14.93 4.79 -1.37
5.78 1.83 -1.62
6.28 1.99 -1.52
7.15 2.27 -1.46
8.32 2.64 -1.38
10.55 3.35 -1.36
14.86 4.71 -1.36
5.8 1.82 -1.63
6.35 1.99 -1.54
7.1 2.23 -1.45
8.44 2.65 -1.4
10.43 3.27 -1.34
14.82 4.64 -1.36
5.79 1.79 -1.62
6.43 1.99 -1.55
7.14 2.21 -1.45
8.45 2.62 -1.4
10.42 3.23 -1.34
14.66 4.54 -1.34
5.8 1.77 -1.62
6.52 1.99 -1.58
7.19 2.2 -1.46
8.42 2.58 -1.4
10.42 3.19 -1.34
14.62 4.47 -1.34
5.81 1.75 -1.63
6.62 2 -1.6
7.23 2.18 -1.47
8.42 2.54 -1.39
10.42 3.14 -1.34
14.54 4.39 -1.33
5.82 1.73 -1.63
6.7 2 -1.61
7.28 2.17 -1.48
8.44 2.51 -1.39
10.46 3.12 -1.34
14.56 4.34 -1.33
5.82 1.71 -1.63
6.71 1.97 -1.61
7.31 2.15 -1.48
8.47 2.49 -1.4
10.53 3.1 -1.35
14.65 4.31 -1.34
35.09 10.33 -0.64
5.82 1.69 -1.62
6.72 1.95 -1.62
7.38 2.14 -1.49
8.46 2.46 -1.4
10.49 3.05 -1.34
14.75 4.28 -1.34
35.2 10.23 -0.64
5.82 1.67 -1.62
6.73 1.93 -1.62
7.31 2.1 -1.48
8.49 2.43 -1.4
10.52 3.02 -1.34
14.79 4.24 -1.35
35.17 10.08 -0.64
5.84 1.65 -1.63
6.74 1.91 -1.62
7.42 2.1 -1.5
8.51 2.41 -1.4
10.56 2.99 -1.35
14.82 4.19 -1.35
5.84 1.63 -1.62
6.74 1.88 -1.62
7.43 2.07 -1.5
8.53 2.38 -1.4
10.57 2.95 -1.35
14.82 4.14 -1.35
5.84 1.61 -1.62
6.76 1.86 -1.62
7.46 2.05 -1.5
8.56 2.36 -1.41
10.53 2.9 -1.34
14.91 4.11 -1.35
5.84 1.59 -1.62
6.75 1.83 -1.62
7.56 2.05 -1.52
8.58 2.33 -1.41
10.59 2.88 -1.35
14.89 4.04 -1.35
5.85 1.57 -1.62
6.76 1.81 -1.62
7.7 2.06 -1.55
8.57 2.3 -1.41
10.72 2.87 -1.36
14.89 3.99 -1.35
5.86 1.55 -1.62
6.75 1.78 -1.61
7.82 2.07 -1.57
8.65 2.29 -1.42
10.75 2.84 -1.37
14.88 3.93 -1.35
5.87 1.53 -1.62
6.76 1.76 -1.61
7.91 2.06 -1.59
8.71 2.27 -1.43
10.73 2.8 -1.36
14.84 3.86 -1.34
5.88 1.51 -1.63
6.77 1.74 -1.61
7.92 2.03 -1.59
8.76 2.25 -1.43
10.71 2.75 -1.36
14.59 3.75 -1.32
5.88 1.49 -1.62
6.78 1.72 -1.61
7.93 2.01 -1.59
8.87 2.24 -1.45
10.72 2.71 -1.36
14.84 3.75 -1.34
5.89 1.47 -1.63
6.78 1.69 -1.61
7.94 1.98 -1.59
8.9 2.22 -1.45
10.72 2.67 -1.36
14.73 3.67 -1.33
5.9 1.45 -1.63
6.78 1.66 -1.61
7.95 1.95 -1.59
8.92 2.19 -1.45
10.71 2.63 -1.35
14.52 3.57 -1.31
5.91 1.43 -1.63
6.78 1.64 -1.61
7.96 1.93 -1.59
8.95 2.17 -1.46
10.72 2.59 -1.35
14.43 3.49 -1.3
26.31 6.37 -1.42
5.92 1.41 -1.63
6.8 1.62 -1.61
7.96 1.9 -1.59
8.98 2.14 -1.46
10.81 2.58 -1.36
14.41 3.43 -1.3
26.29 6.26 -1.42
5.92 1.39 -1.63
6.81 1.6 -1.61
7.96 1.87 -1.59
9.12 2.14 -1.48
10.8 2.53 -1.36
14.44 3.39 -1.3
26.25 6.16 -1.41
5.93 1.37 -1.63
6.81 1.57 -1.61
7.97 1.84 -1.59
9.33 2.15 -1.52
10.85 2.51 -1.37
14.5 3.35 -1.3
26.3 6.07 -1.41
5.94 1.35 -1.63
6.8 1.55 -1.61
7.98 1.81 -1.59
9.49 2.16 -1.54
10.89 2.48 -1.37
14.49 3.29 -1.3
23.08 5.25 -1.24
5.95 1.33 -1.63
6.82 1.53 -1.61
7.99 1.79 -1.59
9.56 2.14 -1.55
10.94 2.45 -1.38
14.56 3.26 -1.31
23.1 5.17 -1.24
5.96 1.31 -1.63
6.83 1.5 -1.62
7.98 1.76 -1.59
9.59 2.11 -1.56
11.08 2.44 -1.39
14.61 3.21 -1.31
22.92 5.04 -1.23
5.95 1.29 -1.63
6.84 1.48 -1.62
7.99 1.73 -1.59
9.6 2.08 -1.56
11.28 2.44 -1.42
14.52 3.14 -1.3
22.79 4.93 -1.22
5.96 1.27 -1.63
6.85 1.46 -1.62
8 1.7 -1.59
9.6 2.04 -1.55
11.36 2.41 -1.43
14.52 3.09 -1.3
22.85 4.86 -1.22
5.97 1.25 -1.63
6.85 1.43 -1.62
8.02 1.67 -1.59
9.6 2.01 -1.55
11.39 2.38 -1.43
14.53 3.04 -1.3
22.82 4.77 -1.22
5.98 1.23 -1.64
6.86 1.41 -1.62
8.02 1.65 -1.59
25.63 5.26 2.29
9.61 1.97 -1.55
11.4 2.34 -1.43
14.62 3 -1.31
22.8 4.68 -1.22
5.98 1.21 -1.64
6.87 1.39 -1.62
8.02 1.62 -1.59
25.65 5.17 2.29
9.62 1.94 -1.55
11.41 2.3 -1.43
14.6 2.94 -1.3
22.86 4.61 -1.22
5.98 1.18 -1.63
6.88 1.36 -1.62
8.02 1.59 -1.59
25.62 5.08 2.28
9.62 1.91 -1.55
11.55 2.29 -1.45
14.67 2.91 -1.31
22.91 4.54 -1.22
5.99 1.16 -1.63
6.89 1.34 -1.62
8.04 1.56 -1.59
25.64 4.99 2.29
9.62 1.87 -1.55
11.8 2.3 -1.48
14.72 2.86 -1.31
22.91 4.46 -1.22
6 1.15 -1.64
6.89 1.32 -1.62
8.05 1.54 -1.59
9.63 1.84 -1.55
12.08 2.31 -1.51
14.78 2.82 -1.32
22.84 4.36 -1.22
6 1.12 -1.64
6.9 1.29 -1.62
8.06 1.51 -1.59
9.63 1.8 -1.55
25.58 4.79 3.19
12.18 2.28 -1.52
14.77 2.77 -1.32
22.98 4.3 -1.23
6 1.1 -1.63
6.91 1.27 -1.62
8.06 1.48 -1.59
9.65 1.77 -1.55
25.6 4.7 3.2
12.19 2.24 -1.52
14.92 2.74 -1.33
23 4.22 -1.23
6 1.08 -1.63
6.93 1.25 -1.62
25.86 4.66 1.38
8.07 1.45 -1.59
9.65 1.74 -1.55
25.6 4.61 3.19
12.21 2.2 -1.52
14.93 2.69 -1.33
23.03 4.15 -1.23
6.01 1.06 -1.63
6.93 1.22 -1.62
25.87 4.57 1.38
8.09 1.43 -1.6
25.71 4.54 2.28
9.66 1.71 -1.55
25.62 4.52 3.19
12.22 2.16 -1.52
15.03 2.65 -1.34
22.84 4.03 -1.22
6.02 1.04 -1.64
6.93 1.2 -1.62
25.79 4.46 1.37
8.1 1.4 -1.6
25.73 4.45 2.28
9.66 1.67 -1.55
25.63 4.43 3.19
8.46 1.46 -1.05
8.65 1.5 -0.77
22.88 3.96 -1.22
6.02 1.02 -1.64
6.93 1.17 -1.62
25.74 4.35 1.37
8.1 1.37 -1.6
25.75 4.35 2.28
8.6 1.45 -1.38
25.7 4.35 3.2
8.26 1.4 -1.03
8.31 1.41 -0.74
22.91 3.88 -1.22
26.1 4.41 -0.46
6.03 1 -1.64
25.94 4.29 0.46
6.94 1.15 -1.62
25.78 4.27 1.37
8.1 1.34 -1.6
25.76 4.26 2.28
8.51 1.41 -1.37
25.67 4.25 3.19
8.14 1.35 -1.01
8.11 1.34 -0.72
8.17 1.35 -0.43
25.97 4.3 -0.46
6.02 0.98 -1.63
6.95 1.13 -1.63
25.87 4.19 1.37
8.11 1.31 -1.6
25.77 4.18 2.28
8.52 1.38 -1.37
25.68 4.16 3.19
8.1 1.31 -1.01
26.02 4.22 4.17
8.09 1.31 -0.72
8.14 1.32 -0.43
8.16 1.32 -0.14
6.02 0.95 -1.63
8.22 1.3 0.15
6.96 1.1 -1.63
25.9 4.11 1.37
8.12 1.29 -1.6
25.78 4.09 2.28
8.52 1.35 -1.37
25.7 4.07 3.19
8.07 1.28 -1
8.1 1.28 -0.72
8.08 1.28 -0.43
8.11 1.29 -0.14
6.03 0.93 -1.64
8.14 1.26 0.14
6.94 1.08 -1.62
25.92 4.02 1.37
8.13 1.26 -1.6
25.8 4 2.28
8.53 1.32 -1.37
25.71 3.98 3.19
8.07 1.25 -1
8.03 1.24 -0.71
8.06 1.25 -0.43
8.07 1.25 -0.14
6.03 0.91 -1.63
8.12 1.23 0.14
6.95 1.05 -1.62
8.13 1.23 -1.6
25.82 3.91 2.28
8.52 1.29 -1.37
25.7 3.89 3.19
8.06 1.22 -1
8.02 1.21 -0.71
8.03 1.22 -0.43
8.05 1.22 -0.14
6.04 0.89 -1.64
8.09 1.2 0.14
6.96 1.03 -1.62
8.13 1.2 -1.6
25.83 3.82 2.28
8.55 1.26 -1.37
25.76 3.81 3.2
8.06 1.19 -1
8.02 1.19 -0.71
8 1.18 -0.42
8.04 1.19 -0.14
6.03 0.87 -1.63
8.09 1.17 0.14
6.97 1.01 -1.63
8.13 1.17 -1.6
25.83 3.73 2.28
8.96 1.29 -1.43
8.05 1.16 -1
8.01 1.16 -0.71
8.02 1.16 -0.42
8.02 1.16 -0.14
6.03 0.85 -1.63
6.97 0.98 -1.62
8.14 1.15 -1.6
25.84 3.64 2.28
8.02 1.13 -1.28
8.06 1.13 -1
8 1.13 -0.71
8.02 1.13 -0.42
8.03 1.13 -0.14
6.04 0.83 -1.63
8.07 1.11 0.14
6.95 0.95 -1.62
8.14 1.12 -1.6
25.86 3.55 2.28
9.76 1.34 -1.56
8.04 1.1 -1
7.99 1.1 -0.71
8 1.1 -0.42
8.04 1.1 -0.14
6.05 0.81 -1.63
8.07 1.08 0.14
6.96 0.93 -1.62
8.14 1.09 -1.6
25.88 3.46 2.28
9.77 1.3 -1.56
8.04 1.07 -1
7.98 1.07 -0.7
7.97 1.07 -0.42
6.04 0.79 -1.63
8.07 1.05 0.14
6.96 0.91 -1.62
8.14 1.06 -1.6
25.97 3.38 2.29
9.77 1.27 -1.56
8.02 1.04 -0.99
7.98 1.04 -0.7
7.98 1.04 -0.42
8.02 1.04 -0.14
6.03 0.76 -1.63
8.05 1.02 0.14
6.97 0.88 -1.62
8.14 1.03 -1.6
9.79 1.24 -1.56
8.03 1.02 -0.99
7.97 1.01 -0.7
7.98 1.01 -0.42
8.01 1.01 -0.14
6.04 0.74 -1.63
8.05 0.99 0.14
6.96 0.86 -1.62
8.15 1 -1.6
9.78 1.2 -1.56
8.03 0.99 -0.99
7.98 0.98 -0.7
7.97 0.98 -0.42
8.01 0.98 -0.14
6.05 0.72 -1.63
8.04 0.96 0.14
6.95 0.83 -1.62
8.15 0.97 -1.6
9.78 1.17 -1.56
8.03 0.96 -0.99
7.97 0.95 -0.7
7.97 0.95 -0.42
8.01 0.96 -0.14
6.04 0.7 -1.63
8.05 0.93 0.14
6.96 0.81 -1.62
8.15 0.94 -1.59
7.97 0.92 -1.27
8.04 0.93 -0.99
7.97 0.92 -0.7
7.96 0.92 -0.42
8.01 0.93 -0.14
6.05 0.68 -1.63
8.05 0.9 0.14
6.96 0.78 -1.62
8.14 0.91 -1.59
7.98 0.9 -1.27
8.03 0.9 -0.99
7.98 0.9 -0.7
7.97 0.9 -0.42
8 0.9 -0.14
6.04 0.66 -1.63
8.05 0.88 0.14
6.96 0.76 -1.62
8.14 0.89 -1.59
9.79 1.07 -1.56
8.03 0.87 -0.99
7.97 0.87 -0.7
7.97 0.87 -0.42
8 0.87 -0.14
6.04 0.64 -1.63
8.03 0.85 0.14
6.97 0.73 -1.62
8.16 0.86 -1.59
9.78 1.03 -1.56
8.05 0.85 -0.99
7.97 0.84 -0.7
7.97 0.84 -0.42
8 0.84 -0.14
6.04 0.62 -1.63
8.02 0.82 0.14
6.96 0.71 -1.61
8.16 0.83 -1.59
9.78 1 -1.56
8.04 0.82 -0.99
7.98 0.81 -0.7
7.96 0.81 -0.42
8.01 0.81 -0.14
6.06 0.59 -1.63
8.03 0.79 0.14
6.96 0.68 -1.61
8.15 0.8 -1.59
9.79 0.96 -1.56
8.04 0.79 -0.99
7.98 0.78 -0.7
7.96 0.78 -0.42
8.02 0.79 -0.14
6.05 0.57 -1.63
8.04 0.76 0.14
6.97 0.66 -1.62
8.15 0.77 -1.59
9.78 0.92 -1.56
8.04 0.76 -0.99
7.98 0.75 -0.7
7.97 0.75 -0.42
8 0.76 -0.14
6.04 0.55 -1.63
8.04 0.73 0.14
6.97 0.64 -1.62
8.15 0.74 -1.59
58.37 5.32 5.13
9.79 0.89 -1.56
8.04 0.73 -0.99
7.97 0.73 -0.7
7.96 0.73 -0.42
8 0.73 -0.14
6.05 0.53 -1.63
8.03 0.7 0.14
6.97 0.61 -1.62
8.15 0.71 -1.59
9.78 0.86 -1.56
8.04 0.71 -0.99
7.97 0.7 -0.7
7.97 0.7 -0.42
8.01 0.7 -0.14
6.07 0.51 -1.63
8.03 0.68 0.14
6.97 0.59 -1.61
8.16 0.69 -1.59
9.78 0.82 -1.55
8.04 0.68 -0.99
7.98 0.67 -0.7
7.96 0.67 -0.42
8.01 0.67 -0.14
6.07 0.49 -1.63
8.03 0.65 0.14
6.96 0.56 -1.61
8.16 0.66 -1.59
9.79 0.79 -1.55
8.04 0.65 -0.99
7.98 0.64 -0.7
7.96 0.64 -0.42
7.98 0.64 -0.14
6.06 0.47 -1.63
8.04 0.62 0.14
6.98 0.54 -1.62
8.15 0.63 -1.59
9.79 0.75 -1.55
8.03 0.62 -0.99
7.99 0.62 -0.7
7.97 0.61 -0.42
8.01 0.62 -0.14
6.07 0.45 -1.63
8.05 0.59 0.14
6.98 0.51 -1.61
8.15 0.6 -1.59
9.78 0.72 -1.55
8.02 0.59 -0.99
7.98 0.59 -0.7
7.97 0.59 -0.42
8.01 0.59 -0.14
6.06 0.42 -1.63
8.02 0.56 0.14
6.98 0.49 -1.62
8.15 0.57 -1.59
9.78 0.69 -1.55
8.03 0.56 -0.99
7.98 0.56 -0.7
7.97 0.56 -0.42
8.01 0.56 -0.14
6.07 0.4 -1.63
8.03 0.53 0.14
6.97 0.46 -1.61
8.15 0.54 -1.59
9.78 0.65 -1.55
8.02 0.53 -0.99
7.98 0.53 -0.7
7.96 0.53 -0.42
8.02 0.53 -0.14
6.07 0.38 -1.63
8.03 0.51 0.14
6.97 0.44 -1.61
8.16 0.51 -1.59
9.77 0.62 -1.55
8 0.5 -0.98
7.99 0.5 -0.7
7.97 0.5 -0.42
8.01 0.51 -0.14
6.07 0.36 -1.63
8.03 0.48 0.14
6.98 0.42 -1.61
8.15 0.49 -1.59
9.79 0.58 -1.55
8.01 0.48 -0.99
7.99 0.48 -0.7
26.3 1.57 5.12
7.97 0.47 -0.42
8.01 0.48 -0.14
6.06 0.34 -1.63
8.05 0.45 0.14
6.99 0.39 -1.62
8.16 0.46 -1.59
9.79 0.55 -1.55
8.01 0.45 -0.98
7.98 0.45 -0.7
26.35 1.48 5.13
7.98 0.45 -0.42
8.01 0.45 -0.14
6.06 0.32 -1.63
8.03 0.42 0.14
6.98 0.37 -1.61
8.17 0.43 -1.59
9.78 0.51 -1.55
8.02 0.42 -0.99
7.99 0.42 -0.7
7.98 0.42 -0.42
8.02 0.42 -0.14
6.06 0.3 -1.63
8.04 0.39 0.14
6.97 0.34 -1.61
8.17 0.4 -1.59
9.78 0.48 -1.55
8.01 0.39 -0.98
7.99 0.39 -0.7
7.97 0.39 -0.42
8.02 0.39 -0.14
6.07 0.28 -1.63
8.04 0.37 0.14
6.97 0.32 -1.61
8.16 0.37 -1.59
9.78 0.45 -1.55
8.01 0.37 -0.98
8 0.36 -0.7
7.97 0.36 -0.42
8.02 0.37 -0.14
6.06 0.26 -1.63
8.05 0.34 0.14
6.97 0.29 -1.61
8.13 0.34 -1.58
9.78 0.41 -1.55
8.01 0.34 -0.98
8 0.34 -0.7
7.98 0.34 -0.42
8.02 0.34 -0.14
6.06 0.23 -1.62
8.05 0.31 0.14
6.98 0.27 -1.61
8.15 0.31 -1.59
9.78 0.38 -1.55
8.02 0.31 -0.99
8 0.31 -0.7
7.99 0.31 -0.42
8.02 0.31 -0.14
6.05 0.21 -1.62
8.04 0.28 0.14
6.99 0.25 -1.61
8.16 0.29 -1.59
9.77 0.34 -1.55
8.03 0.28 -0.99
8 0.28 -0.7
7.99 0.28 -0.42
8 0.28 -0.14
6.06 0.19 -1.62
8.05 0.25 0.14
6.96 0.22 -1.61
8.17 0.26 -1.59
9.78 0.31 -1.55
8.04 0.25 -0.99
8 0.25 -0.7
8 0.25 -0.42
8.03 0.25 -0.14
6.07 0.17 -1.63
8.06 0.23 0.14
6.97 0.2 -1.61
8.16 0.23 -1.59
9.78 0.27 -1.55
8.02 0.23 -0.99
8.01 0.23 -0.7
8 0.22 -0.42
8.05 0.23 -0.14
6.07 0.15 -1.63
8.07 0.2 0.14
6.97 0.17 -1.61
8.16 0.2 -1.59
9.77 0.24 -1.55
8.03 0.2 -0.99
8.01 0.2 -0.7
8.01 0.2 -0.42
8.03 0.2 -0.14
6.05 0.13 -1.62
8.06 0.17 0.14
6.97 0.15 -1.61
8.15 0.17 -1.58
9.79 0.21 -1.55
8.04 0.17 -0.99
8 0.17 -0.7
8 0.17 -0.42
8.04 0.17 -0.14
6.06 0.11 -1.62
8.07 0.14 0.14
6.97 0.12 -1.61
8.15 0.15 -1.59
9.77 0.17 -1.55
8.05 0.14 -0.99
8.01 0.14 -0.7
8 0.14 -0.42
8.05 0.14 -0.14
6.06 0.09 -1.62
8.07 0.11 0.14
6.96 0.1 -1.61
8.15 0.12 -1.58
9.78 0.14 -1.55
8.05 0.11 -0.99
8.02 0.11 -0.7
7.99 0.11 -0.42
8.06 0.11 -0.14
6.06 0.06 -1.62
8.07 0.09 0.14
6.96 0.07 -1.61
8.15 0.09 -1.58
9.79 0.1 -1.55
8.05 0.09 -0.99
8.02 0.09 -0.7
8.01 0.09 -0.42
8.06 0.09 -0.14
6.06 0.04 -1.62
8.09 0.06 0.14
6.96 0.05 -1.61
8.14 0.06 -1.58
9.8 0.07 -1.55
8.06 0.06 -0.99
8.02 0.06 -0.7
8.02 0.06 -0.42
8.06 0.06 -0.14
6.05 0.02 -1.62
8.1 0.03 0.14
6.97 0.03 -1.61
8.16 0.03 -1.59
8.12 0.03 -1.29
8.07 0.03 -0.99
8.03 0.03 -0.7
8.02 0.03 -0.42
8.06 0.03 -0.14
6.05 0 -1.62
8.11 0 0.14
6.97 0 -1.61
8.17 0 -1.59
8.1 0 -1.28
8.07 0 -0.99
8.03 0 -0.7
8.03 0 -0.42
8.07 0 -0.14
6.06 -0.02 -1.62
8.1 -0.03 0.14
6.97 -0.02 -1.61
8.18 -0.03 -1.59
9.81 -0.03 -1.55
8.08 -0.03 -0.99
8.03 -0.03 -0.7
8.02 -0.03 -0.42
8.08 -0.03 -0.14
6.07 -0.04 -1.63
8.11 -0.05 0.14
6.98 -0.05 -1.61
8.18 -0.05 -1.59
9.82 -0.07 -1.55
8.07 -0.05 -0.99
8.04 -0.05 -0.7
8.03 -0.05 -0.42
8.08 -0.05 -0.14
6.07 -0.06 -1.63
8.12 -0.08 0.14
6.98 -0.07 -1.61
8.18 -0.08 -1.59
9.83 -0.1 -1.56
8.08 -0.08 -0.99
8.04 -0.08 -0.7
8.04 -0.08 -0.42
8.08 -0.08 -0.14
6.06 -0.08 -1.62
8.13 -0.11 0.14
6.99 -0.1 -1.61
8.18 -0.11 -1.59
9.83 -0.13 -1.56
8.09 -0.11 -0.99
8.04 -0.11 -0.7
8.06 -0.11 -0.42
8.11 -0.11 -0.14
6.07 -0.1 -1.63
8.13 -0.14 0.14
6.99 -0.12 -1.61
8.19 -0.14 -1.59
9.82 -0.17 -1.56
8.1 -0.14 -0.99
8.05 -0.14 -0.7
8.06 -0.14 -0.42
8.11 -0.14 -0.14
6.07 -0.13 -1.63
8.13 -0.17 0.14
6.99 -0.14 -1.61
8.19 -0.17 -1.59
9.83 -0.2 -1.56
8.11 -0.17 -1
8.06 -0.17 -0.71
8.06 -0.17 -0.42
6.08 -0.15 -1.63
8.16 -0.2 0.14
6.99 -0.17 -1.61
8.19 -0.2 -1.59
8.11 -0.2 -1
8.07 -0.19 -0.71
8.07 -0.19 -0.42
6.08 -0.17 -1.63
8.17 -0.23 0.14
6.99 -0.19 -1.62
8.19 -0.23 -1.59
8.98 -0.25 -1.42
8.12 -0.22 -1
8.08 -0.22 -0.71
8.09 -0.22 -0.42
8.11 -0.22 -0.14
6.07 -0.19 -1.63
8.14 -0.25 0.14
7 -0.22 -1.62
8.2 -0.25 -1.59
8.63 -0.27 -1.37
8.13 -0.25 -1
8.08 -0.25 -0.71
8.1 -0.25 -0.42
8.13 -0.25 -0.14
6.08 -0.21 -1.63
8.17 -0.28 0.14
7.01 -0.24 -1.62
8.2 -0.28 -1.59
8.61 -0.3 -1.36
8.15 -0.28 -1
8.1 -0.28 -0.71
8.11 -0.28 -0.43
8.15 -0.28 -0.14
6.09 -0.23 -1.63
8.23 -0.31 0.14
6.99 -0.27 -1.62
8.2 -0.31 -1.6
8.61 -0.33 -1.36
8.14 -0.31 -1
8.14 -0.31 -0.71
8.11 -0.31 -0.43
8.17 -0.31 -0.14
6.09 -0.25 -1.63
8.29 -0.34 0.14
7 -0.29 -1.62
8.2 -0.34 -1.6
8.62 -0.36 -1.37
8.16 -0.34 -1
8.2 -0.34 -0.72
8.23 -0.34 -0.14
6.09 -0.27 -1.63
7.01 -0.32 -1.62
8.19 -0.37 -1.59
8.63 -0.39 -1.37
8.19 -0.37 -1.01
8.19 -0.37 -0.72
8.23 -0.37 -0.43
8.27 -0.37 -0.14
6.09 -0.3 -1.63
7.01 -0.34 -1.62
8.19 -0.4 -1.59
8.63 -0.42 -1.37
8.27 -0.4 -1.02
8.23 -0.4 -0.72
8.27 -0.4 -0.43
6.07 -0.32 -1.63
7.01 -0.37 -1.62
8.2 -0.43 -1.6
8.68 -0.45 -1.38
8.45 -0.44 -1.04
8.63 -0.45 -0.76
6.08 -0.34 -1.63
7 -0.39 -1.62
8.2 -0.46 -1.6
9.77 -0.54 -1.55
12.27 -0.68 -1.51
24.72 -1.37 -1.3
6.08 -0.36 -1.63
7 -0.41 -1.62
8.19 -0.48 -1.6
9.78 -0.58 -1.55
12.24 -0.72 -1.51
16.3 -0.96 -1.43
24.71 -1.46 -1.3
6.08 -0.38 -1.63
7.01 -0.44 -1.62
8.18 -0.51 -1.59
9.77 -0.61 -1.55
12.22 -0.76 -1.5
16.3 -1.02 -1.43
24.74 -1.55 -1.3
6.07 -0.4 -1.63
7 -0.46 -1.62
8.18 -0.54 -1.59
9.75 -0.64 -1.55
12.22 -0.81 -1.5
16.31 -1.08 -1.43
24.7 -1.63 -1.3
6.07 -0.42 -1.63
7.01 -0.49 -1.62
8.17 -0.57 -1.59
9.74 -0.68 -1.55
12.21 -0.85 -1.5
16.26 -1.13 -1.43
24.73 -1.72 -1.3
6.08 -0.44 -1.63
6.99 -0.51 -1.62
8.17 -0.6 -1.59
9.72 -0.71 -1.54
12.21 -0.89 -1.5
16.23 -1.19 -1.42
24.72 -1.81 -1.3
6.08 -0.47 -1.63
7 -0.54 -1.62
8.16 -0.63 -1.59
9.72 -0.74 -1.54
12.21 -0.93 -1.5
16.23 -1.24 -1.42
24.68 -1.89 -1.3
6.08 -0.49 -1.64
6.99 -0.56 -1.62
8.14 -0.65 -1.59
9.72 -0.78 -1.54
12.21 -0.98 -1.5
16.21 -1.3 -1.42
24.71 -1.98 -1.3
6.07 -0.51 -1.63
6.99 -0.58 -1.62
8.14 -0.68 -1.59
9.72 -0.81 -1.54
12.21 -1.02 -1.5
25.81 -2.16 4.1
16.19 -1.35 -1.42
24.67 -2.06 -1.3
6.07 -0.53 -1.63
6.98 -0.61 -1.62
8.14 -0.71 -1.59
9.7 -0.85 -1.54
12.22 -1.06 -1.51
25.8 -2.25 4.1
16.22 -1.41 -1.42
25.7 -2.24 5.01
24.64 -2.15 -1.3
6.07 -0.55 -1.63
6.97 -0.63 -1.62
8.13 -0.74 -1.59
9.69 -0.88 -1.54
12.2 -1.11 -1.5
25.85 -2.34 4.11
16.24 -1.47 -1.43
25.73 -2.33 5.02
6.07 -0.57 -1.63
6.96 -0.66 -1.61
8.13 -0.77 -1.59
9.69 -0.91 -1.54
12.2 -1.15 -1.5
16.24 -1.53 -1.43
25.73 -2.42 5.02
20.46 -1.93 -1.08
6.07 -0.59 -1.63
6.96 -0.68 -1.61
8.1 -0.79 -1.58
9.69 -0.95 -1.54
12.2 -1.19 -1.51
16.23 -1.59 -1.43
6.06 -0.61 -1.63
6.96 -0.7 -1.62
8.1 -0.82 -1.58
9.67 -0.98 -1.54
12.21 -1.24 -1.51
16.2 -1.64 -1.42
6.05 -0.63 -1.63
6.95 -0.73 -1.61
8.09 -0.85 -1.58
9.66 -1.01 -1.54
12.2 -1.28 -1.51
16.2 -1.7 -1.42
6.05 -0.66 -1.63
6.94 -0.75 -1.61
8.09 -0.88 -1.58
9.66 -1.05 -1.54
12.2 -1.32 -1.51
16.21 -1.75 -1.43
6.06 -0.68 -1.63
6.94 -0.78 -1.61
8.09 -0.9 -1.58
9.66 -1.08 -1.54
12.16 -1.36 -1.5
16.21 -1.81 -1.43
17.96 -2.01 -0.95
6.05 -0.7 -1.63
6.92 -0.8 -1.61
8.07 -0.93 -1.58
9.67 -1.12 -1.54
12.16 -1.4 -1.5
16.2 -1.87 -1.43
17.72 -2.04 -0.93
6.03 -0.72 -1.63
6.92 -0.82 -1.61
8.06 -0.96 -1.58
9.66 -1.15 -1.54
12.14 -1.44 -1.5
16.21 -1.93 -1.43
6.04 -0.74 -1.63
6.92 -0.85 -1.61
8.07 -0.99 -1.58
9.66 -1.18 -1.54
12.14 -1.49 -1.5
16.21 -1.98 -1.43
17.05 -2.09 -0.9
6.03 -0.76 -1.63
6.9 -0.87 -1.61
8.06 -1.01 -1.58
9.66 -1.22 -1.54
12.14 -1.53 -1.5
16.22 -2.04 -1.43
6.03 -0.78 -1.63
6.9 -0.89 -1.61
8.06 -1.04 -1.58
9.65 -1.25 -1.54
12.11 -1.57 -1.5
16.22 -2.1 -1.43
6.02 -0.8 -1.63
6.89 -0.92 -1.6
8.04 -1.07 -1.58
9.65 -1.28 -1.54
16.22 -2.16 -1.43
6 -0.82 -1.62
6.9 -0.94 -1.61
8.04 -1.1 -1.58
9.66 -1.32 -1.54
12.15 -1.66 -1.51
26.19 -3.58 4.19
16.21 -2.21 -1.43
16.82 -2.3 -0.89
6 -0.84 -1.62
6.88 -0.97 -1.6
8.05 -1.13 -1.58
55.32 -7.75 4.89
9.64 -1.35 -1.54
12.13 -1.7 -1.5
26.13 -3.66 4.18
16.19 -2.27 -1.43
16.81 -2.36 -0.89
6 -0.86 -1.62
6.87 -0.99 -1.6
8.04 -1.16 -1.58
9.65 -1.39 -1.54
12.13 -1.74 -1.5
26.1 -3.75 4.18
13.99 -2.01 -1.24
13.91 -2 -0.74
6 -0.88 -1.62
6.87 -1.01 -1.6
8.04 -1.18 -1.58
9.65 -1.42 -1.54
12.12 -1.79 -1.5
26.1 -3.85 4.18
13.78 -2.03 -1.22
13.57 -2 -0.72
13.86 -2.04 -0.24
5.99 -0.9 -1.62
6.86 -1.04 -1.6
8.03 -1.21 -1.58
9.64 -1.45 -1.54
12.1 -1.83 -1.5
26.12 -3.94 4.18
13.52 -2.04 -1.2
13.44 -2.03 -0.71
13.68 -2.06 -0.24
5.97 -0.92 -1.62
6.87 -1.06 -1.6
8.03 -1.24 -1.58
9.65 -1.49 -1.55
12.09 -1.87 -1.5
26.14 -4.04 4.19
13.27 -2.05 -1.18
13.27 -2.05 -0.7
13.31 -2.06 -0.24
5.97 -0.94 -1.62
13.27 -2.1 0.23
6.86 -1.08 -1.6
8.03 -1.27 -1.58
9.59 -1.51 -1.54
12.08 -1.91 -1.5
13.2 -2.09 -1.17
13.03 -2.06 -0.69
13.06 -2.06 -0.23
5.97 -0.96 -1.62
6.85 -1.11 -1.6
8.03 -1.3 -1.58
9.59 -1.55 -1.54
12.08 -1.95 -1.5
12.97 -2.1 -1.15
12.78 -2.07 -0.68
12.83 -2.07 -0.23
5.98 -0.99 -1.62
13.03 -2.15 0.23
6.85 -1.13 -1.6
8.03 -1.33 -1.58
9.59 -1.58 -1.54
12.07 -1.99 -1.5
12.73 -2.1 -1.13
12.57 -2.08 -0.67
12.62 -2.08 -0.22
5.97 -1.01 -1.62
6.85 -1.15 -1.6
8.02 -1.35 -1.58
9.59 -1.62 -1.54
12.08 -2.04 -1.5
12.49 -2.11 -1.11
12.37 -2.09 -0.66
12.41 -2.09 -0.22
5.96 -1.03 -1.62
12.39 -2.13 0.22
6.86 -1.18 -1.61
12.73 -2.19 0.68
8.02 -1.38 -1.58
9.57 -1.65 -1.54
12.08 -2.08 -1.51
12.26 -2.11 -1.09
12.17 -2.1 -0.65
12.22 -2.1 -0.22
5.95 -1.05 -1.62
12.19 -2.14 0.22
6.85 -1.2 -1.6
12.52 -2.2 0.67
8.02 -1.41 -1.58
9.56 -1.68 -1.54
12.09 -2.12 -1.51
12.05 -2.12 -1.07
11.97 -2.1 -0.64
12.07 -2.12 -0.21
5.95 -1.07 -1.62
12.06 -2.16 0.21
6.84 -1.23 -1.6
12.32 -2.21 0.66
8.01 -1.44 -1.58
9.56 -1.71 -1.54
12.09 -2.17 -1.51
11.85 -2.12 -1.05
11.78 -2.11 -0.63
11.92 -2.14 -0.21
5.95 -1.09 -1.62
11.87 -2.17 0.21
6.83 -1.25 -1.6
12.11 -2.22 0.65
8 -1.46 -1.58
12.08 -2.21 -1.51
11.65 -2.13 -1.04
11.59 -2.12 -0.62
11.72 -2.15 -0.21
5.95 -1.11 -1.62
11.7 -2.18 0.21
6.84 -1.28 -1.61
11.93 -2.23 0.64
7.98 -1.49 -1.58
26.31 -4.91 2.34
9.58 -1.79 -1.54
12.07 -2.25 -1.51
11.46 -2.14 -1.02
11.42 -2.13 -0.61
11.54 -2.15 -0.2
5.94 -1.13 -1.62
11.54 -2.19 0.2
6.84 -1.3 -1.61
11.76 -2.24 0.63
7.98 -1.52 -1.58
26.2 -4.98 2.33
9.56 -1.82 -1.54
12.07 -2.3 -1.51
11.28 -2.15 -1
11.28 -2.14 -0.6
11.39 -2.17 -0.2
5.93 -1.15 -1.62
11.36 -2.2 0.2
6.84 -1.33 -1.61
11.59 -2.25 0.62
8 -1.55 -1.58
26.16 -5.07 2.33
9.55 -1.85 -1.54
12.07 -2.34 -1.51
11.15 -2.16 -0.99
11.12 -2.16 -0.59
11.23 -2.18 -0.2
5.93 -1.17 -1.62
11.2 -2.21 0.2
6.82 -1.35 -1.61
11.42 -2.25 0.61
7.97 -1.57 -1.58
9.55 -1.89 -1.54
12.06 -2.38 -1.51
10.97 -2.17 -0.98
10.95 -2.16 -0.59
11.06 -2.18 -0.2
5.94 -1.19 -1.62
11.05 -2.22 0.2
6.82 -1.37 -1.61
11.25 -2.26 0.6
7.94 -1.6 -1.57
9.56 -1.92 -1.54
12.04 -2.42 -1.51
10.82 -2.18 -0.97
10.81 -2.17 -0.58
10.93 -2.2 -0.19
5.93 -1.21 -1.62
10.91 -2.23 0.19
6.82 -1.4 -1.61
11.09 -2.27 0.59
7.94 -1.63 -1.58
9.55 -1.96 -1.54
26.05 -5.33 3.27
12.04 -2.47 -1.51
10.68 -2.19 -0.95
10.67 -2.18 -0.57
10.78 -2.21 -0.19
5.91 -1.23 -1.62
10.76 -2.24 0.19
6.83 -1.42 -1.61
10.96 -2.28 0.59
7.94 -1.65 -1.58
26.06 -5.43 2.33
9.54 -1.99 -1.54
26.06 -5.43 3.27
12.03 -2.51 -1.51
10.52 -2.19 -0.94
10.53 -2.19 -0.56
10.63 -2.21 -0.19
5.92 -1.26 -1.62
10.6 -2.25 0.19
6.82 -1.45 -1.61
10.79 -2.29 0.58
7.93 -1.68 -1.58
26.05 -5.52 2.33
9.53 -2.02 -1.54
26.11 -5.53 3.28
12.03 -2.55 -1.51
10.37 -2.2 -0.93
10.36 -2.2 -0.55
10.49 -2.22 -0.19
5.91 -1.28 -1.62
10.46 -2.26 0.19
6.8 -1.47 -1.61
10.65 -2.3 0.57
7.93 -1.71 -1.58
26.04 -5.62 2.33
9.53 -2.06 -1.54
26.07 -5.62 3.27
12 -2.59 -1.51
10.25 -2.21 -0.92
10.23 -2.21 -0.55
10.37 -2.24 -0.19
5.92 -1.3 -1.62
10.33 -2.27 0.18
6.79 -1.49 -1.6
10.5 -2.3 0.56
7.93 -1.74 -1.58
26.04 -5.71 2.33
9.53 -2.09 -1.55
25.98 -5.7 3.27
11.99 -2.63 -1.51
10.12 -2.22 -0.91
10.1 -2.21 -0.54
10.24 -2.25 -0.18
5.91 -1.32 -1.62
10.19 -2.27 0.18
6.8 -1.52 -1.61
10.37 -2.31 0.56
7.91 -1.76 -1.57
26.02 -5.8 2.33
9.53 -2.13 -1.55
25.96 -5.79 3.27
11.98 -2.67 -1.51
9.98 -2.23 -0.89
9.96 -2.22 -0.53
10.09 -2.25 -0.18
5.9 -1.34 -1.62
10.07 -2.28 0.18
6.8 -1.54 -1.61
10.26 -2.32 0.55
7.91 -1.79 -1.58
10.52 -2.38 0.94
9.53 -2.16 -1.55
25.95 -5.88 3.27
11.97 -2.71 -1.51
9.85 -2.23 -0.88
9.85 -2.23 -0.53
9.97 -2.26 -0.18
5.9 -1.36 -1.62
9.94 -2.29 0.18
6.79 -1.56 -1.61
10.14 -2.33 0.55
7.91 -1.82 -1.58
10.38 -2.39 0.93
9.52 -2.19 -1.55
25.93 -5.97 3.27
9.95 -2.29 -1.25
9.71 -2.24 -0.87
9.72 -2.24 -0.52
9.84 -2.27 -0.18
5.9 -1.38 -1.62
9.81 -2.29 0.18
6.78 -1.59 -1.61
10.02 -2.34 0.54
7.92 -1.85 -1.58
10.24 -2.4 0.92
9.52 -2.22 -1.55
25.94 -6.06 3.27
9.69 -2.26 -1.22
9.86 -2.3 -0.89
9.59 -2.24 -0.52
9.74 -2.28 -0.17
5.9 -1.4 -1.63
9.7 -2.3 0.17
6.79 -1.61 -1.61
9.88 -2.35 0.53
7.93 -1.88 -1.58
10.11 -2.4 0.91
9.52 -2.26 -1.55
9.63 -2.29 -1.22
9.86 -2.34 -0.89
9.48 -2.25 -0.51
9.61 -2.28 -0.17
5.89 -1.42 -1.62
9.58 -2.31 0.17
6.77 -1.63 -1.61
9.75 -2.35 0.53
7.9 -1.91 -1.58
9.97 -2.41 0.9
9.49 -2.29 -1.55
9.48 -2.29 -1.2
9.86 -2.38 -0.89
9.37 -2.26 -0.51
9.49 -2.29 -0.17
5.89 -1.44 -1.62
9.47 -2.32 0.17
6.77 -1.66 -1.61
9.64 -2.36 0.52
7.9 -1.94 -1.58
9.83 -2.41 0.89
9.35 -2.29 -1.52
9.37 -2.3 -1.18
9.84 -2.41 -0.89
9.27 -2.27 -0.5
9.38 -2.3 -0.17
5.88 -1.46 -1.62
9.35 -2.32 0.17
6.76 -1.68 -1.61
9.52 -2.37 0.51
7.89 -1.96 -1.58
9.71 -2.41 0.88
9.27 -2.31 -1.51
9.31 -2.31 -1.18
9.15 -2.28 -0.83
9.15 -2.28 -0.49
9.27 -2.31 -0.17
5.88 -1.48 -1.63
9.25 -2.33 0.17
6.75 -1.7 -1.61
9.41 -2.37 0.51
7.9 -1.99 -1.58
9.58 -2.42 0.86
9.25 -2.33 -1.51
9.09 -2.29 -1.15
9.08 -2.29 -0.82
9.06 -2.29 -0.49
9.16 -2.31 -0.16
5.88 -1.51 -1.63
9.14 -2.34 0.16
6.73 -1.73 -1.6
9.29 -2.38 0.5
7.91 -2.03 -1.59
9.48 -2.43 0.86
9.24 -2.37 -1.51
8.97 -2.3 -1.14
9.02 -2.31 -0.81
8.94 -2.29 -0.48
9.07 -2.32 -0.16
5.87 -1.53 -1.63
9.05 -2.35 0.16
6.72 -1.75 -1.6
9.19 -2.39 0.5
7.89 -2.05 -1.58
9.35 -2.43 0.84
9.27 -2.41 -1.52
8.94 -2.32 -1.13
8.93 -2.32 -0.81
8.86 -2.3 -0.48
8.95 -2.33 -0.16
5.85 -1.54 -1.62
8.94 -2.36 0.16
6.72 -1.77 -1.61
9.08 -2.39 0.49
7.88 -2.08 -1.58
9.24 -2.44 0.84
9.26 -2.44 -1.52
8.84 -2.33 -1.12
8.79 -2.32 -0.79
8.76 -2.31 -0.47
8.85 -2.33 -0.16
5.85 -1.56 -1.62
8.83 -2.36 0.16
6.71 -1.8 -1.6
8.98 -2.4 0.49
7.88 -2.11 -1.58
9.12 -2.44 0.83
9.28 -2.48 -1.52
8.72 -2.33 -1.11
8.69 -2.32 -0.79
8.66 -2.31 -0.47
8.75 -2.34 -0.16
5.85 -1.58 -1.62
8.74 -2.37 0.16
6.7 -1.81 -1.6
8.89 -2.41 0.48
7.88 -2.13 -1.59
9.03 -2.45 0.82
9.45 -2.56 -1.55
8.64 -2.34 -1.1
8.58 -2.32 -0.78
8.56 -2.32 -0.46
8.67 -2.35 -0.16
5.84 -1.6 -1.62
8.65 -2.38 0.16
6.69 -1.84 -1.6
8.77 -2.41 0.48
7.87 -2.16 -1.59
8.92 -2.45 0.81
9.46 -2.6 -1.55
8.51 -2.34 -1.08
8.5 -2.33 -0.77
8.47 -2.33 -0.46
8.56 -2.35 -0.15
5.84 -1.63 -1.62
8.56 -2.38 0.16
6.72 -1.87 -1.61
8.68 -2.42 0.47
7.85 -2.19 -1.58
8.83 -2.46 0.8
9.44 -2.63 -1.55
8.42 -2.34 -1.07
8.4 -2.34 -0.76
8.4 -2.34 -0.46
8.48 -2.36 -0.15
5.84 -1.65 -1.63
8.47 -2.39 0.15
6.72 -1.9 -1.61
8.6 -2.43 0.47
7.85 -2.22 -1.59
8.72 -2.46 0.79
9.44 -2.66 -1.55
8.33 -2.35 -1.06
8.3 -2.34 -0.75
8.3 -2.34 -0.45
8.38 -2.36 -0.15
5.84 -1.67 -1.63
8.37 -2.39 0.15
6.7 -1.92 -1.61
8.49 -2.43 0.46
7.86 -2.25 -1.59
8.63 -2.47 0.79
9.41 -2.69 -1.55
8.25 -2.36 -1.05
8.21 -2.35 -0.75
8.23 -2.36 -0.45
8.3 -2.38 -0.15
5.82 -1.69 -1.62
8.29 -2.4 0.15
6.69 -1.94 -1.61
8.42 -2.44 0.46
7.85 -2.28 -1.59
8.54 -2.48 0.78
9.4 -2.73 -1.55
8.15 -2.36 -1.04
8.13 -2.36 -0.74
8.13 -2.36 -0.44
8.22 -2.38 -0.15
5.81 -1.71 -1.62
8.19 -2.41 0.15
6.68 -1.96 -1.61
8.32 -2.44 0.45
7.85 -2.3 -1.59
8.46 -2.48 0.77
9.39 -2.76 -1.55
8.05 -2.36 -1.03
8.05 -2.37 -0.73
8.05 -2.37 -0.44
8.09 -2.38 -0.15
5.8 -1.73 -1.62
8.07 -2.4 0.15
6.67 -1.99 -1.61
8.21 -2.44 0.45
7.83 -2.33 -1.59
8.35 -2.48 0.76
9.39 -2.8 -1.55
7.98 -2.37 -1.02
7.96 -2.37 -0.73
8 -2.38 -0.44
8 -2.38 -0.15
5.79 -1.74 -1.62
8 -2.41 0.15
6.67 -2.01 -1.61
8.1 -2.44 0.44
7.83 -2.36 -1.59
8.26 -2.49 0.75
9.37 -2.82 -1.55
7.91 -2.38 -1.01
7.88 -2.37 -0.72
7.91 -2.38 -0.43
7.91 -2.38 -0.14
5.79 -1.77 -1.62
7.9 -2.41 0.14
6.67 -2.04 -1.61
8.03 -2.45 0.44
7.83 -2.39 -1.59
8.17 -2.49 0.75
9.35 -2.85 -1.55
7.83 -2.39 -1
7.8 -2.38 -0.71
7.82 -2.39 -0.43
7.83 -2.39 -0.14
5.78 -1.79 -1.62
7.83 -2.42 0.14
6.66 -2.06 -1.61
7.94 -2.45 0.44
7.82 -2.42 -1.59
8.09 -2.5 0.74
9.34 -2.89 -1.55
7.76 -2.4 -1
7.72 -2.39 -0.71
7.77 -2.4 -0.43
7.76 -2.4 -0.14
5.78 -1.81 -1.62
7.75 -2.43 0.14
6.65 -2.08 -1.61
7.85 -2.46 0.43
7.82 -2.45 -1.59
8.01 -2.51 0.73
9.33 -2.92 -1.55
7.68 -2.4 -0.99
7.68 -2.4 -0.7
7.69 -2.41 -0.42
7.68 -2.4 -0.14
5.76 -1.82 -1.62
7.68 -2.43 0.14
6.66 -2.11 -1.61
7.77 -2.46 0.43
7.8 -2.47 -1.59
7.92 -2.51 0.73
9.32 -2.95 -1.55
7.61 -2.41 -0.98
7.62 -2.41 -0.7
7.65 -2.42 -0.42
7.63 -2.41 -0.14
5.75 -1.84 -1.62
7.61 -2.44 0.14
6.65 -2.13 -1.61
7.69 -2.46 0.42
7.79 -2.5 -1.59
7.84 -2.51 0.72
9.31 -2.98 -1.55
7.57 -2.43 -0.98
7.56 -2.42 -0.69
7.59 -2.43 -0.42
7.58 -2.43 -0.14
5.75 -1.87 -1.62
7.57 -2.46 0.14
6.65 -2.16 -1.61
7.65 -2.48 0.42
7.79 -2.53 -1.59
7.75 -2.51 0.71
9.3 -3.02 -1.55
7.55 -2.45 -0.97
7.53 -2.44 -0.69
7.56 -2.45 -0.42
7.54 -2.45 -0.14
5.75 -1.89 -1.62
7.52 -2.47 0.14
6.64 -2.18 -1.61
7.6 -2.5 0.42
7.78 -2.56 -1.59
7.69 -2.52 0.71
9.28 -3.05 -1.55
7.53 -2.47 -0.97
7.52 -2.47 -0.69
7.54 -2.47 -0.42
7.53 -2.47 -0.14
5.74 -1.91 -1.62
7.51 -2.49 0.14
6.62 -2.2 -1.61
7.57 -2.51 0.42
7.78 -2.58 -1.59
7.64 -2.53 0.7
9.27 -3.08 -1.55
7.52 -2.49 -0.97
7.51 -2.49 -0.69
7.53 -2.5 -0.42
7.52 -2.5 -0.14
5.76 -1.93 -1.63
7.51 -2.52 0.14
6.62 -2.22 -1.61
7.55 -2.54 0.42
7.76 -2.61 -1.59
7.6 -2.55 0.7
9.26 -3.11 -1.55
7.5 -2.52 -0.97
7.51 -2.52 -0.69
7.57 -2.54 -0.42
7.52 -2.52 -0.14
5.74 -1.95 -1.62
7.51 -2.55 0.14
6.62 -2.25 -1.61
7.58 -2.58 0.42
7.75 -2.63 -1.59
7.58 -2.57 0.7
9.25 -3.14 -1.55
7.54 -2.56 -0.98
7.5 -2.55 -0.69
7.52 -2.56 -0.42
7.51 -2.55 -0.14
5.73 -1.97 -1.62
7.52 -2.58 0.14
6.61 -2.27 -1.61
7.55 -2.59 0.42
7.75 -2.66 -1.59
7.61 -2.61 0.7
9.23 -3.17 -1.55
7.52 -2.59 -0.98
7.49 -2.57 -0.69
7.5 -2.58 -0.42
7.52 -2.58 -0.14
5.73 -1.99 -1.62
7.53 -2.62 0.14
6.59 -2.29 -1.61
7.56 -2.63 0.42
7.74 -2.69 -1.59
7.57 -2.63 0.7
9.23 -3.21 -1.55
7.53 -2.62 -0.98
7.49 -2.6 -0.69
7.5 -2.61 -0.42
7.52 -2.61 -0.14
5.72 -2.01 -1.63
7.51 -2.64 0.14
6.6 -2.32 -1.61
7.54 -2.65 0.42
7.73 -2.72 -1.59
7.57 -2.66 0.7
9.21 -3.24 -1.55
7.52 -2.64 -0.98
7.48 -2.63 -0.69
7.5 -2.64 -0.42
7.51 -2.64 -0.14
5.71 -2.03 -1.62
7.52 -2.67 0.14
6.59 -2.34 -1.62
7.54 -2.68 0.42
7.71 -2.74 -1.59
7.57 -2.69 0.7
9.21 -3.27 -1.55
7.52 -2.67 -0.98
7.49 -2.66 -0.7
7.49 -2.66 -0.42
7.5 -2.67 -0.14
5.7 -2.05 -1.62
7.51 -2.7 0.14
6.59 -2.37 -1.62
7.54 -2.71 0.42
7.7 -2.77 -1.59
7.56 -2.72 0.7
9.19 -3.3 -1.55
7.53 -2.7 -0.98
7.48 -2.69 -0.7
7.49 -2.69 -0.42
7.5 -2.7 -0.14
5.69 -2.07 -1.62
7.5 -2.73 0.14
6.58 -2.39 -1.62
7.54 -2.74 0.42
7.69 -2.79 -1.59
7.55 -2.74 0.7
9.17 -3.33 -1.55
7.47 -2.72 -0.7
7.49 -2.72 -0.42
7.5 -2.73 -0.14
5.7 -2.09 -1.63
7.5 -2.76 0.14
6.56 -2.41 -1.61
7.54 -2.77 0.42
7.69 -2.83 -1.59
7.55 -2.77 0.7
9.17 -3.37 -1.55
7.53 -2.77 -0.99
7.49 -2.75 -0.7
7.48 -2.75 -0.42
7.5 -2.76 -0.14
5.68 -2.11 -1.62
7.5 -2.78 0.14
6.55 -2.43 -1.61
7.53 -2.79 0.42
7.68 -2.85 -1.59
7.56 -2.81 0.71
9.16 -3.4 -1.55
7.52 -2.79 -0.98
7.49 -2.78 -0.7
7.47 -2.77 -0.42
7.5 -2.79 -0.14
5.68 -2.13 -1.63
7.5 -2.82 0.14
6.55 -2.46 -1.62
7.53 -2.83 0.42
7.66 -2.87 -1.59
7.55 -2.83 0.71
9.16 -3.44 -1.55
7.53 -2.83 -0.99
7.49 -2.81 -0.7
7.47 -2.8 -0.42
7.5 -2.81 -0.14
5.68 -2.15 -1.63
7.5 -2.84 0.14
6.55 -2.48 -1.62
7.53 -2.85 0.42
7.65 -2.9 -1.59
7.54 -2.86 0.71
7.52 -2.85 -0.99
7.48 -2.83 -0.7
7.47 -2.83 -0.42
7.49 -2.84 -0.14
5.67 -2.17 -1.63
7.49 -2.87 0.14
6.54 -2.51 -1.62
7.53 -2.88 0.42
7.64 -2.93 -1.59
7.55 -2.89 0.71
9.13 -3.5 -1.55
7.54 -2.89 -0.99
7.48 -2.86 -0.7
7.47 -2.86 -0.42
7.5 -2.87 -0.14
5.67 -2.19 -1.63
7.49 -2.9 0.14
6.53 -2.52 -1.62
7.53 -2.91 0.42
7.63 -2.95 -1.59
7.56 -2.93 0.71
9.12 -3.53 -1.55
7.55 -2.92 -0.99
7.48 -2.89 -0.7
7.46 -2.89 -0.42
7.5 -2.9 -0.14
5.67 -2.22 -1.63
7.49 -2.93 0.14
6.52 -2.55 -1.62
7.52 -2.94 0.42
7.62 -2.98 -1.59
7.56 -2.95 0.71
9.12 -3.56 -1.55
7.53 -2.94 -0.99
7.48 -2.93 -0.7
7.47 -2.92 -0.42
7.5 -2.93 -0.14
5.65 -2.23 -1.63
7.49 -2.96 0.14
6.52 -2.58 -1.62
7.52 -2.97 0.42
7.6 -3 -1.59
7.55 -2.98 0.71
9.1 -3.6 -1.55
7.54 -2.98 -1
7.48 -2.96 -0.7
7.47 -2.95 -0.42
7.49 -2.96 -0.14
5.64 -2.25 -1.63
7.49 -2.99 0.14
6.52 -2.6 -1.62
7.53 -3.01 0.42
7.59 -3.03 -1.59
7.55 -3.01 0.71
9.09 -3.63 -1.55
7.54 -3.01 -1
7.47 -2.98 -0.7
7.48 -2.98 -0.42
7.5 -2.99 -0.14
5.64 -2.28 -1.63
7.48 -3.02 0.14
6.51 -2.63 -1.62
7.53 -3.04 0.43
7.58 -3.06 -1.59
7.55 -3.05 0.71
9.07 -3.66 -1.55
7.54 -3.04 -1
7.47 -3.01 -0.7
7.48 -3.02 -0.42
7.5 -3.02 -0.14
5.63 -2.3 -1.63
7.49 -3.05 0.14
6.48 -2.64 -1.62
7.52 -3.07 0.43
7.57 -3.09 -1.59
7.56 -3.08 0.71
9.07 -3.7 -1.55
7.53 -3.07 -1
7.48 -3.05 -0.71
7.46 -3.04 -0.42
7.51 -3.06 -0.14
5.64 -2.32 -1.63
7.5 -3.08 0.14
6.48 -2.67 -1.62
7.52 -3.09 0.43
7.56 -3.11 -1.59
7.56 -3.11 0.72
9.06 -3.73 -1.55
7.5 -3.09 -1
7.48 -3.08 -0.71
7.47 -3.07 -0.42
7.51 -3.09 -0.14
5.63 -2.34 -1.63
7.5 -3.12 0.14
6.47 -2.69 -1.62
7.52 -3.13 0.43
7.54 -3.13 -1.59
7.56 -3.14 0.72
9.05 -3.76 -1.55
7.51 -3.12 -1
7.48 -3.11 -0.71
7.47 -3.1 -0.42
7.5 -3.11 -0.14
5.61 -2.35 -1.63
7.5 -3.15 0.14
6.47 -2.72 -1.62
7.52 -3.16 0.43
7.53 -3.16 -1.59
7.55 -3.17 0.72
9.05 -3.8 -1.55
7.51 -3.15 -1
7.48 -3.14 -0.71
7.48 -3.14 -0.42
7.5 -3.15 -0.14
5.59 -2.37 -1.63
7.49 -3.18 0.14
6.46 -2.74 -1.62
7.53 -3.19 0.43
7.52 -3.19 -1.59
7.56 -3.2 0.72
9.02 -3.82 -1.55
7.73 -3.28 1.03
7.51 -3.18 -1
7.48 -3.17 -0.71
7.48 -3.17 -0.43
7.5 -3.18 -0.14
5.6 -2.4 -1.63
7.49 -3.21 0.14
6.44 -2.75 -1.62
7.53 -3.22 0.43
7.52 -3.22 -1.59
7.55 -3.23 0.72
9.01 -3.86 -1.55
7.64 -3.27 1.02
7.52 -3.22 -1
7.49 -3.2 -0.71
7.47 -3.2 -0.43
7.5 -3.21 -0.14
5.59 -2.42 -1.63
7.5 -3.24 0.14
6.43 -2.78 -1.62
7.52 -3.25 0.43
7.51 -3.24 -1.59
7.56 -3.27 0.72
9 -3.89 -1.55
7.61 -3.29 1.02
7.54 -3.26 -1.01
7.49 -3.24 -0.71
7.47 -3.23 -0.43
7.5 -3.24 -0.14
5.58 -2.43 -1.63
7.51 -3.27 0.14
6.43 -2.8 -1.62
7.53 -3.28 0.43
7.49 -3.27 -1.59
7.56 -3.3 0.72
9 -3.93 -1.55
7.57 -3.3 1.01
7.53 -3.29 -1.01
7.49 -3.27 -0.72
7.47 -3.26 -0.43
7.49 -3.27 -0.14
5.56 -2.45 -1.63
7.5 -3.31 0.14
6.42 -2.83 -1.62
7.53 -3.32 0.43
7.48 -3.29 -1.59
7.55 -3.33 0.72
8.98 -3.96 -1.55
7.56 -3.33 1.01
7.53 -3.32 -1.01
7.48 -3.3 -0.72
7.48 -3.29 -0.43
7.49 -3.3 -0.14
5.57 -2.47 -1.63
7.5 -3.33 0.14
6.41 -2.85 -1.62
7.54 -3.35 0.43
7.47 -3.32 -1.59
7.56 -3.36 0.72
8.96 -3.98 -1.55
7.53 -3.35 1.01
7.54 -3.35 -1.01
7.49 -3.33 -0.72
7.48 -3.32 -0.43
7.5 -3.33 -0.14
5.56 -2.49 -1.63
7.5 -3.37 0.14
6.39 -2.86 -1.62
7.53 -3.38 0.43
7.46 -3.34 -1.59
7.57 -3.39 0.73
8.96 -4.02 -1.56
7.54 -3.38 1.01
7.54 -3.38 -1.01
7.5 -3.36 -0.72
7.47 -3.35 -0.43
7.49 -3.36 -0.14
5.56 -2.52 -1.64
7.51 -3.4 0.14
6.38 -2.89 -1.62
7.52 -3.41 0.43
7.44 -3.37 -1.59
7.58 -3.43 0.73
8.95 -4.05 -1.56
7.53 -3.41 -1.01
7.5 -3.4 -0.72
7.48 -3.39 -0.43
7.51 -3.4 -0.14
5.55 -2.54 -1.63
7.51 -3.44 0.14
6.37 -2.91 -1.62
7.53 -3.44 0.43
7.42 -3.39 -1.59
7.58 -3.46 0.73
8.94 -4.09 -1.56
7.54 -3.45 -1.02
7.5 -3.43 -0.72
7.49 -3.42 -0.43
7.5 -3.43 -0.14
5.54 -2.55 -1.63
7.52 -3.47 0.14
6.37 -2.94 -1.62
7.54 -3.48 0.44
7.42 -3.43 -1.59
7.57 -3.49 0.73
8.93 -4.12 -1.56
7.54 -3.48 -1.02
7.49 -3.46 -0.72
7.49 -3.45 -0.43
7.51 -3.47 -0.14
5.53 -2.57 -1.63
7.51 -3.5 0.14
6.35 -2.96 -1.62
7.55 -3.51 0.44
7.41 -3.45 -1.59
7.58 -3.53 0.73
8.91 -4.15 -1.56
7.54 -3.51 -1.02
7.49 -3.49 -0.72
7.49 -3.49 -0.43
7.52 -3.5 -0.14
5.53 -2.59 -1.64
7.52 -3.53 0.14
6.34 -2.98 -1.62
7.56 -3.55 0.44
7.4 -3.48 -1.59
7.59 -3.56 0.73
8.9 -4.18 -1.56
7.54 -3.54 -1.02
7.5 -3.52 -0.73
7.48 -3.51 -0.43
7.52 -3.53 -0.14
5.52 -2.61 -1.64
7.52 -3.56 0.15
6.32 -3 -1.62
7.54 -3.58 0.44
7.39 -3.5 -1.59
7.59 -3.6 0.73
8.89 -4.21 -1.56
7.54 -3.57 -1.02
7.51 -3.56 -0.73
7.49 -3.55 -0.43
7.52 -3.57 -0.15
5.51 -2.64 -1.64
7.53 -3.6 0.15
6.32 -3.02 -1.62
7.55 -3.61 0.44
7.36 -3.52 -1.59
7.59 -3.63 0.74
8.88 -4.25 -1.56
7.54 -3.61 -1.03
7.51 -3.59 -0.73
7.51 -3.59 -0.44
7.51 -3.59 -0.15
5.49 -2.65 -1.63
7.53 -3.63 0.15
6.32 -3.05 -1.62
7.56 -3.65 0.44
7.36 -3.55 -1.59
7.59 -3.66 0.74
8.86 -4.28 -1.56
7.55 -3.64 -1.03
7.51 -3.62 -0.73
7.51 -3.63 -0.44
7.52 -3.63 -0.15
5.48 -2.67 -1.63
7.52 -3.66 0.15
6.3 -3.07 -1.62
7.57 -3.68 0.44
