# .PCD v0.7 - Point Cloud Data file format
VERSION 0.7
FIELDS x y z
SIZE 4 4 4
TYPE F F F
COUNT 1 1 1
WIDTH 2891
HEIGHT 1
VIEWPOINT 0 0 0 1 0 0 0
POINTS 2891
DATA ascii
9.49 -2.32 0.17
6.76 -1.65 -1.61
9.65 -2.36 0.52
7.91 -1.93 -1.58
9.86 -2.41 0.89
9.35 -2.29 -1.52
9.38 -2.29 -1.19
9.86 -2.41 -0.89
9.28 -2.27 -0.5
9.4 -2.3 -0.17
5.89 -1.46 -1.63
9.38 -2.33 0.17
6.76 -1.68 -1.61
9.53 -2.36 0.51
7.9 -1.96 -1.58
9.73 -2.41 0.88
9.28 -2.3 -1.51
9.31 -2.31 -1.18
9.17 -2.28 -0.83
9.16 -2.27 -0.49
9.29 -2.3 -0.17
5.87 -1.48 -1.62
9.27 -2.34 0.17
6.76 -1.7 -1.61
9.42 -2.38 0.51
7.89 -1.99 -1.58
9.6 -2.42 0.87
9.24 -2.33 -1.51
9.11 -2.3 -1.15
9.09 -2.29 -0.82
9.08 -2.29 -0.49
9.17 -2.31 -0.17
5.87 -1.5 -1.62
9.15 -2.34 0.16
6.75 -1.73 -1.61
9.32 -2.38 0.5
7.9 -2.02 -1.59
9.48 -2.43 0.86
9.24 -2.36 -1.51
8.98 -2.3 -1.14
9.02 -2.31 -0.81
8.96 -2.29 -0.48
9.07 -2.32 -0.16
5.87 -1.52 -1.63
9.05 -2.35 0.16
6.72 -1.74 -1.6
9.2 -2.39 0.5
7.9 -2.05 -1.59
9.37 -2.43 0.85
9.25 -2.4 -1.51
8.95 -2.32 -1.14
8.93 -2.32 -0.81
8.86 -2.3 -0.48
8.97 -2.33 -0.16
5.87 -1.54 -1.63
8.95 -2.35 0.16
6.72 -1.77 -1.6
9.09 -2.39 0.49
7.9 -2.08 -1.59
9.26 -2.44 0.84
9.25 -2.43 -1.51
8.84 -2.33 -1.12
8.81 -2.32 -0.8
8.77 -2.31 -0.48
8.88 -2.33 -0.16
5.87 -1.57 -1.63
8.86 -2.36 0.16
6.71 -1.79 -1.6
8.98 -2.4 0.49
7.88 -2.1 -1.58
9.14 -2.44 0.83
9.28 -2.48 -1.52
8.73 -2.33 -1.11
8.71 -2.32 -0.79
8.67 -2.31 -0.47
8.76 -2.34 -0.16
5.85 -1.58 -1.62
8.76 -2.37 0.16
6.71 -1.82 -1.61
8.89 -2.4 0.48
7.87 -2.13 -1.59
9.04 -2.44 0.82
9.45 -2.56 -1.55
8.65 -2.34 -1.1
8.59 -2.32 -0.78
8.6 -2.33 -0.47
8.67 -2.35 -0.16
5.84 -1.6 -1.62
8.66 -2.38 0.16
6.71 -1.84 -1.61
8.8 -2.42 0.48
7.88 -2.16 -1.59
8.93 -2.45 0.81
9.45 -2.59 -1.55
8.54 -2.34 -1.09
8.5 -2.33 -0.77
8.49 -2.33 -0.46
8.57 -2.35 -0.16
5.84 -1.62 -1.62
8.56 -2.38 0.16
6.73 -1.87 -1.61
8.7 -2.42 0.47
7.87 -2.19 -1.59
8.84 -2.46 0.8
9.45 -2.63 -1.55
8.44 -2.35 -1.08
8.41 -2.34 -0.76
8.4 -2.34 -0.46
8.5 -2.36 -0.15
5.85 -1.65 -1.63
8.48 -2.39 0.15
6.71 -1.89 -1.61
8.6 -2.43 0.47
7.86 -2.22 -1.59
8.74 -2.47 0.79
9.44 -2.66 -1.55
8.33 -2.35 -1.06
8.32 -2.35 -0.76
8.3 -2.34 -0.45
8.4 -2.37 -0.15
5.85 -1.67 -1.63
8.39 -2.4 0.15
6.7 -1.91 -1.61
8.5 -2.43 0.46
7.85 -2.24 -1.59
8.65 -2.47 0.79
9.43 -2.69 -1.55
8.25 -2.36 -1.05
8.24 -2.35 -0.75
8.24 -2.35 -0.45
8.3 -2.37 -0.15
5.81 -1.68 -1.62
8.3 -2.4 0.15
6.7 -1.94 -1.61
8.43 -2.44 0.46
7.85 -2.27 -1.59
8.54 -2.47 0.78
9.42 -2.73 -1.55
8.16 -2.36 -1.04
8.13 -2.35 -0.74
8.16 -2.36 -0.45
8.22 -2.38 -0.15
5.81 -1.7 -1.62
8.21 -2.4 0.15
6.69 -1.96 -1.61
8.33 -2.44 0.45
7.85 -2.3 -1.59
8.46 -2.48 0.77
9.4 -2.76 -1.55
8.08 -2.37 -1.03
8.05 -2.36 -0.73
8.07 -2.36 -0.44
8.1 -2.37 -0.15
5.81 -1.72 -1.62
8.08 -2.4 0.15
6.67 -1.98 -1.61
8.23 -2.45 0.45
7.85 -2.33 -1.59
8.36 -2.48 0.76
9.39 -2.79 -1.55
8 -2.38 -1.02
7.96 -2.36 -0.73
8 -2.37 -0.44
8.01 -2.38 -0.15
5.8 -1.74 -1.62
8.01 -2.41 0.15
6.66 -2 -1.61
8.11 -2.44 0.44
7.84 -2.36 -1.59
8.28 -2.49 0.76
9.38 -2.82 -1.55
7.9 -2.38 -1.01
7.9 -2.37 -0.72
7.91 -2.38 -0.43
7.93 -2.38 -0.14
5.8 -1.77 -1.62
7.92 -2.41 0.14
6.66 -2.03 -1.61
8.03 -2.45 0.44
7.83 -2.39 -1.59
8.2 -2.5 0.75
9.37 -2.86 -1.55
7.84 -2.39 -1.01
7.82 -2.38 -0.71
7.83 -2.39 -0.43
7.84 -2.39 -0.14
5.78 -1.78 -1.62
7.85 -2.42 0.14
6.67 -2.06 -1.61
7.94 -2.45 0.44
7.81 -2.41 -1.59
8.09 -2.5 0.74
9.35 -2.89 -1.55
7.77 -2.4 -1
7.72 -2.38 -0.71
7.78 -2.4 -0.43
7.76 -2.39 -0.14
5.77 -1.8 -1.62
7.76 -2.42 0.14
6.67 -2.08 -1.61
7.86 -2.46 0.43
7.81 -2.44 -1.59
8.01 -2.5 0.73
9.33 -2.91 -1.55
7.69 -2.4 -0.99
7.68 -2.4 -0.7
7.7 -2.41 -0.42
7.68 -2.4 -0.14
5.76 -1.82 -1.62
7.68 -2.43 0.14
6.66 -2.11 -1.61
7.78 -2.46 0.43
7.81 -2.47 -1.59
7.93 -2.51 0.73
9.32 -2.95 -1.55
7.62 -2.41 -0.98
7.62 -2.41 -0.7
7.65 -2.42 -0.42
7.64 -2.41 -0.14
5.76 -1.85 -1.62
7.62 -2.44 0.14
6.64 -2.13 -1.61
7.69 -2.46 0.42
7.8 -2.5 -1.59
7.84 -2.51 0.72
9.31 -2.98 -1.55
7.57 -2.42 -0.98
7.58 -2.43 -0.7
7.57 -2.42 -0.42
7.6 -2.43 -0.14
5.76 -1.86 -1.62
7.58 -2.45 0.14
6.64 -2.15 -1.61
7.64 -2.47 0.42
7.78 -2.52 -1.59
7.77 -2.52 0.71
9.32 -3.02 -1.55
7.53 -2.44 -0.97
7.54 -2.44 -0.69
7.56 -2.45 -0.42
7.53 -2.44 -0.14
5.74 -1.88 -1.62
7.53 -2.47 0.14
6.64 -2.18 -1.61
7.6 -2.49 0.42
7.78 -2.55 -1.59
7.69 -2.52 0.71
9.3 -3.05 -1.55
7.53 -2.47 -0.97
7.51 -2.46 -0.69
7.55 -2.48 -0.42
7.52 -2.47 -0.14
5.74 -1.9 -1.62
7.5 -2.49 0.14
6.64 -2.2 -1.61
7.58 -2.51 0.42
7.77 -2.58 -1.59
7.63 -2.53 0.7
9.28 -3.08 -1.55
7.53 -2.5 -0.97
7.49 -2.48 -0.69
7.54 -2.5 -0.42
7.52 -2.49 -0.14
5.76 -1.93 -1.63
7.5 -2.52 0.14
6.62 -2.22 -1.61
7.56 -2.54 0.42
7.77 -2.61 -1.59
7.6 -2.55 0.7
9.26 -3.11 -1.55
7.51 -2.52 -0.97
7.5 -2.52 -0.69
7.53 -2.53 -0.42
7.52 -2.52 -0.14
5.75 -1.95 -1.63
7.5 -2.54 0.14
6.61 -2.24 -1.61
7.56 -2.56 0.42
7.76 -2.63 -1.59
7.59 -2.58 0.7
9.26 -3.14 -1.55
7.52 -2.55 -0.98
7.5 -2.55 -0.69
7.5 -2.55 -0.42
7.51 -2.55 -0.14
5.74 -1.97 -1.63
7.52 -2.58 0.14
6.61 -2.27 -1.61
7.54 -2.59 0.42
7.74 -2.66 -1.59
7.61 -2.61 0.7
9.25 -3.17 -1.55
7.51 -2.58 -0.97
7.49 -2.57 -0.69
7.5 -2.57 -0.42
7.51 -2.58 -0.14
5.73 -1.99 -1.62
7.53 -2.61 0.14
6.61 -2.3 -1.62
7.54 -2.62 0.42
7.74 -2.69 -1.59
7.57 -2.63 0.7
9.24 -3.21 -1.55
7.52 -2.61 -0.98
7.48 -2.6 -0.69
7.5 -2.61 -0.42
7.51 -2.61 -0.14
5.73 -2.01 -1.63
7.51 -2.64 0.14
6.61 -2.32 -1.62
7.55 -2.65 0.42
7.73 -2.71 -1.59
7.56 -2.66 0.7
9.22 -3.24 -1.55
7.53 -2.64 -0.98
7.47 -2.62 -0.69
7.5 -2.63 -0.42
7.51 -2.64 -0.14
5.71 -2.03 -1.62
7.51 -2.67 0.14
6.59 -2.34 -1.61
7.54 -2.68 0.42
7.72 -2.74 -1.59
7.56 -2.69 0.7
9.21 -3.27 -1.55
7.53 -2.67 -0.98
7.47 -2.65 -0.69
7.49 -2.66 -0.42
7.51 -2.67 -0.14
5.71 -2.05 -1.63
7.51 -2.69 0.14
6.58 -2.36 -1.61
7.53 -2.7 0.42
7.71 -2.77 -1.59
7.56 -2.71 0.7
9.2 -3.3 -1.55
7.52 -2.7 -0.98
7.48 -2.69 -0.7
7.48 -2.69 -0.42
7.51 -2.7 -0.14
5.71 -2.07 -1.63
7.51 -2.72 0.14
6.57 -2.39 -1.61
7.53 -2.73 0.42
7.69 -2.79 -1.59
7.56 -2.74 0.7
9.19 -3.34 -1.55
7.48 -2.72 -0.7
7.49 -2.72 -0.42
7.49 -2.72 -0.14
5.69 -2.09 -1.62
7.51 -2.75 0.14
6.57 -2.41 -1.62
7.53 -2.76 0.42
7.68 -2.82 -1.59
7.54 -2.77 0.7
9.19 -3.37 -1.55
7.53 -2.76 -0.98
7.48 -2.74 -0.7
7.48 -2.74 -0.42
7.5 -2.75 -0.14
5.69 -2.11 -1.63
7.5 -2.78 0.14
6.57 -2.44 -1.62
7.53 -2.79 0.42
7.68 -2.85 -1.59
7.55 -2.8 0.7
9.16 -3.4 -1.55
7.52 -2.79 -0.99
7.48 -2.77 -0.7
7.48 -2.77 -0.42
7.5 -2.78 -0.14
5.69 -2.13 -1.63
7.49 -2.81 0.14
6.55 -2.46 -1.62
7.53 -2.82 0.42
7.67 -2.87 -1.59
7.55 -2.83 0.71
9.16 -3.43 -1.55
7.53 -2.82 -0.99
7.48 -2.8 -0.7
7.46 -2.8 -0.42
7.5 -2.81 -0.14
5.68 -2.15 -1.63
7.5 -2.84 0.14
6.54 -2.48 -1.61
7.52 -2.85 0.42
7.66 -2.9 -1.59
7.55 -2.86 0.71
7.51 -2.84 -0.99
7.48 -2.83 -0.7
7.47 -2.83 -0.42
7.5 -2.84 -0.14
5.68 -2.17 -1.63
7.5 -2.87 0.14
6.55 -2.5 -1.62
7.52 -2.88 0.42
7.64 -2.92 -1.59
7.55 -2.89 0.71
9.15 -3.5 -1.55
7.53 -2.88 -0.99
7.48 -2.86 -0.7
7.47 -2.86 -0.42
7.49 -2.86 -0.14
5.67 -2.19 -1.63
7.49 -2.9 0.14
6.54 -2.53 -1.62
7.52 -2.91 0.42
7.63 -2.95 -1.59
7.54 -2.92 0.71
9.14 -3.53 -1.55
7.54 -2.92 -0.99
7.48 -2.89 -0.7
7.47 -2.89 -0.42
7.49 -2.9 -0.14
5.66 -2.21 -1.63
7.49 -2.92 0.14
6.54 -2.55 -1.62
7.53 -2.94 0.42
7.61 -2.97 -1.59
7.55 -2.95 0.71
9.11 -3.56 -1.55
7.54 -2.95 -0.99
7.48 -2.92 -0.7
7.47 -2.92 -0.42
7.49 -2.93 -0.14
5.66 -2.24 -1.63
7.48 -2.95 0.14
6.52 -2.57 -1.62
7.52 -2.97 0.42
7.61 -3.01 -1.59
7.56 -2.98 0.71
9.1 -3.59 -1.55
7.54 -2.98 -1
7.48 -2.95 -0.7
7.46 -2.94 -0.42
7.5 -2.96 -0.14
5.65 -2.25 -1.63
7.49 -2.99 0.14
6.51 -2.59 -1.62
7.52 -3 0.42
7.6 -3.03 -1.59
7.55 -3.01 0.71
9.1 -3.63 -1.55
7.53 -3 -1
7.48 -2.98 -0.7
7.46 -2.98 -0.42
7.5 -2.99 -0.14
5.65 -2.28 -1.63
7.49 -3.02 0.14
6.5 -2.62 -1.62
7.52 -3.03 0.42
7.58 -3.05 -1.59
7.55 -3.04 0.71
9.09 -3.66 -1.55
7.53 -3.03 -1
7.47 -3.01 -0.7
7.47 -3.01 -0.42
7.49 -3.02 -0.14
5.63 -2.29 -1.63
7.49 -3.05 0.14
6.49 -2.64 -1.62
7.51 -3.06 0.43
7.57 -3.08 -1.59
7.55 -3.07 0.71
9.08 -3.69 -1.55
7.53 -3.06 -1
7.46 -3.04 -0.7
7.47 -3.04 -0.42
7.49 -3.05 -0.14
5.63 -2.32 -1.63
7.49 -3.08 0.14
6.49 -2.67 -1.62
7.52 -3.09 0.43
7.57 -3.11 -1.59
7.55 -3.1 0.71
9.06 -3.72 -1.55
7.52 -3.09 -1
7.47 -3.07 -0.71
7.47 -3.07 -0.42
7.5 -3.08 -0.14
5.63 -2.34 -1.63
7.49 -3.11 0.14
6.46 -2.68 -1.62
7.52 -3.12 0.43
7.56 -3.14 -1.59
7.56 -3.14 0.72
9.05 -3.76 -1.55
7.51 -3.12 -1
7.48 -3.1 -0.71
7.46 -3.1 -0.42
7.5 -3.11 -0.14
5.62 -2.36 -1.63
7.49 -3.14 0.14
6.46 -2.71 -1.62
7.51 -3.15 0.43
7.54 -3.16 -1.59
7.55 -3.17 0.72
9.04 -3.79 -1.55
7.5 -3.15 -1
7.48 -3.14 -0.71
7.46 -3.13 -0.42
7.5 -3.14 -0.14
5.61 -2.37 -1.63
7.49 -3.17 0.14
6.46 -2.73 -1.62
7.51 -3.18 0.43
7.52 -3.18 -1.59
7.56 -3.2 0.72
9.04 -3.83 -1.55
7.5 -3.17 -1
7.49 -3.17 -0.71
7.47 -3.16 -0.42
7.49 -3.17 -0.14
5.59 -2.39 -1.63
7.5 -3.21 0.14
6.45 -2.76 -1.62
7.52 -3.21 0.43
7.52 -3.21 -1.59
7.55 -3.23 0.72
9.03 -3.86 -1.55
7.66 -3.27 1.02
7.51 -3.21 -1
7.48 -3.2 -0.71
7.46 -3.19 -0.43
7.49 -3.2 -0.14
5.58 -2.41 -1.63
7.49 -3.23 0.14
6.44 -2.78 -1.62
7.53 -3.25 0.43
7.51 -3.24 -1.59
7.55 -3.26 0.72
9.01 -3.89 -1.55
7.62 -3.29 1.02
7.54 -3.25 -1.01
7.48 -3.23 -0.71
7.47 -3.22 -0.43
7.5 -3.23 -0.14
5.58 -2.43 -1.63
7.5 -3.27 0.14
6.42 -2.8 -1.62
7.53 -3.28 0.43
7.5 -3.27 -1.59
7.55 -3.29 0.72
8.99 -3.92 -1.55
7.57 -3.3 1.01
7.52 -3.28 -1.01
7.49 -3.26 -0.71
7.47 -3.25 -0.43
7.5 -3.27 -0.14
5.58 -2.45 -1.63
7.5 -3.3 0.14
6.41 -2.82 -1.62
7.52 -3.3 0.43
7.48 -3.29 -1.59
7.55 -3.32 0.72
8.99 -3.95 -1.55
7.55 -3.32 1.01
7.51 -3.3 -1.01
7.5 -3.3 -0.72
7.47 -3.28 -0.43
7.5 -3.3 -0.14
5.58 -2.48 -1.63
7.5 -3.33 0.14
6.41 -2.85 -1.62
7.52 -3.34 0.43
7.47 -3.32 -1.59
7.56 -3.36 0.72
8.98 -3.98 -1.56
7.54 -3.34 1.01
7.52 -3.34 -1.01
7.5 -3.33 -0.72
7.47 -3.32 -0.43
7.49 -3.32 -0.14
5.56 -2.49 -1.63
7.5 -3.36 0.14
6.4 -2.87 -1.62
7.53 -3.38 0.43
7.45 -3.34 -1.59
7.56 -3.39 0.72
8.97 -4.02 -1.56
7.54 -3.38 1.01
7.53 -3.37 -1.01
7.49 -3.36 -0.72
7.48 -3.35 -0.43
7.48 -3.35 -0.14
5.56 -2.51 -1.63
7.5 -3.39 0.14
6.39 -2.89 -1.62
7.54 -3.41 0.43
7.43 -3.36 -1.59
7.56 -3.42 0.73
8.95 -4.05 -1.56
7.54 -3.41 -1.02
7.49 -3.39 -0.72
7.48 -3.38 -0.43
7.51 -3.4 -0.14
5.55 -2.53 -1.63
7.5 -3.42 0.14
6.37 -2.91 -1.62
7.54 -3.44 0.43
7.44 -3.39 -1.59
7.57 -3.46 0.73
8.94 -4.08 -1.56
7.53 -3.44 -1.02
7.49 -3.42 -0.72
7.47 -3.41 -0.43
7.51 -3.43 -0.14
5.55 -2.56 -1.64
7.51 -3.46 0.14
6.36 -2.93 -1.62
7.54 -3.47 0.44
7.43 -3.42 -1.59
7.58 -3.49 0.73
8.93 -4.11 -1.56
7.54 -3.47 -1.02
7.5 -3.45 -0.72
7.48 -3.44 -0.43
7.52 -3.46 -0.14
5.54 -2.57 -1.64
7.52 -3.5 0.14
6.36 -2.95 -1.62
7.53 -3.5 0.44
7.41 -3.45 -1.59
7.59 -3.53 0.73
8.93 -4.15 -1.56
7.53 -3.5 -1.02
7.5 -3.49 -0.72
7.49 -3.48 -0.43
7.52 -3.49 -0.14
5.52 -2.59 -1.63
7.52 -3.53 0.14
6.35 -2.98 -1.62
7.55 -3.54 0.44
7.4 -3.47 -1.59
7.58 -3.56 0.73
8.91 -4.18 -1.56
7.54 -3.54 -1.02
7.49 -3.52 -0.72
7.48 -3.51 -0.43
7.5 -3.52 -0.14
5.52 -2.61 -1.64
7.51 -3.55 0.15
6.33 -3 -1.62
7.55 -3.58 0.44
7.39 -3.5 -1.59
7.58 -3.59 0.73
8.89 -4.21 -1.56
7.54 -3.57 -1.02
7.5 -3.55 -0.73
7.48 -3.54 -0.43
7.51 -3.56 -0.15
5.52 -2.63 -1.64
7.52 -3.59 0.15
6.32 -3.02 -1.62
7.55 -3.61 0.44
7.38 -3.52 -1.59
7.59 -3.62 0.74
8.87 -4.24 -1.56
7.55 -3.61 -1.03
7.5 -3.58 -0.73
7.49 -3.58 -0.43
7.52 -3.59 -0.15
5.5 -2.65 -1.64
7.52 -3.63 0.15
6.3 -3.04 -1.62
7.55 -3.64 0.44
7.37 -3.55 -1.59
7.59 -3.66 0.74
8.85 -4.27 -1.56
7.54 -3.64 -1.03
7.52 -3.62 -0.73
7.48 -3.61 -0.44
7.53 -3.63 -0.15
5.49 -2.67 -1.64
7.54 -3.67 0.15
6.3 -3.07 -1.62
7.55 -3.67 0.44
7.35 -3.57 -1.59
7.6 -3.69 0.74
8.85 -4.31 -1.56
7.54 -3.67 -1.03
7.51 -3.65 -0.73
7.49 -3.64 -0.44
7.52 -3.66 -0.15
5.48 -2.69 -1.64
7.54 -3.7 0.15
6.29 -3.08 -1.62
7.56 -3.71 0.44
7.34 -3.6 -1.59
7.6 -3.73 0.74
8.84 -4.34 -1.56
7.55 -3.71 -1.03
7.51 -3.69 -0.73
7.5 -3.68 -0.44
7.52 -3.69 -0.15
5.47 -2.71 -1.64
7.53 -3.73 0.15
6.28 -3.11 -1.62
7.57 -3.75 0.44
7.34 -3.63 -1.59
7.61 -3.77 0.74
8.82 -4.36 -1.56
7.56 -3.74 -1.04
7.52 -3.72 -0.73
7.5 -3.71 -0.44
7.53 -3.73 -0.15
5.46 -2.73 -1.64
7.54 -3.76 0.15
6.25 -3.12 -1.61
7.58 -3.78 0.44
7.33 -3.66 -1.59
7.62 -3.8 0.74
8.8 -4.39 -1.56
7.56 -3.77 -1.04
7.52 -3.76 -0.74
7.51 -3.75 -0.44
7.54 -3.76 -0.15
5.46 -2.75 -1.64
7.55 -3.8 0.15
6.25 -3.15 -1.61
7.57 -3.81 0.44
7.31 -3.68 -1.59
7.63 -3.84 0.75
8.79 -4.43 -1.56
7.56 -3.81 -1.04
7.53 -3.79 -0.74
7.51 -3.78 -0.44
7.54 -3.8 -0.15
5.45 -2.77 -1.64
7.55 -3.84 0.15
6.24 -3.17 -1.62
7.58 -3.85 0.45
7.29 -3.7 -1.59
7.63 -3.88 0.75
8.78 -4.46 -1.56
7.56 -3.84 -1.04
7.53 -3.82 -0.74
7.52 -3.82 -0.44
7.54 -3.83 -0.15
5.43 -2.78 -1.63
7.56 -3.87 0.15
6.23 -3.2 -1.62
7.59 -3.89 0.45
7.28 -3.73 -1.59
7.63 -3.91 0.75
8.77 -4.49 -1.56
7.57 -3.88 -1.04
7.53 -3.86 -0.74
7.52 -3.86 -0.44
7.54 -3.87 -0.15
5.42 -2.8 -1.63
7.56 -3.91 0.15
6.23 -3.22 -1.62
7.6 -3.93 0.45
7.27 -3.76 -1.59
7.64 -3.95 0.75
8.74 -4.52 -1.56
7.58 -3.92 -1.05
7.53 -3.89 -0.74
7.52 -3.89 -0.44
7.56 -3.9 -0.15
5.41 -2.82 -1.64
7.57 -3.95 0.15
6.21 -3.24 -1.62
7.61 -3.97 0.45
4.94 -2.58 -1.08
7.66 -3.99 0.76
8.74 -4.56 -1.56
7.58 -3.95 -1.05
7.54 -3.93 -0.74
7.52 -3.92 -0.44
7.57 -3.94 -0.15
5.41 -2.84 -1.64
7.57 -3.98 0.15
7.61 -4 0.45
4.86 -2.56 -1.07
7.67 -4.03 0.76
4.94 -2.59 -0.88
7.59 -3.99 -1.05
7.56 -3.97 -0.75
7.53 -3.96 -0.45
7.57 -3.98 -0.15
5.4 -2.86 -1.64
7.59 -4.02 0.15
4.83 -2.56 -1.26
7.62 -4.04 0.45
4.78 -2.53 -1.05
7.68 -4.07 0.76
4.88 -2.59 -0.87
7.59 -4.03 -1.06
7.56 -4.01 -0.75
7.55 -4 -0.45
7.57 -4.01 -0.15
5.38 -2.88 -1.63
7.6 -4.06 0.15
4.77 -2.55 -1.25
7.64 -4.08 0.45
4.73 -2.53 -1.04
7.69 -4.11 0.76
4.82 -2.58 -0.87
7.59 -4.06 -1.06
7.56 -4.04 -0.75
7.56 -4.04 -0.45
7.57 -4.05 -0.15
5.38 -2.9 -1.64
7.6 -4.1 0.15
4.76 -2.56 -1.25
7.64 -4.12 0.45
4.68 -2.52 -1.03
4.77 -2.57 -0.86
7.59 -4.09 -1.06
7.57 -4.08 -0.75
7.56 -4.08 -0.45
7.6 -4.09 -0.15
5.36 -2.91 -1.64
7.6 -4.13 0.15
4.76 -2.59 -1.25
7.65 -4.15 0.46
4.66 -2.53 -1.03
4.72 -2.57 -0.85
7.59 -4.13 -1.06
7.58 -4.12 -0.75
7.56 -4.11 -0.45
7.6 -4.13 -0.15
7.6 -4.17 0.15
4.76 -2.61 -1.25
4.65 -2.55 -1.03
4.67 -2.56 -0.84
7.59 -4.16 -0.76
7.58 -4.15 -0.45
7.61 -4.17 -0.15
4.61 -2.55 -1.41
7.6 -4.2 0.15
4.62 -2.55 -1.22
4.63 -2.56 -0.84
4.71 -2.6 -0.66
7.61 -4.2 -0.76
7.59 -4.19 -0.45
7.61 -4.21 -0.15
4.58 -2.55 -1.41
7.62 -4.25 0.15
4.58 -2.55 -1.21
4.68 -2.6 -1.04
4.59 -2.56 -0.83
4.65 -2.59 -0.65
7.67 -4.27 -0.77
7.62 -4.25 -0.46
7.64 -4.25 -0.15
4.56 -2.56 -1.4
4.55 -2.56 -1.2
4.68 -2.63 -1.04
4.53 -2.54 -0.82
4.61 -2.59 -0.65
7.63 -4.29 -0.46
4.55 -2.58 -1.4
4.52 -2.56 -1.2
4.69 -2.66 -1.05
4.48 -2.54 -0.82
4.57 -2.59 -0.65
14.67 -8.31 -1.47
4.49 -2.56 -1.39
54.29 -30.99 1.09
4.5 -2.57 -1.2
4.7 -2.68 -1.05
4.46 -2.54 -0.81
4.52 -2.58 -0.64
14.65 -8.36 -1.48
4.46 -2.57 -1.38
54.35 -31.28 1.09
4.5 -2.59 -1.2
4.69 -2.7 -1.05
4.43 -2.55 -0.81
4.49 -2.58 -0.64
14.64 -8.42 -1.48
4.45 -2.58 -1.38
54.42 -31.57 1.1
4.49 -2.61 -1.2
4.69 -2.72 -1.05
4.4 -2.55 -0.81
4.45 -2.58 -0.63
4.49 -2.61 -0.45
22.28 -12.92 -1.35
4.44 -2.59 -1.38
54.46 -31.85 1.1
4.45 -2.6 -1.19
4.7 -2.75 -1.06
22.97 -13.43 2.33
4.36 -2.55 -0.8
4.41 -2.58 -0.63
4.44 -2.6 -0.45
21.85 -12.78 -1.33
4.42 -2.61 -1.37
54.54 -32.15 1.11
4.39 -2.59 -1.18
4.7 -2.77 -1.06
22.91 -13.5 2.33
4.33 -2.55 -0.8
4.37 -2.58 -0.62
4.4 -2.6 -0.45
21.68 -12.78 -1.32
27 -15.91 -0.55
4.36 -2.59 -1.36
54.61 -32.45 1.11
4.37 -2.59 -1.17
4.7 -2.79 -1.06
22.85 -13.58 2.33
4.3 -2.56 -0.79
4.32 -2.57 -0.62
4.35 -2.59 -0.44
21.57 -12.81 -1.31
4.34 -2.6 -1.36
54.67 -32.75 1.11
4.35 -2.61 -1.17
4.69 -2.81 -1.06
22.77 -13.64 2.32
4.27 -2.56 -0.79
4.28 -2.56 -0.61
4.32 -2.59 -0.44
21.48 -12.87 -1.31
4.31 -2.6 -1.35
4.27 -2.58 -1.15
4.68 -2.83 -1.06
4.23 -2.56 -0.78
4.26 -2.57 -0.61
4.26 -2.59 -1.34
4.24 -2.58 -1.14
22.59 -13.74 1.39
4.22 -2.57 -0.96
4.2 -2.55 -0.78
4.24 -2.58 -0.61
3.93 -2.39 -0.4
3.95 -2.4 -0.24
4.22 -2.59 -1.33
4.21 -2.58 -1.14
22.55 -13.82 1.39
4.15 -2.55 -0.95
4.18 -2.56 -0.78
4.21 -2.58 -0.61
3.95 -2.42 -0.41
3.97 -2.43 -0.24
22.79 -13.97 -0.47
4.26 -2.63 -1.34
22.68 -14.02 0.47
4.17 -2.58 -1.13
22.5 -13.91 1.39
4.12 -2.55 -0.94
22.64 -13.99 2.33
4.16 -2.57 -0.77
4.17 -2.58 -0.6
4 -2.47 -0.41
3.97 -2.46 -0.24
4.18 -2.6 -1.32
22.67 -14.12 0.47
4.16 -2.59 -1.13
22.47 -14 1.39
4.09 -2.55 -0.94
22.61 -14.08 2.33
4.14 -2.58 -0.77
4.13 -2.57 -0.6
3.99 -2.49 -0.41
3.99 -2.49 -0.25
4.11 -2.58 -1.3
22.62 -14.2 0.47
4.14 -2.6 -1.13
4.06 -2.55 -0.93
22.57 -14.17 2.33
4.11 -2.58 -0.77
4.1 -2.58 -0.59
4.01 -2.52 -0.41
4.03 -2.53 -0.25
4.08 -2.58 -1.29
22.56 -14.27 0.47
4.11 -2.6 -1.12
4.04 -2.56 -0.93
4.06 -2.57 -0.76
4.07 -2.58 -0.59
3.97 -2.51 -0.41
4.01 -2.54 -0.25
4.06 -2.59 -1.29
22.52 -14.35 0.47
4 -2.55 -1.1
4.01 -2.55 -0.92
22.47 -14.31 2.33
4.03 -2.57 -0.76
4.03 -2.57 -0.59
4.01 -2.56 -0.42
4.04 -2.57 -0.25
4.05 -2.6 -1.29
22.48 -14.43 0.47
3.98 -2.55 -1.09
3.98 -2.56 -0.92
22.44 -14.41 2.33
4 -2.57 -0.75
4 -2.57 -0.58
4.01 -2.58 -0.42
4.03 -2.59 -0.25
4.04 -2.62 -1.29
3.95 -2.56 -1.09
3.95 -2.56 -0.91
22.39 -14.5 2.33
3.98 -2.58 -0.75
3.97 -2.57 -0.58
3.99 -2.58 -0.42
4.02 -2.6 -0.25
3.94 -2.57 -1.26
3.94 -2.57 -1.08
3.92 -2.56 -0.91
22.41 -14.62 2.34
3.96 -2.58 -0.75
3.95 -2.57 -0.58
3.98 -2.6 -0.42
4 -2.61 -0.25
3.92 -2.58 -1.26
3.9 -2.57 -1.08
3.91 -2.57 -0.91
3.92 -2.58 -0.74
3.91 -2.57 -0.57
3.87 -2.56 -1.24
3.86 -2.56 -1.07
3.88 -2.57 -0.91
3.89 -2.58 -0.74
3.89 -2.58 -0.57
4.01 -2.66 -0.42
3.86 -2.57 -1.24
55.65 -37.15 1.17
3.83 -2.56 -1.06
3.86 -2.57 -0.9
3.87 -2.58 -0.74
3.85 -2.57 -0.57
3.92 -2.61 -0.08
3.82 -2.57 -1.23
55.67 -37.43 1.17
3.81 -2.56 -1.06
3.83 -2.57 -0.9
3.85 -2.59 -0.73
3.82 -2.57 -0.57
3.89 -2.61 -0.08
3.79 -2.57 -1.23
55.76 -37.78 1.18
3.79 -2.57 -1.06
3.8 -2.57 -0.89
3.81 -2.58 -0.73
3.8 -2.58 -0.56
3.85 -2.61 -0.08
3.77 -2.57 -1.22
55.84 -38.12 1.18
3.77 -2.57 -1.05
3.78 -2.58 -0.89
3.77 -2.58 -0.72
3.78 -2.58 -0.56
3.84 -2.62 -0.08
3.75 -2.58 -1.22
55.91 -38.45 1.18
3.73 -2.57 -1.05
3.76 -2.58 -0.89
3.74 -2.57 -0.72
3.75 -2.58 -0.56
3.85 -2.65 -0.08
3.73 -2.59 -1.22
56 -38.81 1.19
3.71 -2.57 -1.04
3.72 -2.58 -0.88
3.72 -2.58 -0.72
3.72 -2.58 -0.56
3.71 -2.59 -1.21
56.06 -39.12 1.19
3.69 -2.58 -1.04
3.69 -2.58 -0.87
3.71 -2.59 -0.72
3.69 -2.58 -0.55
3.67 -2.58 -1.2
56.14 -39.47 1.2
3.66 -2.58 -1.03
3.67 -2.58 -0.87
3.68 -2.59 -0.71
3.67 -2.58 -0.55
3.65 -2.58 -1.2
56.21 -39.81 1.2
3.64 -2.57 -1.03
3.65 -2.58 -0.87
3.65 -2.59 -0.71
3.65 -2.58 -0.55
3.62 -2.59 -1.19
3.6 -2.57 -1.02
3.63 -2.59 -0.87
3.63 -2.59 -0.71
3.62 -2.58 -0.55
3.6 -2.59 -1.19
3.67 -2.64 0.08
3.58 -2.57 -1.02
3.61 -2.59 -0.86
3.61 -2.59 -0.7
3.59 -2.58 -0.54
3.58 -2.59 -1.18
3.65 -2.64 0.08
3.55 -2.57 -1.01
3.58 -2.59 -0.86
3.58 -2.59 -0.7
3.56 -2.58 -0.54
3.64 -2.64 -0.39
3.55 -2.59 -1.18
3.62 -2.64 0.08
3.54 -2.58 -1.01
3.56 -2.6 -0.86
3.55 -2.59 -0.7
3.54 -2.58 -0.54
3.6 -2.63 -0.23
3.52 -2.59 -1.17
3.58 -2.63 0.08
3.51 -2.58 -1.01
3.54 -2.6 -0.85
3.52 -2.59 -0.69
3.53 -2.59 -0.54
3.62 -2.66 -0.08
3.5 -2.59 -1.17
3.48 -2.58 -1
3.52 -2.6 -0.85
3.49 -2.59 -0.69
3.5 -2.59 -0.54
3.48 -2.59 -1.16
3.57 -2.66 0.08
3.46 -2.58 -1
3.48 -2.6 -0.84
3.47 -2.59 -0.69
3.47 -2.59 -0.53
3.45 -2.59 -1.16
3.59 -2.7 0.08
3.43 -2.58 -0.99
3.46 -2.6 -0.84
3.46 -2.6 -0.68
3.44 -2.59 -0.53
3.42 -2.59 -1.15
3.42 -2.58 -0.99
3.43 -2.6 -0.84
3.44 -2.6 -0.68
3.42 -2.59 -0.53
3.4 -2.59 -1.15
3.39 -2.58 -0.98
57.24 -43.62 3.77
3.42 -2.6 -0.83
3.41 -2.6 -0.68
3.41 -2.6 -0.53
3.39 -2.6 -1.14
3.35 -2.57 -0.98
57.1 -43.83 3.77
3.4 -2.61 -0.83
3.39 -2.6 -0.68
3.38 -2.6 -0.52
3.36 -2.6 -1.14
3.34 -2.58 -0.97
3.38 -2.61 -0.83
3.37 -2.61 -0.67
3.35 -2.59 -0.52
3.34 -2.6 -1.14
3.32 -2.58 -0.97
3.35 -2.61 -0.83
3.34 -2.6 -0.67
3.33 -2.59 -0.52
3.31 -2.6 -1.13
3.3 -2.59 -0.97
3.44 -2.7 0.23
3.33 -2.61 -0.82
3.32 -2.61 -0.67
3.31 -2.6 -0.52
3.29 -2.6 -1.12
3.28 -2.59 -0.97
3.4 -2.69 0.23
3.31 -2.62 -0.82
3.29 -2.6 -0.66
3.3 -2.61 -0.52
3.27 -2.6 -1.12
3.25 -2.59 -0.96
3.37 -2.68 0.23
3.29 -2.62 -0.82
3.26 -2.6 -0.66
3.27 -2.6 -0.51
3.25 -2.6 -1.11
3.24 -2.59 -0.96
3.34 -2.68 0.22
3.26 -2.62 -0.81
3.24 -2.6 -0.66
3.24 -2.6 -0.51
3.22 -2.6 -1.11
3.22 -2.6 -0.95
3.32 -2.68 0.22
3.23 -2.61 -0.81
3.23 -2.6 -0.66
3.22 -2.6 -0.51
3.19 -2.59 -1.1
3.2 -2.6 -0.95
3.3 -2.68 0.22
3.21 -2.61 -0.8
3.21 -2.61 -0.65
3.21 -2.61 -0.51
3.17 -2.6 -1.1
3.18 -2.6 -0.95
3.28 -2.68 0.22
3.19 -2.61 -0.8
3.18 -2.61 -0.65
3.19 -2.61 -0.51
3.35 -2.74 -0.38
3.16 -2.6 -1.1
3.15 -2.6 -0.94
3.26 -2.69 0.22
3.17 -2.61 -0.8
3.17 -2.61 -0.65
3.16 -2.61 -0.5
3.24 -2.67 -0.37
3.14 -2.61 -1.09
3.13 -2.6 -0.94
3.23 -2.68 0.22
3.15 -2.62 -0.8
3.15 -2.61 -0.65
3.13 -2.6 -0.5
3.19 -2.65 -0.36
3.39 -2.81 -0.23
3.12 -2.61 -1.09
3.11 -2.6 -0.93
3.21 -2.68 0.22
3.12 -2.61 -0.79
3.13 -2.62 -0.65
3.12 -2.61 -0.5
3.16 -2.64 -0.36
3.38 -2.82 -0.23
3.1 -2.61 -1.08
3.09 -2.6 -0.93
3.19 -2.69 0.22
3.11 -2.62 -0.79
3.11 -2.62 -0.64
3.1 -2.61 -0.5
3.1 -2.61 -0.35
3.37 -2.83 -0.23
3.08 -2.61 -1.08
3.07 -2.6 -0.93
3.17 -2.69 0.22
3.09 -2.62 -0.79
3.08 -2.61 -0.64
3.09 -2.62 -0.35
3.36 -2.85 -0.23
3.06 -2.61 -1.08
3.04 -2.6 -0.92
3.15 -2.69 0.22
3.07 -2.63 -0.79
3.07 -2.62 -0.35
3.35 -2.86 -0.23
3.03 -2.61 -1.07
3.04 -2.61 -0.92
3.12 -2.68 0.22
3.05 -2.63 -0.78
3.04 -2.61 -0.63
3.04 -2.61 -0.49
3.04 -2.61 -0.35
3.3 -2.84 -0.23
3.01 -2.61 -1.07
3.02 -2.61 -0.92
3.1 -2.69 0.21
3.03 -2.62 -0.78
3.02 -2.61 -0.63
3.03 -2.62 -0.49
3.03 -2.62 -0.35
3.04 -2.63 -0.21
2.98 -2.6 -1.06
3 -2.61 -0.92
3.08 -2.69 0.21
3.01 -2.62 -0.78
3 -2.62 -0.63
3 -2.62 -0.49
3 -2.62 -0.35
3.04 -2.65 -0.21
2.97 -2.61 -1.06
2.98 -2.62 -0.92
3.07 -2.69 0.21
2.99 -2.63 -0.77
2.98 -2.62 -0.63
2.96 -2.6 -0.48
2.98 -2.62 -0.35
3.02 -2.65 -0.21
3.01 -2.64 -0.07
2.95 -2.61 -1.06
3.02 -2.67 0.07
2.96 -2.62 -0.91
3.04 -2.69 0.21
2.97 -2.62 -0.77
2.96 -2.62 -0.63
2.95 -2.61 -0.48
2.96 -2.62 -0.35
2.97 -2.62 -0.21
2.97 -2.63 -0.07
2.93 -2.62 -1.05
2.99 -2.66 0.07
2.94 -2.62 -0.91
3.02 -2.69 0.21
2.95 -2.63 -0.77
2.94 -2.62 -0.62
2.93 -2.61 -0.48
2.94 -2.62 -0.34
2.95 -2.63 -0.21
2.96 -2.64 -0.07
2.92 -2.62 -1.05
2.97 -2.66 0.07
2.93 -2.63 -0.91
3 -2.69 0.21
2.92 -2.62 -0.76
2.93 -2.63 -0.62
2.91 -2.61 -0.48
2.93 -2.63 -0.34
2.94 -2.64 -0.21
2.95 -2.64 -0.07
2.89 -2.61 -1.04
2.95 -2.66 0.07
2.92 -2.64 -0.91
2.98 -2.7 0.21
2.9 -2.62 -0.76
2.91 -2.63 -0.62
2.91 -2.63 -0.48
2.89 -2.61 -0.34
2.93 -2.65 -0.21
2.92 -2.64 -0.07
2.87 -2.61 -1.04
2.92 -2.66 0.07
2.89 -2.63 -0.9
2.97 -2.7 0.21
2.89 -2.63 -0.76
2.88 -2.62 -0.62
2.9 -2.64 -0.48
2.87 -2.61 -0.34
2.91 -2.64 -0.21
2.92 -2.65 -0.07
2.86 -2.62 -1.04
2.91 -2.66 0.07
2.87 -2.62 -0.9
2.95 -2.7 0.21
2.87 -2.63 -0.76
2.87 -2.63 -0.62
2.87 -2.63 -0.48
2.86 -2.62 -0.34
2.87 -2.63 -0.2
2.9 -2.65 -0.07
2.85 -2.63 -1.04
2.89 -2.66 0.07
2.84 -2.62 -0.89
2.93 -2.7 0.21
2.85 -2.63 -0.75
2.85 -2.63 -0.61
2.84 -2.62 -0.47
2.85 -2.63 -0.34
2.85 -2.63 -0.2
2.87 -2.65 -0.07
2.83 -2.63 -1.04
2.87 -2.66 0.07
2.82 -2.62 -0.89
2.9 -2.7 0.21
2.83 -2.63 -0.75
2.83 -2.63 -0.61
2.82 -2.62 -0.47
2.83 -2.63 -0.34
2.85 -2.65 -0.2
2.85 -2.64 -0.07
2.8 -2.62 -1.03
2.85 -2.66 0.07
2.81 -2.63 -0.89
2.9 -2.71 0.21
2.81 -2.63 -0.75
2.81 -2.63 -0.61
2.8 -2.62 -0.47
2.81 -2.63 -0.34
2.82 -2.64 -0.2
2.83 -2.65 -0.07
2.78 -2.62 -1.02
2.82 -2.66 0.07
2.79 -2.63 -0.89
2.87 -2.71 0.21
2.8 -2.64 -0.75
2.78 -2.62 -0.61
2.79 -2.63 -0.47
2.8 -2.64 -0.34
2.8 -2.64 -0.2
2.82 -2.66 -0.07
2.77 -2.63 -1.02
2.81 -2.67 0.07
2.76 -2.62 -0.88
2.86 -2.71 0.21
2.78 -2.64 -0.74
2.77 -2.63 -0.6
2.77 -2.63 -0.47
2.78 -2.64 -0.34
2.78 -2.64 -0.2
2.81 -2.67 -0.07
2.75 -2.63 -1.02
2.81 -2.68 0.07
2.75 -2.63 -0.88
2.83 -2.71 0.21
2.76 -2.64 -0.74
2.75 -2.63 -0.6
2.75 -2.63 -0.47
2.77 -2.65 -0.34
2.76 -2.64 -0.2
2.79 -2.67 -0.07
2.73 -2.62 -1.01
2.8 -2.69 0.07
2.74 -2.63 -0.88
2.82 -2.71 0.21
2.73 -2.63 -0.74
2.73 -2.63 -0.6
2.74 -2.63 -0.47
2.75 -2.64 -0.33
2.75 -2.65 -0.2
2.77 -2.67 -0.07
2.71 -2.62 -1.01
2.77 -2.68 0.07
2.72 -2.64 -0.88
2.8 -2.71 0.2
2.72 -2.63 -0.74
2.71 -2.63 -0.6
2.72 -2.64 -0.47
2.72 -2.64 -0.33
2.74 -2.65 -0.2
2.75 -2.67 -0.07
2.68 -2.62 -1
2.74 -2.68 0.07
2.71 -2.64 -0.87
2.78 -2.72 0.2
2.7 -2.64 -0.73
2.69 -2.62 -0.59
2.71 -2.64 -0.46
2.71 -2.64 -0.33
2.72 -2.65 -0.2
2.74 -2.67 -0.07
2.67 -2.62 -1
2.73 -2.68 0.07
2.68 -2.64 -0.87
2.76 -2.71 0.2
2.68 -2.64 -0.73
2.67 -2.62 -0.59
2.69 -2.65 -0.46
2.69 -2.64 -0.33
2.69 -2.64 -0.2
2.72 -2.67 -0.07
2.65 -2.62 -1
2.71 -2.68 0.07
2.67 -2.64 -0.87
2.74 -2.71 0.2
2.66 -2.64 -0.73
2.66 -2.63 -0.59
2.68 -2.65 -0.46
2.68 -2.65 -0.33
2.67 -2.64 -0.2
2.71 -2.68 -0.07
2.63 -2.62 -1
2.7 -2.69 0.07
2.66 -2.65 -0.87
2.72 -2.71 0.2
2.64 -2.63 -0.73
2.64 -2.64 -0.59
2.66 -2.65 -0.46
2.66 -2.65 -0.33
2.66 -2.65 -0.2
2.68 -2.67 -0.07
2.61 -2.62 -0.99
2.68 -2.69 0.07
2.64 -2.65 -0.86
2.71 -2.72 0.2
2.62 -2.63 -0.72
2.63 -2.64 -0.59
2.64 -2.65 -0.46
2.63 -2.64 -0.33
2.65 -2.66 -0.2
2.66 -2.67 -0.07
2.6 -2.63 -0.99
2.65 -2.68 0.07
2.62 -2.65 -0.86
2.69 -2.72 0.2
2.61 -2.63 -0.72
2.61 -2.64 -0.59
2.63 -2.66 -0.46
2.61 -2.64 -0.33
2.62 -2.65 -0.2
2.65 -2.68 -0.07
2.58 -2.63 -0.99
2.64 -2.69 0.07
2.6 -2.65 -0.86
2.67 -2.72 0.2
2.6 -2.64 -0.72
2.59 -2.64 -0.59
2.62 -2.66 -0.46
2.6 -2.64 -0.32
2.6 -2.65 -0.19
2.63 -2.68 -0.07
2.57 -2.63 -0.99
2.62 -2.69 0.07
2.59 -2.65 -0.85
2.65 -2.71 0.2
2.58 -2.64 -0.72
2.58 -2.64 -0.58
2.58 -2.64 -0.45
2.59 -2.65 -0.32
2.59 -2.65 -0.19
2.61 -2.68 -0.07
2.56 -2.64 -0.98
2.61 -2.69 0.07
2.57 -2.65 -0.85
2.63 -2.72 0.2
2.56 -2.64 -0.72
2.57 -2.65 -0.58
2.57 -2.65 -0.45
2.57 -2.65 -0.32
2.57 -2.65 -0.19
2.59 -2.67 -0.06
2.53 -2.63 -0.98
2.59 -2.69 0.07
2.55 -2.65 -0.85
2.62 -2.72 0.2
2.55 -2.65 -0.71
2.55 -2.65 -0.58
2.55 -2.65 -0.45
2.55 -2.65 -0.32
2.56 -2.66 -0.19
2.57 -2.67 -0.06
2.51 -2.63 -0.98
2.57 -2.68 0.06
2.54 -2.65 -0.85
2.6 -2.72 0.2
2.53 -2.65 -0.71
2.52 -2.64 -0.58
2.54 -2.66 -0.45
2.53 -2.65 -0.32
2.54 -2.66 -0.19
2.56 -2.67 -0.06
2.5 -2.64 -0.97
2.55 -2.69 0.06
2.51 -2.65 -0.84
2.58 -2.72 0.2
2.52 -2.65 -0.71
2.51 -2.64 -0.58
2.52 -2.65 -0.45
2.52 -2.65 -0.32
2.52 -2.65 -0.19
2.54 -2.68 -0.06
2.49 -2.64 -0.97
2.53 -2.69 0.06
2.49 -2.65 -0.84
2.56 -2.72 0.2
2.5 -2.65 -0.71
2.49 -2.64 -0.58
2.49 -2.64 -0.45
2.51 -2.66 -0.32
2.5 -2.65 -0.19
2.52 -2.68 -0.06
2.47 -2.64 -0.97
2.52 -2.69 0.06
2.48 -2.65 -0.84
2.54 -2.72 0.2
2.48 -2.64 -0.7
2.48 -2.65 -0.57
2.48 -2.65 -0.45
2.49 -2.66 -0.32
2.49 -2.66 -0.19
2.5 -2.67 -0.06
2.45 -2.63 -0.96
2.5 -2.69 0.06
2.47 -2.66 -0.84
2.53 -2.72 0.19
2.46 -2.65 -0.7
2.46 -2.65 -0.57
2.47 -2.66 -0.45
2.47 -2.65 -0.32
2.47 -2.66 -0.19
2.49 -2.67 -0.06
2.43 -2.63 -0.96
2.48 -2.68 0.06
2.45 -2.65 -0.83
2.52 -2.73 0.19
2.45 -2.65 -0.7
2.44 -2.64 -0.57
2.46 -2.66 -0.44
2.46 -2.66 -0.32
2.46 -2.67 -0.19
2.47 -2.68 -0.06
2.42 -2.64 -0.96
2.46 -2.69 0.06
2.43 -2.65 -0.83
2.5 -2.73 0.19
2.43 -2.65 -0.7
2.42 -2.64 -0.57
2.44 -2.66 -0.44
2.44 -2.66 -0.32
2.44 -2.66 -0.19
2.46 -2.69 -0.06
2.4 -2.64 -0.96
2.45 -2.69 0.06
2.42 -2.66 -0.83
2.47 -2.72 0.19
2.42 -2.65 -0.7
2.4 -2.64 -0.57
2.42 -2.66 -0.44
2.43 -2.67 -0.32
2.42 -2.66 -0.19
2.45 -2.69 -0.06
2.39 -2.64 -0.95
2.44 -2.7 0.06
2.4 -2.66 -0.83
2.45 -2.72 0.19
2.39 -2.64 -0.69
2.39 -2.64 -0.56
2.4 -2.66 -0.44
2.41 -2.67 -0.31
2.41 -2.66 -0.19
2.43 -2.69 -0.06
2.36 -2.63 -0.95
2.42 -2.7 0.06
2.39 -2.66 -0.83
2.44 -2.72 0.19
2.37 -2.65 -0.69
2.38 -2.65 -0.56
2.39 -2.67 -0.44
2.39 -2.66 -0.31
2.39 -2.66 -0.19
2.41 -2.69 -0.06
2.35 -2.63 -0.95
2.4 -2.7 0.06
2.37 -2.66 -0.82
2.43 -2.72 0.19
2.36 -2.65 -0.69
2.36 -2.65 -0.56
2.38 -2.67 -0.44
2.37 -2.66 -0.31
2.38 -2.67 -0.19
2.4 -2.69 -0.06
2.34 -2.64 -0.94
2.39 -2.7 0.06
2.35 -2.66 -0.82
2.41 -2.72 0.19
2.35 -2.65 -0.69
2.35 -2.66 -0.56
2.37 -2.67 -0.44
2.36 -2.66 -0.31
2.36 -2.66 -0.19
2.39 -2.7 -0.06
2.32 -2.65 -0.94
2.37 -2.7 0.06
2.34 -2.66 -0.82
2.39 -2.72 0.19
2.33 -2.65 -0.69
2.34 -2.66 -0.56
2.34 -2.67 -0.44
2.35 -2.67 -0.31
2.34 -2.66 -0.19
2.37 -2.7 -0.06
2.31 -2.65 -0.94
2.36 -2.7 0.06
2.32 -2.66 -0.82
2.38 -2.72 0.19
2.31 -2.64 -0.68
2.32 -2.66 -0.56
2.33 -2.67 -0.44
2.33 -2.67 -0.31
2.33 -2.67 -0.19
2.35 -2.69 -0.06
2.29 -2.65 -0.94
2.35 -2.71 0.06
2.31 -2.67 -0.81
2.36 -2.72 0.19
2.29 -2.65 -0.68
2.31 -2.67 -0.56
2.31 -2.67 -0.43
2.31 -2.66 -0.31
2.31 -2.67 -0.19
2.33 -2.69 -0.06
2.28 -2.65 -0.94
2.32 -2.7 0.06
2.29 -2.66 -0.81
2.35 -2.73 0.19
2.28 -2.65 -0.68
2.29 -2.66 -0.56
2.3 -2.67 -0.43
2.29 -2.66 -0.31
2.3 -2.67 -0.18
2.32 -2.7 -0.06
2.27 -2.65 -0.93
2.31 -2.7 0.06
2.27 -2.66 -0.81
2.33 -2.73 0.19
2.27 -2.66 -0.68
2.28 -2.67 -0.56
2.28 -2.67 -0.43
2.28 -2.66 -0.31
2.28 -2.66 -0.18
2.31 -2.7 -0.06
2.26 -2.66 -0.93
2.3 -2.71 0.06
2.25 -2.66 -0.8
2.31 -2.72 0.19
2.26 -2.66 -0.68
2.27 -2.67 -0.56
2.26 -2.66 -0.43
2.26 -2.67 -0.31
2.26 -2.66 -0.18
2.29 -2.7 -0.06
2.24 -2.66 -0.93
2.28 -2.71 0.06
2.24 -2.66 -0.8
2.3 -2.73 0.19
2.24 -2.65 -0.67
2.25 -2.68 -0.55
2.24 -2.66 -0.43
2.25 -2.67 -0.31
2.25 -2.67 -0.18
2.26 -2.69 -0.06
2.22 -2.65 -0.93
2.26 -2.71 0.06
2.23 -2.67 -0.8
2.28 -2.73 0.19
2.22 -2.66 -0.67
2.24 -2.68 -0.55
2.23 -2.67 -0.43
2.23 -2.66 -0.3
2.24 -2.67 -0.18
2.25 -2.69 -0.06
2.2 -2.65 -0.92
2.24 -2.7 0.06
2.21 -2.67 -0.8
2.27 -2.73 0.19
2.21 -2.66 -0.67
2.22 -2.67 -0.55
2.22 -2.67 -0.43
2.22 -2.67 -0.3
2.22 -2.67 -0.18
2.24 -2.69 -0.06
2.19 -2.66 -0.92
2.23 -2.7 0.06
2.19 -2.66 -0.79
2.25 -2.73 0.19
2.2 -2.67 -0.67
2.2 -2.67 -0.55
2.2 -2.67 -0.43
2.2 -2.67 -0.3
2.2 -2.67 -0.18
2.23 -2.7 -0.06
2.18 -2.67 -0.92
2.21 -2.7 0.06
2.18 -2.66 -0.79
2.23 -2.73 0.18
2.18 -2.67 -0.67
2.19 -2.68 -0.55
2.18 -2.66 -0.42
2.19 -2.68 -0.3
2.19 -2.67 -0.18
2.21 -2.7 -0.06
2.16 -2.66 -0.92
2.21 -2.71 0.06
2.17 -2.66 -0.79
2.21 -2.72 0.18
2.16 -2.66 -0.67
2.18 -2.68 -0.55
2.17 -2.67 -0.42
2.18 -2.68 -0.3
2.17 -2.67 -0.18
2.18 -2.69 -0.06
2.15 -2.66 -0.92
2.18 -2.71 0.06
2.15 -2.67 -0.79
2.2 -2.73 0.18
2.15 -2.66 -0.66
2.16 -2.68 -0.55
2.16 -2.67 -0.42
2.16 -2.67 -0.3
2.16 -2.68 -0.18
2.17 -2.69 -0.06
2.13 -2.66 -0.91
2.16 -2.7 0.06
2.14 -2.67 -0.79
2.19 -2.73 0.18
2.14 -2.67 -0.66
2.14 -2.67 -0.54
2.15 -2.68 -0.42
2.14 -2.67 -0.3
2.15 -2.68 -0.18
2.16 -2.69 -0.06
2.12 -2.66 -0.91
2.15 -2.7 0.06
2.12 -2.66 -0.79
2.17 -2.73 0.18
2.12 -2.67 -0.66
2.12 -2.67 -0.54
2.13 -2.67 -0.42
2.13 -2.68 -0.3
2.13 -2.67 -0.18
2.15 -2.7 -0.06
2.11 -2.66 -0.91
2.14 -2.71 0.06
2.11 -2.67 -0.79
2.15 -2.72 0.18
2.11 -2.67 -0.66
2.11 -2.67 -0.54
2.11 -2.67 -0.42
2.12 -2.69 -0.3
2.11 -2.67 -0.18
2.14 -2.7 -0.06
2.09 -2.67 -0.91
2.13 -2.71 0.06
2.1 -2.67 -0.78
2.14 -2.72 0.18
2.09 -2.66 -0.66
2.1 -2.68 -0.54
2.1 -2.67 -0.42
2.11 -2.68 -0.3
2.1 -2.68 -0.18
2.12 -2.7 -0.06
2.07 -2.66 -0.9
2.11 -2.71 0.06
2.08 -2.67 -0.78
2.13 -2.73 0.18
2.07 -2.66 -0.65
2.08 -2.67 -0.54
2.09 -2.68 -0.42
2.09 -2.68 -0.3
2.1 -2.69 -0.18
2.11 -2.71 -0.06
2.06 -2.66 -0.9
2.1 -2.71 0.06
2.07 -2.67 -0.78
2.11 -2.73 0.18
2.06 -2.66 -0.65
2.06 -2.67 -0.53
2.08 -2.68 -0.42
2.07 -2.68 -0.3
2.08 -2.68 -0.18
2.1 -2.71 -0.06
2.05 -2.66 -0.9
2.08 -2.71 0.06
2.05 -2.67 -0.78
2.1 -2.74 0.18
2.05 -2.66 -0.65
2.05 -2.67 -0.53
2.06 -2.69 -0.42
2.06 -2.68 -0.3
2.06 -2.68 -0.18
2.08 -2.71 -0.06
2.03 -2.67 -0.9
2.07 -2.71 0.06
2.04 -2.67 -0.78
2.08 -2.73 0.18
2.03 -2.66 -0.65
2.04 -2.67 -0.53
2.05 -2.68 -0.41
2.05 -2.69 -0.3
2.04 -2.67 -0.18
2.07 -2.71 -0.06
2.02 -2.67 -0.9
2.06 -2.72 0.06
2.02 -2.67 -0.77
2.07 -2.73 0.18
2.01 -2.66 -0.65
2.03 -2.68 -0.53
2.03 -2.69 -0.41
2.03 -2.69 -0.29
2.03 -2.68 -0.18
2.05 -2.7 -0.06
2 -2.66 -0.89
2.04 -2.72 0.06
2.01 -2.68 -0.77
2.06 -2.74 0.18
2 -2.66 -0.65
2.01 -2.68 -0.53
2.02 -2.68 -0.41
2.01 -2.68 -0.29
2.02 -2.69 -0.18
2.03 -2.7 -0.06
1.99 -2.67 -0.89
2.02 -2.71 0.06
2 -2.68 -0.77
2.04 -2.74 0.18
1.98 -2.66 -0.65
2 -2.68 -0.53
2.01 -2.69 -0.41
2 -2.68 -0.29
2.01 -2.69 -0.18
2.02 -2.71 -0.06
1.98 -2.67 -0.89
2.01 -2.72 0.06
1.98 -2.67 -0.77
2.03 -2.74 0.18
1.97 -2.66 -0.64
1.98 -2.68 -0.53
1.99 -2.69 -0.41
1.99 -2.69 -0.29
1.98 -2.68 -0.17
2.01 -2.71 -0.06
1.97 -2.68 -0.89
2 -2.72 0.06
1.96 -2.67 -0.76
2.01 -2.74 0.18
1.96 -2.67 -0.64
1.97 -2.68 -0.53
1.98 -2.69 -0.41
1.98 -2.69 -0.29
1.97 -2.69 -0.17
2 -2.71 -0.06
1.95 -2.68 -0.89
1.99 -2.73 0.06
1.95 -2.67 -0.76
2 -2.74 0.18
1.94 -2.66 -0.64
1.96 -2.69 -0.53
1.96 -2.69 -0.41
1.96 -2.68 -0.29
1.96 -2.69 -0.17
1.98 -2.71 -0.06
1.94 -2.67 -0.88
1.97 -2.72 0.06
1.94 -2.68 -0.76
1.98 -2.74 0.18
1.93 -2.67 -0.64
1.94 -2.68 -0.52
1.95 -2.69 -0.41
1.94 -2.68 -0.29
1.95 -2.69 -0.17
1.96 -2.71 -0.06
1.92 -2.68 -0.88
1.95 -2.72 0.06
1.93 -2.68 -0.76
1.97 -2.75 0.18
1.92 -2.67 -0.64
1.93 -2.68 -0.52
1.94 -2.69 -0.41
1.93 -2.68 -0.29
1.94 -2.7 -0.17
1.95 -2.71 -0.06
1.91 -2.68 -0.88
1.94 -2.72 0.06
1.9 -2.67 -0.76
1.96 -2.74 0.18
1.91 -2.68 -0.64
1.92 -2.69 -0.52
1.92 -2.69 -0.41
1.92 -2.69 -0.29
1.92 -2.69 -0.17
1.94 -2.72 -0.06
1.91 -2.69 -0.88
1.93 -2.72 0.06
1.89 -2.67 -0.76
1.94 -2.74 0.18
1.9 -2.68 -0.64
1.91 -2.69 -0.52
1.9 -2.68 -0.4
1.9 -2.69 -0.29
1.9 -2.68 -0.17
1.93 -2.72 -0.06
1.89 -2.69 -0.88
1.92 -2.73 0.06
1.88 -2.67 -0.75
1.93 -2.74 0.18
1.88 -2.68 -0.64
1.9 -2.7 -0.52
1.89 -2.68 -0.4
1.89 -2.69 -0.29
1.89 -2.69 -0.17
1.91 -2.71 -0.06
1.87 -2.68 -0.88
1.91 -2.73 0.06
1.87 -2.68 -0.75
1.92 -2.74 0.18
1.87 -2.68 -0.63
1.88 -2.7 -0.52
1.87 -2.68 -0.4
1.88 -2.69 -0.29
1.88 -2.69 -0.17
1.89 -2.71 -0.06
1.86 -2.68 -0.87
1.88 -2.71 0.06
1.85 -2.67 -0.75
1.91 -2.75 0.18
1.86 -2.68 -0.63
1.86 -2.69 -0.52
1.86 -2.69 -0.4
1.86 -2.69 -0.29
1.87 -2.7 -0.17
1.88 -2.72 -0.06
1.85 -2.69 -0.87
1.87 -2.72 0.06
1.84 -2.67 -0.75
1.89 -2.75 0.17
1.85 -2.68 -0.63
1.85 -2.69 -0.52
1.85 -2.69 -0.4
1.85 -2.7 -0.29
1.85 -2.68 -0.17
1.87 -2.72 -0.06
1.84 -2.69 -0.87
1.86 -2.72 0.06
1.82 -2.67 -0.75
1.87 -2.74 0.17
1.83 -2.69 -0.63
1.84 -2.7 -0.52
1.83 -2.68 -0.4
1.84 -2.7 -0.29
1.84 -2.69 -0.17
1.86 -2.72 -0.06
1.83 -2.69 -0.87
1.85 -2.72 0.06
1.81 -2.67 -0.75
1.86 -2.74 0.17
1.81 -2.68 -0.63
1.83 -2.7 -0.52
1.82 -2.69 -0.4
1.83 -2.7 -0.28
1.83 -2.7 -0.17
1.84 -2.72 -0.06
1.8 -2.68 -0.87
1.83 -2.72 0.06
1.8 -2.68 -0.75
1.84 -2.74 0.17
1.8 -2.68 -0.63
1.82 -2.7 -0.52
1.81 -2.69 -0.4
1.81 -2.69 -0.28
1.81 -2.7 -0.17
1.83 -2.72 -0.06
1.79 -2.69 -0.87
1.81 -2.72 0.06
1.79 -2.68 -0.74
1.83 -2.74 0.17
1.79 -2.68 -0.63
1.8 -2.69 -0.51
1.8 -2.69 -0.4
1.8 -2.69 -0.28
1.8 -2.7 -0.17
1.82 -2.72 -0.06
1.78 -2.69 -0.86
1.8 -2.72 0.06
1.77 -2.68 -0.74
1.82 -2.74 0.17
1.78 -2.69 -0.63
1.78 -2.69 -0.51
1.78 -2.69 -0.4
1.79 -2.7 -0.28
1.78 -2.69 -0.17
1.81 -2.73 -0.06
1.77 -2.69 -0.86
1.79 -2.72 0.06
1.76 -2.68 -0.74
1.8 -2.73 0.17
1.77 -2.69 -0.63
1.77 -2.69 -0.51
1.77 -2.69 -0.4
1.78 -2.71 -0.28
1.77 -2.69 -0.17
1.79 -2.72 -0.06
1.76 -2.69 -0.86
1.78 -2.73 0.06
1.75 -2.68 -0.74
1.78 -2.73 0.17
1.75 -2.68 -0.62
1.76 -2.69 -0.51
1.76 -2.69 -0.39
1.76 -2.7 -0.28
1.76 -2.7 -0.17
1.77 -2.72 -0.06
1.74 -2.69 -0.86
1.77 -2.73 0.06
1.74 -2.69 -0.74
1.77 -2.74 0.17
1.73 -2.67 -0.62
1.75 -2.7 -0.51
1.75 -2.7 -0.39
1.75 -2.69 -0.28
1.75 -2.7 -0.17
1.76 -2.72 -0.06
1.73 -2.69 -0.86
1.75 -2.72 0.06
1.73 -2.69 -0.74
1.77 -2.75 0.17
1.72 -2.67 -0.62
1.73 -2.69 -0.51
1.74 -2.7 -0.39
1.74 -2.71 -0.28
1.74 -2.71 -0.17
1.75 -2.73 -0.06
1.72 -2.69 -0.85
1.74 -2.72 0.06
1.71 -2.68 -0.73
1.75 -2.75 0.17
1.71 -2.68 -0.62
1.71 -2.68 -0.5
1.73 -2.7 -0.39
1.72 -2.7 -0.28
1.72 -2.7 -0.17
1.74 -2.73 -0.06
1.71 -2.69 -0.85
1.73 -2.73 0.06
1.7 -2.68 -0.73
1.74 -2.74 0.17
1.7 -2.68 -0.62
1.7 -2.69 -0.5
1.71 -2.7 -0.39
1.71 -2.71 -0.28
1.71 -2.7 -0.17
1.73 -2.73 -0.06
1.69 -2.7 -0.85
1.72 -2.73 0.06
1.69 -2.69 -0.73
1.72 -2.74 0.17
1.68 -2.67 -0.61
1.69 -2.69 -0.5
1.7 -2.7 -0.39
1.7 -2.7 -0.28
1.7 -2.7 -0.17
1.71 -2.72 -0.06
1.68 -2.69 -0.85
1.7 -2.73 0.06
1.68 -2.69 -0.73
1.71 -2.75 0.17
1.67 -2.67 -0.61
1.68 -2.69 -0.5
1.69 -2.71 -0.39
1.68 -2.7 -0.28
1.69 -2.71 -0.17
1.7 -2.73 -0.06
1.66 -2.69 -0.85
1.69 -2.73 0.06
1.66 -2.69 -0.73
1.7 -2.75 0.17
1.66 -2.68 -0.61
1.66 -2.69 -0.5
1.68 -2.71 -0.39
1.67 -2.69 -0.28
1.67 -2.7 -0.17
1.69 -2.73 -0.06
1.65 -2.69 -0.85
1.68 -2.73 0.06
1.65 -2.69 -0.73
1.69 -2.76 0.17
1.64 -2.68 -0.61
1.65 -2.69 -0.5
1.67 -2.72 -0.39
1.66 -2.71 -0.28
1.66 -2.71 -0.17
1.68 -2.74 -0.06
1.64 -2.69 -0.84
1.67 -2.74 0.06
1.64 -2.69 -0.73
1.68 -2.75 0.17
1.63 -2.68 -0.61
1.64 -2.69 -0.5
1.65 -2.71 -0.39
1.65 -2.71 -0.28
1.65 -2.71 -0.17
1.67 -2.74 -0.06
1.63 -2.7 -0.85
1.66 -2.74 0.06
1.63 -2.7 -0.73
1.67 -2.76 0.17
1.62 -2.68 -0.61
1.63 -2.7 -0.5
1.64 -2.71 -0.39
1.64 -2.71 -0.28
1.64 -2.71 -0.17
1.65 -2.73 -0.06
1.62 -2.7 -0.84
1.64 -2.74 0.06
1.62 -2.7 -0.73
1.65 -2.76 0.17
1.61 -2.68 -0.61
1.62 -2.7 -0.5
1.63 -2.71 -0.39
1.62 -2.69 -0.27
1.63 -2.72 -0.17
1.64 -2.73 -0.06
1.6 -2.69 -0.84
1.63 -2.73 0.06
1.6 -2.7 -0.72
1.64 -2.76 0.17
1.6 -2.68 -0.61
1.6 -2.69 -0.5
1.62 -2.72 -0.39
1.6 -2.7 -0.27
1.62 -2.72 -0.17
1.63 -2.74 -0.06
1.59 -2.7 -0.84
1.62 -2.74 0.06
1.59 -2.69 -0.72
1.63 -2.76 0.17
1.59 -2.69 -0.61
1.59 -2.69 -0.5
1.6 -2.72 -0.39
1.6 -2.7 -0.27
1.6 -2.7 -0.16
1.62 -2.74 -0.06
1.58 -2.71 -0.84
1.61 -2.74 0.06
1.58 -2.69 -0.72
1.61 -2.76 0.17
1.58 -2.69 -0.61
1.58 -2.7 -0.49
1.59 -2.71 -0.39
1.58 -2.71 -0.27
1.59 -2.71 -0.16
1.6 -2.74 -0.06
1.57 -2.71 -0.84
1.59 -2.75 0.06
1.56 -2.69 -0.72
1.6 -2.76 0.17
1.56 -2.68 -0.6
1.57 -2.71 -0.5
1.57 -2.71 -0.38
1.57 -2.7 -0.27
1.57 -2.71 -0.16
1.58 -2.73 -0.06
1.55 -2.7 -0.83
1.58 -2.75 0.06
1.55 -2.7 -0.72
1.59 -2.77 0.17
1.54 -2.68 -0.6
1.56 -2.71 -0.49
1.56 -2.71 -0.38
1.55 -2.7 -0.27
1.56 -2.72 -0.16
1.57 -2.73 -0.06
1.54 -2.7 -0.83
1.57 -2.74 0.06
1.54 -2.7 -0.72
1.58 -2.76 0.17
1.54 -2.69 -0.6
1.55 -2.71 -0.49
1.55 -2.72 -0.38
1.54 -2.7 -0.27
1.55 -2.71 -0.16
1.56 -2.73 -0.05
1.53 -2.7 -0.83
1.55 -2.74 0.06
1.52 -2.69 -0.71
1.57 -2.77 0.17
1.53 -2.69 -0.6
1.53 -2.71 -0.49
1.54 -2.72 -0.38
1.53 -2.7 -0.27
1.54 -2.71 -0.16
1.55 -2.74 -0.06
1.52 -2.7 -0.83
1.54 -2.75 0.05
1.51 -2.69 -0.71
1.55 -2.75 0.17
1.52 -2.7 -0.6
1.53 -2.71 -0.49
1.52 -2.71 -0.38
1.52 -2.71 -0.27
1.52 -2.71 -0.16
1.54 -2.74 -0.05
1.51 -2.71 -0.83
1.53 -2.75 0.06
1.5 -2.69 -0.71
1.54 -2.76 0.17
1.5 -2.69 -0.6
1.52 -2.72 -0.49
1.51 -2.71 -0.38
1.51 -2.71 -0.27
1.51 -2.71 -0.16
1.52 -2.73 -0.05
1.49 -2.7 -0.83
1.52 -2.75 0.05
1.49 -2.69 -0.71
1.53 -2.76 0.17
1.49 -2.69 -0.6
1.5 -2.72 -0.49
1.5 -2.72 -0.38
1.49 -2.7 -0.27
1.5 -2.72 -0.16
1.51 -2.73 -0.05
1.48 -2.7 -0.83
1.5 -2.74 0.05
1.48 -2.69 -0.71
1.52 -2.76 0.17
1.48 -2.7 -0.6
1.49 -2.71 -0.49
1.49 -2.72 -0.38
1.48 -2.71 -0.27
1.49 -2.72 -0.16
1.5 -2.74 -0.05
1.47 -2.71 -0.83
1.49 -2.74 0.05
1.46 -2.68 -0.7
1.5 -2.76 0.16
1.47 -2.7 -0.6
1.48 -2.72 -0.49
1.48 -2.72 -0.38
1.47 -2.7 -0.27
1.48 -2.72 -0.16
1.49 -2.74 -0.05
1.46 -2.71 -0.82
1.48 -2.75 0.05
1.45 -2.69 -0.7
1.49 -2.76 0.16
1.46 -2.7 -0.6
1.47 -2.72 -0.49
1.46 -2.7 -0.38
1.46 -2.71 -0.27
1.47 -2.72 -0.16
1.48 -2.74 -0.05
1.45 -2.71 -0.82
1.47 -2.75 0.05
1.44 -2.69 -0.7
1.48 -2.76 0.16
1.44 -2.69 -0.59
1.46 -2.73 -0.49
1.45 -2.71 -0.38
1.45 -2.71 -0.27
1.46 -2.72 -0.16
1.46 -2.73 -0.05
1.43 -2.7 -0.82
1.46 -2.75 0.05
1.43 -2.69 -0.7
1.46 -2.76 0.16
1.43 -2.69 -0.59
1.44 -2.72 -0.49
1.44 -2.71 -0.38
1.44 -2.71 -0.27
1.45 -2.73 -0.16
1.45 -2.73 -0.05
1.42 -2.7 -0.82
1.44 -2.74 0.05
1.42 -2.7 -0.7
1.45 -2.76 0.16
1.42 -2.7 -0.59
1.43 -2.72 -0.49
1.43 -2.72 -0.38
1.42 -2.71 -0.27
1.43 -2.73 -0.16
1.44 -2.74 -0.05
1.41 -2.7 -0.82
1.43 -2.74 0.05
1.4 -2.69 -0.7
1.44 -2.77 0.16
1.41 -2.7 -0.59
1.42 -2.72 -0.49
1.42 -2.72 -0.38
1.42 -2.72 -0.27
1.41 -2.71 -0.16
1.43 -2.75 -0.05
1.4 -2.71 -0.82
1.42 -2.75 0.05
1.39 -2.69 -0.7
1.43 -2.76 0.16
1.4 -2.71 -0.59
1.41 -2.73 -0.49
1.4 -2.71 -0.37
1.41 -2.72 -0.27
1.41 -2.72 -0.16
1.42 -2.74 -0.05
1.39 -2.71 -0.82
1.41 -2.75 0.05
1.38 -2.69 -0.7
1.41 -2.76 0.16
1.38 -2.7 -0.59
1.4 -2.73 -0.49
1.39 -2.71 -0.37
1.39 -2.72 -0.27
1.4 -2.72 -0.16
1.4 -2.74 -0.05
1.37 -2.7 -0.81
1.4 -2.75 0.05
1.37 -2.7 -0.7
1.4 -2.76 0.16
1.37 -2.69 -0.59
1.38 -2.72 -0.48
1.38 -2.72 -0.37
1.38 -2.71 -0.27
1.39 -2.73 -0.16
1.39 -2.74 -0.05
1.36 -2.7 -0.81
1.38 -2.74 0.05
1.36 -2.7 -0.7
1.39 -2.77 0.16
1.36 -2.7 -0.59
1.37 -2.71 -0.48
1.37 -2.72 -0.37
1.37 -2.72 -0.27
1.37 -2.72 -0.16
1.38 -2.75 -0.05
1.35 -2.7 -0.81
1.37 -2.74 0.05
1.35 -2.7 -0.7
1.38 -2.77 0.16
1.35 -2.71 -0.59
1.35 -2.71 -0.48
1.36 -2.72 -0.37
1.36 -2.73 -0.27
18.11 -36.28 7.88
1.36 -2.72 -0.16
17.45 -34.95 9.02
1.37 -2.75 -0.05
1.34 -2.71 -0.81
1.36 -2.75 0.05
1.33 -2.69 -0.69
1.37 -2.76 0.16
1.34 -2.7 -0.59
1.35 -2.72 -0.48
1.34 -2.71 -0.37
23.5 -47.45 8.39
1.35 -2.73 -0.27
18 -36.33 7.88
1.35 -2.72 -0.16
1.36 -2.75 -0.05
1.33 -2.71 -0.81
1.35 -2.75 0.05
1.33 -2.7 -0.69
1.36 -2.76 0.16
1.32 -2.7 -0.58
1.33 -2.72 -0.48
1.33 -2.72 -0.37
1.34 -2.73 -0.27
17.86 -36.37 7.88
1.34 -2.72 -0.16
1.34 -2.74 -0.05
1.31 -2.7 -0.8
1.34 -2.75 0.05
1.32 -2.71 -0.69
1.34 -2.76 0.16
1.31 -2.7 -0.58
1.32 -2.72 -0.48
1.32 -2.72 -0.37
20.7 -42.58 7.5
1.32 -2.72 -0.26
17.7 -36.39 7.87
1.33 -2.73 -0.16
1.33 -2.74 -0.05
1.3 -2.7 -0.8
1.32 -2.74 0.05
1.3 -2.7 -0.69
1.33 -2.77 0.16
1.3 -2.7 -0.58
1.31 -2.71 -0.48
20.68 -42.91 5.85
1.31 -2.73 -0.37
20.99 -43.56 7.66
1.31 -2.72 -0.26
1.32 -2.73 -0.16
1.32 -2.75 -0.05
1.29 -2.71 -0.8
1.31 -2.75 0.05
1.29 -2.7 -0.69
1.32 -2.77 0.16
1.3 -2.71 -0.58
1.3 -2.71 -0.48
1.3 -2.73 -0.37
1.3 -2.73 -0.26
1.3 -2.72 -0.16
1.31 -2.75 -0.05
1.28 -2.71 -0.8
1.3 -2.75 0.05
1.28 -2.7 -0.69
1.31 -2.76 0.16
1.28 -2.71 -0.58
1.29 -2.72 -0.48
1.29 -2.72 -0.37
1.29 -2.73 -0.26
1.29 -2.73 -0.16
1.3 -2.75 -0.05
1.27 -2.71 -0.8
1.29 -2.75 0.05
1.27 -2.7 -0.69
1.3 -2.76 0.16
1.27 -2.7 -0.58
1.28 -2.72 -0.48
1.28 -2.73 -0.37
1.28 -2.74 -0.26
1.28 -2.73 -0.16
17.34 -36.94 9.42
1.29 -2.75 -0.05
1.26 -2.7 -0.8
1.28 -2.75 0.05
1.26 -2.71 -0.69
1.29 -2.77 0.16
1.26 -2.7 -0.58
1.27 -2.72 -0.48
1.27 -2.73 -0.37
1.27 -2.73 -0.26
1.27 -2.73 -0.16
17.25 -37.07 9.44
1.28 -2.75 -0.05
1.25 -2.71 -0.8
1.27 -2.75 0.05
1.25 -2.71 -0.69
1.28 -2.77 0.16
1.25 -2.71 -0.58
1.25 -2.71 -0.47
1.26 -2.74 -0.37
1.26 -2.73 -0.26
1.26 -2.73 -0.16
1.27 -2.75 -0.05
1.24 -2.71 -0.8
1.26 -2.75 0.05
1.24 -2.71 -0.69
1.27 -2.77 0.16
1.24 -2.71 -0.58
1.24 -2.71 -0.47
16.98 -37.16 5.02
1.25 -2.74 -0.37
1.25 -2.73 -0.26
16.9 -37.01 7.91
1.24 -2.72 -0.16
15.16 -33.19 8.42
1.26 -2.76 -0.05
1.23 -2.72 -0.8
1.25 -2.76 0.05
1.23 -2.71 -0.69
1.25 -2.77 0.16
1.23 -2.71 -0.58
1.23 -2.72 -0.47
1.24 -2.73 -0.37
1.24 -2.74 -0.26
1.23 -2.73 -0.16
1.25 -2.76 -0.05
15.81 -34.95 10.28
1.22 -2.72 -0.8
1.24 -2.76 0.05
1.22 -2.72 -0.69
1.24 -2.77 0.16
1.21 -2.7 -0.58
1.22 -2.72 -0.47
1.23 -2.74 -0.37
1.23 -2.74 -0.26
1.22 -2.73 -0.16
1.23 -2.75 -0.05
1.2 -2.71 -0.79
1.23 -2.76 0.05
1.21 -2.72 -0.69
1.23 -2.77 0.16
1.2 -2.7 -0.57
1.21 -2.72 -0.47
1.22 -2.74 -0.37
1.21 -2.73 -0.26
1.22 -2.74 -0.16
1.22 -2.75 -0.05
1.19 -2.71 -0.79
1.21 -2.75 0.05
1.2 -2.72 -0.69
1.22 -2.77 0.16
1.19 -2.7 -0.57
1.19 -2.71 -0.47
1.21 -2.75 -0.37
16.37 -37.2 6.44
1.2 -2.73 -0.26
1.21 -2.74 -0.16
1.21 -2.76 -0.05
1.18 -2.72 -0.79
1.2 -2.76 0.05
1.18 -2.71 -0.68
1.21 -2.77 0.16
1.18 -2.71 -0.58
1.18 -2.72 -0.47
1.2 -2.75 -0.37
1.19 -2.74 -0.26
1.19 -2.73 -0.16
1.2 -2.76 -0.05
1.17 -2.72 -0.79
1.19 -2.76 0.05
1.17 -2.72 -0.68
1.2 -2.77 0.16
1.17 -2.71 -0.57
1.17 -2.72 -0.47
16.05 -37.2 4.98
1.18 -2.74 -0.37
1.18 -2.74 -0.26
1.18 -2.73 -0.16
15.36 -35.59 8.95
1.19 -2.76 -0.05
1.16 -2.72 -0.79
1.18 -2.77 0.05
1.16 -2.72 -0.68
1.18 -2.77 0.16
1.15 -2.7 -0.57
1.17 -2.73 -0.47
15.92 -37.25 4.97
1.17 -2.75 -0.37
1.17 -2.74 -0.26
15.4 -36.04 7.62
1.17 -2.74 -0.16
1.18 -2.76 -0.05
1.15 -2.71 -0.79
1.17 -2.77 0.05
1.15 -2.72 -0.68
1.17 -2.78 0.16
1.15 -2.71 -0.57
1.15 -2.73 -0.47
1.16 -2.75 -0.37
16.78 -39.64 6.82
1.16 -2.73 -0.26
1.16 -2.74 -0.16
1.17 -2.76 -0.05
1.14 -2.72 -0.79
1.16 -2.76 0.05
1.14 -2.72 -0.68
1.17 -2.78 0.16
1.14 -2.71 -0.57
15.72 -37.48 3.56
1.14 -2.72 -0.47
1.16 -2.76 -0.37
1.15 -2.73 -0.26
15.12 -36.05 7.6
1.15 -2.75 -0.16
1.16 -2.76 -0.05
1.13 -2.72 -0.79
1.15 -2.76 0.05
1.13 -2.72 -0.68
1.15 -2.78 0.16
1.13 -2.72 -0.57
1.13 -2.72 -0.47
1.14 -2.75 -0.37
1.14 -2.74 -0.26
1.14 -2.74 -0.16
1.15 -2.77 -0.05
15.01 -36.14 10.49
1.12 -2.72 -0.79
1.14 -2.77 0.05
1.12 -2.72 -0.68
1.14 -2.77 0.16
1.12 -2.72 -0.57
14.26 -34.7 3.28
1.12 -2.73 -0.47
14.96 -36.41 4.83
1.13 -2.75 -0.36
13.8 -33.58 5.75
1.13 -2.75 -0.26
1.13 -2.74 -0.16
13.97 -34 8.49
1.14 -2.77 -0.05
1.11 -2.73 -0.79
1.13 -2.78 0.05
1.11 -2.73 -0.68
1.13 -2.77 0.16
1.1 -2.71 -0.57
15.46 -37.98 3.59
1.11 -2.74 -0.47
15.4 -37.84 5.02
1.11 -2.74 -0.36
14.84 -36.45 6.23
1.12 -2.75 -0.26
1.12 -2.75 -0.16
14.01 -34.43 8.58
1.12 -2.76 -0.05
1.1 -2.72 -0.79
1.12 -2.77 0.05
1.1 -2.73 -0.68
1.12 -2.78 0.16
1.1 -2.72 -0.57
1.1 -2.74 -0.47
15.35 -38.08 5.04
1.11 -2.75 -0.36
14.67 -36.38 6.21
1.1 -2.73 -0.26
14.27 -35.38 7.42
1.11 -2.75 -0.16
1.11 -2.77 -0.05
1.09 -2.73 -0.79
1.11 -2.77 0.05
1.09 -2.73 -0.68
1.11 -2.78 0.16
1.09 -2.72 -0.57
14.08 -35.27 3.32
1.09 -2.73 -0.47
14.57 -36.5 4.83
1.1 -2.75 -0.36
15.52 -38.86 6.63
1.09 -2.73 -0.26
14.61 -36.58 7.66
1.1 -2.75 -0.16
1.11 -2.77 -0.05
1.08 -2.73 -0.79
1.09 -2.77 0.05
1.07 -2.72 -0.67
1.1 -2.78 0.16
1.07 -2.72 -0.57
14.5 -36.7 3.45
1.08 -2.73 -0.47
14.45 -36.58 4.83
1.08 -2.75 -0.36
14.35 -36.33 6.19
1.08 -2.74 -0.26
15.12 -38.28 8
1.08 -2.74 -0.15
13.25 -33.54 8.33
1.1 -2.77 -0.05
1.07 -2.73 -0.79
1.09 -2.78 0.05
1.07 -2.72 -0.68
1.08 -2.77 0.16
1.07 -2.73 -0.57
13.84 -35.37 3.32
1.07 -2.74 -0.47
14.91 -38.1 5.02
1.07 -2.74 -0.36
14.67 -37.5 6.38
1.07 -2.75 -0.26
14.95 -38.21 7.98
1.07 -2.75 -0.15
1.09 -2.77 -0.05
15.66 -40.04 11.52
1.06 -2.73 -0.79
1.08 -2.78 0.05
1.05 -2.73 -0.67
1.07 -2.78 0.16
1.05 -2.72 -0.57
1.06 -2.75 -0.47
14.74 -38.13 5.02
1.06 -2.74 -0.36
14.53 -37.57 6.38
1.06 -2.75 -0.26
14.64 -37.87 7.89
1.07 -2.76 -0.15
15.48 -40.04 9.91
1.07 -2.77 -0.05
15.51 -40.1 11.52
1.04 -2.73 -0.78
1.06 -2.78 0.05
1.05 -2.73 -0.68
1.07 -2.78 0.16
1.04 -2.72 -0.57
1.05 -2.74 -0.46
14.57 -38.07 5.01
1.05 -2.75 -0.36
13.15 -34.36 5.83
1.05 -2.74 -0.26
1.05 -2.76 -0.15
11.29 -29.5 7.29
1.06 -2.77 -0.05
1.03 -2.73 -0.78
1.05 -2.77 0.05
1.04 -2.73 -0.67
1.06 -2.79 0.16
1.04 -2.73 -0.57
1.04 -2.74 -0.46
14.49 -38.23 5.02
1.04 -2.75 -0.36
13.03 -34.37 5.82
1.04 -2.73 -0.26
14.66 -38.67 8.04
1.04 -2.76 -0.15
11.2 -29.55 7.3
1.05 -2.77 -0.05
1.03 -2.73 -0.78
1.04 -2.77 0.05
1.02 -2.73 -0.67
1.05 -2.79 0.16
1.03 -2.74 -0.57
1.03 -2.74 -0.46
14.35 -38.24 5.02
1.03 -2.75 -0.36
12.92 -34.44 5.83
1.03 -2.74 -0.26
1.03 -2.75 -0.15
11.07 -29.5 7.27
1.04 -2.78 -0.05
1.02 -2.74 -0.78
1.03 -2.77 0.05
1.01 -2.73 -0.67
1.03 -2.78 0.16
1.02 -2.74 -0.57
1.02 -2.74 -0.46
1.02 -2.75 -0.36
10.93 -29.45 4.97
1.02 -2.75 -0.26
14.03 -37.8 7.84
1.02 -2.75 -0.15
10.97 -29.56 7.28
1.03 -2.78 -0.05
1 -2.74 -0.78
1.02 -2.78 0.05
1 -2.73 -0.67
1.02 -2.78 0.16
1 -2.73 -0.57
1.01 -2.75 -0.46
1.01 -2.74 -0.36
10.84 -29.52 4.98
1.01 -2.75 -0.26
1.01 -2.76 -0.15
10.88 -29.63 7.29
1.02 -2.77 -0.05
10.98 -29.9 8.54
0.99 -2.73 -0.78
1.01 -2.78 0.05
0.99 -2.74 -0.67
1.01 -2.79 0.16
0.99 -2.73 -0.56
1 -2.75 -0.46
1 -2.75 -0.36
10.75 -29.61 4.99
0.99 -2.74 -0.25
12.07 -33.25 6.87
1 -2.76 -0.15
10.78 -29.7 7.29
1.01 -2.77 -0.05
10.89 -30.01 8.56
0.98 -2.74 -0.78
0.99 -2.77 0.05
0.98 -2.74 -0.67
1.01 -2.8 0.16
0.98 -2.73 -0.56
12.76 -35.54 3.3
0.99 -2.74 -0.46
12.15 -33.84 4.42
0.99 -2.76 -0.36
10.64 -29.64 4.99
0.98 -2.74 -0.25
0.99 -2.77 -0.15
1 -2.78 -0.05
10.71 -29.81 8.49
0.97 -2.74 -0.78
0.99 -2.78 0.05
0.97 -2.73 -0.67
0.99 -2.79 0.16
0.97 -2.74 -0.56
0.98 -2.75 -0.46
12.04 -33.88 4.41
0.98 -2.76 -0.36
10.56 -29.72 4.99
0.97 -2.74 -0.25
10.44 -29.39 6.06
0.98 -2.76 -0.15
0.99 -2.78 -0.05
10.62 -29.88 8.5
0.97 -2.75 -0.78
0.98 -2.78 0.05
0.96 -2.72 -0.67
0.98 -2.78 0.15
0.96 -2.74 -0.56
0.97 -2.75 -0.46
11.92 -33.91 4.41
0.97 -2.75 -0.36
10.47 -29.79 5
0.97 -2.75 -0.26
10.39 -29.56 6.09
0.97 -2.76 -0.15
0.98 -2.78 -0.05
10.5 -29.88 8.49
0.95 -2.74 -0.78
0.97 -2.78 0.05
0.95 -2.73 -0.67
0.97 -2.79 0.16
0.95 -2.74 -0.56
13.09 -37.69 3.49
0.96 -2.76 -0.46
11.93 -34.33 4.46
0.96 -2.75 -0.36
9.09 -26.17 4.39
0.96 -2.75 -0.25
10.3 -29.66 6.1
0.96 -2.76 -0.15
9.47 -27.25 6.66
0.96 -2.77 -0.05
10.41 -29.97 8.5
0.94 -2.73 -0.77
0.96 -2.79 0.05
0.94 -2.74 -0.67
0.96 -2.8 0.16
0.94 -2.74 -0.56
11.62 -33.83 3.13
0.95 -2.76 -0.46
9.2 -26.79 3.48
0.95 -2.75 -0.36
9.45 -27.51 4.61
0.94 -2.74 -0.25
10.22 -29.73 6.11
0.95 -2.77 -0.15
9.35 -27.22 6.65
0.95 -2.77 -0.05
0.93 -2.74 -0.78
0.94 -2.77 0.05
0.93 -2.73 -0.67
0.95 -2.8 0.16
0.93 -2.74 -0.56
12.19 -35.9 3.32
0.93 -2.75 -0.46
9.07 -26.69 3.46
0.94 -2.76 -0.36
9.31 -27.42 4.59
0.93 -2.74 -0.25
9.1 -26.79 5.5
0.94 -2.78 -0.15
9.29 -27.36 6.67
0.94 -2.78 -0.05
10.24 -30.16 8.53
0.92 -2.75 -0.78
0.93 -2.78 0.05
0.91 -2.72 -0.66
0.94 -2.8 0.15
0.93 -2.75 -0.56
11.91 -35.45 3.27
0.92 -2.75 -0.46
8.98 -26.74 3.46
0.93 -2.76 -0.36
