# .PCD v0.7 - Point Cloud Data file format
VERSION 0.7
FIELDS x y z
SIZE 4 4 4
TYPE F F F
COUNT 1 1 1
WIDTH 2940
HEIGHT 1
VIEWPOINT 0 0 0 1 0 0 0
POINTS 2940
DATA ascii
26.81 21.28 0.6
6.09 4.83 -1.79
7.33 5.82 -1.82
20.18 16.02 2.25
9.17 7.28 -1.85
19.23 15.27 3.02
12.7 10.08 -1.99
21.98 17.45 -2.46
5.2 4.1 -1.77
26.88 21.18 0.6
6.1 4.81 -1.79
7.34 5.78 -1.82
9.19 7.24 -1.85
12.71 10.02 -1.99
21.95 17.29 -2.44
5.21 4.08 -1.77
26.94 21.08 0.6
6.12 4.79 -1.79
7.34 5.75 -1.81
9.21 7.21 -1.85
12.74 9.97 -1.99
21.95 17.18 -2.44
5.22 4.05 -1.77
27 20.98 0.6
6.13 4.76 -1.79
7.37 5.73 -1.81
20.3 15.77 2.25
9.23 7.17 -1.85
19.53 15.17 3.04
12.74 9.9 -1.98
21.96 17.06 -2.43
5.22 4.03 -1.77
27.05 20.87 0.6
6.15 4.75 -1.79
19 14.67 1.26
7.38 5.7 -1.81
9.23 7.12 -1.85
19.55 15.09 3.03
12.75 9.84 -1.98
21.93 16.93 -2.42
5.24 4.01 -1.77
27.11 20.77 0.6
6.16 4.72 -1.79
7.4 5.67 -1.81
9.24 7.08 -1.84
12.75 9.77 -1.97
21.93 16.8 -2.42
5.26 4 -1.77
27.18 20.67 0.6
6.17 4.69 -1.79
20.86 15.86 1.37
7.42 5.64 -1.81
19.68 14.96 2.16
9.27 7.05 -1.84
12.77 9.71 -1.97
21.88 16.64 -2.41
5.26 3.97 -1.77
25.09 18.94 0.55
6.18 4.67 -1.79
20.75 15.66 1.36
7.43 5.61 -1.81
9.29 7.01 -1.84
12.78 9.65 -1.97
21.89 16.52 -2.4
5.27 3.95 -1.76
25.18 18.87 0.55
6.2 4.65 -1.79
21.13 15.83 1.38
7.45 5.58 -1.81
9.3 6.97 -1.84
12.79 9.58 -1.96
21.86 16.38 -2.39
18.85 14.13 4.58
18.91 14.18 5.46
5.29 3.93 -1.77
25.28 18.81 0.55
6.2 4.61 -1.78
7.47 5.56 -1.81
9.31 6.93 -1.84
18.85 14.02 2.88
12.8 9.52 -1.96
18.89 14.05 3.73
21.86 16.26 -2.38
25.4 18.89 -0.55
5.29 3.91 -1.76
25.39 18.76 0.55
6.19 4.57 -1.78
18.42 13.61 1.2
7.49 5.53 -1.81
18.89 13.95 2.05
9.33 6.89 -1.84
18.92 13.98 2.89
12.82 9.47 -1.96
21.83 16.13 -2.38
5.32 3.9 -1.77
6.21 4.56 -1.78
18.91 13.87 1.23
7.5 5.5 -1.81
9.35 6.86 -1.84
12.82 9.4 -1.95
21.84 16.01 -2.37
18.9 13.86 -0.41
5.32 3.87 -1.76
18.96 13.81 0.41
6.23 4.53 -1.78
7.51 5.46 -1.8
9.36 6.82 -1.83
12.84 9.35 -1.95
18.9 13.76 -2.05
18.91 13.77 -1.23
37.7 27.45 -0.81
5.33 3.85 -1.76
25.63 18.52 0.55
6.25 4.52 -1.78
20.83 15.06 1.35
7.53 5.44 -1.81
9.39 6.79 -1.84
12.86 9.29 -1.95
18.92 13.67 -2.04
18.97 13.71 -1.23
5.34 3.83 -1.76
6.25 4.48 -1.78
7.55 5.42 -1.81
9.4 6.74 -1.83
12.88 9.24 -1.95
21.75 15.61 -2.34
28.31 20.31 -1.83
37.85 27.16 -0.81
5.36 3.82 -1.76
6.26 4.46 -1.77
7.57 5.39 -1.81
9.41 6.7 -1.83
12.88 9.17 -1.94
21.74 15.48 -2.34
34.31 24.43 -2.21
5.37 3.8 -1.76
6.27 4.43 -1.77
7.59 5.37 -1.81
9.43 6.67 -1.83
12.87 9.1 -1.94
21.72 15.36 -2.33
5.37 3.77 -1.76
6.29 4.41 -1.77
7.59 5.33 -1.8
9.45 6.63 -1.83
12.88 9.04 -1.93
21.69 15.22 -2.32
5.38 3.75 -1.76
6.31 4.4 -1.77
7.61 5.3 -1.8
9.47 6.6 -1.83
12.91 9 -1.93
21.67 15.1 -2.31
5.39 3.73 -1.76
6.32 4.37 -1.77
7.63 5.28 -1.8
9.48 6.55 -1.82
12.92 8.94 -1.93
21.65 14.97 -2.3
25.47 17.61 -1.62
5.4 3.71 -1.76
6.32 4.34 -1.77
7.65 5.25 -1.8
9.49 6.52 -1.82
12.91 8.87 -1.92
21.64 14.85 -2.3
5.42 3.69 -1.76
6.34 4.32 -1.77
7.67 5.23 -1.8
9.52 6.49 -1.82
12.92 8.8 -1.92
21.62 14.73 -2.29
27.04 18.42 -1.71
5.43 3.68 -1.76
6.35 4.3 -1.77
7.67 5.19 -1.8
9.52 6.45 -1.82
12.93 8.75 -1.92
21.61 14.62 -2.28
5.43 3.65 -1.75
6.36 4.27 -1.77
7.69 5.16 -1.8
9.54 6.41 -1.82
12.96 8.7 -1.92
21.56 14.48 -2.27
5.44 3.63 -1.75
6.38 4.25 -1.77
7.71 5.14 -1.8
9.55 6.36 -1.82
12.95 8.64 -1.91
21.53 14.35 -2.26
5.46 3.61 -1.75
6.38 4.22 -1.77
7.72 5.11 -1.8
9.58 6.33 -1.82
12.98 8.58 -1.91
21.52 14.24 -2.26
5.47 3.59 -1.75
6.39 4.2 -1.77
7.73 5.07 -1.8
9.58 6.29 -1.82
12.97 8.51 -1.91
21.49 14.11 -2.25
25.41 16.68 -1.59
5.48 3.57 -1.75
6.4 4.17 -1.76
7.74 5.04 -1.8
9.61 6.26 -1.82
12.97 8.45 -1.9
21.51 14.01 -2.25
5.48 3.55 -1.75
6.42 4.15 -1.77
7.75 5.01 -1.79
9.61 6.22 -1.81
12.99 8.4 -1.9
21.48 13.89 -2.24
5.5 3.53 -1.75
6.43 4.13 -1.76
7.77 4.99 -1.79
9.62 6.17 -1.81
13 8.34 -1.9
21.45 13.76 -2.23
80.19 51.47 -1.66
5.51 3.51 -1.75
6.43 4.1 -1.76
7.78 4.96 -1.79
9.62 6.13 -1.81
13.01 8.29 -1.89
21.44 13.66 -2.22
80.34 51.19 -1.66
5.52 3.49 -1.75
6.45 4.08 -1.76
7.8 4.93 -1.79
9.64 6.09 -1.81
12.98 8.21 -1.89
21.43 13.55 -2.22
5.53 3.47 -1.75
6.46 4.05 -1.76
7.81 4.89 -1.79
9.66 6.06 -1.81
12.99 8.14 -1.88
21.42 13.43 -2.21
49.27 30.89 -3.05
5.53 3.44 -1.74
6.47 4.03 -1.76
7.82 4.87 -1.79
9.66 6.01 -1.8
13.02 8.1 -1.88
21.42 13.33 -2.21
5.53 3.42 -1.74
24.39 15.06 0.5
6.5 4.01 -1.76
7.83 4.83 -1.79
9.67 5.97 -1.8
13.03 8.05 -1.88
21.41 13.22 -2.2
5.55 3.4 -1.74
6.49 3.98 -1.76
7.85 4.81 -1.79
9.71 5.95 -1.8
13.01 7.97 -1.87
21.38 13.1 -2.19
5.57 3.39 -1.75
25.17 15.3 0.51
6.5 3.95 -1.76
7.86 4.78 -1.79
9.73 5.91 -1.8
13.02 7.92 -1.87
21.4 13.01 -2.19
5.57 3.36 -1.74
6.51 3.93 -1.76
7.86 4.74 -1.78
24.79 14.96 2.53
9.72 5.86 -1.8
15.02 9.06 2.15
13.03 7.86 -1.87
21.34 12.88 -2.18
5.59 3.34 -1.74
6.53 3.9 -1.76
7.87 4.71 -1.78
9.72 5.82 -1.79
15.12 9.04 2.16
13.04 7.8 -1.87
21.31 12.75 -2.17
5.59 3.32 -1.74
6.54 3.88 -1.76
7.89 4.68 -1.78
25.18 14.95 2.56
9.73 5.78 -1.79
26.06 15.47 3.72
13.04 7.74 -1.86
21.29 12.64 -2.17
5.61 3.3 -1.74
6.53 3.85 -1.75
7.9 4.65 -1.78
9.73 5.73 -1.79
25.98 15.3 3.7
13.03 7.67 -1.86
21.24 12.51 -2.16
5.61 3.28 -1.74
6.55 3.83 -1.75
7.91 4.62 -1.78
9.75 5.7 -1.79
13.04 7.62 -1.85
21.22 12.4 -2.15
5.62 3.26 -1.74
6.56 3.8 -1.75
7.92 4.59 -1.78
9.75 5.65 -1.79
13.04 7.56 -1.85
21.19 12.28 -2.14
5.63 3.24 -1.74
6.57 3.78 -1.75
27.21 15.65 1.64
7.92 4.56 -1.78
9.76 5.61 -1.78
13.06 7.51 -1.85
21.15 12.17 -2.13
5.64 3.22 -1.74
6.58 3.76 -1.75
7.93 4.53 -1.78
26.13 14.91 2.63
9.76 5.57 -1.78
26.49 15.12 3.75
13.06 7.45 -1.85
21.09 12.04 -2.12
5.64 3.19 -1.74
25.28 14.31 0.51
6.57 3.72 -1.74
7.95 4.5 -1.78
26.3 14.89 2.64
9.77 5.53 -1.78
14.89 8.43 2.1
13.07 7.4 -1.84
21.12 11.96 -2.12
26.43 14.96 -1.59
5.66 3.18 -1.74
6.59 3.7 -1.74
7.96 4.47 -1.77
15.36 8.62 1.54
9.77 5.49 -1.78
26.11 14.66 3.68
13.07 7.34 -1.84
21.1 11.84 -2.12
5.67 3.16 -1.74
6.6 3.68 -1.74
7.96 4.43 -1.77
15.43 8.59 1.54
9.79 5.45 -1.78
26.07 14.52 3.66
13.07 7.28 -1.84
21.07 11.73 -2.11
26.58 14.8 -1.59
5.66 3.12 -1.73
26.12 14.42 0.52
6.61 3.65 -1.74
26.4 14.58 1.58
7.97 4.4 -1.77
26.14 14.44 2.61
9.8 5.41 -1.77
15.94 8.8 2.24
13.08 7.22 -1.83
21.04 11.62 -2.1
26.6 14.69 -1.59
5.67 3.11 -1.73
26.28 14.4 0.52
6.63 3.63 -1.74
26.33 14.42 1.57
7.98 4.37 -1.77
15.45 8.46 1.54
9.8 5.37 -1.77
13.1 7.18 -1.83
14.89 8.16 2.69
21 11.51 -2.1
26.64 14.59 -1.59
5.68 3.08 -1.73
26.46 14.37 0.53
6.62 3.6 -1.74
7.99 4.34 -1.77
26.16 14.21 2.6
9.81 5.33 -1.77
13.09 7.11 -1.83
16.07 8.73 2.9
21 11.41 -2.09
26.69 14.5 -1.59
26.46 14.37 -0.53
5.69 3.06 -1.73
6.64 3.58 -1.74
8 4.31 -1.77
9.82 5.29 -1.77
15.45 8.33 2.16
13.08 7.05 -1.82
20.96 11.29 -2.08
26.75 14.41 -1.59
15.63 8.42 4.1
26.43 14.24 -0.52
5.7 3.04 -1.73
6.65 3.55 -1.74
26.48 14.15 1.57
8 4.27 -1.76
15.42 8.23 1.53
9.84 5.26 -1.77
13.11 7 -1.82
20.93 11.18 -2.08
26.79 14.31 -1.59
15.65 8.36 4.1
26.52 14.16 -0.52
5.69 3.02 -1.73
26.83 14.21 0.53
6.67 3.53 -1.74
8.01 4.24 -1.76
15.38 8.15 1.52
9.84 5.22 -1.76
15.57 8.25 2.16
13.11 6.95 -1.82
16.07 8.51 2.88
20.89 11.07 -2.07
26.47 14.03 -1.57
5.71 3 -1.73
26.88 14.12 0.53
6.68 3.51 -1.74
8.02 4.22 -1.76
15.4 8.09 1.52
9.84 5.17 -1.76
13.11 6.89 -1.82
20.88 10.97 -2.06
15.6 8.2 3.43
26.56 13.95 -1.57
14.82 7.79 4.49
5.72 2.98 -1.73
6.67 3.48 -1.74
8.04 4.19 -1.76
9.86 5.14 -1.76
13.11 6.83 -1.82
17.05 8.89 3.05
20.84 10.86 -2.06
15.55 8.1 3.41
26.93 14.04 -1.59
14.83 7.73 4.48
5.72 2.96 -1.73
6.68 3.45 -1.74
8.05 4.16 -1.76
9.87 5.1 -1.76
26.75 13.82 3.7
13.11 6.77 -1.81
20.84 10.77 -2.05
15.59 8.05 3.41
26.99 13.94 -1.59
15.22 7.86 4.59
5.73 2.93 -1.72
6.69 3.43 -1.73
8.05 4.12 -1.76
9.88 5.06 -1.76
13.1 6.71 -1.81
20.8 10.66 -2.05
27.06 13.86 -1.59
15.76 8.07 4.09
15 7.69 4.52
5.73 2.91 -1.72
6.7 3.4 -1.73
8.06 4.09 -1.76
26.75 13.58 2.62
9.88 5.02 -1.76
13.12 6.66 -1.81
20.78 10.55 -2.04
15.89 8.07 3.46
27.12 13.77 -1.59
14.97 7.6 4.5
5.74 2.89 -1.72
6.7 3.38 -1.73
8.06 4.06 -1.75
9.87 4.97 -1.75
13.09 6.59 -1.8
16.67 8.4 2.96
20.77 10.46 -2.03
15.8 7.96 3.44
27.19 13.69 -1.6
15.2 7.65 4.56
5.75 2.87 -1.72
6.7 3.35 -1.73
8.08 4.04 -1.76
9.87 4.93 -1.75
15.57 7.78 2.14
13.12 6.55 -1.8
16.91 8.44 2.99
20.73 10.35 -2.03
23.53 11.75 -1.38
15.33 7.66 4.59
5.76 2.85 -1.72
6.71 3.32 -1.73
8.09 4 -1.75
9.89 4.9 -1.75
15.61 7.73 2.14
13.11 6.49 -1.8
16.89 8.37 2.99
20.72 10.26 -2.02
15.78 7.81 3.42
27.31 13.52 -1.6
15.84 7.84 4.08
5.77 2.83 -1.72
6.73 3.3 -1.73
8.08 3.97 -1.75
9.9 4.86 -1.75
15.49 7.6 2.12
13.11 6.44 -1.79
20.7 10.16 -2.02
15.84 7.77 3.43
27.36 13.43 -1.6
15.82 7.77 4.07
5.77 2.81 -1.72
6.73 3.28 -1.73
8.1 3.94 -1.75
9.9 4.82 -1.74
15.84 7.71 2.16
13.12 6.38 -1.79
20.66 10.05 -2.01
16.91 8.23 3.66
5.78 2.78 -1.72
6.74 3.25 -1.73
8.1 3.91 -1.75
15.41 7.43 1.5
9.9 4.77 -1.74
15.77 7.6 2.15
13.12 6.33 -1.79
16.48 7.95 2.9
20.64 9.95 -2
5.79 2.77 -1.72
6.75 3.22 -1.73
16.39 7.83 0.95
8.11 3.87 -1.75
15.38 7.35 1.49
9.92 4.74 -1.74
13.11 6.27 -1.78
16.52 7.9 2.9
20.63 9.86 -2
15.42 7.37 3.95
5.8 2.75 -1.72
6.75 3.2 -1.72
16.36 7.75 0.95
8.12 3.85 -1.75
9.92 4.7 -1.74
13.12 6.21 -1.78
16.45 7.79 2.88
20.62 9.77 -2
15.42 7.3 3.94
16.07 7.61 4.76
5.8 2.72 -1.72
6.76 3.17 -1.72
16.4 7.7 0.95
8.1 3.8 -1.74
15.69 7.37 1.52
9.94 4.67 -1.74
15.87 7.45 2.15
13.14 6.17 -1.78
16.66 7.82 2.91
20.58 9.66 -1.99
14.35 6.74 3.08
24.37 11.44 -1.41
15.15 7.11 4.49
5.8 2.7 -1.71
6.77 3.15 -1.72
16.61 7.73 0.96
8.11 3.77 -1.74
15.83 7.37 1.53
9.95 4.63 -1.74
13.14 6.11 -1.78
16.79 7.81 2.93
20.55 9.56 -1.98
42.07 19.57 -2.43
15.39 7.16 4.55
5.81 2.68 -1.71
6.78 3.13 -1.72
8.11 3.74 -1.74
17.61 8.12 1.7
9.95 4.59 -1.73
13.15 6.06 -1.78
17.09 7.88 2.98
20.52 9.46 -1.98
14.23 6.56 3.05
42.14 19.43 -2.43
15.62 7.2 4.61
5.83 2.66 -1.72
6.79 3.1 -1.72
8.12 3.71 -1.73
17.61 8.04 1.69
9.95 4.54 -1.73
16.4 7.49 2.21
13.16 6.01 -1.78
16.31 7.45 2.84
20.5 9.36 -1.97
42.19 19.27 -2.43
5.84 2.64 -1.72
6.79 3.07 -1.72
8.12 3.68 -1.73
16.5 7.47 1.58
9.96 4.51 -1.73
16.45 7.45 2.22
13.15 5.95 -1.77
16.34 7.4 2.84
20.5 9.28 -1.97
42.26 19.13 -2.43
15.55 7.04 3.94
15.4 6.97 4.53
5.84 2.62 -1.71
6.81 3.05 -1.72
8.12 3.64 -1.73
16.52 7.41 1.58
9.97 4.47 -1.73
13.16 5.9 -1.77
16.36 7.34 2.84
20.46 9.17 -1.96
16.73 7.5 3.56
15.53 6.96 3.93
14.96 6.71 4.39
5.84 2.59 -1.71
6.81 3.03 -1.72
8.12 3.61 -1.73
17.61 7.82 1.69
9.98 4.44 -1.73
14.76 6.56 1.98
13.18 5.85 -1.77
16.39 7.28 2.84
20.4 9.06 -1.95
14.65 6.51 3.12
14.72 6.54 3.72
14.78 6.57 4.33
5.85 2.57 -1.71
6.82 3 -1.72
15.86 6.98 0.91
8.13 3.58 -1.73
16.66 7.33 1.59
9.97 4.39 -1.73
16.69 7.34 2.24
13.19 5.8 -1.77
16.43 7.23 2.84
20.38 8.97 -1.95
15.06 6.63 3.2
14.61 6.43 3.69
15.39 6.77 4.51
5.86 2.55 -1.71
6.81 2.97 -1.72
15.9 6.93 0.91
8.13 3.54 -1.72
16.4 7.15 1.56
9.99 4.35 -1.73
14.76 6.44 1.98
13.18 5.74 -1.76
15.02 6.55 2.6
20.34 8.87 -1.94
14.89 6.49 3.16
14.54 6.34 3.66
15.44 6.73 4.51
5.88 2.54 -1.71
6.82 2.94 -1.71
15.99 6.9 0.91
8.14 3.51 -1.72
16.39 7.07 1.56
9.99 4.31 -1.72
14.81 6.39 1.98
13.18 5.69 -1.76
16.59 7.16 2.86
20.32 8.77 -1.94
14.87 6.42 3.15
14.57 6.29 3.66
15.06 6.5 4.4
5.87 2.51 -1.71
6.83 2.92 -1.72
16.11 6.89 0.92
8.13 3.48 -1.72
10 4.27 -1.72
13.16 5.62 -1.76
16.59 7.09 2.86
20.29 8.67 -1.93
15.66 6.69 3.31
16.06 6.87 4.03
15.1 6.45 4.4
5.87 2.48 -1.71
22.44 9.5 0.43
6.84 2.9 -1.71
8.13 3.44 -1.72
16.24 6.87 1.54
10 4.23 -1.72
13.17 5.58 -1.76
16.06 6.8 2.76
20.26 8.58 -1.93
16.48 6.98 3.48
15.75 6.67 4.58
5.87 2.46 -1.71
6.84 2.87 -1.71
8.13 3.41 -1.71
16.19 6.79 1.54
10 4.2 -1.72
16.29 6.83 2.17
13.17 5.52 -1.75
15.77 6.62 2.71
20.23 8.49 -1.92
16.38 6.87 3.45
22.69 9.52 -1.29
5.89 2.45 -1.71
16.04 6.66 0.3
6.84 2.84 -1.71
15.92 6.61 0.9
8.14 3.38 -1.71
16.11 6.69 1.53
10 4.15 -1.71
14.19 5.89 1.89
13.18 5.48 -1.75
16.14 6.71 2.77
20.21 8.4 -1.91
16.1 6.69 3.39
22.71 9.43 -1.29
16.02 6.66 4.01
16.13 6.7 -0.3
15.82 6.57 4.59
5.89 2.42 -1.71
16.03 6.6 0.3
6.85 2.82 -1.71
15.95 6.56 0.9
8.14 3.35 -1.71
16.06 6.61 1.52
10.02 4.12 -1.72
14.3 5.88 1.9
13.18 5.42 -1.75
16.16 6.65 2.77
16.04 6.6 -1.52
14.53 5.98 3.05
16.01 6.59 -0.91
16.1 6.62 4.02
16.03 6.6 -0.3
15.2 6.25 4.4
5.9 2.4 -1.71
16.06 6.54 0.3
6.87 2.8 -1.71
16.08 6.55 0.91
8.15 3.32 -1.71
15.45 6.29 1.46
10.02 4.08 -1.71
14.35 5.84 1.9
13.19 5.37 -1.75
16.01 6.52 -1.51
16.01 6.52 -0.91
16.32 6.65 4.07
16.03 6.53 -0.3
15.29 6.23 4.42
5.9 2.38 -1.7
16.15 6.51 0.3
6.88 2.78 -1.71
16.21 6.54 0.92
8.15 3.29 -1.71
16.62 6.7 1.57
10.03 4.04 -1.71
14.39 5.8 1.9
13.19 5.32 -1.75
16.34 6.59 2.79
15.98 6.45 -1.51
15.23 6.14 3.19
16.04 6.47 -0.91
16.09 6.49 -0.3
15.5 6.25 4.48
5.91 2.36 -1.7
22.56 9 0.42
6.89 2.75 -1.71
16.06 6.41 0.91
8.16 3.26 -1.71
16.1 6.42 1.52
10.02 4 -1.71
13.21 5.27 -1.75
16.36 6.53 2.79
16.05 6.4 -1.51
15.89 6.34 3.33
16.12 6.43 -0.91
16.03 6.39 4.62
5.92 2.34 -1.71
22.57 8.92 0.42
6.88 2.72 -1.71
8.17 3.23 -1.71
16.07 6.35 1.51
10.04 3.97 -1.71
14.97 5.91 1.98
13.2 5.22 -1.74
16.64 6.57 2.83
20.07 7.93 -1.89
5.92 2.32 -1.7
6.89 2.7 -1.71
23.5 9.19 1.32
8.16 3.19 -1.7
14.96 5.85 1.4
10.04 3.93 -1.71
18.11 7.08 2.39
13.18 5.16 -1.74
15.75 6.16 2.68
20.04 7.84 -1.88
36.24 14.17 -2.04
5.93 2.29 -1.7
6.9 2.67 -1.71
23.54 9.11 1.32
8.16 3.16 -1.7
14.96 5.79 1.4
10.05 3.89 -1.71
14.94 5.79 1.97
13.19 5.11 -1.74
15.89 6.15 2.7
20.02 7.75 -1.88
16.08 6.23 4.62
5.92 2.27 -1.7
6.91 2.65 -1.71
8.16 3.13 -1.7
15.52 5.95 1.45
10.05 3.85 -1.71
17.82 6.83 2.34
13.2 5.06 -1.74
16.02 6.14 2.72
19.99 7.66 -1.87
15.05 5.77 3.13
36.3 13.91 -2.04
15.39 5.89 3.8
16.01 6.13 4.59
5.94 2.25 -1.7
23.44 8.89 0.44
6.91 2.62 -1.71
17.63 6.68 0.99
8.17 3.1 -1.7
15.46 5.86 1.45
10.06 3.81 -1.7
13.18 5 -1.73
16 6.07 2.71
19.96 7.57 -1.87
14.98 5.68 3.11
23.85 9.04 -1.34
15.74 5.97 3.89
16.07 6.09 4.61
5.94 2.23 -1.7
6.92 2.59 -1.71
16.86 6.32 0.94
8.17 3.07 -1.7
17.6 6.6 1.64
10.07 3.78 -1.7
13.19 4.95 -1.73
19.95 7.48 -1.86
36.33 13.62 -2.03
14.65 5.49 3.61
15.5 5.81 4.44
5.96 2.21 -1.7
23.48 8.72 0.44
6.92 2.57 -1.7
16.81 6.24 0.94
8.18 3.04 -1.7
16.53 6.13 1.54
10.07 3.74 -1.7
13.19 4.9 -1.73
19.93 7.4 -1.86
14.94 5.54 3.1
23.54 8.74 -1.32
14.69 5.45 3.62
23.52 8.73 -0.44
5.96 2.19 -1.7
23.38 8.59 0.43
6.93 2.55 -1.7
8.17 3 -1.69
16.54 6.08 1.54
10.08 3.7 -1.7
14.77 5.42 1.93
13.19 4.85 -1.73
19.88 7.3 -1.85
14.9 5.47 3.09
36.42 13.38 -2.03
15.35 5.64 4.38
5.96 2.17 -1.7
23.76 8.63 0.44
6.94 2.52 -1.71
23.84 8.66 1.33
8.18 2.97 -1.69
16.56 6.02 1.54
10.09 3.67 -1.7
16.29 5.92 2.13
13.2 4.8 -1.72
14.69 5.34 2.48
19.86 7.22 -1.85
15.07 5.48 3.12
5.97 2.14 -1.7
6.93 2.49 -1.7
17.07 6.13 0.95
8.18 2.94 -1.69
16.08 5.78 1.5
10.08 3.62 -1.7
16.29 5.85 2.13
13.21 4.75 -1.72
14.76 5.3 2.48
19.84 7.13 -1.84
15.72 5.65 3.25
5.96 2.12 -1.7
23.07 8.2 0.43
6.91 2.46 -1.69
17.09 6.08 0.95
8.19 2.91 -1.69
17.03 6.05 1.58
10.09 3.59 -1.7
17.72 6.3 2.31
13.21 4.7 -1.72
19.81 7.04 -1.84
5.98 2.1 -1.7
6.91 2.43 -1.69
8.19 2.88 -1.69
16.2 5.69 1.5
10.09 3.54 -1.69
16.67 5.86 2.17
13.21 4.64 -1.72
19.79 6.95 -1.84
5.98 2.08 -1.7
6.92 2.41 -1.69
17.61 6.12 0.98
8.19 2.85 -1.69
16.32 5.67 1.51
10.1 3.51 -1.69
17.63 6.13 2.29
13.21 4.59 -1.72
16.39 5.7 2.75
19.76 6.87 -1.83
15.72 5.46 3.23
16.09 5.59 3.93
5.99 2.06 -1.7
6.93 2.38 -1.69
8.19 2.82 -1.68
10.1 3.47 -1.69
17.41 5.99 2.26
13.21 4.54 -1.72
16.28 5.6 2.73
19.72 6.78 -1.82
16.19 5.57 3.95
5.99 2.04 -1.69
6.94 2.36 -1.69
8.2 2.79 -1.68
16.24 5.52 1.5
10.09 3.43 -1.69
17.16 5.83 2.23
13.23 4.5 -1.72
16.8 5.71 2.81
19.68 6.69 -1.82
15.69 5.33 3.22
15.69 5.33 3.83
6 2.01 -1.7
6.93 2.33 -1.69
17.07 5.73 0.94
8.2 2.76 -1.68
15.74 5.29 1.45
10.08 3.39 -1.68
15.18 5.1 1.97
13.21 4.44 -1.71
16.81 5.65 2.81
19.66 6.61 -1.81
15.75 5.29 3.84
6.01 2 -1.7
6.93 2.3 -1.69
17.07 5.67 0.94
8.2 2.72 -1.68
15.7 5.21 1.45
10.09 3.35 -1.68
15.99 5.31 2.07
13.22 4.39 -1.71
16.9 5.61 2.82
19.63 6.52 -1.81
15.84 5.26 3.85
6.01 1.97 -1.7
6.94 2.28 -1.69
8.2 2.69 -1.68
15.92 5.23 1.47
10.1 3.32 -1.68
15.97 5.24 2.06
13.23 4.34 -1.71
16.99 5.58 2.83
19.62 6.44 -1.81
15.84 5.2 3.85
6.01 1.95 -1.69
6.94 2.25 -1.69
8.21 2.66 -1.68
16.01 5.19 1.47
10.1 3.28 -1.68
15.56 5.05 2.01
13.23 4.29 -1.71
16.35 5.3 2.72
19.55 6.34 -1.8
15.86 5.14 3.24
6 1.93 -1.69
45.79 14.69 0.84
6.95 2.23 -1.69
8.22 2.64 -1.68
14.99 4.81 1.38
10.09 3.24 -1.68
15.56 4.99 2.01
13.22 4.24 -1.7
16.34 5.24 2.72
19.52 6.26 -1.79
6.02 1.91 -1.69
6.95 2.2 -1.68
8.22 2.61 -1.68
17.75 5.63 1.63
10.09 3.2 -1.68
15.59 4.94 2.01
13.2 4.19 -1.7
19.51 6.18 -1.79
6.02 1.88 -1.69
6.95 2.18 -1.68
8.21 2.57 -1.67
16.09 5.04 1.47
10.11 3.17 -1.68
15.65 4.9 2.01
13.21 4.14 -1.7
16.48 5.16 2.73
19.48 6.1 -1.79
6.03 1.87 -1.69
6.96 2.15 -1.68
42.87 13.26 2.35
8.2 2.54 -1.67
16.18 5.01 1.48
10.11 3.13 -1.68
17.21 5.32 2.21
13.21 4.09 -1.7
16.41 5.08 2.72
19.45 6.02 -1.78
23.09 7.14 -1.27
6.03 1.84 -1.69
42.05 12.85 0.77
6.96 2.13 -1.68
42.1 12.86 2.31
8.21 2.51 -1.67
16.15 4.93 1.48
10.1 3.09 -1.67
16.28 4.97 2.09
13.2 4.03 -1.7
16.45 5.02 2.72
19.42 5.93 -1.78
23.11 7.06 -1.27
6.02 1.82 -1.69
6.97 2.1 -1.68
41.4 12.49 2.27
8.22 2.48 -1.67
10.09 3.04 -1.67
13.23 3.99 -1.7
19.38 5.85 -1.77
42.14 12.71 -0.77
6.03 1.8 -1.69
6.96 2.07 -1.68
40.66 12.11 2.22
8.22 2.45 -1.67
10.1 3.01 -1.67
13.23 3.94 -1.69
19.35 5.76 -1.77
6.03 1.77 -1.68
6.97 2.05 -1.68
39.97 11.76 2.18
8.23 2.42 -1.67
10.11 2.97 -1.67
13.17 3.87 -1.69
16.52 4.86 2.73
19.32 5.68 -1.76
16.53 4.86 3.35
6.03 1.75 -1.68
34.09 9.9 0.62
6.97 2.03 -1.68
39.23 11.4 2.14
8.22 2.39 -1.66
10.11 2.94 -1.67
16.6 4.82 2.12
13.17 3.83 -1.68
19.3 5.61 -1.76
16.49 4.79 3.34
6.02 1.73 -1.68
6.98 2 -1.68
38.65 11.08 2.11
8.23 2.36 -1.66
10.1 2.9 -1.66
13.18 3.78 -1.68
19.26 5.52 -1.75
16.51 4.73 3.34
39.04 11.19 -0.71
6.03 1.71 -1.68
38.41 10.87 0.7
6.98 1.98 -1.68
38.04 10.76 2.07
8.23 2.33 -1.66
10.09 2.85 -1.66
13.21 3.74 -1.69
19.24 5.44 -1.75
16.5 4.67 3.33
39.02 11.04 -2.13
6.03 1.68 -1.68
37.8 10.55 0.69
6.98 1.95 -1.67
37.44 10.45 2.04
8.23 2.3 -1.66
10.1 2.82 -1.66
54.31 15.16 6.92
13.19 3.68 -1.68
19.22 5.37 -1.75
38.4 10.72 -2.09
6.04 1.66 -1.68
37.18 10.24 0.67
6.98 1.92 -1.67
36.87 10.16 2
8.24 2.27 -1.66
10.11 2.78 -1.66
54.21 14.93 6.9
13.17 3.63 -1.68
19.19 5.29 -1.74
37.8 10.41 -2.05
37.4 10.3 -0.68
6.05 1.64 -1.68
36.62 9.95 0.66
6.99 1.9 -1.67
36.31 9.86 1.97
8.23 2.24 -1.66
10.11 2.75 -1.66
53.36 14.5 6.79
13.18 3.58 -1.68
19.16 5.21 -1.74
37.28 10.13 -2.02
37.25 10.12 -0.67
6.03 1.62 -1.67
36.06 9.66 0.65
7 1.87 -1.67
35.76 9.58 1.94
8.23 2.21 -1.66
10.11 2.71 -1.66
52.64 14.11 6.69
13.14 3.52 -1.67
52.15 13.97 8.55
19.13 5.12 -1.73
37.31 10 -2.02
37.32 10 -0.67
6.04 1.6 -1.67
35.52 9.38 0.64
7 1.85 -1.67
35.26 9.32 1.91
8.24 2.18 -1.66
44.22 11.68 4
10.08 2.66 -1.65
51.87 13.71 6.59
13.12 3.47 -1.67
51.45 13.59 8.43
19.11 5.05 -1.73
37.35 9.87 -2.02
37.4 9.88 -0.68
6.05 1.57 -1.67
35 9.12 0.63
6.99 1.82 -1.67
34.72 9.04 1.88
8.25 2.15 -1.66
44.03 11.47 3.98
10.09 2.63 -1.65
51.15 13.32 6.49
13.1 3.41 -1.66
50.82 13.24 8.32
19.08 4.97 -1.73
50.22 13.08 10.09
37.41 9.74 -2.03
37.46 9.76 -0.68
6.05 1.55 -1.67
34.52 8.86 0.62
7 1.8 -1.67
34.22 8.79 1.85
8.25 2.12 -1.65
10.09 2.59 -1.65
50.44 12.95 6.39
13.09 3.36 -1.66
50.12 12.87 8.19
19.05 4.89 -1.72
37.53 9.64 -2.03
37.51 9.63 -0.68
6.06 1.53 -1.67
34.03 8.61 0.61
7 1.77 -1.67
33.74 8.54 1.82
8.24 2.09 -1.65
43.39 10.98 3.92
10.08 2.55 -1.65
49.72 12.58 6.3
13.09 3.31 -1.66
49.4 12.5 8.07
19.03 4.82 -1.72
34.51 8.73 -1.87
47.9 12.12 11.41
34.24 8.66 -0.62
6.05 1.51 -1.67
33.62 8.38 0.6
7.01 1.75 -1.67
33.3 8.3 1.8
8.25 2.06 -1.65
43.44 10.83 3.92
10.09 2.51 -1.65
49.11 12.24 6.21
13.06 3.26 -1.65
49.31 12.3 8.05
18.97 4.73 -1.71
34.08 8.5 -1.84
47.93 11.95 11.4
33.75 8.41 -0.61
6.05 1.49 -1.67
7.02 1.72 -1.67
32.85 8.08 1.77
8.25 2.03 -1.65
43.51 10.7 3.92
10.08 2.48 -1.64
48.46 11.91 6.13
13.06 3.21 -1.65
48.14 11.83 7.85
18.96 4.66 -1.71
33.58 8.25 -1.81
48.1 11.82 11.44
33.3 8.19 -0.6
6.06 1.47 -1.67
7 1.7 -1.66
32.41 7.85 1.75
8.25 2 -1.65
43.57 10.55 3.92
10.08 2.44 -1.64
47.81 11.58 6.04
13.04 3.16 -1.65
47.47 11.49 7.74
18.94 4.59 -1.71
47.24 11.44 9.45
22.43 5.43 -1.21
48.19 11.67 11.45
32.85 7.95 -0.59
6.07 1.45 -1.67
32.2 7.68 0.58
7.01 1.67 -1.66
32 7.63 1.72
8.26 1.97 -1.65
43.66 10.41 3.93
10.08 2.4 -1.64
47.21 11.26 5.96
12.99 3.1 -1.64
46.92 11.19 7.64
18.92 4.51 -1.7
46.52 11.09 9.3
22.44 5.35 -1.21
32.43 7.73 -0.58
6.07 1.43 -1.67
22.94 5.38 0.41
7.01 1.64 -1.66
22.89 5.37 1.23
8.24 1.93 -1.65
43.74 10.27 3.93
10.08 2.37 -1.64
46.56 10.93 5.87
12.97 3.04 -1.64
46.31 10.87 7.53
18.87 4.43 -1.7
30.46 7.15 -1.64
32.05 7.52 -0.57
6.06 1.4 -1.67
31.31 7.23 0.56
7.02 1.62 -1.66
31.19 7.21 1.68
8.25 1.91 -1.65
43.81 10.12 3.93
10.07 2.33 -1.64
46.01 10.63 5.8
12.95 2.99 -1.63
46.01 10.63 7.48
18.83 4.35 -1.69
22.97 5.31 -1.24
22.96 5.3 -0.41
6.07 1.38 -1.67
31.19 7.09 0.56
7.02 1.6 -1.66
31.21 7.1 1.68
8.26 1.88 -1.65
43.87 9.97 3.94
10.07 2.29 -1.64
45.45 10.34 5.72
12.94 2.94 -1.63
46 10.46 7.47
18.8 4.28 -1.69
22.97 5.22 -1.23
31.24 7.1 -0.56
6.07 1.36 -1.67
31.24 6.99 0.56
7 1.57 -1.66
22.83 5.11 1.23
8.27 1.85 -1.65
43.94 9.83 3.94
10.07 2.25 -1.64
44.92 10.05 5.65
12.94 2.89 -1.63
44.64 9.99 7.25
18.76 4.2 -1.68
45.04 10.08 8.97
30.65 6.86 -1.65
31.29 7 -0.56
6.08 1.34 -1.67
31.3 6.89 0.56
7.01 1.54 -1.66
22.82 5.02 1.22
8.26 1.82 -1.64
44.04 9.69 3.95
10.07 2.22 -1.63
44.38 9.77 5.58
12.9 2.84 -1.62
44.12 9.71 7.16
18.74 4.12 -1.68
45.14 9.93 8.99
31.06 6.83 -1.67
31.34 6.9 -0.56
6.08 1.31 -1.67
31.35 6.78 0.56
7.01 1.52 -1.66
22.85 4.95 1.23
8.26 1.79 -1.64
44.26 9.58 3.96
10.07 2.18 -1.63
43.84 9.49 5.51
12.88 2.79 -1.62
43.6 9.43 7.07
18.71 4.05 -1.67
45.21 9.78 8.99
31.35 6.78 -1.68
31.38 6.79 -0.56
6.07 1.29 -1.66
31.4 6.68 0.56
7.02 1.49 -1.66
31.41 6.68 1.68
8.26 1.76 -1.64
43.78 9.31 3.92
10.08 2.14 -1.63
43.33 9.22 5.44
12.86 2.74 -1.61
18.67 3.97 -1.67
45.24 9.62 8.99
31.42 6.68 -1.68
31.44 6.69 -0.56
6.08 1.27 -1.66
31.44 6.58 0.56
7.02 1.47 -1.66
31.46 6.58 1.68
8.27 1.73 -1.64
43.23 9.05 3.86
10.06 2.1 -1.63
42.83 8.96 5.37
12.85 2.69 -1.61
42.18 8.83 6.83
18.65 3.9 -1.67
31.48 6.59 -1.69
31.48 6.59 -0.56
6.08 1.25 -1.66
31.5 6.48 0.56
7.01 1.44 -1.65
31.53 6.48 1.69
8.27 1.7 -1.64
42.77 8.8 3.82
10.06 2.07 -1.63
42.35 8.71 5.31
12.83 2.64 -1.61
42.22 8.68 6.83
18.62 3.83 -1.66
31.51 6.48 -1.69
31.53 6.48 -0.56
6.09 1.23 -1.66
31.55 6.37 0.56
7.01 1.42 -1.65
31.56 6.38 1.69
8.28 1.67 -1.64
42.28 8.54 3.77
10.05 2.03 -1.62
41.86 8.46 5.24
12.81 2.59 -1.6
42.29 8.54 6.83
18.6 3.76 -1.66
45.53 9.2 9.03
31.57 6.38 -1.69
31.59 6.38 -0.56
6.09 1.21 -1.66
31.62 6.27 0.56
7.02 1.39 -1.65
31.62 6.27 1.69
8.27 1.64 -1.64
41.9 8.31 3.74
10.05 1.99 -1.62
41.86 8.3 5.24
12.79 2.54 -1.6
42.35 8.4 6.84
18.56 3.68 -1.66
45.56 9.04 9.03
31.62 6.27 -1.69
31.64 6.28 -0.56
6.08 1.18 -1.66
31.67 6.17 0.56
7.02 1.37 -1.65
31.67 6.17 1.69
8.26 1.61 -1.63
41.94 8.17 3.74
10.04 1.96 -1.62
41.92 8.16 5.24
12.77 2.49 -1.6
42.42 8.26 6.85
18.52 3.61 -1.65
31.67 6.17 -1.69
31.7 6.17 -0.56
6.09 1.16 -1.66
31.7 6.06 0.56
7.02 1.34 -1.65
31.73 6.06 1.69
8.27 1.58 -1.64
42 8.03 3.74
10.04 1.92 -1.62
41.99 8.03 5.25
12.76 2.44 -1.6
42.48 8.12 6.85
18.49 3.53 -1.65
31.73 6.06 -1.69
31.75 6.07 -0.56
6.09 1.14 -1.66
31.76 5.96 0.56
7.02 1.32 -1.65
31.78 5.96 1.69
8.28 1.55 -1.64
42.08 7.89 3.75
10.04 1.88 -1.62
42.05 7.88 5.25
12.74 2.39 -1.59
42.55 7.98 6.86
18.46 3.46 -1.64
31.78 5.96 -1.69
31.8 5.96 -0.56
6.1 1.12 -1.66
7.02 1.29 -1.65
31.82 5.85 1.7
8.28 1.52 -1.64
42.15 7.75 3.75
10.04 1.85 -1.62
42.12 7.75 5.26
12.73 2.34 -1.59
42.64 7.84 6.87
18.43 3.39 -1.64
45.88 8.44 9.07
31.85 5.86 -1.7
6.1 1.1 -1.66
7.02 1.27 -1.65
31.89 5.75 1.7
8.27 1.49 -1.63
42.22 7.61 3.75
10.04 1.81 -1.62
42.19 7.61 5.26
12.71 2.29 -1.59
42.7 7.7 6.87
18.4 3.32 -1.64
45.96 8.29 9.08
21.91 3.95 -1.17
38.92 7.02 -0.69
6.09 1.08 -1.66
7.03 1.24 -1.65
31.94 5.64 1.7
8.26 1.46 -1.63
42.29 7.47 3.76
10.04 1.77 -1.61
42.27 7.47 5.27
12.7 2.24 -1.58
42.75 7.55 6.88
18.38 3.25 -1.63
46.03 8.13 9.09
38.91 6.88 -2.07
38.99 6.89 -0.69
6.09 1.05 -1.66
7.04 1.22 -1.65
32 5.54 1.7
8.27 1.43 -1.63
42.35 7.33 3.76
10.03 1.74 -1.61
42.33 7.33 5.27
12.69 2.2 -1.58
42.83 7.41 6.88
18.34 3.17 -1.63
39.02 6.75 -2.08
39.06 6.76 -0.69
6.1 1.03 -1.66
7.03 1.19 -1.65
32.05 5.43 1.7
8.28 1.4 -1.63
42.41 7.19 3.76
10.03 1.7 -1.61
42.39 7.19 5.28
12.68 2.15 -1.58
42.93 7.28 6.9
18.3 3.1 -1.62
46.18 7.83 9.11
39.09 6.63 -0.69
6.1 1.01 -1.66
39.12 6.5 0.69
7.03 1.17 -1.64
32.08 5.33 1.7
8.27 1.37 -1.63
42.49 7.06 3.77
10.03 1.67 -1.61
42.48 7.06 5.29
12.65 2.1 -1.57
42.99 7.14 6.9
18.28 3.04 -1.62
46.21 7.67 9.11
21.76 3.61 -1.16
39.16 6.5 -0.69
6.1 0.99 -1.66
39.2 6.37 0.69
7.03 1.14 -1.65
32.14 5.22 1.71
8.27 1.34 -1.63
42.58 6.92 3.77
10.03 1.63 -1.61
42.55 6.91 5.29
12.64 2.05 -1.57
43.07 7 6.91
18.24 2.96 -1.62
21.7 3.53 -1.15
39.28 6.38 -0.69
6.09 0.97 -1.65
7.03 1.12 -1.64
32.21 5.12 1.71
8.26 1.31 -1.63
42.63 6.78 3.78
10.03 1.6 -1.61
42.61 6.78 5.3
12.63 2.01 -1.57
43.12 6.86 6.92
18.2 2.9 -1.61
21.69 3.45 -1.15
6.1 0.95 -1.65
7.03 1.09 -1.64
32.26 5.02 1.71
8.27 1.29 -1.63
42.69 6.64 3.78
10.01 1.56 -1.61
42.69 6.64 5.3
12.62 1.96 -1.57
43.2 6.72 6.92
18.16 2.82 -1.61
46.48 7.23 9.14
21.66 3.37 -1.15
6.1 0.93 -1.65
32.53 4.94 0.57
7.02 1.07 -1.64
32.32 4.91 1.71
8.27 1.26 -1.63
42.78 6.5 3.79
10.01 1.52 -1.6
42.76 6.5 5.31
12.61 1.92 -1.57
43.28 6.58 6.93
18.15 2.76 -1.61
46.6 7.08 9.16
21.6 3.28 -1.14
6.1 0.91 -1.65
7.03 1.04 -1.64
32.35 4.8 1.71
8.27 1.23 -1.63
42.86 6.36 3.79
10.02 1.49 -1.61
42.83 6.36 5.32
12.6 1.87 -1.56
43.36 6.43 6.94
18.12 2.69 -1.6
21.56 3.2 -1.14
6.1 0.88 -1.65
7.04 1.02 -1.64
32.4 4.69 1.72
8.27 1.2 -1.62
42.92 6.21 3.79
10.02 1.45 -1.6
42.89 6.2 5.32
12.59 1.82 -1.56
43.41 6.28 6.95
18.1 2.62 -1.6
46.75 6.76 9.18
21.53 3.11 -1.14
6.09 0.86 -1.65
7.05 0.99 -1.64
32.47 4.58 1.72
8.27 1.17 -1.62
42.99 6.07 3.8
10.01 1.41 -1.6
42.98 6.06 5.33
12.58 1.77 -1.56
43.46 6.13 6.95
18.05 2.55 -1.59
46.77 6.6 9.18
21.51 3.03 -1.14
6.09 0.84 -1.65
7.04 0.97 -1.64
32.53 4.47 1.72
8.27 1.14 -1.62
43.11 5.93 3.81
10.02 1.38 -1.6
43.06 5.92 5.34
12.58 1.73 -1.56
43.58 5.99 6.97
18 2.48 -1.59
46.92 6.45 9.21
21.47 2.95 -1.14
6.1 0.82 -1.65
7.04 0.94 -1.64
32.58 4.36 1.72
8.27 1.11 -1.62
10.01 1.34 -1.6
43.11 5.77 5.34
12.57 1.68 -1.56
43.63 5.84 6.97
17.98 2.41 -1.59
47.01 6.3 9.22
21.44 2.87 -1.13
6.11 0.8 -1.65
7.04 0.92 -1.64
32.62 4.25 1.72
8.27 1.08 -1.62
10.02 1.31 -1.6
43.18 5.63 5.35
12.54 1.63 -1.55
43.72 5.7 6.98
17.95 2.34 -1.58
47.03 6.13 9.22
21.41 2.79 -1.13
6.1 0.77 -1.65
7.04 0.89 -1.64
32.69 4.15 1.73
8.27 1.05 -1.62
10.01 1.27 -1.6
43.26 5.49 5.35
12.53 1.59 -1.55
43.78 5.55 6.99
17.92 2.27 -1.58
21.39 2.71 -1.13
6.1 0.75 -1.65
46.24 5.71 0.81
7.05 0.87 -1.64
32.74 4.04 1.73
8.27 1.02 -1.62
10.02 1.24 -1.6
43.35 5.35 5.36
12.51 1.55 -1.55
43.86 5.42 7
17.87 2.21 -1.58
47.27 5.84 9.26
21.35 2.64 -1.13
6.09 0.73 -1.64
33.07 3.97 0.58
7.04 0.85 -1.64
32.81 3.94 1.73
8.28 0.99 -1.62
10 1.2 -1.59
43.41 5.21 5.37
12.51 1.5 -1.55
43.93 5.27 7.01
17.85 2.14 -1.57
47.29 5.67 9.26
21.32 2.56 -1.13
6.1 0.71 -1.65
32.98 3.85 0.58
7.03 0.82 -1.63
32.85 3.83 1.73
8.28 0.96 -1.62
43.68 5.09 3.85
10 1.17 -1.59
43.47 5.07 5.37
12.49 1.46 -1.54
44.02 5.13 7.02
17.81 2.08 -1.57
47.37 5.52 9.27
21.29 2.48 -1.12
6.1 0.69 -1.65
32.91 3.72 0.58
7.03 0.8 -1.63
32.9 3.72 1.73
8.27 0.94 -1.62
43.58 4.93 3.84
9.99 1.13 -1.59
43.56 4.92 5.38
12.48 1.41 -1.54
44.05 4.98 7.02
17.8 2.01 -1.57
47.47 5.37 9.29
21.26 2.4 -1.12
33 3.73 -0.58
6.1 0.67 -1.65
32.96 3.6 0.58
7.04 0.77 -1.64
32.95 3.6 1.74
8.26 0.9 -1.62
43.66 4.77 3.84
10 1.09 -1.59
43.62 4.76 5.39
12.48 1.36 -1.54
44.17 4.82 7.04
17.74 1.94 -1.56
47.54 5.19 9.3
21.23 2.32 -1.12
32.97 3.6 -0.58
6.08 0.64 -1.64
33.01 3.49 0.58
7.04 0.74 -1.63
33.02 3.49 1.74
8.28 0.87 -1.62
43.72 4.62 3.85
10 1.06 -1.59
43.69 4.61 5.39
12.48 1.32 -1.54
44.19 4.67 7.04
17.7 1.87 -1.56
47.62 5.03 9.31
21.2 2.24 -1.12
33.03 3.49 -0.58
6.09 0.62 -1.64
33.06 3.38 0.58
7.05 0.72 -1.64
33.07 3.38 1.74
8.28 0.85 -1.62
43.78 4.47 3.85
9.98 1.02 -1.59
43.78 4.47 5.4
12.47 1.27 -1.54
44.32 4.53 7.06
17.68 1.8 -1.55
21.17 2.16 -1.12
33.1 3.38 -0.58
6.09 0.6 -1.64
33.11 3.26 0.58
7.04 0.69 -1.63
33.13 3.27 1.74
8.28 0.82 -1.62
43.86 4.32 3.86
9.98 0.98 -1.59
43.84 4.32 5.41
12.46 1.23 -1.54
44.37 4.37 7.06
17.65 1.74 -1.55
21.15 2.08 -1.11
33.17 3.27 -0.58
6.1 0.58 -1.64
33.17 3.15 0.58
7.04 0.67 -1.63
33.17 3.15 1.75
8.27 0.79 -1.61
43.94 4.18 3.86
9.97 0.95 -1.59
43.92 4.18 5.42
12.45 1.18 -1.54
44.44 4.22 7.07
17.61 1.67 -1.55
21.12 2.01 -1.11
33.21 3.16 -0.58
6.09 0.56 -1.64
33.23 3.04 0.58
7.05 0.64 -1.63
33.24 3.04 1.75
8.25 0.76 -1.61
44.01 4.03 3.87
9.98 0.91 -1.59
44 4.03 5.43
12.44 1.14 -1.53
44.53 4.08 7.08
17.59 1.61 -1.54
21.1 1.93 -1.11
33.25 3.04 -0.58
6.09 0.54 -1.64
33.28 2.93 0.58
7.03 0.62 -1.63
33.3 2.94 1.75
8.26 0.73 -1.61
44.15 3.89 3.88
9.97 0.88 -1.59
44.08 3.89 5.43
12.43 1.1 -1.53
44.63 3.94 7.1
17.54 1.55 -1.54
21.07 1.86 -1.11
33.32 2.94 -0.58
6.08 0.52 -1.64
33.33 2.82 0.58
7.04 0.6 -1.63
33.36 2.82 1.75
8.26 0.7 -1.61
9.96 0.84 -1.58
44.15 3.74 5.44
12.43 1.05 -1.53
44.7 3.78 7.1
17.5 1.48 -1.54
21.02 1.78 -1.11
33.38 2.83 -0.58
6.09 0.49 -1.64
33.39 2.71 0.58
7.04 0.57 -1.63
33.41 2.71 1.76
8.26 0.67 -1.61
9.96 0.81 -1.58
44.21 3.59 5.45
12.41 1.01 -1.53
44.79 3.63 7.12
17.49 1.42 -1.53
20.99 1.7 -1.1
33.44 2.71 -0.59
6.09 0.47 -1.64
33.45 2.6 0.59
7.04 0.55 -1.63
33.45 2.6 1.76
8.26 0.64 -1.61
9.96 0.77 -1.58
44.3 3.44 5.46
12.41 0.96 -1.53
44.87 3.48 7.13
17.46 1.36 -1.53
20.96 1.63 -1.1
33.48 2.6 -0.59
6.09 0.45 -1.64
33.5 2.48 0.59
7.03 0.52 -1.63
33.52 2.48 1.76
8.25 0.61 -1.61
9.96 0.74 -1.58
44.36 3.29 5.46
12.41 0.92 -1.53
44.89 3.33 7.13
17.42 1.29 -1.53
20.94 1.55 -1.1
33.54 2.49 -0.59
6.08 0.43 -1.63
7.03 0.5 -1.63
33.58 2.37 1.76
8.24 0.58 -1.61
9.95 0.7 -1.58
44.45 3.14 5.47
12.39 0.88 -1.53
17.38 1.23 -1.52
45 3.18 8.77
20.91 1.48 -1.1
6.09 0.41 -1.64
7.04 0.47 -1.63
33.63 2.26 1.77
8.25 0.55 -1.61
44.68 3 3.92
9.95 0.67 -1.58
44.52 2.99 5.48
12.39 0.83 -1.52
17.35 1.16 -1.52
44.89 3.01 8.75
20.88 1.4 -1.1
6.09 0.39 -1.64
7.03 0.45 -1.63
33.69 2.14 1.77
8.25 0.52 -1.61
44.62 2.84 3.91
9.95 0.63 -1.58
44.57 2.84 5.48
12.38 0.79 -1.52
17.32 1.1 -1.52
44.99 2.86 8.76
20.84 1.33 -1.09
6.09 0.37 -1.64
7.02 0.42 -1.62
33.75 2.03 1.77
8.25 0.5 -1.61
44.69 2.69 3.92
9.95 0.6 -1.58
44.67 2.69 5.49
12.35 0.74 -1.52
17.3 1.04 -1.52
45.06 2.72 8.77
20.82 1.26 -1.09
6.1 0.35 -1.64
7.03 0.4 -1.62
33.8 1.92 1.77
8.23 0.47 -1.6
44.8 2.54 3.93
9.95 0.56 -1.58
44.76 2.54 5.5
12.36 0.7 -1.52
17.26 0.98 -1.51
45.14 2.56 8.79
20.8 1.18 -1.09
6.08 0.32 -1.63
39.14 2.09 0.68
7.02 0.37 -1.62
33.85 1.8 1.78
8.24 0.44 -1.6
44.91 2.39 3.93
9.94 0.53 -1.58
44.83 2.39 5.51
12.35 0.66 -1.52
17.22 0.92 -1.51
45.23 2.41 8.8
20.78 1.11 -1.09
6.08 0.3 -1.63
7.03 0.35 -1.62
33.92 1.69 1.78
8.24 0.41 -1.6
45.01 2.24 3.94
9.93 0.49 -1.58
44.91 2.24 5.52
12.35 0.61 -1.52
17.19 0.86 -1.51
45.29 2.25 8.81
20.74 1.03 -1.09
6.08 0.28 -1.63
38.56 1.78 0.67
7.02 0.32 -1.62
33.99 1.57 1.78
8.24 0.38 -1.6
45.08 2.09 3.95
9.93 0.46 -1.57
44.99 2.08 5.53
12.35 0.57 -1.52
17.15 0.79 -1.5
45.36 2.1 8.83
20.71 0.96 -1.09
6.09 0.26 -1.63
34.23 1.46 0.6
7.02 0.3 -1.62
34.02 1.46 1.78
8.23 0.35 -1.6
45.15 1.93 3.95
9.93 0.42 -1.57
45.05 1.93 5.54
12.34 0.53 -1.52
17.13 0.73 -1.5
45.46 1.95 8.84
20.68 0.89 -1.09
6.09 0.24 -1.63
7.01 0.28 -1.62
34.08 1.34 1.79
8.21 0.32 -1.6
45.25 1.79 3.96
9.93 0.39 -1.57
45.13 1.78 5.55
12.34 0.49 -1.52
17.1 0.67 -1.5
45.51 1.8 8.85
20.66 0.82 -1.08
6.08 0.22 -1.63
37.78 1.36 0.66
7.02 0.25 -1.62
34.15 1.23 1.79
8.21 0.3 -1.6
45.31 1.63 3.97
9.93 0.36 -1.57
45.21 1.63 5.55
12.34 0.44 -1.52
17.06 0.61 -1.49
45.6 1.64 8.87
20.64 0.74 -1.08
6.08 0.2 -1.63
37.46 1.22 0.65
7.01 0.23 -1.62
34.22 1.11 1.79
8.22 0.27 -1.6
45.3 1.47 3.97
9.92 0.32 -1.57
45.29 1.47 5.56
12.34 0.4 -1.52
17.01 0.55 -1.49
45.68 1.48 8.88
20.62 0.67 -1.08
6.08 0.18 -1.63
37.18 1.08 0.65
7.01 0.2 -1.62
8.22 0.24 -1.6
14.73 0.43 1.29
9.91 0.29 -1.57
45.36 1.31 5.57
12.33 0.36 -1.52
16.97 0.49 -1.49
45.76 1.33 8.9
20.59 0.6 -1.08
14.48 0.42 3.88
6.07 0.16 -1.63
14.53 0.37 0.25
7.01 0.18 -1.62
8.22 0.21 -1.6
14.71 0.38 1.29
9.92 0.25 -1.57
45.44 1.17 5.58
12.32 0.32 -1.51
16.95 0.44 -1.48
45.84 1.18 8.91
20.57 0.53 -1.08
14.48 0.37 3.34
14.46 0.37 3.88
6.07 0.13 -1.63
7 0.16 -1.62
8.21 0.18 -1.6
14.69 0.33 1.29
9.91 0.22 -1.57
14.51 0.32 1.78
12.32 0.27 -1.51
14.49 0.32 2.3
16.92 0.38 -1.48
14.48 0.32 2.81
20.54 0.46 -1.08
14.46 0.32 3.34
14.48 0.32 3.88
6.07 0.11 -1.63
14.52 0.27 0.25
7 0.13 -1.62
14.48 0.27 0.76
8.2 0.15 -1.59
14.5 0.27 1.27
9.9 0.18 -1.57
14.49 0.27 1.78
12.32 0.23 -1.51
14.49 0.27 2.3
16.87 0.32 -1.48
14.48 0.27 2.82
20.51 0.38 -1.08
14.52 0.27 3.35
6.07 0.09 -1.63
14.49 0.22 0.25
7.01 0.11 -1.62
14.46 0.22 0.76
8.2 0.12 -1.59
14.49 0.22 1.27
9.9 0.15 -1.57
14.5 0.22 1.78
12.31 0.19 -1.51
14.52 0.22 2.3
16.86 0.26 -1.48
46.08 0.7 8.96
14.56 0.22 -0.76
14.55 0.22 -0.25
6.08 0.07 -1.63
14.48 0.17 0.25
7 0.08 -1.62
14.45 0.17 0.76
8.2 0.1 -1.59
14.53 0.17 1.27
9.89 0.12 -1.57
22.65 0.26 2.78
12.32 0.14 -1.51
14.55 0.17 -1.27
46.14 0.54 8.97
14.53 0.17 -0.76
14.52 0.17 -0.25
6.06 0.05 -1.62
14.49 0.12 0.25
7 0.06 -1.62
14.42 0.12 0.76
8.19 0.07 -1.59
46.03 0.38 4.03
9.88 0.08 -1.57
45.83 0.38 5.63
12.3 0.1 -1.51
14.55 0.12 -1.27
46.24 0.38 8.99
14.53 0.12 -0.76
14.54 0.12 -0.25
6.06 0.03 -1.62
14.44 0.07 0.25
6.99 0.03 -1.61
14.4 0.07 0.75
8.17 0.04 -1.59
45.97 0.22 4.02
9.88 0.05 -1.57
45.91 0.22 5.64
12.3 0.06 -1.51
14.56 0.07 -1.27
46.33 0.22 9.01
14.57 0.07 -0.76
34.72 0.16 -0.61
6.06 0.01 -1.62
14.43 0.02 0.25
7 0.01 -1.62
14.38 0.02 0.75
8.17 0.01 -1.59
45.99 0.06 4.02
9.87 0.01 -1.56
46 0.06 5.65
12.3 0.02 -1.51
20.71 0.03 3.28
16.71 0.02 -1.46
46.39 0.06 9.02
20.4 0.02 -1.07
34.77 0.04 -0.61
6.06 -0.01 -1.62
14.41 -0.03 0.25
6.99 -0.02 -1.61
8.18 -0.02 -1.59
46.11 -0.1 4.03
9.85 -0.02 -1.56
46.07 -0.1 5.66
12.31 -0.03 -1.51
20.65 -0.05 3.27
16.68 -0.04 -1.46
46.46 -0.11 9.03
20.37 -0.05 -1.07
34.84 -0.08 -0.61
6.05 -0.03 -1.62
34.86 -0.2 0.61
6.98 -0.04 -1.61
8.17 -0.05 -1.59
14.02 -0.08 1.23
9.85 -0.06 -1.56
22.6 -0.13 2.78
12.3 -0.07 -1.51
20.71 -0.12 3.28
16.64 -0.1 -1.46
46.56 -0.27 9.05
20.33 -0.12 -1.07
34.89 -0.2 -0.61
6.07 -0.05 -1.63
34.92 -0.31 0.61
6.98 -0.06 -1.61
34.92 -0.31 1.83
8.16 -0.07 -1.59
13.99 -0.12 1.22
9.85 -0.09 -1.56
22.08 -0.2 2.71
12.29 -0.11 -1.51
21.54 -0.19 3.41
16.61 -0.15 -1.45
46.64 -0.42 9.07
20.3 -0.18 -1.06
34.96 -0.31 -0.61
6.07 -0.08 -1.63
34.98 -0.44 0.61
6.98 -0.09 -1.61
21.87 -0.27 1.15
8.16 -0.1 -1.59
21.97 -0.27 1.92
9.85 -0.12 -1.56
22.54 -0.28 2.77
12.27 -0.15 -1.51
16.58 -0.21 -1.45
20.28 -0.25 -1.06
13.62 -0.17 3.14
35 -0.44 -0.61
6.04 -0.1 -1.62
35.05 -0.56 0.61
6.98 -0.11 -1.61
35.06 -0.56 1.84
8.14 -0.13 -1.58
22.17 -0.36 1.94
9.85 -0.16 -1.56
46.42 -0.75 5.7
12.29 -0.2 -1.51
13.68 -0.22 2.17
16.53 -0.27 -1.45
20.27 -0.33 -1.06
13.59 -0.22 3.14
35.08 -0.56 -0.61
6.05 -0.12 -1.62
35.09 -0.69 0.61
6.97 -0.14 -1.61
35.1 -0.69 1.84
8.16 -0.16 -1.59
22.32 -0.44 1.95
9.84 -0.19 -1.56
20.6 -0.4 2.53
12.29 -0.24 -1.51
47.24 -0.93 7.48
16.5 -0.32 -1.44
20.24 -0.4 -1.06
13.61 -0.27 3.14
35.13 -0.69 -0.61
6.04 -0.14 -1.62
35.16 -0.81 0.61
6.96 -0.16 -1.61
13.89 -0.32 0.73
8.15 -0.19 -1.59
46.65 -1.08 4.08
9.83 -0.23 -1.56
13.81 -0.32 1.7
12.27 -0.28 -1.51
47.26 -1.09 7.49
16.48 -0.38 -1.44
20.22 -0.47 -1.06
35.2 -0.81 -0.61
6.05 -0.16 -1.62
35.23 -0.94 0.62
6.96 -0.19 -1.61
13.92 -0.37 0.73
8.14 -0.22 -1.58
46.69 -1.24 4.09
9.81 -0.26 -1.55
13.79 -0.37 1.69
12.27 -0.33 -1.51
21.63 -0.58 3.43
16.45 -0.44 -1.44
20.29 -0.54 3.95
20.19 -0.54 -1.06
13.6 -0.36 3.14
35.27 -0.94 -0.62
6.05 -0.18 -1.62
35.28 -1.05 0.62
6.96 -0.21 -1.61
35.29 -1.05 1.85
8.13 -0.24 -1.58
14.08 -0.42 1.23
9.8 -0.29 -1.55
46.73 -1.39 5.74
12.28 -0.37 -1.51
22.93 -0.68 3.63
16.41 -0.49 -1.44
12.98 -0.39 2.52
20.17 -0.6 -1.06
13.58 -0.41 3.14
35.32 -1.05 -0.62
6.05 -0.2 -1.62
35.35 -1.18 0.62
6.96 -0.23 -1.61
35.35 -1.18 1.85
8.13 -0.27 -1.58
14.38 -0.48 1.26
9.81 -0.33 -1.55
46.82 -1.57 5.75
12.28 -0.41 -1.51
22.93 -0.77 3.63
16.36 -0.55 -1.43
14.48 -0.48 2.82
20.17 -0.67 -1.06
13.71 -0.46 3.17
35.37 -1.18 -0.62
6.04 -0.22 -1.62
35.4 -1.31 0.62
6.96 -0.26 -1.61
35.43 -1.31 1.86
8.13 -0.3 -1.58
14.47 -0.54 1.27
9.8 -0.36 -1.55
20.52 -0.76 2.52
12.29 -0.45 -1.51
13.98 -0.52 2.22
16.33 -0.6 -1.43
14.45 -0.53 2.81
20.25 -0.75 -1.06
13.58 -0.5 3.14
35.45 -1.31 -0.62
6.04 -0.25 -1.62
35.44 -1.44 0.62
6.93 -0.28 -1.6
35.48 -1.44 1.86
8.13 -0.33 -1.58
47.22 -1.92 4.13
9.8 -0.4 -1.55
46.98 -1.91 5.77
12.28 -0.5 -1.51
47.72 -1.94 7.56
16.32 -0.66 -1.43
13.61 -0.55 2.65
13.5 -0.55 3.12
35.52 -1.44 -0.62
6.04 -0.26 -1.62
35.49 -1.55 0.62
6.94 -0.3 -1.6
35.54 -1.55 1.86
8.13 -0.35 -1.58
13.5 -0.59 1.18
9.8 -0.43 -1.55
14.31 -0.62 1.76
12.27 -0.54 -1.51
13.95 -0.61 2.21
16.28 -0.71 -1.43
13.22 -0.58 2.57
13.58 -0.59 3.14
35.56 -1.55 -0.62
6.03 -0.29 -1.62
35.59 -1.68 0.62
6.94 -0.33 -1.6
35.61 -1.68 1.87
8.11 -0.38 -1.58
13.82 -0.65 1.21
9.81 -0.46 -1.56
47.15 -2.23 5.8
12.27 -0.58 -1.51
13.94 -0.66 2.21
16.25 -0.77 -1.42
13.92 -0.66 3.22
35.6 -1.68 -0.62
6.01 -0.31 -1.61
35.65 -1.81 0.62
6.94 -0.35 -1.6
35.67 -1.81 1.87
8.11 -0.41 -1.58
13.83 -0.7 1.21
9.8 -0.5 -1.55
13.95 -0.71 1.71
12.28 -0.62 -1.51
13.89 -0.71 2.2
16.2 -0.82 -1.42
35.67 -1.81 -0.62
6.01 -0.33 -1.61
35.68 -1.94 0.62
6.93 -0.38 -1.6
35.75 -1.95 1.88
8.12 -0.44 -1.58
13.85 -0.75 1.21
9.78 -0.53 -1.55
13.34 -0.73 1.64
12.28 -0.67 -1.51
14.27 -0.78 2.26
16.17 -0.88 -1.42
35.74 -1.94 -0.62
6.02 -0.35 -1.61
35.76 -2.07 0.63
6.91 -0.4 -1.6
14.33 -0.83 0.75
8.12 -0.47 -1.58
13.81 -0.8 1.21
9.78 -0.57 -1.55
13.35 -0.77 1.64
12.28 -0.71 -1.51
22.68 -1.31 3.6
16.14 -0.93 -1.41
21.81 -1.26 4.25
20.2 -1.17 4.67
35.8 -2.07 -0.63
6.02 -0.37 -1.62
35.81 -2.2 0.63
6.91 -0.42 -1.6
35.85 -2.2 1.88
8.11 -0.5 -1.58
13.78 -0.85 1.21
9.77 -0.6 -1.55
21.48 -1.32 2.64
12.26 -0.75 -1.51
14.16 -0.87 2.25
16.1 -0.99 -1.41
14.36 -0.88 2.8
20.12 -1.24 4.65
35.87 -2.2 -0.63
6.02 -0.39 -1.62
35.86 -2.32 0.63
6.92 -0.45 -1.6
35.95 -2.33 1.89
8.09 -0.52 -1.58
13.98 -0.9 1.23
9.77 -0.63 -1.55
14.66 -0.95 1.8
10.04 -0.65 -1.24
14.12 -0.91 2.24
16.07 -1.04 -1.41
20.09 -1.3 4.65
35.91 -2.32 -0.63
6 -0.41 -1.61
35.93 -2.45 0.63
6.91 -0.47 -1.6
36 -2.46 1.89
8.09 -0.55 -1.58
47.94 -3.27 4.2
9.77 -0.67 -1.55
14.12 -0.96 1.74
9.89 -0.68 -1.22
13.45 -0.92 2.13
16.07 -1.1 -1.41
15.12 -1.03 2.95
20.05 -1.37 4.64
36 -2.46 -0.63
14.24 -0.97 3.82
5.99 -0.43 -1.61
35.98 -2.57 0.63
6.91 -0.49 -1.6
36.06 -2.58 1.89
8.09 -0.58 -1.58
47.97 -3.43 4.21
9.75 -0.7 -1.55
14.09 -1.01 1.73
9.78 -0.7 -1.2
14.08 -1.01 2.24
9.9 -0.71 -0.87
13.82 -0.99 2.69
14.14 -1.01 3.27
36.09 -2.58 -0.63
14.08 -1.01 3.78
6 -0.45 -1.61
36.09 -2.71 0.63
6.89 -0.52 -1.6
19.49 -1.46 1.02
8.08 -0.61 -1.57
13.47 -1.01 1.18
9.73 -0.73 -1.55
14.22 -1.07 1.75
9.63 -0.72 -1.19
14.06 -1.06 2.23
9.85 -0.74 -0.86
14.12 -1.06 2.75
13.83 -1.04 3.2
36.17 -2.72 -0.63
6.01 -0.47 -1.61
36.17 -2.85 0.63
6.89 -0.54 -1.6
36.18 -2.85 1.9
8.08 -0.64 -1.58
13.46 -1.06 1.18
9.74 -0.77 -1.55
13.97 -1.1 1.72
9.42 -0.74 -1.16
13.15 -1.04 2.09
9.65 -0.76 -0.85
18.74 -1.48 3.65
13.79 -1.09 3.19
13.96 -1.1 3.75
6 -0.49 -1.61
36.26 -2.99 0.64
6.89 -0.57 -1.6
36.26 -2.99 1.91
8.06 -0.67 -1.57
13.77 -1.14 1.21
9.74 -0.8 -1.55
13.87 -1.14 1.71
9.34 -0.77 -1.15
13.06 -1.08 2.08
13.96 -1.15 2.72
14.01 -1.16 3.24
13.47 -1.11 3.62
5.98 -0.51 -1.61
36.32 -3.11 0.64
6.88 -0.59 -1.59
36.32 -3.11 1.91
8.06 -0.69 -1.57
14.02 -1.2 1.23
9.74 -0.84 -1.55
12.63 -1.08 1.56
9.33 -0.8 -1.15
9.64 -0.83 -0.85
13.93 -1.19 2.72
13.99 -1.2 3.76
5.97 -0.53 -1.61
36.37 -3.25 0.64
6.88 -0.61 -1.59
36.39 -3.25 1.91
8.06 -0.72 -1.57
9.72 -0.87 -1.55
13.9 -1.24 1.71
21.39 -1.91 3.4
9.53 -0.85 -0.84
12.96 -1.16 2.53
13.92 -1.24 3.23
36.43 -3.25 -0.64
14.11 -1.26 3.8
5.97 -0.55 -1.61
13.91 -1.29 0.24
6.86 -0.64 -1.59
13.89 -1.29 0.73
8.06 -0.75 -1.57
12.7 -1.18 1.12
9.73 -0.9 -1.55
13.24 -1.23 1.63
9.3 -0.86 -1.15
13.86 -1.29 2.2
9.46 -0.88 -0.83
12.91 -1.2 2.52
13.52 -1.25 3.13
13.96 -1.29 -0.24
14.05 -1.3 3.78
5.98 -0.58 -1.61
13.9 -1.34 0.24
6.86 -0.66 -1.59
13.88 -1.34 0.73
8.05 -0.78 -1.57
13.68 -1.32 1.2
9.72 -0.94 -1.55
12.66 -1.22 1.56
9.19 -0.89 -1.13
9.36 -0.9 -0.82
13.64 -1.31 2.66
13.92 -1.34 -0.73
13.46 -1.3 3.12
13.92 -1.34 -0.24
5.98 -0.6 -1.61
36.58 -3.65 0.64
6.86 -0.68 -1.59
8.03 -0.8 -1.57
9.72 -0.97 -1.55
12.5 -1.25 1.54
9.14 -0.91 -1.13
21.53 -2.15 3.43
9.43 -0.94 -0.83
18.7 -1.87 3.65
13.92 -1.39 -0.73
14.16 -1.41 3.29
5.96 -0.62 -1.61
36.67 -3.79 0.64
6.86 -0.71 -1.59
36.67 -3.79 1.93
8.02 -0.83 -1.57
20.5 -2.12 1.8
9.71 -1 -1.55
12.38 -1.28 1.53
9.11 -0.94 -1.12
21.09 -2.18 3.36
9.23 -0.95 -0.81
18.74 -1.94 3.66
36.69 -3.79 -0.64
5.96 -0.64 -1.61
36.71 -3.92 0.64
6.86 -0.73 -1.59
36.73 -3.92 1.94
8.02 -0.86 -1.57
13.41 -1.43 1.18
9.69 -1.03 -1.54
12.91 -1.38 1.59
9.07 -0.97 -1.12
13.06 -1.39 2.08
9.16 -0.98 -0.81
13.93 -1.49 2.72
20.63 -2.2 4.79
36.75 -3.92 -0.65
5.95 -0.66 -1.61
36.79 -4.05 0.65
6.84 -0.75 -1.59
21.56 -2.38 1.14
8.02 -0.88 -1.57
13.09 -1.44 1.15
9.7 -1.07 -1.54
12.84 -1.42 1.59
9.05 -1 -1.12
13.19 -1.45 2.1
9.17 -1.01 -0.81
13.91 -1.53 2.72
13.82 -1.52 3.21
36.83 -4.06 -0.65
5.96 -0.68 -1.61
36.86 -4.2 0.65
6.84 -0.78 -1.59
36.85 -4.2 1.94
8.01 -0.91 -1.57
12.81 -1.46 1.13
9.7 -1.1 -1.55
12.6 -1.44 1.56
9.03 -1.03 -1.12
13.72 -1.56 2.19
9.18 -1.05 -0.81
18.38 -2.09 3.6
21.06 -2.4 -1.11
13.37 -1.52 3.11
36.9 -4.2 -0.65
5.95 -0.7 -1.6
36.93 -4.34 0.65
6.84 -0.8 -1.59
36.94 -4.34 1.95
8 -0.94 -1.57
12.26 -1.44 1.08
9.7 -1.14 -1.55
12.98 -1.53 1.61
9 -1.06 -1.11
13.73 -1.61 2.19
9.17 -1.08 -0.81
22.2 -2.61 4.34
21.07 -2.47 -1.11
13.6 -1.6 3.16
36.95 -4.34 -0.65
19.89 -2.34 5.37
5.94 -0.72 -1.6
37 -4.47 0.65
6.83 -0.82 -1.59
37 -4.47 1.95
8 -0.97 -1.57
12.93 -1.56 1.14
9.69 -1.17 -1.55
20.88 -2.52 2.58
8.98 -1.09 -1.11
12.98 -1.57 2.07
9.16 -1.11 -0.81
22.08 -2.67 4.32
13.53 -1.63 3.15
14.13 -1.71 3.81
5.93 -0.74 -1.6
20.8 -2.59 0.37
6.82 -0.85 -1.59
20.76 -2.58 1.1
8 -0.99 -1.57
20.97 -2.61 1.85
9.68 -1.2 -1.54
49.07 -6.1 6.07
8.97 -1.12 -1.11
12.81 -1.59 2.05
9.14 -1.14 -0.81
18.98 -2.36 -0.33
5.94 -0.76 -1.61
20.79 -2.66 0.37
6.81 -0.87 -1.59
12.73 -1.63 0.67
7.99 -1.02 -1.57
13.95 -1.78 1.23
9.66 -1.23 -1.54
12.77 -1.63 1.58
8.95 -1.14 -1.11
13.13 -1.68 2.1
20.36 -2.6 4.74
18.89 -2.41 -0.33
19.71 -2.52 5.32
5.93 -0.78 -1.6
20.82 -2.73 0.37
6.81 -0.89 -1.59
37.29 -4.9 1.97
7.99 -1.05 -1.57
12.88 -1.69 1.14
9.66 -1.27 -1.54
12.74 -1.67 1.58
8.92 -1.17 -1.1
13.03 -1.71 2.08
9.14 -1.2 -0.81
20.82 -2.73 4.08
20.44 -2.68 4.76
18.82 -2.47 -0.33
19.68 -2.58 5.32
5.93 -0.8 -1.6
20.85 -2.82 0.37
6.8 -0.92 -1.58
20.28 -2.74 1.07
7.98 -1.08 -1.57
13.8 -1.86 1.22
9.65 -1.3 -1.54
21.04 -2.84 2.61
8.9 -1.2 -1.1
12.79 -1.73 2.04
9.1 -1.23 -0.8
20.84 -2.81 4.09
20.57 -2.78 4.79
18.63 -2.52 -0.33
19.75 -2.67 5.34
5.92 -0.82 -1.6
37.36 -5.18 0.66
6.8 -0.94 -1.59
37.42 -5.19 1.98
7.97 -1.1 -1.56
19.62 -2.72 1.73
9.63 -1.33 -1.54
21.5 -2.98 2.67
8.91 -1.23 -1.1
13.89 -1.92 2.22
9.09 -1.26 -0.8
21.18 -2.94 4.16
20.58 -2.85 4.8
18.51 -2.56 -0.33
5.91 -0.84 -1.6
37.43 -5.32 0.66
6.79 -0.97 -1.58
20.17 -2.87 1.07
7.97 -1.13 -1.56
20.68 -2.94 1.83
9.61 -1.37 -1.54
20.95 -2.98 2.6
8.9 -1.27 -1.1
13.99 -1.99 2.24
9.05 -1.29 -0.8
20.3 -2.89 3.99
21.17 -3.01 4.94
18.5 -2.63 -0.33
19.91 -2.83 5.39
5.91 -0.86 -1.6
19.32 -2.82 0.34
6.78 -0.99 -1.58
37.54 -5.47 1.99
7.96 -1.16 -1.56
22.61 -3.29 2
9.6 -1.4 -1.54
20.88 -3.04 2.59
8.89 -1.3 -1.1
20.78 -3.03 3.33
8.96 -1.31 -0.79
19.77 -2.88 4.61
18.42 -2.68 -0.32
20.83 -3.04 5.64
5.9 -0.88 -1.6
37.61 -5.61 0.66
6.77 -1.01 -1.58
20.03 -2.99 1.06
7.96 -1.19 -1.56
12.83 -1.91 1.14
9.59 -1.43 -1.54
49.77 -7.42 6.18
8.88 -1.32 -1.1
13.97 -2.08 2.24
8.96 -1.34 -0.79
13.72 -2.05 2.7
22.32 -3.33 5.21
18.39 -2.74 -0.32
19.93 -2.97 5.4
5.91 -0.9 -1.6
18.9 -2.89 0.33
6.76 -1.03 -1.58
20.08 -3.07 1.06
7.94 -1.21 -1.56
12.83 -1.96 1.14
9.58 -1.46 -1.54
49.84 -7.61 6.19
8.89 -1.36 -1.1
20.61 -3.15 3.3
8.97 -1.37 -0.79
20.3 -3.1 3.99
19.41 -2.96 4.53
18.34 -2.8 -0.32
21.03 -3.21 5.7
5.89 -0.92 -1.6
18.96 -2.96 0.34
6.77 -1.06 -1.58
37.72 -5.89 2
7.93 -1.24 -1.56
12.77 -2 1.13
9.57 -1.5 -1.53
49.94 -7.8 6.21
8.88 -1.39 -1.1
21.22 -3.32 3.4
8.94 -1.4 -0.79
20.31 -3.17 4
20.88 -3.26 4.88
18.3 -2.86 -0.32
20.55 -3.21 5.57
5.89 -0.94 -1.6
18.78 -3 0.33
6.76 -1.08 -1.58
20.02 -3.2 1.06
7.93 -1.27 -1.56
22.07 -3.53 1.96
9.54 -1.52 -1.53
22.26 -3.56 2.77
8.87 -1.42 -1.1
21.28 -3.4 3.41
8.92 -1.43 -0.79
18.37 -2.94 -0.32
5.89 -0.96 -1.6
18.92 -3.09 0.33
6.75 -1.1 -1.58
20.05 -3.28 1.06
7.92 -1.29 -1.56
21.04 -3.44 1.87
9.53 -1.56 -1.53
50.14 -8.19 6.24
13.16 -2.15 2.11
8.92 -1.46 -0.79
20.78 -3.4 4.86
18.27 -2.99 -0.32
21.4 -3.5 5.81
5.88 -0.98 -1.6
19.03 -3.18 0.34
6.74 -1.13 -1.58
37.5 -6.26 1.99
7.92 -1.32 -1.56
20.75 -3.47 1.84
9.53 -1.59 -1.53
50.25 -8.39 6.25
8.96 -1.5 -1.12
50.94 -8.51 8.18
8.93 -1.49 -0.79
18.29 -3.05 -0.32
21.42 -3.58 5.82
5.87 -1 -1.6
18.77 -3.2 0.33
6.74 -1.15 -1.58
37.59 -6.41 2
7.9 -1.35 -1.56
20.74 -3.54 1.84
9.08 -1.55 -1.46
14.8 -2.52 1.84
8.94 -1.53 -1.11
50.97 -8.69 8.19
8.94 -1.52 -0.79
13.67 -2.33 2.7
20.5 -3.5 4.8
18.25 -3.11 -0.32
5.86 -1.02 -1.59
18.81 -3.28 0.33
6.74 -1.17 -1.58
37.67 -6.56 2
7.89 -1.37 -1.56
20.7 -3.6 1.84
8.96 -1.56 -1.44
50.43 -8.78 6.29
8.94 -1.56 -1.11
8.93 -1.56 -0.79
19.34 -3.37 3.82
20.57 -3.58 4.82
18.15 -3.16 -0.32
20.33 -3.54 5.53
5.86 -1.04 -1.59
18.77 -3.33 0.33
6.73 -1.19 -1.58
37.73 -6.69 2.01
7.88 -1.4 -1.56
22.1 -3.92 1.96
8.91 -1.58 -1.43
50.54 -8.97 6.3
8.95 -1.59 -1.12
13.1 -2.32 2.11
8.93 -1.58 -0.79
19.14 -3.39 3.78
20.86 -3.7 4.89
18.19 -3.23 -0.32
5.87 -1.06 -1.6
18.87 -3.42 0.33
6.72 -1.22 -1.58
37.81 -6.84 2.01
7.89 -1.43 -1.56
22.01 -3.98 1.96
8.92 -1.61 -1.44
50.63 -9.16 6.32
8.95 -1.62 -1.12
13.08 -2.37 2.11
8.96 -1.62 -0.8
13.77 -2.49 2.72
18.18 -3.29 -0.32
5.86 -1.08 -1.6
38.31 -7.07 0.68
6.71 -1.24 -1.58
37.89 -7 2.02
7.88 -1.46 -1.56
37.96 -7.01 3.38
8.94 -1.65 -1.44
50.74 -9.37 6.34
8.94 -1.65 -1.12
8.95 -1.65 -0.8
18.94 -3.5 3.74
19.99 -3.69 4.69
10.62 -1.96 -0.19
5.85 -1.1 -1.59
38.39 -7.23 0.68
6.7 -1.26 -1.58
37.95 -7.14 2.02
7.88 -1.48 -1.56
38.01 -7.16 3.38
8.95 -1.68 -1.44
50.82 -9.57 6.35
8.95 -1.68 -1.12
8.96 -1.69 -0.8
13.87 -2.61 2.74
19.99 -3.76 4.7
10.54 -1.98 -0.19
5.83 -1.12 -1.59
38.45 -7.38 0.68
6.71 -1.29 -1.58
38.02 -7.29 2.03
7.87 -1.51 -1.56
38.07 -7.3 3.39
8.96 -1.72 -1.44
22.4 -4.3 2.8
8.96 -1.72 -1.12
51.6 -9.9 8.32
8.96 -1.72 -0.8
19.86 -3.81 4.67
10.57 -2.03 -0.19
5.83 -1.14 -1.59
38.52 -7.53 0.69
6.7 -1.31 -1.58
38.11 -7.45 2.04
7.85 -1.54 -1.56
38.57 -7.54 3.44
8.95 -1.75 -1.44
51.04 -9.98 6.39
8.98 -1.76 -1.12
51.7 -10.11 8.34
8.96 -1.75 -0.8
10.59 -2.07 -0.19
5.83 -1.16 -1.59
38.6 -7.69 0.69
6.68 -1.33 -1.57
38.62 -7.7 2.06
7.85 -1.56 -1.56
38.69 -7.71 3.45
8.95 -1.78 -1.45
51.13 -10.19 6.4
8.98 -1.79 -1.12
51.82 -10.33 8.37
8.98 -1.79 -0.8
10.6 -2.11 -0.19
5.82 -1.18 -1.59
38.68 -7.85 0.69
6.67 -1.35 -1.57
38.68 -7.85 2.07
7.84 -1.59 -1.55
38.81 -7.87 3.46
8.96 -1.82 -1.45
51.22 -10.39 6.42
8.96 -1.82 -1.12
8.98 -1.82 -0.8
20.88 -4.24 4.14
5.81 -1.2 -1.59
38.76 -7.99 0.69
6.67 -1.38 -1.57
38.76 -7.99 2.07
7.82 -1.61 -1.55
38.88 -8.02 3.47
8.97 -1.85 -1.45
51.34 -10.59 6.44
9.02 -1.86 -1.13
8.99 -1.85 -0.8
20.07 -4.14 4.73
5.8 -1.22 -1.59
38.83 -8.15 0.69
6.67 -1.4 -1.57
38.84 -8.15 2.08
7.8 -1.64 -1.55
38.94 -8.17 3.48
8.97 -1.88 -1.45
51.45 -10.8 6.45
9.03 -1.89 -1.13
8.98 -1.88 -0.8
9.19 -1.93 -0.49
5.79 -1.24 -1.59
38.9 -8.3 0.69
6.66 -1.42 -1.57
38.92 -8.31 2.09
7.8 -1.67 -1.55
39.04 -8.33 3.49
8.96 -1.91 -1.45
20.75 -4.43 2.61
9.02 -1.92 -1.13
21.02 -4.49 3.4
8.99 -1.92 -0.8
9.11 -1.95 -0.49
5.8 -1.26 -1.59
38.99 -8.47 0.7
6.64 -1.44 -1.57
39 -8.47 2.09
7.8 -1.69 -1.55
39.13 -8.5 3.5
8.97 -1.95 -1.45
20.69 -4.49 2.6
9.01 -1.96 -1.13
52.29 -11.35 8.48
9.02 -1.96 -0.81
9.1 -1.98 -0.49
20.15 -4.37 4.76
5.79 -1.28 -1.59
39.08 -8.63 0.7
6.64 -1.47 -1.57
39.08 -8.63 2.1
7.79 -1.72 -1.55
39.19 -8.65 3.51
9.08 -2 -1.47
20.54 -4.53 2.58
9.01 -1.99 -1.13
20.17 -4.45 3.27
9.02 -1.99 -0.81
9.09 -2.01 -0.49
20.15 -4.45 4.76
5.79 -1.3 -1.59
39.15 -8.79 0.7
6.63 -1.49 -1.57
39.15 -8.79 2.1
7.77 -1.74 -1.55
20.24 -4.54 1.81
9.29 -2.08 -1.51
20.16 -4.52 2.54
9 -2.02 -1.13
20.1 -4.51 3.26
9.04 -2.03 -0.81
9.11 -2.04 -0.49
