# .PCD v0.7 - Point Cloud Data file format
VERSION 0.7
FIELDS x y z
SIZE 4 4 4
TYPE F F F
COUNT 1 1 1
WIDTH 2762
HEIGHT 1
VIEWPOINT 0 0 0 1 0 0 0
POINTS 2762
DATA ascii
1.97 -5.9 -1.21
8.12 -24.27 2.24
2.17 -6.48 -1.08
8.09 -24.19 3.13
5.78 -17.27 -2.24
11.34 -33.93 5.67
7.15 -21.39 -1.97
11.32 -33.87 6.94
8.16 -24.42 -1.35
11.47 -34.31 8.35
8.15 -24.38 -0.45
11.42 -34.16 9.65
1.67 -5.04 -1.42
8.05 -24.34 0.45
1.82 -5.5 -1.34
8.04 -24.31 1.34
1.95 -5.91 -1.21
8.03 -24.27 2.24
2.17 -6.57 -1.1
8 -24.2 3.13
5.72 -17.3 -2.24
11.24 -33.97 5.67
7.09 -21.43 -1.97
11.2 -33.86 6.93
8.08 -24.43 -1.35
11.36 -34.36 8.35
8.07 -24.39 -0.45
11.3 -34.18 9.65
1.65 -5.05 -1.42
7.96 -24.34 0.45
1.8 -5.5 -1.34
7.95 -24.32 1.34
1.93 -5.91 -1.21
7.94 -24.29 2.24
2.1 -6.43 -1.07
7.91 -24.2 3.13
5.66 -17.32 -2.24
11.11 -33.99 5.66
7.01 -21.44 -1.97
11.07 -33.86 6.93
7.99 -24.43 -1.35
13.55 -41.46 10.07
7.98 -24.4 -0.45
11.17 -34.19 9.64
1.64 -5.06 -1.43
7.87 -24.36 0.45
1.78 -5.49 -1.33
7.86 -24.32 1.34
1.91 -5.91 -1.21
7.85 -24.3 2.23
2.1 -6.51 -1.08
7.82 -24.21 3.12
5.6 -17.32 -2.24
10.99 -33.99 5.66
6.95 -21.5 -1.98
10.88 -33.67 6.88
7.9 -24.45 -1.35
13.4 -41.46 10.06
7.89 -24.41 -0.45
11.06 -34.21 9.63
1.62 -5.06 -1.42
7.79 -24.38 0.45
1.76 -5.51 -1.33
7.77 -24.33 1.34
1.89 -5.93 -1.21
7.77 -24.32 2.23
2.08 -6.52 -1.08
7.74 -24.23 3.12
5.54 -17.35 -2.24
10.85 -33.98 5.65
6.87 -21.52 -1.98
10.83 -33.9 6.92
7.81 -24.47 -1.35
7.8 -24.41 -0.45
10.93 -34.22 9.63
1.6 -5.06 -1.42
7.69 -24.39 0.45
1.74 -5.51 -1.33
7.68 -24.34 1.34
1.89 -5.99 -1.22
7.67 -24.32 2.23
2.05 -6.5 -1.08
7.65 -24.23 3.12
5.48 -17.38 -2.24
10.73 -34 5.65
6.79 -21.52 -1.97
10.7 -33.91 6.91
7.72 -24.46 -1.34
13.09 -41.48 10.04
7.71 -24.42 -0.45
10.8 -34.22 9.62
1.58 -5.06 -1.42
7.6 -24.39 0.45
1.72 -5.52 -1.34
7.59 -24.36 1.34
1.86 -5.98 -1.22
7.58 -24.32 2.23
2.04 -6.53 -1.08
7.56 -24.25 3.12
5.43 -17.41 -2.24
10.6 -34.01 5.64
6.73 -21.59 -1.98
10.57 -33.91 6.9
7.63 -24.47 -1.34
11.64 -37.35 9.03
7.62 -24.43 -0.45
10.66 -34.21 9.6
1.56 -5.07 -1.42
7.5 -24.38 0.45
1.7 -5.52 -1.33
7.5 -24.36 1.34
1.84 -5.99 -1.22
7.49 -24.34 2.23
2 -6.5 -1.08
7.46 -24.24 3.11
5.36 -17.41 -2.24
10.48 -34.04 5.64
6.65 -21.61 -1.98
10.44 -33.92 6.9
7.53 -24.46 -1.34
7.53 -24.45 -0.45
10.55 -34.27 9.61
1.54 -5.07 -1.42
7.41 -24.38 0.44
1.68 -5.52 -1.33
7.4 -24.35 1.33
1.82 -5.98 -1.21
7.4 -24.35 2.23
1.99 -6.53 -1.08
7.37 -24.25 3.11
5.3 -17.43 -2.24
10.35 -34.05 5.64
6.58 -21.63 -1.98
10.32 -33.94 6.89
7.44 -24.47 -1.34
10.46 -34.41 8.3
7.43 -24.45 -0.45
10.43 -34.3 9.61
1.52 -5.08 -1.42
7.32 -24.39 0.44
1.66 -5.53 -1.33
7.31 -24.37 1.33
1.79 -5.96 -1.21
7.31 -24.35 2.22
1.96 -6.52 -1.08
7.28 -24.27 3.11
5.24 -17.45 -2.24
10.2 -34.01 5.62
6.5 -21.67 -1.98
10.12 -33.74 6.85
7.35 -24.48 -1.34
10.33 -34.42 8.3
7.33 -24.45 -0.45
10.3 -34.34 9.61
1.51 -5.08 -1.42
7.23 -24.42 0.44
1.64 -5.54 -1.33
7.22 -24.38 1.33
1.76 -5.94 -1.21
7.21 -24.35 2.22
1.93 -6.51 -1.08
7.19 -24.27 3.11
5.18 -17.48 -2.24
10.08 -34.02 5.62
6.41 -21.65 -1.98
10.06 -33.96 6.88
7.26 -24.5 -1.34
7.24 -24.45 -0.45
10.16 -34.29 9.58
1.49 -5.09 -1.42
7.14 -24.43 0.44
1.62 -5.54 -1.33
7.13 -24.39 1.33
1.71 -5.85 -1.18
7.12 -24.36 2.22
1.88 -6.43 -1.06
7.1 -24.28 3.11
2.82 -9.66 -1.24
9.95 -34.04 5.62
6.35 -21.7 -1.98
9.93 -33.97 6.88
7.17 -24.52 -1.34
12.19 -41.68 10.03
7.16 -24.47 -0.45
10.04 -34.32 9.58
1.47 -5.09 -1.42
7.06 -24.46 0.44
1.6 -5.55 -1.33
7.04 -24.4 1.33
1.69 -5.84 -1.18
7.03 -24.37 2.22
1.86 -6.45 -1.06
7.01 -24.28 3.1
2.81 -9.74 -1.25
9.85 -34.11 5.62
6.27 -21.72 -1.98
9.81 -33.98 6.87
7.08 -24.52 -1.34
9.95 -34.46 8.28
7.07 -24.48 -0.44
9.9 -34.31 9.57
1.45 -5.1 -1.42
6.98 -24.48 0.44
1.58 -5.55 -1.33
6.96 -24.4 1.33
1.66 -5.82 -1.18
6.95 -24.38 2.22
1.85 -6.5 -1.07
6.92 -24.29 3.1
2.76 -9.68 -1.24
9.76 -34.22 5.64
6.19 -21.72 -1.98
9.69 -34 6.87
6.99 -24.53 -1.34
9.83 -34.48 8.28
6.98 -24.48 -0.44
9.8 -34.39 9.58
1.44 -5.1 -1.42
6.9 -24.52 0.44
1.56 -5.56 -1.33
6.87 -24.42 1.33
1.63 -5.8 -1.17
6.86 -24.39 2.22
1.86 -6.61 -1.09
6.84 -24.3 3.1
2.72 -9.67 -1.23
9.62 -34.22 5.63
6.13 -21.78 -1.98
9.57 -34.01 6.87
6.9 -24.54 -1.34
11.71 -41.62 9.98
6.89 -24.49 -0.44
9.67 -34.38 9.57
1.41 -5.1 -1.42
6.81 -24.54 0.44
1.55 -5.57 -1.33
6.78 -24.43 1.33
1.63 -5.89 -1.19
6.77 -24.39 2.21
1.83 -6.61 -1.09
6.75 -24.31 3.1
2.68 -9.66 -1.23
9.5 -34.23 5.63
6.04 -21.78 -1.98
9.39 -33.83 6.82
6.81 -24.55 -1.34
11.55 -41.63 9.98
6.8 -24.5 -0.44
9.54 -34.36 9.56
1.4 -5.1 -1.42
6.72 -24.55 0.44
1.53 -5.57 -1.33
6.69 -24.43 1.33
1.63 -5.95 -1.2
6.68 -24.41 2.21
1.82 -6.63 -1.09
6.66 -24.32 3.1
2.64 -9.66 -1.23
9.38 -34.25 5.62
5.98 -21.83 -1.98
9.31 -34.02 6.86
6.72 -24.56 -1.33
11.41 -41.66 9.97
6.71 -24.52 -0.44
9.42 -34.4 9.56
1.38 -5.11 -1.42
6.63 -24.57 0.44
1.5 -5.57 -1.33
6.6 -24.45 1.33
1.58 -5.85 -1.18
6.59 -24.42 2.21
6.56 -24.32 3.09
2.6 -9.63 -1.23
9.25 -34.27 5.62
5.9 -21.85 -1.98
9.18 -34.03 6.85
6.62 -24.55 -1.33
11.25 -41.69 9.97
6.62 -24.53 -0.44
9.29 -34.43 9.56
1.36 -5.12 -1.42
6.54 -24.59 0.44
1.48 -5.57 -1.33
6.5 -24.44 1.33
1.57 -5.92 -1.19
6.5 -24.44 2.21
2.74 -10.29 -1.69
6.47 -24.33 3.09
2.57 -9.65 -1.23
9.12 -34.29 5.62
5.83 -21.9 -1.98
9.06 -34.05 6.85
6.54 -24.56 -1.33
11.09 -41.68 9.96
6.53 -24.54 -0.44
9.17 -34.46 9.56
1.35 -5.12 -1.42
6.46 -24.6 0.44
1.47 -5.59 -1.33
6.42 -24.45 1.32
1.56 -5.95 -1.2
6.42 -24.44 2.21
2.7 -10.29 -1.69
6.39 -24.34 3.09
2.53 -9.65 -1.23
9 -34.28 5.61
5.76 -21.93 -1.98
8.94 -34.06 6.84
6.45 -24.57 -1.33
10.52 -40.06 9.56
6.44 -24.53 -0.44
9.04 -34.44 9.54
1.32 -5.12 -1.42
6.37 -24.62 0.44
1.45 -5.6 -1.34
6.33 -24.46 1.32
1.54 -5.94 -1.19
6.32 -24.43 2.21
1.7 -6.58 -1.08
6.3 -24.36 3.09
2.5 -9.67 -1.23
8.87 -34.27 5.61
5.68 -21.93 -1.98
8.82 -34.06 6.84
6.36 -24.57 -1.33
8.94 -34.53 8.23
6.35 -24.54 -0.44
8.92 -34.45 9.53
1.31 -5.12 -1.42
6.28 -24.62 0.44
1.43 -5.61 -1.34
6.24 -24.47 1.32
1.52 -5.96 -1.2
6.23 -24.44 2.21
1.69 -6.63 -1.08
6.21 -24.36 3.09
2.47 -9.67 -1.23
8.71 -34.15 5.58
5.61 -21.97 -1.98
8.66 -33.95 6.81
6.27 -24.58 -1.33
8.82 -34.56 8.23
6.26 -24.55 -0.44
8.78 -34.41 9.51
1.29 -5.13 -1.42
6.19 -24.63 0.44
1.41 -5.61 -1.34
6.15 -24.47 1.32
1.5 -5.96 -1.19
6.15 -24.45 2.21
6.13 -24.37 3.09
2.44 -9.69 -1.23
8.59 -34.16 5.58
5.53 -22 -1.98
8.57 -34.09 6.83
6.18 -24.59 -1.33
8.68 -34.52 8.22
6.17 -24.56 -0.44
8.65 -34.4 9.5
1.27 -5.14 -1.42
6.11 -24.65 0.44
1.39 -5.62 -1.34
6.06 -24.48 1.32
1.48 -5.96 -1.19
6.06 -24.46 2.2
1.61 -6.51 -1.06
6.04 -24.38 3.08
2.4 -9.7 -1.23
8.46 -34.16 5.57
5.45 -22.02 -1.98
8.45 -34.11 6.83
6.09 -24.6 -1.33
6.08 -24.56 -0.44
1.25 -5.14 -1.42
5.99 -24.53 0.44
1.37 -5.62 -1.34
5.97 -24.49 1.32
1.45 -5.95 -1.19
5.97 -24.47 2.2
1.63 -6.67 -1.09
5.95 -24.4 3.08
8.35 -34.23 5.58
5.38 -22.04 -1.98
8.32 -34.12 6.83
6.01 -24.62 -1.33
8.71 -35.71 8.49
5.99 -24.57 -0.44
1.24 -5.14 -1.42
5.9 -24.53 0.44
1.35 -5.62 -1.33
5.89 -24.5 1.32
1.43 -5.95 -1.19
5.88 -24.47 2.2
1.61 -6.68 -1.09
5.87 -24.41 3.08
8.25 -34.32 5.59
5.3 -22.05 -1.98
8.21 -34.13 6.82
5.92 -24.63 -1.33
8.57 -35.64 8.46
5.91 -24.57 -0.44
1.22 -5.14 -1.42
5.81 -24.54 0.44
1.33 -5.62 -1.33
5.8 -24.51 1.32
1.41 -5.95 -1.19
5.8 -24.48 2.2
5.78 -24.42 3.08
8.13 -34.33 5.59
5.22 -22.07 -1.98
8.08 -34.13 6.82
5.83 -24.63 -1.33
8.44 -35.65 8.46
5.82 -24.59 -0.44
1.2 -5.15 -1.42
5.72 -24.55 0.44
1.31 -5.61 -1.33
5.72 -24.52 1.32
1.39 -5.94 -1.19
5.71 -24.5 2.2
5.69 -24.41 3.08
2.27 -9.74 -1.23
8.01 -34.35 5.59
5.15 -22.1 -1.99
7.93 -34.04 6.79
5.74 -24.64 -1.33
8.31 -35.66 8.45
5.73 -24.6 -0.44
1.18 -5.16 -1.42
5.64 -24.57 0.44
1.29 -5.62 -1.33
5.62 -24.52 1.32
1.36 -5.95 -1.19
5.62 -24.51 2.2
1.51 -6.57 -1.07
5.6 -24.42 3.08
2.24 -9.74 -1.23
7.88 -34.36 5.58
5.08 -22.13 -1.99
7.84 -34.15 6.81
5.65 -24.65 -1.33
8.18 -35.67 8.45
5.65 -24.61 -0.44
8.84 -38.54 10.59
1.17 -5.16 -1.42
5.55 -24.57 0.44
1.27 -5.63 -1.33
5.54 -24.53 1.32
1.34 -5.92 -1.18
5.53 -24.52 2.2
2.49 -11.01 -1.79
5.51 -24.43 3.08
2.18 -9.67 -1.22
7.76 -34.36 5.58
5 -22.14 -1.99
7.71 -34.18 6.81
5.57 -24.66 -1.32
8.05 -35.67 8.44
5.56 -24.61 -0.44
8.69 -38.51 10.58
1.14 -5.15 -1.41
5.46 -24.58 0.44
1.25 -5.63 -1.33
5.45 -24.55 1.32
1.31 -5.92 -1.18
5.45 -24.52 2.2
2.44 -11.01 -1.79
5.43 -24.44 3.07
2.15 -9.68 -1.22
7.63 -34.37 5.58
4.92 -22.16 -1.99
7.59 -34.19 6.81
5.48 -24.67 -1.32
7.93 -35.69 8.44
5.47 -24.62 -0.44
8.55 -38.52 10.57
1.13 -5.16 -1.42
5.37 -24.58 0.44
1.23 -5.63 -1.33
5.36 -24.56 1.32
1.29 -5.9 -1.17
5.36 -24.53 2.2
2.4 -10.99 -1.78
5.34 -24.44 3.07
2.11 -9.68 -1.22
7.51 -34.39 5.58
4.85 -22.2 -1.99
7.47 -34.18 6.8
5.39 -24.68 -1.32
7.8 -35.69 8.43
5.38 -24.63 -0.44
8.41 -38.52 10.56
1.11 -5.17 -1.42
5.28 -24.59 0.44
1.21 -5.63 -1.33
5.27 -24.56 1.32
1.27 -5.9 -1.17
5.27 -24.54 2.2
2.37 -11.03 -1.79
5.25 -24.44 3.07
2.08 -9.7 -1.22
7.39 -34.4 5.57
4.78 -22.26 -1.99
7.34 -34.2 6.8
5.3 -24.67 -1.32
7.67 -35.73 8.44
5.29 -24.64 -0.44
8.27 -38.5 10.55
1.09 -5.18 -1.42
5.19 -24.6 0.44
1.19 -5.62 -1.33
5.18 -24.56 1.32
1.25 -5.91 -1.17
5.18 -24.56 2.2
2.18 -10.33 -1.67
5.16 -24.45 3.07
2.04 -9.69 -1.22
7.24 -34.29 5.55
4.69 -22.24 -1.99
7.22 -34.22 6.8
5.21 -24.68 -1.32
7.54 -35.71 8.43
5.21 -24.66 -0.44
8.14 -38.54 10.56
1.08 -5.18 -1.42
5.11 -24.61 0.44
1.17 -5.63 -1.33
5.1 -24.57 1.31
1.23 -5.91 -1.17
5.09 -24.56 2.19
5.08 -24.47 3.07
2.01 -9.7 -1.22
7.11 -34.28 5.54
4.62 -22.29 -1.99
7.08 -34.12 6.77
5.12 -24.7 -1.32
7.18 -34.59 8.15
5.11 -24.65 -0.44
1.05 -5.17 -1.41
5.02 -24.62 0.44
1.15 -5.63 -1.33
5.02 -24.59 1.31
1.21 -5.92 -1.17
5.01 -24.56 2.19
4.99 -24.47 3.07
1.98 -9.71 -1.22
7 -34.29 5.54
4.55 -22.28 -1.99
6.99 -34.24 6.79
5.04 -24.7 -1.32
7.08 -34.7 8.18
5.03 -24.66 -0.44
7.06 -34.59 9.46
1.04 -5.19 -1.42
4.95 -24.72 0.44
1.13 -5.63 -1.33
4.93 -24.58 1.31
1.18 -5.88 -1.17
4.92 -24.57 2.19
4.9 -24.48 3.07
1.95 -9.73 -1.22
6.88 -34.32 5.54
4.47 -22.33 -1.99
6.86 -34.25 6.79
4.95 -24.7 -1.32
6.95 -34.69 8.17
4.94 -24.67 -0.44
6.92 -34.56 9.44
1.02 -5.19 -1.42
4.87 -24.75 0.44
1.11 -5.63 -1.32
4.84 -24.59 1.31
1.16 -5.91 -1.17
4.84 -24.57 2.19
4.82 -24.48 3.06
1.92 -9.73 -1.22
6.79 -34.47 5.56
4.4 -22.34 -1.99
6.75 -34.26 6.79
4.86 -24.7 -1.32
6.86 -34.85 8.2
4.86 -24.68 -0.44
6.81 -34.57 9.44
1 -5.19 -1.42
4.79 -24.77 0.44
1.09 -5.63 -1.32
4.75 -24.58 1.31
1.14 -5.9 -1.17
4.75 -24.59 2.19
4.73 -24.49 3.06
1.88 -9.73 -1.22
6.67 -34.49 5.56
4.32 -22.35 -1.99
6.62 -34.27 6.78
4.78 -24.71 -1.32
7.69 -39.78 9.35
4.77 -24.69 -0.44
6.69 -34.62 9.45
0.98 -5.19 -1.42
4.7 -24.78 0.44
1.07 -5.63 -1.32
4.67 -24.6 1.31
1.12 -5.9 -1.17
4.66 -24.59 2.19
4.65 -24.5 3.06
1.85 -9.74 -1.22
6.54 -34.5 5.56
4.24 -22.37 -1.99
6.5 -34.29 6.78
4.69 -24.72 -1.32
7.55 -39.79 9.35
4.68 -24.69 -0.44
6.57 -34.61 9.44
0.97 -5.19 -1.41
4.61 -24.79 0.44
1.05 -5.63 -1.32
4.58 -24.62 1.31
1.09 -5.88 -1.16
4.57 -24.59 2.19
4.56 -24.51 3.06
1.82 -9.76 -1.22
6.42 -34.51 5.56
4.16 -22.36 -1.99
6.36 -34.21 6.76
4.6 -24.74 -1.32
7.41 -39.81 9.35
4.59 -24.69 -0.44
6.44 -34.61 9.43
0.95 -5.19 -1.41
4.52 -24.79 0.44
1.03 -5.64 -1.32
4.49 -24.63 1.31
1.08 -5.95 -1.18
4.48 -24.6 2.19
1.89 -10.35 -1.67
4.47 -24.53 3.06
1.78 -9.76 -1.22
6.29 -34.53 5.56
4.08 -22.39 -1.99
6.25 -34.29 6.77
4.51 -24.75 -1.32
7.26 -39.82 9.34
4.5 -24.7 -0.44
6.31 -34.64 9.43
0.93 -5.2 -1.42
4.43 -24.8 0.44
1.01 -5.63 -1.32
4.4 -24.63 1.31
1.09 -6.12 -1.21
4.4 -24.61 2.19
1.85 -10.38 -1.67
4.38 -24.53 3.06
1.75 -9.77 -1.22
6.17 -34.55 5.56
4 -22.41 -1.99
6.13 -34.3 6.77
4.42 -24.75 -1.32
7.12 -39.85 9.35
4.42 -24.72 -0.44
6.19 -34.63 9.43
0.91 -5.21 -1.42
4.34 -24.81 0.44
0.99 -5.63 -1.32
4.31 -24.64 1.31
1.07 -6.11 -1.21
4.31 -24.62 2.19
1.81 -10.37 -1.67
4.3 -24.54 3.06
1.71 -9.79 -1.22
6.05 -34.56 5.56
3.93 -22.43 -1.99
6.01 -34.32 6.77
4.34 -24.77 -1.32
6.96 -39.78 9.32
4.33 -24.72 -0.44
6.07 -34.66 9.43
0.89 -5.21 -1.42
4.26 -24.83 0.44
0.97 -5.63 -1.32
4.23 -24.64 1.31
1.04 -6.04 -1.19
4.22 -24.63 2.19
1.78 -10.37 -1.67
4.21 -24.55 3.06
1.68 -9.82 -1.22
5.93 -34.56 5.55
3.85 -22.47 -1.99
5.89 -34.33 6.77
4.25 -24.77 -1.32
1.02 -5.92 1.39
4.24 -24.72 -0.44
5.94 -34.66 9.42
0.87 -5.2 -1.41
4.17 -24.82 0.44
0.95 -5.65 -1.32
4.14 -24.65 1.31
1.02 -6.07 -1.2
4.14 -24.62 2.18
1.57 -9.35 -1.5
4.13 -24.55 3.06
1.67 -9.96 -1.24
5.79 -34.47 5.54
3.77 -22.44 -1.99
5.77 -34.34 6.77
4.17 -24.79 -1.32
1 -5.93 1.39
4.16 -24.73 -0.44
5.83 -34.67 9.42
0.85 -5.2 -1.41
4.08 -24.83 0.44
0.93 -5.64 -1.32
4.06 -24.66 1.31
0.99 -6.01 -1.18
4.05 -24.63 2.18
1.54 -9.35 -1.5
4.04 -24.57 3.06
1.69 -10.25 -1.28
5.66 -34.42 5.53
3.7 -22.49 -1.99
5.64 -34.28 6.75
4.08 -24.79 -1.32
4.07 -24.74 -0.44
5.7 -34.68 9.42
0.84 -5.21 -1.41
3.99 -24.83 0.44
0.91 -5.64 -1.32
3.97 -24.68 1.31
0.96 -5.95 -1.17
3.96 -24.64 2.18
1.5 -9.34 -1.5
3.95 -24.56 3.05
1.7 -10.55 -1.31
5.53 -34.39 5.52
5.47 -34.05 6.7
3.98 -24.79 -1.32
6.42 -39.92 9.33
3.98 -24.75 -0.44
5.58 -34.72 9.42
0.82 -5.22 -1.41
3.9 -24.85 0.44
0.89 -5.65 -1.32
3.88 -24.67 1.31
0.96 -6.1 -1.2
3.87 -24.66 2.18
1.48 -9.43 -1.51
3.86 -24.57 3.05
1.73 -11 -1.37
5.41 -34.44 5.52
5.4 -34.37 6.76
3.9 -24.8 -1.32
5.48 -34.85 8.14
3.89 -24.76 -0.44
0.93 -5.89 1.6
0.8 -5.22 -1.41
3.82 -24.86 0.44
0.87 -5.66 -1.32
3.79 -24.69 1.31
0.94 -6.11 -1.2
3.79 -24.66 2.18
1.5 -9.79 -1.57
3.78 -24.59 3.05
1.75 -11.41 -1.42
5.31 -34.57 5.54
2.95 -19.21 -1.7
5.28 -34.39 6.76
0.91 -5.93 1.39
3.8 -24.76 -0.44
5.33 -34.71 9.41
0.78 -5.21 -1.41
3.73 -24.87 0.44
0.85 -5.67 -1.32
3.7 -24.7 1.31
0.92 -6.11 -1.2
3.7 -24.66 2.18
1.51 -10.07 -1.61
3.69 -24.59 3.05
2.73 -18.17 -2.26
5.2 -34.64 5.55
2.88 -19.23 -1.7
5.16 -34.4 6.76
3.71 -24.77 -0.44
5.21 -34.72 9.41
0.77 -5.21 -1.41
3.65 -24.87 0.44
0.83 -5.67 -1.32
3.63 -24.71 1.31
0.92 -6.24 -1.23
3.62 -24.68 2.18
1.39 -9.49 -1.52
3.61 -24.59 3.05
2.67 -18.18 -2.26
5.08 -34.64 5.55
2.82 -19.18 -1.7
5.05 -34.4 6.76
0.87 -5.92 1.38
3.64 -24.78 -0.44
5.1 -34.74 9.41
0.75 -5.23 -1.41
3.56 -24.88 0.44
0.81 -5.66 -1.32
3.54 -24.72 1.31
0.96 -6.73 -1.32
3.54 -24.69 2.18
1.36 -9.49 -1.52
3.52 -24.59 3.05
2.61 -18.2 -2.26
4.96 -34.65 5.54
2.74 -19.15 -1.69
4.91 -34.26 6.73
0.85 -5.96 1.39
3.55 -24.79 -0.44
4.98 -34.76 9.41
0.73 -5.23 -1.42
3.46 -24.76 0.44
0.79 -5.66 -1.32
3.45 -24.71 1.31
0.87 -6.2 -1.22
3.45 -24.7 2.18
0.92 -6.58 -1.05
3.44 -24.61 3.05
2.54 -18.21 -2.26
4.84 -34.66 5.54
2.67 -19.13 -1.69
4.81 -34.44 6.76
3.46 -24.8 -0.44
4.86 -34.78 9.41
0.71 -5.23 -1.41
3.37 -24.76 0.44
0.77 -5.67 -1.32
3.37 -24.73 1.31
3.36 -24.71 2.18
1.3 -9.55 -1.53
3.35 -24.62 3.05
2.48 -18.22 -2.26
4.72 -34.66 5.54
2.6 -19.12 -1.69
4.69 -34.45 6.76
3.37 -24.8 -0.44
4.73 -34.78 9.41
0.69 -5.22 -1.41
3.28 -24.77 0.44
0.75 -5.67 -1.32
3.27 -24.74 1.31
0.83 -6.26 -1.23
3.27 -24.71 2.18
1.99 -15.05 -2.4
3.26 -24.63 3.05
2.42 -18.25 -2.26
4.59 -34.67 5.54
2.53 -19.11 -1.69
4.56 -34.47 6.76
0.79 -5.93 1.38
3.28 -24.81 -0.44
4.6 -34.78 9.4
0.67 -5.22 -1.41
3.19 -24.77 0.44
0.73 -5.67 -1.32
3.19 -24.75 1.31
0.81 -6.27 -1.23
3.18 -24.72 2.18
0.9 -6.95 -1.11
3.17 -24.63 3.05
2.35 -18.25 -2.26
4.47 -34.69 5.54
2.46 -19.13 -1.69
0.78 -6.03 1.18
4.5 -34.97 8.14
3.2 -24.82 -0.44
0.92 -7.17 1.94
0.66 -5.23 -1.41
3.11 -24.78 0.44
0.71 -5.67 -1.32
3.1 -24.75 1.31
0.79 -6.28 -1.23
3.1 -24.73 2.18
1.89 -15.05 -2.4
3.09 -24.62 3.05
2.29 -18.27 -2.26
4.35 -34.67 5.53
2.4 -19.12 -1.69
0.75 -6 1.18
4.38 -34.95 8.13
3.11 -24.83 -0.44
0.9 -7.18 1.94
0.64 -5.24 -1.41
3.02 -24.8 0.44
0.69 -5.68 -1.32
3.02 -24.75 1.31
0.76 -6.26 -1.23
3.02 -24.74 2.18
1.84 -15.07 -2.4
3 -24.64 3.05
2.23 -18.27 -2.26
4.21 -34.55 5.51
2.33 -19.11 -1.68
0.72 -5.91 1.16
4.88 -40.06 9.32
3.03 -24.84 -0.44
4.24 -34.82 9.4
0.62 -5.25 -1.42
2.93 -24.81 0.44
0.67 -5.68 -1.32
2.93 -24.76 1.31
0.74 -6.28 -1.23
2.92 -24.75 2.18
1.78 -15.09 -2.41
2.91 -24.65 3.05
2.16 -18.29 -2.26
4.08 -34.55 5.51
2.26 -19.12 -1.68
4.08 -34.52 6.76
4.73 -40.05 9.31
2.94 -24.84 -0.44
0.85 -7.23 1.95
0.6 -5.23 -1.41
2.85 -24.82 0.44
0.65 -5.69 -1.32
2.84 -24.77 1.31
0.73 -6.35 -1.24
2.84 -24.75 2.18
1.73 -15.08 -2.4
2.83 -24.66 3.05
2.1 -18.29 -2.26
3.96 -34.56 5.51
2.19 -19.11 -1.68
3.96 -34.52 6.75
4.01 -34.99 8.13
2.85 -24.85 -0.44
0.8 -6.99 1.89
0.58 -5.23 -1.41
2.77 -24.81 0.44
0.63 -5.69 -1.32
2.76 -24.78 1.31
0.69 -6.2 -1.21
2.76 -24.76 2.18
1.68 -15.07 -2.4
2.75 -24.67 3.05
2.04 -18.32 -2.26
3.86 -34.62 5.52
2.13 -19.11 -1.68
3.85 -34.52 6.75
3.9 -35 8.13
2.77 -24.86 -0.44
0.78 -6.98 1.88
0.57 -5.24 -1.41
2.68 -24.83 0.44
0.61 -5.69 -1.32
2.68 -24.79 1.31
0.69 -6.43 -1.26
2.67 -24.77 2.18
1.63 -15.1 -2.41
2.66 -24.66 3.05
1.98 -18.32 -2.26
3.75 -34.71 5.53
2.06 -19.12 -1.68
0.65 -6.03 1.18
4.33 -40.1 9.31
2.68 -24.87 -0.44
0.75 -6.97 1.88
0.55 -5.25 -1.41
2.59 -24.84 0.44
0.59 -5.68 -1.32
2.59 -24.79 1.31
0.64 -6.13 -1.2
2.59 -24.79 2.18
0.74 -7.12 -1.13
2.58 -24.67 3.05
0.74 -7.12 -0.88
3.62 -34.71 5.53
0.74 -7.11 -0.63
0.63 -6.05 1.18
0.74 -7.1 -0.37
4.19 -40.11 9.31
2.6 -24.89 -0.44
0.73 -7.01 1.89
0.53 -5.25 -1.41
0.71 -7.07 0.12
0.71 -7.07 0.37
0.62 -6.2 -1.21
0.72 -7.09 0.62
0.72 -7.1 -1.13
2.49 -24.69 3.05
0.72 -7.09 -0.87
3.5 -34.71 5.53
0.72 -7.09 -0.62
0.59 -5.89 1.15
0.72 -7.1 -0.37
4.05 -40.15 9.32
0.71 -7.07 -0.12
3.52 -34.87 9.39
0.51 -5.25 -1.41
0.69 -7.06 0.12
0.54 -5.57 -1.29
0.69 -7.05 0.37
0.68 -7.03 0.62
0.54 -5.57 -0.89
0.68 -7.03 0.87
0.54 -5.57 -0.69
0.68 -7.03 1.12
0.69 -7.07 -0.62
0.57 -5.89 1.15
0.69 -7.08 -0.37
0.68 -7.03 1.63
0.69 -7.06 -0.12
0.68 -6.99 1.88
0.49 -5.25 -1.41
0.66 -7.05 0.12
0.52 -5.56 -1.29
0.66 -7.04 0.37
0.52 -5.55 -1.08
0.66 -7.02 0.62
0.52 -5.54 -0.88
0.66 -7.04 0.87
0.52 -5.57 -0.69
0.66 -7.03 1.12
0.52 -5.55 -0.49
0.56 -5.99 1.17
0.52 -5.54 -0.29
0.66 -7 1.62
0.66 -7.07 -0.12
0.65 -6.97 1.88
0.47 -5.25 -1.41
0.64 -7.05 0.12
0.64 -7.05 0.37
0.5 -5.55 -1.08
0.63 -7.04 0.62
0.5 -5.54 -0.88
0.63 -7.02 0.87
0.5 -5.55 -0.68
0.63 -7.03 1.12
0.5 -5.54 -0.49
0.54 -5.99 1.17
0.5 -5.54 -0.29
0.63 -7.01 1.62
0.64 -7.08 -0.12
0.63 -6.97 1.88
0.45 -5.25 -1.41
0.61 -7.04 0.37
0.48 -5.54 -1.08
0.61 -7.05 0.62
0.48 -5.54 -0.88
0.61 -7.01 0.86
0.48 -5.55 -0.68
0.61 -7.04 1.12
0.48 -5.54 -0.49
0.52 -5.98 1.17
0.48 -5.53 -0.29
0.61 -7.01 1.63
0.48 -5.58 -0.1
0.61 -7.01 1.88
0.44 -5.25 -1.41
0.46 -5.54 0.1
0.46 -5.54 0.29
0.46 -5.55 0.49
0.46 -5.54 -0.88
0.46 -5.53 0.68
0.46 -5.54 -0.68
0.46 -5.53 0.88
0.46 -5.54 -0.49
0.46 -5.53 1.08
0.46 -5.54 -0.29
0.46 -5.54 1.28
0.46 -5.53 -0.1
0.42 -5.24 -1.41
0.44 -5.55 0.1
0.44 -5.53 0.29
0.44 -5.53 0.49
0.44 -5.56 -0.88
0.44 -5.52 0.68
0.44 -5.55 -0.68
0.44 -5.52 0.88
0.44 -5.55 -0.49
0.44 -5.51 1.07
0.44 -5.54 -0.29
0.44 -5.53 1.28
0.44 -5.56 -0.1
0.44 -5.5 1.48
0.4 -5.25 -1.41
0.42 -5.56 0.1
0.42 -5.55 0.29
0.42 -5.56 0.49
0.43 -5.59 -0.89
0.42 -5.54 0.68
0.43 -5.58 -0.69
0.42 -5.52 0.88
0.42 -5.57 -0.49
0.42 -5.51 1.07
0.42 -5.54 -0.29
0.42 -5.52 1.28
1.9 -24.94 -0.44
0.42 -5.5 1.48
0.38 -5.26 -1.41
1.81 -24.89 0.44
1.81 -24.87 1.31
1.81 -24.85 2.18
1.11 -15.2 -2.41
1.8 -24.75 3.05
0.56 -7.72 1.23
0.43 -5.87 1.14
1.81 -24.94 -0.44
0.41 -5.62 1.51
0.36 -5.25 -1.41
1.72 -24.91 0.44
1.72 -24.87 1.31
0.43 -6.14 -1.2
1.72 -24.86 2.18
1.05 -15.21 -2.41
1.71 -24.76 3.05
1.28 -18.42 -2.27
0.53 -7.67 1.22
1.59 -22.94 -2.01
0.43 -6.28 1.22
2.51 -36.27 8.39
1.73 -24.96 -0.44
0.4 -5.73 1.54
0.35 -5.26 -1.41
1.64 -24.92 0.44
1.63 -24.88 1.31
0.41 -6.19 -1.21
1.63 -24.86 2.18
1 -15.23 -2.42
1.63 -24.79 3.05
1.21 -18.44 -2.27
0.5 -7.57 1.2
1.51 -22.93 -2.01
0.41 -6.27 1.22
1.64 -25 -1.31
2.39 -36.31 8.4
1.64 -24.96 -0.44
0.36 -5.53 1.49
0.33 -5.26 -1.41
1.55 -24.93 0.44
1.55 -24.88 1.31
0.39 -6.24 -1.22
1.55 -24.86 2.18
1.54 -24.81 3.05
1.15 -18.46 -2.27
2.17 -34.81 5.52
1.43 -22.96 -2.01
0.39 -6.23 1.21
1.56 -25.03 -1.31
2.26 -36.31 8.4
1.55 -24.97 -0.44
0.35 -5.64 1.51
1.46 -24.93 0.44
1.46 -24.91 1.31
1.46 -24.87 2.18
0.9 -15.27 -2.42
1.46 -24.83 3.05
1.08 -18.47 -2.27
2.04 -34.82 5.52
1.35 -22.99 -2.01
0.36 -6.06 1.18
1.47 -25.02 -1.31
2.13 -36.29 8.39
1.47 -24.98 -0.44
0.34 -5.73 1.54
1.38 -24.93 0.44
1.38 -24.91 1.31
1.38 -24.88 2.18
0.85 -15.3 -2.43
1.38 -24.87 3.06
1.02 -18.48 -2.27
1.27 -23 -2.02
0.34 -6.19 1.21
1.39 -25.02 -1.31
0.33 -5.94 1.37
1.38 -24.99 -0.44
1.29 -24.95 0.44
1.29 -24.91 1.31
1.29 -24.9 2.18
0.79 -15.3 -2.43
1.29 -24.9 3.06
0.96 -18.48 -2.27
0.34 -6.58 1.04
1.2 -23.07 -2.02
1.8 -34.71 6.76
1.3 -25.04 -1.31
0.31 -5.93 1.37
1.3 -25 -0.44
0.29 -5.59 1.5
1.21 -24.95 0.44
1.21 -24.92 1.31
1.2 -24.9 2.18
0.34 -7.01 -1.11
1.21 -24.92 3.06
0.9 -18.51 -2.28
1.69 -34.84 5.53
1.12 -23.07 -2.02
0.3 -6.2 1.21
1.21 -25.05 -1.31
1.21 -25 -0.44
0.33 -6.76 1.81
1.12 -24.97 0.44
1.12 -24.93 1.31
1.12 -24.9 2.18
0.26 -5.88 -0.93
1.12 -24.94 3.07
0.83 -18.52 -2.28
0.33 -7.3 1.16
1.04 -23.07 -2.02
1.56 -34.73 6.76
1.12 -25.06 -1.31
1.12 -25 -0.44
0.3 -6.73 1.81
1.03 -24.96 0.44
1.03 -24.93 1.31
1.03 -24.91 2.18
0.24 -5.85 -0.93
1.03 -24.96 3.07
0.77 -18.54 -2.28
0.3 -7.31 1.16
0.96 -23.1 -2.02
0.25 -6.09 1.18
1.04 -25.07 -1.32
0.24 -5.91 1.37
1.04 -25.01 -0.44
0.28 -6.73 1.81
0.95 -24.97 0.44
0.22 -5.74 -1.33
0.95 -24.95 1.31
0.24 -6.27 -1.22
0.94 -24.93 2.18
0.58 -15.27 -2.42
0.95 -24.95 3.07
0.7 -18.54 -2.28
1.32 -34.85 5.52
0.88 -23.12 -2.02
0.23 -6.07 1.18
0.95 -25.06 -1.31
0.22 -5.81 1.34
0.95 -25.02 -0.44
0.25 -6.62 1.77
0.86 -24.98 0.44
0.2 -5.72 -1.32
0.86 -24.94 1.31
0.21 -6.1 -1.19
0.86 -24.93 2.18
0.53 -15.28 -2.42
0.86 -24.96 3.07
0.64 -18.57 -2.28
0.27 -7.8 1.24
0.8 -23.16 -2.03
0.2 -5.82 1.13
0.86 -25.08 -1.32
0.2 -5.83 1.35
0.86 -25.03 -0.44
0.23 -6.61 1.77
0.77 -24.99 0.44
0.18 -5.74 -1.33
0.77 -24.96 1.31
0.19 -6.18 -1.2
0.77 -24.94 2.18
0.47 -15.29 -2.42
0.77 -24.98 3.07
0.57 -18.58 -2.28
1.08 -34.81 5.52
0.72 -23.15 -2.03
0.18 -5.84 1.14
0.78 -25.08 -1.32
0.18 -5.98 1.38
0.77 -25.03 -0.44
0.2 -6.6 1.77
0.69 -25 0.44
0.16 -5.74 -1.33
0.68 -24.96 1.31
0.16 -5.99 -1.17
0.68 -24.94 2.18
0.18 -6.59 -1.04
0.96 -34.88 4.28
0.51 -18.59 -2.28
0.2 -7.24 1.15
0.63 -23.15 -2.03
0.16 -5.81 1.13
0.69 -25.1 -1.32
0.17 -6.06 1.4
0.69 -25.04 -0.44
0.18 -6.63 1.78
0.6 -24.99 0.44
0.6 -24.97 1.31
0.15 -6.16 -1.2
0.6 -24.94 2.18
0.37 -15.29 -2.42
0.17 -6.98 0.86
0.45 -18.6 -2.28
0.17 -7.26 1.15
0.56 -23.15 -2.03
0.15 -6.23 1.21
0.6 -25.11 -1.32
0.6 -25.04 -0.44
0.52 -25 0.44
0.52 -24.98 1.31
0.13 -6.1 -1.19
0.52 -24.95 2.18
0.15 -7.16 -1.13
0.14 -6.94 0.85
0.39 -18.62 -2.29
0.72 -34.87 5.52
0.48 -23.16 -2.03
0.13 -6.12 1.19
0.52 -25.1 -1.32
0.76 -36.56 8.44
0.52 -25.05 -0.44
0.73 -35.12 9.41
0.44 -25.01 0.44
0.44 -24.97 1.31
0.11 -6.09 -1.18
0.44 -24.96 2.18
0.11 -6.36 -1.01
0.44 -25.01 3.07
0.32 -18.62 -2.29
0.61 -34.87 5.52
0.4 -23.18 -2.03
0.11 -6.19 1.2
0.44 -25.11 -1.32
0.44 -25.06 -0.44
0.61 -35.15 9.42
0.34 -25.02 0.44
0.34 -24.98 1.31
0.08 -6.06 -1.18
0.34 -24.96 2.18
0.1 -6.9 0.85
0.26 -18.63 -2.29
0.32 -23.19 -2.03
0.09 -6.17 1.2
0.35 -25.13 -1.32
0.51 -36.63 8.46
0.35 -25.06 -0.44
0.09 -6.55 1.75
0.26 -25.03 0.44
0.26 -24.99 1.31
0.06 -6.09 -1.18
0.26 -24.96 2.18
0.07 -7.16 -1.13
0.38 -36.75 4.51
0.2 -18.64 -2.29
0.37 -34.9 5.53
0.24 -23.22 -2.03
0.26 -25.13 -1.32
0.38 -36.68 8.47
0.26 -25.07 -0.44
0.07 -6.54 1.75
0.17 -25.03 0.44
0.17 -25 1.31
0.04 -6.12 -1.19
0.17 -24.97 2.18
0.04 -6.21 -0.98
0.05 -8 0.98
0.13 -18.67 -2.29
0.05 -7.54 1.19
0.16 -23.23 -2.03
0.06 -8.65 1.68
0.17 -25.14 -1.32
0.25 -36.62 8.45
0.17 -25.08 -0.44
0.06 -8.22 2.2
0.09 -25.04 0.44
0.09 -25.01 1.31
0.02 -6.21 -1.21
0.09 -24.99 2.19
0.02 -6.2 -0.98
0.02 -6.76 0.83
0.07 -18.68 -2.29
0.12 -34.93 5.53
0.08 -23.24 -2.03
0.03 -8.8 1.71
0.09 -25.14 -1.32
0.09 -25.09 -0.44
0.03 -8.2 2.2
-0 -25.04 0.44
-0 -5.7 -1.32
-0 -25 1.31
-0 -6.19 -1.2
-0 -24.99 2.19
-0 -7.05 -1.12
-0 -6.98 0.86
-0 -18.67 -2.29
-0.01 -34.93 5.53
-0 -23.28 -2.04
-0 -6.1 1.19
-0 -25.13 -1.32
-0.01 -35.33 8.16
-0 -25.1 -0.44
-0 -7.63 2.05
-0.02 -5.71 -1.32
-0.09 -25.01 1.31
-0.02 -6.21 -1.21
-0.09 -25 2.19
-0.03 -7.22 -1.14
-0.02 -6.62 0.81
-0.07 -18.71 -2.3
-0.03 -7.18 1.14
-0.08 -23.3 -2.04
-0.03 -8.78 1.71
-0.12 -35.33 8.16
-0.09 -25.09 -0.44
-0.04 -5.7 -1.32
-0.18 -25.02 1.31
-0.05 -6.15 -1.2
-0.18 -25 2.19
-0.05 -7.06 -1.12
-0.05 -6.65 0.82
-0.14 -18.7 -2.3
-0.05 -7.17 1.14
-0.17 -23.29 -2.04
-0.06 -8.78 1.71
-0.18 -25.15 -1.32
-0.18 -25.1 -0.44
-0.06 -7.7 2.06
-0.06 -5.69 -1.31
-0.27 -25.03 1.31
-0.07 -6.15 -1.2
-0.27 -25.01 2.19
-0.08 -7.05 -1.12
-0.37 -34.99 4.3
-0.2 -18.72 -2.3
-0.08 -7.16 1.13
-0.25 -23.31 -2.04
-0.23 -22 -1.15
-0.07 -6.68 1.54
-0.27 -25.12 -0.44
-0.08 -7.77 2.08
-0.08 -5.68 -1.31
-0.35 -25.05 1.31
-0.09 -6.18 -1.2
-0.35 -25.03 2.19
-0.1 -7.06 -1.12
-0.49 -34.99 4.3
-0.26 -18.73 -2.3
-0.1 -7.17 1.14
-0.3 -21.08 -1.84
-0.09 -6.15 1.2
-0.36 -25.14 -0.44
-0.11 -7.61 2.04
-0.1 -5.69 -1.31
-0.44 -25.04 1.31
-0.11 -6.09 -1.18
-0.44 -25.04 2.19
-0.12 -7 -1.11
-0.12 -6.7 0.82
-0.33 -18.73 -2.3
-0.36 -20.67 -1.81
-0.11 -6.13 1.19
-0.12 -6.63 1.53
-0.44 -25.14 -0.44
-0.12 -5.68 -1.31
-0.52 -25.05 1.31
-0.13 -6.14 -1.19
-0.52 -25.05 2.19
-0.15 -7.01 -1.11
-0.17 -8.32 1.02
-0.39 -18.74 -2.3
-0.16 -7.84 1.24
-0.18 -8.38 1.63
-0.14 -6.67 1.54
-0.53 -25.14 -0.44
-0.14 -5.71 -1.32
-0.61 -25.07 1.31
-0.15 -6.06 -1.18
-0.61 -25.04 2.19
-0.16 -6.74 -1.07
-0.16 -6.76 0.83
-0.45 -18.75 -2.3
-0.16 -6.4 1.01
-0.5 -20.56 -1.08
-0.61 -25.15 -0.44
-0.16 -5.7 -1.32
-0.7 -25.08 1.31
-0.17 -6.07 -1.18
-0.7 -25.06 2.19
-0.43 -15.42 -2.44
-0.19 -6.79 0.83
-0.52 -18.77 -2.31
-0.18 -6.42 1.02
-0.22 -7.7 1.5
-1.13 -40.57 9.37
-0.7 -25.17 -0.44
-0.21 -7.61 2.04
-0.18 -5.69 -1.31
-0.78 -25.09 1.32
-0.2 -6.37 -1.24
-0.78 -25.07 2.19
-0.22 -6.99 -1.11
-0.21 -6.77 0.83
-0.59 -18.77 -2.31
-0.2 -6.43 1.02
-0.63 -20.15 -1.76
-0.24 -7.82 1.52
-0.63 -20.26 -1.06
-1.27 -40.58 9.37
-0.79 -25.18 -0.44
-0.25 -7.86 2.11
-0.2 -5.7 -1.32
-0.88 -25.09 1.32
-0.22 -6.28 -1.22
-0.88 -25.08 2.2
-0.23 -6.71 -1.06
-0.24 -6.82 0.84
-0.66 -18.78 -2.31
-0.22 -6.44 1.02
-0.7 -20.12 -1.76
-0.21 -6.02 1.17
-0.71 -20.22 -1.06
-1.42 -40.59 9.38
-0.88 -25.19 -0.44
-0.26 -7.56 2.03
-0.22 -5.71 -1.32
-0.96 -25.1 1.32
-0.24 -6.15 -1.2
-0.96 -25.08 2.2
-0.26 -6.68 -1.06
-0.26 -6.83 0.84
-0.72 -18.79 -2.31
-0.27 -7.14 1.13
-0.77 -20.13 -1.76
-0.27 -7.15 1.39
-0.77 -20.2 -1.06
-1.55 -40.61 9.38
-0.96 -25.19 -0.44
-0.29 -7.53 2.02
-0.24 -5.73 -1.32
-1.05 -25.11 1.32
-0.26 -6.23 -1.21
-1.05 -25.08 2.2
-0.28 -6.67 -1.06
-1.47 -35.14 4.32
-0.79 -18.8 -2.31
-0.3 -7.15 1.13
-0.84 -20.13 -1.76
-0.85 -20.19 -1.06
-1.49 -35.48 8.2
-1.06 -25.19 -0.44
-0.28 -6.66 1.79
-0.26 -5.72 -1.32
-1.14 -25.13 1.32
-0.28 -6.15 -1.2
-1.14 -25.09 2.2
-0.3 -6.63 -1.05
-1.59 -35.17 4.32
-0.85 -18.82 -2.31
-0.29 -6.42 1.02
-0.91 -20.13 -1.76
-0.3 -6.65 1.29
-0.91 -20.18 -1.06
-1.6 -35.47 8.2
-1.14 -25.2 -0.44
-0.3 -6.62 1.78
-0.28 -5.71 -1.32
-1.23 -25.13 1.32
-0.3 -6.18 -1.2
-0.34 -6.94 0.61
-0.32 -6.62 -1.05
-0.33 -6.74 0.83
-0.33 -6.7 -0.82
-0.35 -7.18 1.14
-0.98 -20.12 -1.76
-1.74 -35.51 8.21
-1.23 -25.21 -0.44
-0.33 -6.66 1.79
-0.35 -6.7 0.12
-0.3 -5.7 -1.32
-0.35 -6.71 0.35
-0.32 -6.12 -1.19
-0.35 -6.7 0.59
-0.35 -6.63 -1.05
-0.35 -6.72 0.83
-0.35 -6.68 -0.58
-0.35 -6.68 -0.35
-0.35 -6.7 -0.12
-0.35 -6.79 1.82
-0.32 -5.71 -1.32
-0.34 -6.06 -1.18
-0.37 -6.68 0.59
-0.37 -6.64 -1.05
-0.37 -6.67 0.82
-0.33 -5.85 0.93
-0.37 -6.64 -0.58
-0.38 -6.74 1.31
-0.37 -6.63 -0.12
-0.37 -6.64 1.78
-0.4 -6.66 0.12
-0.34 -5.71 -1.32
-0.4 -6.66 0.35
-0.37 -6.16 -1.2
-0.4 -6.66 0.58
-0.39 -6.63 -1.05
-0.4 -6.66 0.82
-0.39 -6.64 -0.82
-0.4 -6.73 1.07
-0.39 -6.63 -0.58
-0.4 -6.72 1.31
-0.39 -6.63 -0.35
-0.4 -6.74 1.56
-0.39 -6.63 -0.12
-0.39 -6.64 1.78
-0.42 -6.64 0.12
-0.36 -5.71 -1.32
-0.42 -6.65 0.35
-0.39 -6.16 -1.2
-0.42 -6.66 0.58
-0.41 -6.56 -1.04
-0.42 -6.65 0.82
-0.42 -6.63 -0.82
-0.42 -6.69 1.06
-0.42 -6.63 -0.58
-0.42 -6.73 1.31
-0.42 -6.62 -0.35
-0.42 -6.75 1.56
-0.42 -6.64 -0.12
-0.42 -6.72 1.8
-0.44 -6.63 0.12
-0.38 -5.7 -1.32
-0.44 -6.65 0.35
-0.41 -6.16 -1.2
-0.44 -6.68 0.59
-0.43 -6.42 -1.02
-0.44 -6.65 0.82
-0.44 -6.64 -0.82
-0.42 -6.36 1.01
-0.44 -6.63 -0.58
-0.45 -6.74 1.31
-0.44 -6.61 -0.35
-0.45 -6.79 1.57
-0.44 -6.63 -0.12
-0.45 -6.73 1.81
-0.46 -6.63 0.12
-0.4 -5.7 -1.32
-0.46 -6.64 0.35
-0.43 -6.18 -1.2
-0.47 -6.69 0.59
-0.46 -6.57 -1.04
-0.47 -6.67 0.82
-0.46 -6.63 -0.82
-0.46 -6.59 1.05
-0.46 -6.63 -0.58
-0.46 -6.62 -0.35
-0.46 -6.63 -0.12
-0.49 -6.65 0.12
-0.42 -5.7 -1.32
-0.49 -6.68 0.35
-0.45 -6.17 -1.2
-0.49 -6.73 0.59
-0.49 -6.64 -1.05
-0.49 -6.71 0.83
-0.49 -6.7 -0.83
-0.49 -6.66 -0.58
-0.48 -6.53 1.27
-0.49 -6.63 -0.35
-0.5 -6.77 1.57
-0.49 -6.63 -0.12
-0.45 -6.18 1.66
-0.51 -6.68 0.12
-0.44 -5.72 -1.32
-0.47 -6.17 -1.2
-1.93 -25.17 2.21
-0.52 -6.77 0.83
-2.7 -35.15 5.58
-0.52 -6.73 -0.59
-0.52 -6.76 1.57
-0.48 -6.21 1.67
-2.03 -25.23 0.44
-0.46 -5.71 -1.32
-2.02 -25.19 1.32
-0.5 -6.22 -1.21
-2.02 -25.17 2.21
-0.54 -6.78 0.83
-0.48 -5.95 0.95
-0.53 -6.59 1.29
-0.55 -6.79 1.57
-2.03 -25.28 -0.44
-0.5 -6.22 1.67
-2.11 -25.23 0.44
-0.48 -5.7 -1.32
-2.11 -25.2 1.33
-0.52 -6.21 -1.21
-2.11 -25.18 2.21
-1.3 -15.51 -2.46
-2.97 -35.39 4.36
-1.59 -18.92 -2.33
-0.5 -5.94 0.94
-1.69 -20.15 -1.77
-0.57 -6.81 1.33
-0.53 -6.29 1.46
-2.12 -25.29 -0.44
-2.95 -35.21 9.47
-2.2 -25.24 0.44
-0.5 -5.72 -1.33
-2.2 -25.2 1.33
-0.54 -6.24 -1.22
-2.2 -25.2 2.21
-1.35 -15.51 -2.47
-3.09 -35.36 4.36
-1.65 -18.92 -2.33
-3.07 -35.18 5.59
-1.78 -20.34 -1.79
-0.61 -7.01 1.37
-0.56 -6.36 1.47
-2.21 -25.3 -0.44
-2.29 -25.25 0.44
-0.52 -5.73 -1.33
-2.29 -25.2 1.33
-0.56 -6.21 -1.21
-2.29 -25.2 2.21
-1.41 -15.53 -2.47
-3.2 -35.28 4.35
-1.72 -18.92 -2.33
-0.55 -6.06 0.96
-0.63 -6.99 1.36
-1.85 -20.38 -1.07
-0.58 -6.36 1.47
-2.3 -25.3 -0.44
-0.56 -6.12 1.65
-2.38 -25.26 0.44
-0.54 -5.72 -1.33
-2.38 -25.23 1.33
-0.59 -6.25 -1.22
-2.38 -25.21 2.21
-1.47 -15.54 -2.47
-3.33 -35.25 4.35
-1.79 -18.93 -2.33
-0.65 -6.92 1.1
-1.91 -20.29 -1.78
-1.92 -20.39 -1.07
-2.39 -25.31 -0.44
-2.47 -25.26 0.44
-0.56 -5.73 -1.33
-2.47 -25.23 1.33
-0.61 -6.21 -1.21
-0.75 -7.69 0.68
-0.7 -7.15 -1.14
-3.45 -35.26 4.35
-1.85 -18.91 -2.33
-0.65 -6.64 1.06
-1.99 -20.38 -1.79
-3.41 -34.82 6.8
-0.61 -6.24 1.45
-2.48 -25.32 -0.44
-0.67 -6.88 1.85
-2.56 -25.28 0.44
-0.58 -5.74 -1.33
-2.56 -25.24 1.33
-0.63 -6.24 -1.22
-0.76 -7.5 0.66
-0.72 -7.13 -1.14
-0.66 -6.54 0.81
-1.92 -18.93 -2.34
-0.62 -6.07 0.97
-2.07 -20.44 -1.8
-3.53 -34.81 6.8
-2.57 -25.36 -1.34
-3.79 -37.35 8.67
-2.57 -25.33 -0.44
-0.7 -6.89 1.86
-0.6 -5.74 -1.33
-2.65 -25.24 1.33
-0.65 -6.17 -1.21
-0.79 -7.49 0.66
-0.75 -7.17 -1.14
-0.68 -6.52 0.8
-1.99 -18.93 -2.34
-0.64 -6.05 0.96
-2.48 -23.62 -2.08
-3.66 -34.84 6.81
-2.66 -25.37 -1.34
-3.92 -37.35 8.67
-2.66 -25.34 -0.44
-0.65 -6.22 1.68
-0.62 -5.74 -1.33
-2.74 -25.24 1.33
-0.67 -6.2 -1.21
-0.81 -7.49 0.66
-1.69 -15.55 -2.48
-2.05 -18.93 -2.34
-0.66 -6.05 0.96
-2.56 -23.62 -2.08
-3.78 -34.87 6.82
-2.75 -25.39 -1.34
-4.05 -37.38 8.68
-2.75 -25.34 -0.44
-0.9 -8.27 2.23
-0.65 -5.76 -1.34
-2.83 -25.26 1.33
-0.7 -6.22 -1.22
-2.83 -25.25 2.22
-1.74 -15.55 -2.48
-0.74 -6.59 0.81
-2.12 -18.95 -2.34
-2.65 -23.64 -2.08
-3.9 -34.86 6.82
-2.84 -25.39 -1.34
-0.75 -6.7 1.56
-2.84 -25.35 -0.45
-0.92 -8.26 2.23
-2.92 -25.27 1.33
-0.72 -6.22 -1.22
-0.87 -7.52 0.66
-0.85 -7.32 -1.17
-4.1 -35.47 4.38
-2.19 -18.97 -2.34
-0.71 -6.11 0.97
-2.73 -23.65 -2.08
-4.03 -34.88 6.83
-2.93 -25.39 -1.34
-0.69 -5.99 1.39
-2.93 -25.36 -0.45
-0.95 -8.24 2.22
-3 -25.28 1.33
-0.74 -6.23 -1.22
-3 -25.26 2.23
-0.87 -7.34 -1.17
-4.22 -35.47 4.39
-2.25 -18.97 -2.35
-0.73 -6.12 0.98
-2.82 -23.7 -2.09
-4.15 -34.93 6.84
-3.02 -25.39 -1.34
-3.02 -25.38 -0.45
-0.98 -8.23 2.22
-3.09 -25.27 1.33
-0.77 -6.27 -1.23
-3.09 -25.27 2.23
-0.9 -7.34 -1.17
-0.85 -6.94 0.86
-2.32 -18.96 -2.34
-0.75 -6.09 0.97
-2.9 -23.68 -2.09
-4.27 -34.91 6.84
-3.11 -25.41 -1.34
-0.82 -6.68 1.55
-3.11 -25.38 -0.45
-1 -8.16 2.2
-3.19 -25.28 1.34
-0.79 -6.26 -1.23
-3.19 -25.28 2.23
-0.93 -7.35 -1.17
-0.81 -6.4 0.79
-2.39 -18.97 -2.35
-4.45 -35.29 5.63
-2.99 -23.68 -2.09
-4.41 -34.93 6.84
-3.21 -25.43 -1.34
-0.84 -6.66 1.55
-3.2 -25.38 -0.45
-1.03 -8.16 2.21
-3.28 -25.3 1.34
-0.81 -6.26 -1.23
-3.28 -25.27 2.23
-0.8 -6.16 0.76
-2.46 -18.98 -2.35
-4.58 -35.3 5.64
-3.07 -23.67 -2.09
-4.53 -34.95 6.85
-3.3 -25.45 -1.34
-0.84 -6.51 1.52
-3.29 -25.38 -0.45
-1.06 -8.14 2.2
-3.37 -25.31 1.34
-0.83 -6.23 -1.22
-3.37 -25.29 2.23
-0.95 -7.12 -1.14
-0.82 -6.19 0.77
-2.53 -18.98 -2.35
-0.98 -7.34 1.17
-3.15 -23.68 -2.09
-1.12 -8.41 1.65
-3.39 -25.46 -1.35
-0.81 -6.11 1.42
-3.38 -25.4 -0.45
-1.07 -8.06 2.18
-3.46 -25.31 1.34
-0.85 -6.25 -1.23
-3.46 -25.3 2.23
-2.12 -15.55 -2.49
-4.83 -35.37 4.38
-2.59 -18.99 -2.35
-1.01 -7.36 1.18
-3.24 -23.7 -2.09
-1.15 -8.4 1.65
-3.48 -25.45 -1.35
-3.47 -25.42 -0.45
-1.09 -8 2.16
-6.36 -45.35 0.8
-3.55 -25.32 1.34
-0.87 -6.2 -1.22
-3.55 -25.3 2.24
-2.18 -15.56 -2.49
-0.88 -6.31 0.78
-2.66 -18.98 -2.35
-1.02 -7.29 1.17
-3.32 -23.7 -2.09
-1.18 -8.38 1.65
-3.57 -25.46 -1.35
-3.56 -25.43 -0.45
-1.12 -8 2.17
-3.64 -25.32 1.34
-0.88 -6.15 -1.21
-3.64 -25.3 2.24
-2.24 -15.58 -2.49
-0.88 -6.11 0.76
-2.73 -18.98 -2.36
-1.05 -7.3 1.17
-3.41 -23.72 -2.1
-1.04 -7.21 1.42
-3.66 -25.47 -1.35
-0.93 -6.47 1.51
-3.65 -25.41 -0.45
-1.19 -8.29 2.24
-6.45 -43.77 0.77
-3.73 -25.34 1.34
-0.9 -6.14 -1.21
-3.73 -25.3 2.24
-1.06 -7.19 -1.15
-2.8 -18.99 -2.36
-1.05 -7.14 1.14
-3.49 -23.7 -2.1
-1.01 -6.82 1.34
-3.75 -25.47 -1.35
-5.26 -35.71 8.33
-3.75 -25.43 -0.45
-1.22 -8.26 2.24
-3.82 -25.35 1.34
-0.93 -6.16 -1.21
-3.82 -25.32 2.24
-1.14 -7.56 0.94
-2.86 -18.98 -2.36
-5.34 -35.37 5.67
-3.57 -23.68 -2.1
-1.07 -7.12 1.4
-3.84 -25.47 -1.35
-5.39 -35.73 8.34
-3.84 -25.44 -0.45
-1.24 -8.22 2.23
-3.95 -25.6 0.45
-3.92 -25.35 1.34
-0.95 -6.16 -1.21
-3.91 -25.34 2.24
-2.4 -15.56 -2.49
-1.14 -7.4 0.92
-2.93 -18.99 -2.36
-5.47 -35.4 5.67
-3.66 -23.7 -2.1
-1.1 -7.13 1.4
-3.93 -25.47 -1.35
-5.52 -35.74 8.35
-3.93 -25.45 -0.45
-1.29 -8.35 2.26
-4.02 -25.46 0.45
-4.01 -25.36 1.35
-0.98 -6.18 -1.22
-4.01 -25.36 2.25
-2.46 -15.56 -2.49
-3 -18.98 -2.36
-5.6 -35.41 5.68
-3.75 -23.72 -2.1
-1.13 -7.13 1.4
-4.03 -25.48 -1.35
-0.99 -6.26 1.46
-4.02 -25.46 -0.45
-6.48 -40.98 11.12
-4.11 -25.41 0.45
-4.1 -25.36 1.35
-1 -6.21 -1.22
-4.1 -25.36 2.25
-1.15 -7.09 -1.14
-1.2 -7.41 0.92
-3.07 -18.97 -2.36
-5.72 -35.41 5.68
-3.84 -23.76 -2.11
-4.12 -25.51 -1.35
-0.97 -6.03 1.41
-4.11 -25.46 -0.45
-1.07 -6.62 1.8
-4.2 -25.41 0.45
-4.19 -25.37 1.35
-1.02 -6.19 -1.22
-4.19 -25.36 2.25
-2.57 -15.57 -2.5
-1.18 -7.14 0.89
-3.14 -18.98 -2.36
-5.85 -35.41 5.68
-3.92 -23.76 -2.11
-4.22 -25.52 -1.36
-5.91 -35.77 8.37
-4.21 -25.47 -0.45
-1.09 -6.59 1.79
-4.28 -25.42 0.45
-4.28 -25.39 1.35
-1.05 -6.21 -1.22
-4.27 -25.36 2.25
-2.62 -15.56 -2.5
-1.25 -7.42 0.92
-3.2 -18.99 -2.36
-1.32 -7.82 1.26
-4 -23.77 -2.11
-5.95 -35.32 6.96
-4.3 -25.54 -1.36
-6.03 -35.78 8.38
-4.29 -25.48 -0.45
-1.11 -6.61 1.8
-4.37 -25.43 0.45
-4.37 -25.39 1.35
-1.06 -6.18 -1.22
-4.36 -25.37 2.25
-2.68 -15.57 -2.5
-1.11 -6.47 0.81
-3.27 -18.99 -2.37
-6.1 -35.45 5.7
-4.09 -23.77 -2.11
-6.08 -35.36 6.97
-4.39 -25.53 -1.36
-6.16 -35.8 8.39
-4.39 -25.49 -0.45
-1.14 -6.63 1.8
-4.47 -25.43 0.45
-4.46 -25.39 1.35
-1.08 -6.16 -1.22
-4.46 -25.38 2.25
-1.23 -6.99 -1.12
-6.24 -35.49 4.42
-3.34 -18.98 -2.37
-6.23 -35.45 5.7
-4.18 -23.78 -2.11
-1.16 -6.6 1.3
-4.49 -25.54 -1.36
-4.48 -25.5 -0.45
-1.16 -6.57 1.79
-4.56 -25.44 0.45
-4.56 -25.41 1.35
-1.1 -6.14 -1.21
-4.55 -25.38 2.26
-1.25 -6.98 -1.12
-1.17 -6.55 0.82
-3.4 -18.98 -2.37
-6.36 -35.46 5.71
-4.26 -23.76 -2.11
-1.21 -6.74 1.33
-4.58 -25.54 -1.36
-1.06 -5.93 1.39
-4.57 -25.5 -0.45
-1.18 -6.58 1.79
-4.65 -25.45 0.45
-4.65 -25.42 1.35
-1.12 -6.12 -1.21
-4.64 -25.39 2.26
-2.85 -15.57 -2.51
-3.47 -19 -2.37
-6.48 -35.45 5.71
-4.34 -23.76 -2.11
-1.32 -7.24 1.43
-4.67 -25.55 -1.36
-1.08 -5.9 1.39
-4.66 -25.51 -0.45
-7.54 -41.23 11.23
-4.74 -25.45 0.45
-4.74 -25.43 1.36
-1.15 -6.15 -1.22
-4.74 -25.4 2.26
-2.9 -15.57 -2.51
-1.21 -6.51 0.81
-3.54 -18.98 -2.37
-6.62 -35.48 5.72
-4.43 -23.76 -2.11
-4.76 -25.56 -1.36
-1.1 -5.9 1.39
-4.76 -25.52 -0.45
-1.22 -6.56 1.79
-4.84 -25.46 0.45
-4.83 -25.43 1.36
-1.17 -6.15 -1.22
-4.83 -25.42 2.26
-2.96 -15.57 -2.51
-1.16 -6.1 0.76
-3.61 -18.99 -2.37
-1.53 -8.06 1.3
-4.51 -23.73 -2.11
-4.86 -25.56 -1.36
-4.85 -25.54 -0.45
-1.25 -6.55 1.79
-4.93 -25.48 0.45
-4.93 -25.43 1.36
-1.19 -6.15 -1.22
-4.93 -25.44 2.27
-3.01 -15.56 -2.51
-1.17 -6.05 0.76
-3.67 -18.97 -2.37
-1.56 -8.06 1.3
-4.6 -23.75 -2.12
-4.95 -25.58 -1.37
-1.14 -5.89 1.39
-4.95 -25.54 -0.45
-1.27 -6.55 1.79
-5.03 -25.49 0.45
-5.02 -25.44 1.36
-1.21 -6.14 -1.22
-5.02 -25.44 2.27
-3.07 -15.57 -2.51
-7.06 -35.81 4.48
-3.74 -18.97 -2.37
-1.59 -8.04 1.3
-4.68 -23.74 -2.12
-7.02 -35.57 7.05
-5.05 -25.6 -1.37
-1.16 -5.88 1.38
-5.04 -25.54 -0.45
-1.52 -7.72 2.11
-5.12 -25.49 0.45
-5.11 -25.45 1.36
-1.23 -6.1 -1.21
-5.11 -25.43 2.27
-3.13 -15.56 -2.51
-1.24 -6.18 0.77
-3.81 -18.99 -2.38
-4.77 -23.73 -2.12
-7.15 -35.6 7.06
-5.14 -25.6 -1.37
-7.21 -35.88 8.45
-5.13 -25.55 -0.45
-5.22 -25.49 0.45
-5.21 -25.47 1.36
-1.25 -6.09 -1.21
-5.21 -25.44 2.27
-1.27 -6.22 0.78
-3.89 -18.98 -2.38
-4.86 -23.76 -2.12
-1.36 -6.63 1.32
-5.24 -25.6 -1.37
-1.2 -5.85 1.38
-5.23 -25.56 -0.46
-1.58 -7.72 2.11
-5.31 -25.5 0.45
-5.31 -25.47 1.36
-1.27 -6.09 -1.21
-5.3 -25.44 2.27
-1.52 -7.28 -1.18
-3.96 -18.99 -2.38
-4.95 -23.75 -2.12
-5.33 -25.6 -1.37
-1.21 -5.82 1.37
-5.33 -25.57 -0.46
-1.17 -5.61 1.54
-5.41 -25.51 0.46
-5.4 -25.47 1.36
-1.3 -6.11 -1.21
-5.4 -25.46 2.28
-1.52 -7.17 -1.16
-7.56 -35.66 4.48
-4.02 -18.96 -2.38
-1.34 -6.32 1.02
-5.02 -23.69 -2.12
-5.43 -25.6 -1.37
-1.24 -5.84 1.38
-5.42 -25.58 -0.46
-1.19 -5.62 1.54
-5.51 -25.53 0.46
-5.5 -25.48 1.37
-1.32 -6.12 -1.22
-5.49 -25.48 2.28
-1.54 -7.13 -1.16
-1.62 -7.49 0.94
-4.09 -18.96 -2.38
-1.35 -6.27 1.02
-5.13 -23.77 -2.13
-1.46 -6.75 1.34
-5.53 -25.62 -1.37
-1.26 -5.85 1.38
-5.52 -25.58 -0.46
-1.6 -7.4 2.03
-5.6 -25.54 0.46
-5.59 -25.49 1.37
-1.35 -6.17 -1.23
-5.59 -25.47 2.28
-7.81 -35.63 4.48
-4.16 -18.96 -2.38
-7.8 -35.58 5.77
-5.21 -23.75 -2.13
-1.48 -6.74 1.34
-1.57 -7.15 1.69
-5.61 -25.59 -0.46
-5.69 -25.53 0.46
-5.69 -25.5 1.37
-1.38 -6.2 -1.24
-5.68 -25.48 2.28
-1.59 -7.12 -1.16
-1.47 -6.58 0.83
-4.23 -18.96 -2.39
-7.94 -35.6 5.78
-5.27 -23.65 -2.12
-1.51 -6.75 1.35
-5.25 -23.53 -1.26
-1.59 -7.15 1.69
-5.71 -25.6 -0.46
-9.3 -41.73 11.46
-5.79 -25.55 0.46
-5.78 -25.52 1.37
-1.4 -6.2 -1.24
-5.77 -25.49 2.29
-1.6 -7.07 -1.15
-1.49 -6.56 0.83
-4.29 -18.95 -2.39
-8.06 -35.61 5.78
-5.34 -23.59 -2.12
-5.28 -23.31 -1.25
-1.62 -7.16 1.69
-5.8 -25.62 -0.46
-1.28 -5.66 1.55
-5.88 -25.56 0.46
-5.87 -25.52 1.37
-1.42 -6.18 -1.23
-5.87 -25.5 2.29
-1.67 -7.24 -1.18
-8.24 -35.8 4.51
-4.36 -18.95 -2.39
-1.8 -7.8 1.27
-5.45 -23.66 -2.12
-5.31 -23.06 -1.24
-1.35 -5.87 1.39
-5.9 -25.62 -0.46
-1.3 -5.65 1.55
-5.98 -25.57 0.46
-5.97 -25.53 1.37
-1.44 -6.18 -1.23
-5.96 -25.5 2.29
-1.67 -7.16 -1.17
-1.62 -6.94 0.88
-4.43 -18.95 -2.39
-1.82 -7.77 1.26
-5.56 -23.79 -2.14
-1.53 -6.55 1.31
-5.34 -22.82 -1.23
-1.6 -6.84 1.62
-5.99 -25.62 -0.46
-1.4 -6 1.65
-6.07 -25.58 0.46
-6.06 -25.54 1.38
-1.43 -6.01 -1.2
-6.06 -25.51 2.29
-1.73 -7.3 -1.19
-1.52 -6.4 0.81
-4.5 -18.95 -2.39
-8.46 -35.63 5.8
-5.64 -23.76 -2.14
-1.55 -6.52 1.3
-5.36 -22.59 -1.22
-1.63 -6.85 1.62
-6.09 -25.63 -0.46
-1.44 -6.05 1.67
-6.17 -25.58 0.46
-6.16 -25.55 1.38
-1.51 -6.24 -1.25
-6.15 -25.52 2.3
-1.73 -7.19 -1.17
-1.55 -6.42 0.81
-4.57 -18.95 -2.39
-1.36 -5.66 0.92
-5.72 -23.75 -2.14
-1.55 -6.44 1.29
-5.39 -22.38 -1.21
-1.39 -5.75 1.37
-6.18 -25.65 -0.46
-1.84 -7.64 2.11
-6.26 -25.59 0.46
-6.25 -25.56 1.38
-1.52 -6.23 -1.25
-6.25 -25.54 2.3
-1.79 -7.31 -1.19
-1.47 -6.03 0.76
-4.63 -18.93 -2.39
-1.37 -5.61 0.91
-5.81 -23.74 -2.14
-1.84 -7.54 1.51
-5.42 -22.15 -1.2
-1.38 -5.65 1.34
-6.28 -25.66 -0.46
-1.77 -7.22 1.99
-6.36 -25.61 0.46
-6.35 -25.56 1.38
-1.51 -6.07 -1.22
-6.35 -25.55 2.3
-1.7 -6.86 -1.12
-1.8 -7.24 0.92
-4.7 -18.94 -2.4
-8.86 -35.69 5.82
-5.9 -23.73 -2.14
-3.17 -12.77 2.56
-5.45 -21.94 -1.18
-8.95 -36.03 8.57
-6.37 -25.66 -0.46
-1.82 -7.32 2.02
-6.46 -25.62 0.46
-6.45 -25.57 1.38
-1.5 -5.96 -1.19
-6.44 -25.55 2.31
-1.83 -7.25 -1.18
-1.54 -6.12 0.78
-4.77 -18.93 -2.4
-1.4 -5.55 0.91
-5.5 -21.81 -1.97
-1.92 -7.6 1.52
-5.48 -21.75 -1.18
-9.09 -36.04 8.58
-6.47 -25.67 -0.46
-1.87 -7.42 2.05
-6.56 -25.62 0.46
-6.55 -25.59 1.38
-1.55 -6.07 -1.22
-6.54 -25.54 2.31
-1.88 -7.34 0.93
-4.85 -18.93 -2.4
-1.42 -5.56 0.91
-5.48 -21.39 -1.93
-1.95 -7.61 1.53
-5.52 -21.56 -1.17
-1.82 -7.12 1.7
-6.57 -25.67 -0.46
-1.82 -7.1 1.96
-6.65 -25.62 0.46
-6.65 -25.6 1.39
-1.57 -6.03 -1.21
-6.64 -25.56 2.31
-1.69 -6.5 -1.06
-1.94 -7.45 0.95
-4.91 -18.92 -2.4
-1.44 -5.54 0.91
-5.49 -21.14 -1.91
-2.99 -11.52 2.31
-5.55 -21.38 -1.16
-1.48 -5.69 1.36
-6.67 -25.68 -0.46
-1.95 -7.51 2.08
-6.75 -25.64 0.46
-6.73 -25.6 1.39
-1.57 -5.98 -1.2
-6.73 -25.59 2.31
-1.91 -7.27 -1.19
-4.98 -18.91 -2.4
-1.87 -7.12 1.17
-5.52 -20.99 -1.9
-5.58 -21.2 -1.15
-10.24 -38.92 9.29
-6.76 -25.71 -0.46
-2.04 -7.76 2.15
-6.84 -25.64 0.46
-6.83 -25.6 1.39
-1.63 -6.12 -1.23
-6.83 -25.6 2.32
-1.9 -7.14 0.91
-5.05 -18.91 -2.4
-9.54 -35.74 5.86
-5.57 -20.87 -1.89
-9.67 -36.26 7.29
-5.62 -21.07 -1.14
-1.67 -6.27 1.5
-6.86 -25.71 -0.46
-2.01 -7.54 2.09
-6.95 -25.67 0.46
-6.93 -25.61 1.39
-1.62 -5.98 -1.2
-6.93 -25.6 2.32
-1.87 -6.91 -1.13
-1.71 -6.3 0.8
-5.11 -18.89 -2.4
-3.4 -12.56 2.06
-5.62 -20.75 -1.88
-9.82 -36.28 7.31
-5.67 -20.92 -1.14
-6.96 -25.71 -0.46
-2.04 -7.52 2.09
-7.05 -25.66 0.46
-7.03 -25.63 1.39
-1.67 -6.1 -1.23
-7.03 -25.6 2.32
-1.85 -6.75 -1.11
-2.07 -7.55 0.96
-5.19 -18.9 -2.41
-2.02 -7.35 1.21
-5.67 -20.65 -1.87
-9.96 -36.28 7.31
-5.72 -20.83 -1.13
-1.68 -6.13 1.47
-7.06 -25.72 -0.47
-1.96 -7.12 1.98
-7.14 -25.66 0.46
-7.14 -25.64 1.39
-1.67 -6 -1.21
-7.12 -25.6 2.32
-1.9 -6.82 -1.12
-1.75 -6.29 0.8
-5.26 -18.89 -2.41
-1.97 -7.07 1.16
-5.74 -20.61 -1.87
-3.35 -12.05 2.43
-5.78 -20.76 -1.13
-1.57 -5.64 1.35
-7.16 -25.74 -0.47
-1.98 -7.13 1.98
-7.24 -25.67 0.47
-7.23 -25.65 1.4
-1.66 -5.9 -1.19
-7.22 -25.61 2.33
-1.88 -6.67 -1.1
-10.12 -35.88 4.58
-5.32 -18.88 -2.41
-2.07 -7.33 1.21
-5.8 -20.57 -1.87
-1.88 -6.65 1.34
-5.84 -20.7 -1.13
-1.7 -6.03 1.45
-7.26 -25.74 -0.47
-2.02 -7.16 1.99
-7.34 -25.69 0.47
-7.33 -25.65 1.4
-1.68 -5.88 -1.19
-7.33 -25.64 2.33
-1.9 -6.63 -1.09
-10.26 -35.89 4.58
-5.39 -18.87 -2.41
-2.03 -7.1 1.17
-5.87 -20.53 -1.87
-3.47 -12.14 2.45
-5.91 -20.67 -1.13
-1.58 -5.54 1.33
-7.36 -25.76 -0.47
-12.2 -42.68 11.89
-7.44 -25.7 0.47
-7.43 -25.66 1.4
-1.7 -5.89 -1.19
-7.43 -25.64 2.34
-1.92 -6.64 -1.1
-10.4 -35.93 4.59
-5.46 -18.85 -2.41
-10.37 -35.8 5.9
-5.94 -20.51 -1.87
-1.98 -6.83 1.38
-5.98 -20.64 -1.13
-1.94 -6.69 1.61
-7.46 -25.76 -0.47
-1.96 -6.77 1.89
-7.54 -25.7 0.47
-7.53 -25.66 1.4
-1.78 -6.08 -1.23
-7.52 -25.64 2.34
-1.95 -6.66 -1.1
-10.57 -36.03 4.61
-5.53 -18.86 -2.41
-3.55 -12.11 2
-6.02 -20.51 -1.87
-3.53 -12.03 2.44
-6.06 -20.67 -1.13
-1.98 -6.75 1.62
-7.56 -25.76 -0.47
-3.53 -12.04 3.36
-7.63 -25.68 1.4
-1.8 -6.06 -1.23
-7.62 -25.64 2.34
-2.06 -6.94 -1.15
-10.69 -35.99 4.61
-5.6 -18.85 -2.41
-10.65 -35.83 5.92
-6.09 -20.49 -1.87
-1.99 -6.69 1.36
-3.9 -13.14 3.16
-7.66 -25.78 -0.47
-2 -6.72 1.88
-12.87 -42.8 0.78
-7.73 -25.69 1.41
-1.84 -6.13 -1.24
-7.72 -25.66 2.34
-2.03 -6.76 -1.12
-3.7 -12.29 1.58
-5.67 -18.85 -2.42
-3.61 -12.01 1.99
-6.16 -20.49 -1.87
-7.76 -25.79 -0.47
-12.91 -42.92 12.01
-13.04 -42.81 0.78
-7.82 -25.69 1.41
-1.85 -6.07 -1.23
-7.82 -25.68 2.35
-2.14 -7.03 -1.16
-10.93 -35.89 4.61
-5.73 -18.81 -2.41
-10.92 -35.85 5.94
-6.24 -20.5 -1.87
-2.04 -6.7 1.36
-1.88 -6.16 1.49
-7.86 -25.8 -0.47
-13.09 -42.97 12.04
-13.21 -42.83 0.78
-7.93 -25.7 1.41
-1.86 -6.04 -1.23
-7.92 -25.69 2.35
-2.08 -6.75 -1.12
-11.08 -35.91 4.61
-5.81 -18.83 -2.42
-3.69 -11.96 1.98
-6.32 -20.5 -1.88
-2.05 -6.65 1.35
-3.49 -11.31 2.73
-7.95 -25.79 -0.47
-13.26 -43 12.06
-13.38 -42.85 0.78
-8.03 -25.71 1.41
-1.89 -6.05 -1.23
-3.72 -11.91 1.09
-2.12 -6.79 -1.13
-11.25 -36.05 4.64
-5.87 -18.81 -2.42
-11.2 -35.87 5.95
-6.4 -20.51 -1.88
-2.08 -6.67 1.36
-3.51 -11.23 2.72
-8.06 -25.8 -0.47
-1.89 -6.06 1.7
-13.53 -42.84 0.78
-8.13 -25.72 1.41
-1.88 -5.96 -1.21
-8.12 -25.69 2.36
-11.37 -36.01 4.64
-5.94 -18.82 -2.42
-11.34 -35.89 5.96
-6.48 -20.52 -1.88
-2.1 -6.66 1.36
-3.49 -11.03 2.67
-8.16 -25.82 -0.47
-1.68 -5.33 1.5
-13.72 -42.9 0.79
-8.23 -25.74 1.42
-1.87 -5.85 -1.19
-8.22 -25.7 2.36
-2.02 -6.33 -1.05
-11.52 -36.03 4.64
-6.02 -18.81 -2.42
-11.48 -35.9 5.97
-6.57 -20.54 -1.89
-2.13 -6.66 1.36
-11.62 -36.33 8.81
-8.26 -25.83 -0.47
-13.89 -42.9 0.79
-8.33 -25.73 1.42
-1.95 -6.03 -1.23
-8.33 -25.72 2.37
-2.07 -6.4 -1.07
-6.09 -18.8 -2.43
-3.68 -11.38 1.89
-6.66 -20.56 -1.89
-2.15 -6.64 1.36
-3.55 -10.96 2.66
-8.37 -25.84 -0.47
-2.17 -6.71 1.89
-14.06 -42.91 0.79
-8.44 -25.75 1.42
-1.93 -5.9 -1.21
-8.43 -25.73 2.37
-2.08 -6.34 -1.06
-3.93 -11.99 1.55
-6.16 -18.78 -2.43
-3.53 -10.77 1.8
-6.74 -20.58 -1.89
-2.17 -6.63 1.36
-6.8 -20.75 -1.14
-2.04 -6.23 1.51
-8.47 -25.84 -0.47
-1.71 -5.22 1.47
-4.06 -12.25 0.23
-8.54 -25.76 1.42
-1.98 -5.97 -1.22
-8.53 -25.73 2.37
-2.09 -6.32 -1.05
-3.91 -11.81 1.53
-6.23 -18.78 -2.43
-3.54 -10.68 1.78
-6.83 -20.59 -1.9
-2.2 -6.63 1.36
-6.88 -20.75 -1.15
-2.03 -6.12 1.49
-8.57 -25.85 -0.48
-1.77 -5.33 1.51
-8.64 -25.77 1.42
-2.02 -6.02 -1.23
-3.43 -10.23 0.94
-2.11 -6.29 -1.05
-3.96 -11.82 1.53
-6.3 -18.77 -2.43
-2.08 -6.2 1.04
-6.94 -20.68 -1.91
-2.22 -6.61 1.36
-6.97 -20.78 -1.15
-1.97 -5.87 1.43
-8.68 -25.87 -0.48
-3.8 -11.32 3.2
-4.08 -12.03 0.22
-8.74 -25.77 1.43
-2.06 -6.08 -1.25
-8.73 -25.75 2.38
-2.12 -6.26 -1.05
-12.21 -36.02 4.67
-6.37 -18.78 -2.43
-4.21 -12.42 2.08
-2.24 -6.61 1.36
-7.08 -20.87 -1.15
-2.03 -5.99 1.46
-8.78 -25.88 -0.48
-2.33 -6.86 1.94
-8.84 -25.77 1.43
-2.16 -6.3 -1.3
-8.84 -25.76 2.38
-2.13 -6.21 -1.04
-4.03 -11.75 1.53
-6.43 -18.74 -2.43
-4.17 -12.14 2.03
-2.27 -6.6 1.36
-8.89 -25.91 -1.44
-2.01 -5.87 1.43
-8.88 -25.88 -0.48
-2.03 -5.93 1.68
-9 -25.96 0.48
-8.95 -25.79 1.43
-2.15 -6.19 -1.27
-8.94 -25.78 2.39
-2.15 -6.2 -1.04
-12.5 -36.04 4.68
-6.5 -18.73 -2.43
-2.11 -6.08 1.02
-8.26 -23.81 -2.2
-2.28 -6.59 1.36
-9 -25.93 -1.44
-2.12 -6.1 1.49
-8.98 -25.88 -0.48
-2.04 -5.9 1.67
-9.07 -25.85 0.48
-9.05 -25.8 1.43
-2.17 -6.17 -1.27
-9.04 -25.78 2.39
-2.18 -6.22 -1.04
-4.29 -12.24 1.59
-6.57 -18.74 -2.44
-2.14 -6.1 1.02
-8.34 -23.78 -2.2
-2.24 -6.37 1.31
-9.1 -25.95 -1.44
-2.05 -5.83 1.43
-9.08 -25.89 -0.48
-2.07 -5.89 1.67
-9.17 -25.85 0.48
-9.16 -25.81 1.44
-2.17 -6.12 -1.26
-9.14 -25.78 2.39
-2.22 -6.26 -1.05
-12.84 -36.19 4.72
-6.65 -18.74 -2.44
-2.15 -6.05 1.02
-8.44 -23.81 -2.21
-2.32 -6.55 1.35
-9.2 -25.95 -1.44
-2.04 -5.74 1.41
-9.19 -25.92 -0.48
-2.49 -7.03 2
-9.27 -25.85 0.48
-9.26 -25.82 1.44
-2.16 -6.01 -1.24
-4.22 -11.76 1.09
-2.24 -6.26 -1.05
-12.97 -36.16 4.72
-6.72 -18.74 -2.44
-12.93 -36.03 6.06
-8.54 -23.81 -2.21
-4 -11.14 2.3
-9.31 -25.94 -1.44
-2.06 -5.73 1.41
-9.3 -25.93 -0.48
-2.51 -7.01 1.99
-4.09 -11.3 0.21
-9.36 -25.82 1.44
-2.18 -6.01 -1.24
-4.27 -11.78 1.1
-2.26 -6.24 -1.05
-13.1 -36.14 4.72
-6.79 -18.73 -2.45
-13.06 -36.03 6.07
-8.63 -23.81 -2.22
-4.02 -11.09 2.29
-9.41 -25.96 -1.45
-2.06 -5.68 1.39
-9.4 -25.93 -0.48
-4.13 -11.28 0.21
-9.47 -25.84 1.44
-2.17 -5.92 -1.22
-9.46 -25.82 2.41
-2.28 -6.22 -1.05
-13.25 -36.16 4.73
-6.87 -18.74 -2.45
-4.17 -11.39 1.92
-8.73 -23.83 -2.22
-4.12 -11.24 2.33
-9.52 -25.98 -1.45
-2.08 -5.68 1.4
-9.5 -25.94 -0.48
-2.21 -6.04 1.72
-9.59 -25.89 0.48
-9.58 -25.85 1.44
-2.22 -6 -1.24
-9.57 -25.82 2.41
-2.3 -6.21 -1.05
-4.31 -11.62 1.52
-6.95 -18.75 -2.45
-4.43 -11.96 2.02
-8.83 -23.82 -2.22
-3.94 -10.64 2.2
-9.63 -25.99 -1.45
-4.64 -12.53 3.08
-9.61 -25.95 -0.48
-2.58 -6.98 1.99
-9.7 -25.88 0.48
-9.69 -25.86 1.45
-2.2 -5.88 -1.22
-9.67 -25.83 2.41
-2.46 -6.57 -1.11
-4.53 -12.09 1.59
-7.01 -18.73 -2.46
-4.24 -11.32 1.91
-8.93 -23.84 -2.23
-3.97 -10.61 2.2
-9.74 -25.99 -1.45
-4.12 -11 2.71
-9.72 -25.96 -0.48
-2.61 -6.97 1.99
-9.8 -25.9 0.48
-9.79 -25.87 1.45
-2.23 -5.89 -1.22
-9.78 -25.85 2.42
-2.45 -6.47 -1.1
-3.93 -10.38 1.36
-7.08 -18.72 -2.46
-4.04 -10.68 1.81
-9.02 -23.84 -2.23
-4.81 -12.72 2.64
-9.83 -25.99 -1.46
-4.9 -12.96 3.2
-9.82 -25.97 -0.48
-2.18 -5.75 1.65
-4.24 -11.09 0.21
-9.89 -25.87 1.45
-2.26 -5.92 -1.23
-9.89 -25.86 2.42
-2.51 -6.57 -1.11
-13.82 -36.13 4.75
-7.15 -18.7 -2.46
-4.46 -11.67 1.98
-9.11 -23.83 -2.23
-4.51 -11.79 2.45
-9.95 -26.01 -1.46
-4.2 -10.99 2.72
-9.93 -25.98 -0.49
-2.18 -5.69 1.63
-4.17 -10.81 0.2
-4.19 -10.86 0.61
-2.34 -6.05 -1.26
-9.99 -25.86 2.43
-2.71 -7.01 -1.19
-4.69 -12.15 1.6
-7.22 -18.7 -2.46
-4.1 -10.62 1.8
