# .PCD v0.7 - Point Cloud Data file format
VERSION 0.7
FIELDS x y z
SIZE 4 4 4
TYPE F F F
COUNT 1 1 1
WIDTH 2862
HEIGHT 1
VIEWPOINT 0 0 0 1 0 0 0
POINTS 2862
DATA ascii
20.04 -4.57 -0.36
17.27 -3.94 4.75
5.98 -1.38 -1.64
6.98 -1.62 -1.65
7.68 -1.78 -1.53
9.01 -2.09 -1.46
28.51 -6.6 3.59
11.11 -2.57 -1.4
14.36 -3.33 -1.29
17.19 -3.98 3.43
19.63 -4.54 -1.06
15.36 -3.56 3.64
19.59 -4.54 -0.35
17.83 -4.13 4.9
5.97 -1.41 -1.64
6.96 -1.64 -1.65
7.65 -1.8 -1.53
9 -2.12 -1.46
28.43 -6.69 3.59
11.08 -2.61 -1.4
14.33 -3.37 -1.29
29.48 -6.94 5.89
19.56 -4.61 -1.05
14.98 -3.53 3.55
19.26 -4.54 -0.35
16.33 -3.85 4.5
5.98 -1.43 -1.65
24.61 -5.88 0.44
6.97 -1.67 -1.65
7.64 -1.83 -1.53
8.99 -2.15 -1.46
28.39 -6.79 3.58
11.05 -2.64 -1.39
14.29 -3.42 -1.29
17.01 -4.07 3.4
19.41 -4.64 -1.05
18.06 -4.32 4.29
19.08 -4.56 -0.34
16.29 -3.89 4.49
5.96 -1.45 -1.64
24.61 -5.97 0.44
6.9 -1.68 -1.64
7.59 -1.84 -1.52
8.98 -2.18 -1.46
16.54 -4.01 2.09
11.03 -2.68 -1.39
14.27 -3.46 -1.28
17 -4.12 3.4
18.89 -4.58 -1.02
15.34 -3.72 3.64
18.84 -4.57 -0.34
14.83 -3.6 4.09
5.96 -1.47 -1.64
24.66 -6.07 0.44
6.83 -1.68 -1.62
7.59 -1.87 -1.52
27.24 -6.71 2.45
8.96 -2.21 -1.46
26.61 -6.55 3.36
11 -2.71 -1.39
26.67 -6.57 4.35
14.23 -3.5 -1.28
16.97 -4.18 3.4
18.56 -4.57 -1
15.28 -3.76 3.63
18.67 -4.6 -0.34
14.97 -3.69 4.13
5.96 -1.49 -1.65
24.67 -6.17 0.44
6.74 -1.69 -1.6
7.57 -1.9 -1.52
8.93 -2.23 -1.46
16.37 -4.1 2.07
10.98 -2.75 -1.39
26.4 -6.61 4.31
14.19 -3.55 -1.28
16.97 -4.25 3.4
18.44 -4.61 -1
16.85 -4.22 4.01
18.55 -4.64 -0.33
15.02 -3.76 4.15
5.95 -1.51 -1.64
23.04 -5.85 0.41
6.64 -1.69 -1.58
7.56 -1.92 -1.52
8.91 -2.26 -1.46
26.55 -6.74 3.36
10.95 -2.78 -1.39
26.38 -6.7 4.31
14.16 -3.6 -1.28
16.15 -4.1 3.24
18.43 -4.68 -1
16.8 -4.26 4
18.09 -4.59 -0.33
5.99 -1.54 -1.66
22.99 -5.92 0.41
6.58 -1.69 -1.57
7.54 -1.94 -1.51
28.91 -7.44 2.61
8.91 -2.3 -1.46
28.21 -7.26 3.58
10.91 -2.81 -1.38
14.14 -3.64 -1.28
16.88 -4.35 3.39
18.2 -4.69 -0.99
17.86 -4.6 4.26
18.26 -4.7 -0.33
15.57 -4.01 4.31
5.99 -1.56 -1.66
22.83 -5.96 0.41
6.57 -1.72 -1.57
7.53 -1.97 -1.51
30.07 -7.85 2.72
8.91 -2.33 -1.46
28.18 -7.36 3.58
10.9 -2.85 -1.38
14.12 -3.69 -1.28
16.9 -4.41 3.4
18.07 -4.72 -0.98
18.86 -4.93 4.5
17.81 -4.65 -0.32
14.77 -3.86 4.09
5.96 -1.58 -1.65
22.82 -6.05 0.41
6.56 -1.74 -1.57
7.51 -1.99 -1.51
29.74 -7.88 2.69
8.85 -2.35 -1.45
10.87 -2.88 -1.38
14.07 -3.73 -1.27
16.85 -4.46 3.39
17.71 -4.69 -0.96
18.81 -4.98 4.49
17.57 -4.65 -0.32
17.74 -4.7 4.92
5.96 -1.6 -1.65
22.64 -6.08 0.41
6.55 -1.76 -1.57
7.5 -2.02 -1.51
28.75 -7.72 2.6
8.85 -2.38 -1.45
28.07 -7.54 3.57
10.85 -2.91 -1.38
14.04 -3.77 -1.27
16.84 -4.52 3.39
17.45 -4.69 -0.95
15.33 -4.12 3.67
17.47 -4.69 -0.32
17.71 -4.76 4.91
5.94 -1.62 -1.65
22.63 -6.16 0.41
6.54 -1.78 -1.56
7.49 -2.04 -1.51
8.83 -2.41 -1.45
16.3 -4.44 2.07
10.82 -2.95 -1.38
14.02 -3.82 -1.27
16.81 -4.58 3.39
17.09 -4.66 -0.93
15.77 -4.3 3.77
17.22 -4.69 -0.31
17.81 -4.85 4.95
5.93 -1.64 -1.65
22.85 -6.31 0.41
6.53 -1.8 -1.56
7.48 -2.06 -1.51
8.84 -2.44 -1.45
28.87 -7.97 3.68
10.78 -2.98 -1.37
13.98 -3.86 -1.27
16.75 -4.62 3.38
16.92 -4.67 -0.92
14.38 -3.97 3.44
17.01 -4.7 -0.31
17.26 -4.77 4.8
5.93 -1.66 -1.65
22.72 -6.36 0.41
6.52 -1.82 -1.56
7.47 -2.09 -1.51
8.81 -2.47 -1.45
28.85 -8.08 3.68
10.77 -3.01 -1.37
13.94 -3.9 -1.27
16.78 -4.7 3.39
16.87 -4.72 -0.92
14.37 -4.02 3.45
16.72 -4.68 -0.3
17.19 -4.81 4.78
5.91 -1.68 -1.65
22.68 -6.43 0.41
6.49 -1.84 -1.56
7.43 -2.11 -1.5
30.01 -8.51 2.73
8.79 -2.49 -1.45
10.74 -3.05 -1.37
13.9 -3.94 -1.26
16.71 -4.74 3.38
16.62 -4.71 -0.91
15.35 -4.35 3.68
16.52 -4.69 -0.3
5.93 -1.7 -1.65
22.72 -6.54 0.41
6.47 -1.86 -1.55
7.41 -2.13 -1.5
8.76 -2.52 -1.44
10.73 -3.09 -1.37
13.88 -3.99 -1.26
14.85 -4.27 3
16.44 -4.73 -0.9
14.38 -4.14 3.45
16.38 -4.71 -0.3
15.69 -4.51 4.37
5.9 -1.72 -1.65
22.78 -6.64 0.41
6.45 -1.88 -1.55
7.41 -2.16 -1.5
8.73 -2.55 -1.44
57.84 -16.86 7.4
10.7 -3.12 -1.37
13.85 -4.04 -1.26
16.71 -4.87 3.38
16.3 -4.75 -0.89
14.24 -4.15 3.42
16.17 -4.71 -0.29
15.67 -4.57 4.37
5.87 -1.73 -1.64
22.64 -6.69 0.41
6.45 -1.9 -1.55
7.4 -2.18 -1.5
30.15 -8.9 2.75
8.72 -2.57 -1.44
10.67 -3.15 -1.37
18.17 -5.37 3
13.82 -4.08 -1.26
16.63 -4.91 3.37
16.19 -4.78 -0.88
14.05 -4.15 3.38
15.98 -4.72 -0.29
15.64 -4.62 4.37
5.82 -1.74 -1.63
22.73 -6.8 0.41
6.44 -1.93 -1.55
7.39 -2.21 -1.5
30.4 -9.09 2.78
8.7 -2.6 -1.44
10.64 -3.18 -1.36
18.16 -5.43 3
13.78 -4.12 -1.26
16.24 -4.86 3.29
15.86 -4.74 -0.87
14.1 -4.22 3.4
15.8 -4.73 -0.29
14.66 -4.38 4.1
5.75 -1.74 -1.61
22.73 -6.88 0.41
6.42 -1.94 -1.55
7.37 -2.23 -1.5
8.68 -2.63 -1.44
10.62 -3.21 -1.36
18.12 -5.48 3
13.75 -4.16 -1.26
15.76 -4.77 -0.86
17.67 -5.35 4.26
15.65 -4.74 -0.29
14.64 -4.43 4.1
5.7 -1.75 -1.6
22.78 -6.98 0.42
6.42 -1.97 -1.55
7.37 -2.26 -1.5
8.66 -2.65 -1.43
10.6 -3.25 -1.36
17.93 -5.5 2.97
13.71 -4.2 -1.25
15.68 -4.81 -0.86
14.62 -4.48 3.53
15.54 -4.76 -0.28
15.76 -4.83 4.42
5.65 -1.75 -1.58
22.84 -7.09 0.42
6.37 -1.98 -1.54
7.35 -2.28 -1.5
8.64 -2.68 -1.43
10.57 -3.28 -1.36
17.89 -5.55 2.97
13.69 -4.25 -1.25
18.86 -5.85 3.84
15.59 -4.84 -0.86
14.56 -4.52 3.52
15.37 -4.77 -0.28
17.44 -5.41 4.89
5.62 -1.77 -1.58
6.38 -2 -1.54
7.36 -2.31 -1.5
8.62 -2.71 -1.43
10.53 -3.31 -1.35
13.66 -4.29 -1.25
16.38 -5.14 3.34
15.41 -4.84 -0.85
19.56 -6.15 4.73
15.1 -4.74 -0.28
15.84 -4.97 4.45
5.61 -1.78 -1.58
6.38 -2.03 -1.55
7.32 -2.33 -1.49
8.61 -2.74 -1.43
10.5 -3.34 -1.35
16.98 -5.4 2.82
13.62 -4.33 -1.25
15.31 -4.87 -0.84
19.51 -6.21 4.73
15.11 -4.81 -0.28
15.8 -5.03 4.44
5.59 -1.8 -1.57
6.35 -2.04 -1.54
7.32 -2.36 -1.49
8.6 -2.77 -1.43
10.48 -3.37 -1.35
16.88 -5.43 2.81
13.58 -4.37 -1.25
15.17 -4.88 -0.84
19.48 -6.27 4.73
14.97 -4.82 -0.27
17.24 -5.55 4.85
5.58 -1.82 -1.57
6.35 -2.07 -1.54
7.32 -2.39 -1.5
8.56 -2.79 -1.43
10.46 -3.41 -1.35
16.9 -5.51 2.82
13.55 -4.42 -1.25
14.99 -4.89 -0.83
19.33 -6.3 4.69
14.83 -4.83 -0.27
13.82 -4.5 3.89
5.59 -1.84 -1.58
6.33 -2.09 -1.54
7.31 -2.41 -1.5
8.55 -2.82 -1.43
18.51 -6.11 2.39
10.43 -3.44 -1.35
13.52 -4.46 -1.25
14.74 -4.86 -0.81
14.81 -4.89 3.6
14.67 -4.84 -0.27
13.86 -4.57 3.91
5.58 -1.86 -1.58
44.81 -14.95 0.82
6.31 -2.1 -1.54
7.29 -2.43 -1.49
14.8 -4.94 1.37
8.53 -2.84 -1.42
10.4 -3.47 -1.35
13.49 -4.5 -1.24
14.6 -4.87 -0.81
14.52 -4.84 -0.27
13.83 -4.61 3.91
5.56 -1.88 -1.57
44.52 -15.03 0.82
6.31 -2.13 -1.54
15.78 -5.32 0.87
7.25 -2.45 -1.49
14.74 -4.98 1.36
8.51 -2.87 -1.42
49.79 -16.81 6.45
10.38 -3.5 -1.35
49.74 -16.79 8.32
13.46 -4.54 -1.24
15.91 -5.37 3.26
14.49 -4.89 -0.8
17.26 -5.82 4.21
14.69 -4.96 -0.27
13.87 -4.68 3.92
5.55 -1.89 -1.57
44.38 -15.14 0.82
6.3 -2.15 -1.54
15.82 -5.4 0.88
7.25 -2.47 -1.49
14.84 -5.06 1.37
8.5 -2.9 -1.42
49.35 -16.84 6.4
10.36 -3.54 -1.34
18.38 -6.27 3.08
13.41 -4.58 -1.24
17.56 -5.99 3.61
14.3 -4.88 -0.79
17.46 -5.96 4.26
14.31 -4.88 -0.26
14.51 -4.95 4.11
5.52 -1.91 -1.57
44.73 -15.44 0.83
6.29 -2.17 -1.54
15.31 -5.28 0.85
7.24 -2.5 -1.49
14.63 -5.05 1.35
8.47 -2.92 -1.42
18.27 -6.3 2.37
10.34 -3.57 -1.34
18.39 -6.35 3.08
13.38 -4.62 -1.24
17.55 -6.06 3.61
14.13 -4.87 -0.78
17.23 -5.95 4.21
14.21 -4.9 -0.26
14.41 -4.97 4.08
5.51 -1.92 -1.56
6.26 -2.18 -1.53
15.07 -5.26 0.84
7.24 -2.53 -1.49
48.62 -16.97 4.51
8.44 -2.95 -1.42
48.36 -16.88 6.29
10.32 -3.6 -1.34
18.35 -6.41 3.08
13.34 -4.66 -1.24
13.7 -4.78 2.82
14.09 -4.92 -0.78
17.32 -6.04 4.23
14.1 -4.92 -0.26
14.35 -5.01 4.07
5.5 -1.94 -1.56
6.24 -2.2 -1.53
15.03 -5.3 0.84
7.23 -2.55 -1.49
14.17 -5 1.31
8.43 -2.98 -1.42
47.92 -16.91 6.24
10.28 -3.63 -1.34
18.44 -6.51 3.1
13.3 -4.69 -1.23
15.68 -5.54 3.23
14.06 -4.96 -0.78
16.79 -5.92 4.11
14.15 -4.99 -0.26
14.15 -5 4.02
5.49 -1.96 -1.56
6.25 -2.23 -1.53
15.08 -5.38 0.84
7.2 -2.57 -1.49
14.21 -5.07 1.32
8.42 -3.01 -1.42
20 -7.14 2.61
10.26 -3.66 -1.34
47.37 -16.91 7.97
13.22 -4.72 -1.23
15.71 -5.61 3.24
13.81 -4.93 -0.77
17.97 -6.42 4.41
13.93 -4.97 -0.26
14.13 -5.05 4.02
5.47 -1.97 -1.56
44.81 -16.18 0.83
6.24 -2.25 -1.53
15.39 -5.56 0.86
7.2 -2.6 -1.49
14.44 -5.21 1.34
8.39 -3.03 -1.41
14.83 -5.35 1.94
10.24 -3.7 -1.34
47.01 -16.97 7.92
13.1 -4.73 -1.22
15.7 -5.67 3.24
13.85 -5 -0.77
17.84 -6.44 4.38
14 -5.05 -0.26
17.18 -6.2 4.89
5.46 -1.99 -1.56
6.22 -2.27 -1.53
46.98 -17.14 2.62
7.19 -2.62 -1.49
47.07 -17.17 4.38
8.37 -3.05 -1.41
46.55 -16.98 6.08
10.23 -3.73 -1.34
15.75 -5.74 2.65
13.06 -4.76 -1.22
15.71 -5.73 3.25
13.67 -4.99 -0.76
14.15 -5.16 3.48
13.73 -5.01 -0.26
15.62 -5.7 4.46
5.46 -2.01 -1.56
14.35 -5.29 0.27
6.18 -2.28 -1.52
15.07 -5.56 0.84
7.18 -2.65 -1.49
13.9 -5.13 1.3
8.35 -3.08 -1.41
46.12 -17.01 6.04
10.19 -3.76 -1.33
17.29 -6.38 2.92
12.95 -4.77 -1.21
15.97 -5.89 3.31
13.47 -4.97 -0.75
14.19 -5.23 3.49
13.56 -5 -0.25
15.64 -5.77 4.47
5.44 -2.03 -1.56
14.36 -5.35 0.27
6.16 -2.3 -1.52
14.27 -5.32 0.8
7.17 -2.67 -1.49
13.75 -5.13 1.28
8.33 -3.11 -1.41
13.63 -5.08 1.79
10.14 -3.78 -1.33
16.41 -6.12 2.77
12.84 -4.79 -1.2
17.47 -6.52 3.62
13.38 -4.99 -0.75
17.77 -6.63 4.38
13.61 -5.07 -0.25
17.01 -6.34 4.87
5.43 -2.05 -1.56
14.1 -5.31 0.26
6.16 -2.32 -1.52
15.05 -5.67 0.84
7.15 -2.69 -1.49
13.67 -5.15 1.28
8.32 -3.14 -1.41
13.56 -5.11 1.78
10.13 -3.82 -1.33
16.37 -6.17 2.77
12.75 -4.8 -1.19
13.27 -5 -0.74
13.5 -5.09 -0.25
5.41 -2.06 -1.55
14.1 -5.37 0.26
6.15 -2.34 -1.52
15.01 -5.71 0.84
7.14 -2.72 -1.48
14.87 -5.66 1.39
8.3 -3.16 -1.41
13.47 -5.13 1.77
10.1 -3.85 -1.33
16.37 -6.23 2.77
12.67 -4.82 -1.19
16.89 -6.43 3.51
13.23 -5.04 -0.74
14.28 -5.44 3.53
13.31 -5.07 -0.25
5.41 -2.08 -1.55
6.14 -2.36 -1.52
44.83 -17.25 2.52
7.13 -2.74 -1.48
44.67 -17.18 4.19
8.28 -3.18 -1.4
10.08 -3.88 -1.33
17.42 -6.7 2.96
12.66 -4.87 -1.19
14 -5.39 2.92
13.07 -5.03 -0.73
13.25 -5.1 -0.25
14.22 -5.47 4.08
5.39 -2.1 -1.55
14.5 -5.64 0.27
6.12 -2.38 -1.52
13.46 -5.23 0.76
7.11 -2.76 -1.48
44.55 -17.31 4.18
8.26 -3.21 -1.4
15.75 -6.12 2.07
10.06 -3.91 -1.33
17.43 -6.77 2.96
12.67 -4.92 -1.19
13.99 -5.44 2.92
13.13 -5.1 -0.74
16.61 -6.45 4.11
12.84 -4.99 -0.24
17.79 -6.91 5.11
5.4 -2.12 -1.55
13.69 -5.38 0.26
6.12 -2.4 -1.52
13.26 -5.21 0.75
7.09 -2.79 -1.48
13.52 -5.31 1.27
8.24 -3.23 -1.4
15.84 -6.22 2.09
10.03 -3.94 -1.32
16.9 -6.64 2.88
12.67 -4.98 -1.19
13.29 -5.22 2.78
12.96 -5.09 -0.73
14.9 -5.85 3.7
12.82 -5.03 -0.24
17.79 -6.99 5.12
5.4 -2.14 -1.56
12.75 -5.06 0.24
6.1 -2.42 -1.52
13.24 -5.25 0.75
7.06 -2.8 -1.48
14.79 -5.87 1.39
8.22 -3.26 -1.4
43.31 -17.18 5.72
10.01 -3.97 -1.32
17 -6.74 2.9
12.67 -5.03 -1.19
13.23 -5.25 2.77
12.76 -5.06 -0.72
14.97 -5.94 3.72
12.73 -5.05 -0.24
12.63 -5.01 3.64
5.38 -2.16 -1.55
12.74 -5.1 0.24
6.1 -2.44 -1.52
13.74 -5.5 0.78
7.04 -2.82 -1.47
15.95 -6.39 1.5
8.2 -3.29 -1.4
13.77 -5.52 1.82
9.99 -4 -1.32
12.66 -5.07 -1.19
12.48 -5 2.61
12.94 -5.19 -0.73
12.44 -4.99 3.09
12.84 -5.15 -0.24
12.46 -4.99 3.6
5.36 -2.17 -1.55
16.2 -6.56 0.31
6.08 -2.46 -1.51
12.51 -5.07 0.71
7.04 -2.85 -1.48
12.47 -5.05 1.18
8.18 -3.31 -1.4
12.43 -5.03 1.65
9.97 -4.04 -1.32
12.45 -5.04 2.13
12.68 -5.14 -1.2
12.43 -5.04 2.61
12.81 -5.19 -0.72
12.61 -5.11 -0.24
14.09 -5.71 4.07
5.35 -2.19 -1.55
12.46 -5.1 0.23
6.07 -2.48 -1.51
12.46 -5.1 0.71
7.02 -2.87 -1.48
16.22 -6.63 1.53
8.16 -3.34 -1.4
15.75 -6.44 2.09
9.95 -4.07 -1.32
15.21 -6.22 2.6
12.5 -5.11 -1.18
41.7 -17.06 8.76
12.46 -5.1 -0.71
12.48 -5.11 -0.24
5.34 -2.21 -1.55
16.05 -6.63 0.3
6.05 -2.5 -1.51
14.1 -5.83 0.8
7 -2.89 -1.47
16.16 -6.68 1.53
8.14 -3.36 -1.4
16.14 -6.67 2.14
9.92 -4.1 -1.32
15.15 -6.26 2.6
12.63 -5.22 -1.2
16.21 -6.7 3.41
12.64 -5.22 -0.72
12.78 -5.28 -0.24
13.67 -5.65 3.96
5.34 -2.23 -1.55
16.04 -6.69 0.3
6.05 -2.52 -1.51
16.07 -6.7 0.91
6.98 -2.91 -1.47
13.73 -5.73 1.3
8.13 -3.39 -1.4
13.04 -5.44 1.74
9.89 -4.13 -1.32
13.42 -5.6 2.3
12.67 -5.29 -1.2
14.71 -6.14 3.1
12.71 -5.3 -0.72
15.22 -6.35 3.81
12.81 -5.35 -0.24
12.78 -5.33 3.71
5.31 -2.24 -1.54
16.09 -6.78 0.3
6.04 -2.54 -1.51
13.25 -5.58 0.75
6.96 -2.93 -1.47
13.71 -5.78 1.3
8.11 -3.41 -1.39
16.02 -6.75 2.13
9.88 -4.16 -1.32
13.46 -5.67 2.31
12.83 -5.4 -1.22
13.57 -5.71 2.86
12.74 -5.37 -0.72
16.19 -6.82 4.06
12.7 -5.35 -0.24
13.82 -5.82 4.02
5.3 -2.25 -1.54
14.93 -6.35 0.28
6.03 -2.57 -1.51
14.93 -6.35 0.85
6.95 -2.96 -1.47
13.71 -5.83 1.3
8.08 -3.44 -1.39
13.05 -5.55 1.74
9.86 -4.19 -1.32
12.87 -5.48 -1.22
13.48 -5.73 2.85
12.77 -5.43 -0.73
14.15 -6.02 3.55
12.72 -5.41 -0.24
16.16 -6.87 4.7
5.29 -2.27 -1.54
12.96 -5.57 0.25
6.02 -2.58 -1.51
12.9 -5.54 0.74
6.93 -2.98 -1.47
40.54 -17.41 3.86
8.06 -3.46 -1.39
40.34 -17.32 5.39
9.83 -4.22 -1.31
17.6 -7.56 3.03
13.58 -5.83 -1.29
40.14 -17.24 8.49
12.73 -5.47 -0.73
14.33 -6.15 3.6
12.79 -5.49 -0.24
13.87 -5.96 4.04
5.29 -2.29 -1.54
13.98 -6.06 0.27
6.01 -2.6 -1.51
40.37 -17.5 2.31
6.91 -2.99 -1.46
40.23 -17.44 3.84
8.05 -3.49 -1.39
13.06 -5.66 1.75
9.8 -4.25 -1.31
16.37 -7.1 2.83
12.61 -5.47 -1.2
16.55 -7.17 3.51
12.71 -5.51 -0.73
14.46 -6.27 3.64
12.72 -5.51 -0.24
12.36 -5.36 3.61
5.28 -2.31 -1.55
13.86 -6.07 0.26
6 -2.63 -1.51
15.3 -6.7 0.88
6.88 -3.01 -1.46
39.88 -17.46 3.81
8.03 -3.52 -1.39
12.95 -5.67 1.74
9.77 -4.28 -1.31
15.65 -6.85 2.71
12.8 -5.6 -1.22
39.59 -17.33 8.4
12.67 -5.55 -0.72
12.73 -5.57 -0.24
14.46 -6.33 4.23
5.26 -2.33 -1.54
15.36 -6.79 0.29
5.98 -2.64 -1.51
13.89 -6.14 0.8
6.86 -3.03 -1.46
39.56 -17.48 3.78
8.01 -3.54 -1.39
12.95 -5.72 1.74
9.76 -4.31 -1.31
15.6 -6.89 2.7
12.75 -5.63 -1.22
13.07 -5.77 -0.75
12.66 -5.59 -0.24
14.22 -6.29 4.17
5.24 -2.34 -1.54
13.78 -6.15 0.26
5.97 -2.66 -1.51
39.36 -17.56 2.26
6.85 -3.06 -1.46
15.63 -6.97 1.5
7.98 -3.56 -1.38
13.07 -5.83 1.76
9.73 -4.34 -1.31
17.43 -7.77 3.02
12.7 -5.67 -1.22
13.76 -6.14 2.93
12.7 -5.67 -0.73
12.66 -5.65 -0.24
12.94 -5.77 3.8
5.23 -2.36 -1.54
13.8 -6.22 0.26
5.95 -2.68 -1.51
13.41 -6.04 0.77
6.84 -3.08 -1.46
14.61 -6.58 1.4
7.96 -3.58 -1.38
12.89 -5.8 1.74
9.7 -4.37 -1.31
17.19 -7.74 2.99
12.68 -5.71 -1.22
12.64 -5.69 -0.73
12.72 -5.73 -0.24
13.39 -6.03 3.94
5.23 -2.38 -1.54
12.88 -5.85 0.25
5.94 -2.7 -1.51
13.16 -5.98 0.76
6.82 -3.1 -1.46
13.23 -6.01 1.27
7.95 -3.61 -1.38
12.87 -5.85 1.74
9.67 -4.4 -1.3
12.71 -5.77 -1.22
13.58 -6.17 2.9
12.7 -5.77 -0.73
12.97 -5.89 3.29
12.73 -5.79 -0.24
13.62 -6.19 4.01
5.22 -2.39 -1.54
12.57 -5.76 0.24
5.92 -2.72 -1.5
13.98 -6.41 0.81
6.79 -3.12 -1.45
13.35 -6.12 1.28
7.93 -3.64 -1.38
12.9 -5.92 1.74
9.65 -4.42 -1.3
38.02 -17.44 6.62
12.73 -5.84 -1.23
16 -7.34 3.42
12.91 -5.92 -0.74
12.66 -5.81 -0.24
14.5 -6.65 4.27
5.2 -2.41 -1.53
12.56 -5.82 0.24
5.92 -2.74 -1.51
38.12 -17.65 2.2
6.78 -3.14 -1.45
13.52 -6.26 1.3
7.91 -3.66 -1.38
12.83 -5.94 1.74
9.63 -4.46 -1.3
37.78 -17.49 6.59
12.57 -5.82 -1.21
13.6 -6.3 2.91
12.59 -5.83 -0.73
12.72 -5.89 -0.24
5.19 -2.43 -1.54
12.55 -5.86 0.24
5.9 -2.75 -1.5
13.94 -6.51 0.81
6.77 -3.16 -1.45
12.83 -6 1.24
7.89 -3.69 -1.38
12.72 -5.94 1.72
9.61 -4.49 -1.3
37.45 -17.49 6.55
12.52 -5.85 -1.21
37.34 -17.44 8.01
12.54 -5.86 -0.73
13.45 -6.28 3.43
12.65 -5.91 -0.24
12.42 -5.8 3.67
5.19 -2.45 -1.54
12.55 -5.91 0.24
5.87 -2.77 -1.5
12.96 -6.1 0.75
6.75 -3.18 -1.45
13.59 -6.4 1.31
7.87 -3.71 -1.38
37.18 -17.52 5.05
9.58 -4.52 -1.3
13.61 -6.41 2.38
12.52 -5.9 -1.21
14.37 -6.77 3.09
12.54 -5.91 -0.73
13.51 -6.37 3.45
12.55 -5.91 -0.24
13.74 -6.48 4.07
5.19 -2.47 -1.54
12.56 -5.97 0.24
5.86 -2.79 -1.5
13.13 -6.24 0.76
6.73 -3.2 -1.45
13.15 -6.25 1.27
7.85 -3.73 -1.38
37.01 -17.6 5.03
9.56 -4.54 -1.3
13.55 -6.44 2.38
12.52 -5.95 -1.21
15.03 -7.15 3.24
12.64 -6.01 -0.73
15.13 -7.2 3.87
12.6 -5.99 -0.24
11.95 -5.68 3.55
5.19 -2.49 -1.54
12.54 -6.02 0.24
5.86 -2.81 -1.5
13.09 -6.28 0.76
6.72 -3.22 -1.45
13.25 -6.36 1.29
7.84 -3.76 -1.38
12.86 -6.17 1.75
9.54 -4.57 -1.3
13.99 -6.71 2.46
12.54 -6.02 -1.22
13.59 -6.52 2.93
12.65 -6.07 -0.74
13.6 -6.53 3.48
12.53 -6.01 -0.24
12.06 -5.78 3.58
5.16 -2.5 -1.54
12.56 -6.08 0.24
5.84 -2.83 -1.5
12.37 -5.99 0.72
6.7 -3.24 -1.45
14.72 -7.13 1.43
7.82 -3.79 -1.38
12.9 -6.24 1.76
9.52 -4.61 -1.3
12.76 -6.18 -1.24
17.26 -8.35 3.73
12.71 -6.15 -0.74
13.65 -6.61 3.5
12.58 -6.09 -0.24
12.02 -5.82 3.58
5.16 -2.52 -1.54
12.56 -6.14 0.24
5.83 -2.85 -1.5
12.46 -6.09 0.73
6.69 -3.27 -1.45
12.85 -6.28 1.25
7.79 -3.81 -1.37
37.03 -18.09 5.06
9.49 -4.64 -1.3
35.95 -17.57 6.34
12.68 -6.19 -1.23
12.56 -6.14 -0.73
11.69 -5.71 3
12.6 -6.15 -0.24
12 -5.86 3.58
5.14 -2.54 -1.54
12.64 -6.23 0.25
5.8 -2.86 -1.49
12.4 -6.11 0.72
6.67 -3.29 -1.45
12.75 -6.29 1.24
7.77 -3.83 -1.37
13.08 -6.45 1.79
9.38 -4.63 -1.28
35.72 -17.61 6.31
12.77 -6.3 -1.25
13.51 -6.66 2.93
12.52 -6.17 -0.73
35.7 -17.6 9.19
12.52 -6.17 -0.24
13.27 -6.54 3.96
5.14 -2.56 -1.54
9.09 -4.52 0.18
5.79 -2.88 -1.49
13.16 -6.54 0.77
6.66 -3.31 -1.45
12.86 -6.39 1.26
7.76 -3.86 -1.37
12.81 -6.37 1.76
9.24 -4.59 -1.27
35.39 -17.59 6.26
12.57 -6.25 -1.23
35.36 -17.58 7.68
12.49 -6.21 -0.73
18.18 -9.04 4.69
12.83 -6.38 -0.25
11.67 -5.8 3.49
5.13 -2.57 -1.54
9.03 -4.53 0.18
5.78 -2.9 -1.49
13.18 -6.61 0.77
6.64 -3.33 -1.44
12.85 -6.45 1.26
7.74 -3.88 -1.37
13.68 -6.86 1.88
9.21 -4.62 -1.26
35.17 -17.64 6.23
12.56 -6.3 -1.23
35.06 -17.58 7.62
12.48 -6.26 -0.73
13.38 -6.71 3.46
12.73 -6.39 -0.25
11.97 -6 3.59
5.11 -2.58 -1.53
9.05 -4.58 0.18
5.77 -2.92 -1.49
8.77 -4.44 0.52
6.62 -3.35 -1.44
12.74 -6.44 1.25
7.73 -3.91 -1.37
34.9 -17.65 4.8
9.14 -4.62 -1.26
13.17 -6.66 2.34
12.47 -6.31 -1.22
34.83 -17.62 7.59
12.49 -6.32 -0.73
14.61 -7.39 3.78
12.58 -6.36 -0.25
11.97 -6.06 3.6
5.11 -2.61 -1.54
9.04 -4.61 0.18
5.75 -2.94 -1.49
6.6 -3.37 -1.44
34.73 -17.72 3.41
7.69 -3.92 -1.37
34.63 -17.67 4.77
9.1 -4.64 -1.25
12.79 -6.53 2.27
12.53 -6.4 -1.23
13.44 -6.86 2.93
12.79 -6.53 -0.75
14.47 -7.38 3.75
12.5 -6.38 -0.24
14.49 -7.39 4.36
5.09 -2.62 -1.53
9.01 -4.64 0.18
5.73 -2.95 -1.49
8.63 -4.44 0.51
6.59 -3.39 -1.44
34.57 -17.79 3.4
7.67 -3.95 -1.37
34.51 -17.76 4.77
9.1 -4.68 -1.26
12.66 -6.51 2.25
12.76 -6.57 -1.26
34.46 -17.74 7.53
14.68 -7.56 -0.87
14.49 -7.46 3.76
13.09 -6.74 -0.26
12.46 -6.41 3.75
5.08 -2.64 -1.53
8.94 -4.64 0.18
5.72 -2.97 -1.49
12.68 -6.58 0.75
6.58 -3.41 -1.44
12.9 -6.7 1.27
7.65 -3.97 -1.36
13.32 -6.92 1.84
9.08 -4.71 -1.26
34.07 -17.68 6.08
12.53 -6.5 -1.23
12.75 -6.62 2.79
12.44 -6.46 -0.73
17.82 -9.25 4.63
12.45 -6.47 -0.24
12.22 -6.34 3.69
5.07 -2.65 -1.53
8.73 -4.57 0.17
5.71 -2.99 -1.49
8.6 -4.5 0.51
6.54 -3.43 -1.44
12.85 -6.73 1.27
7.63 -4 -1.36
12.69 -6.65 1.76
9.03 -4.73 -1.25
33.79 -17.69 6.04
12.43 -6.51 -1.23
35.07 -18.36 7.69
12.85 -6.73 -0.76
12.38 -6.48 3.23
12.45 -6.52 -0.25
15.58 -8.16 4.71
5.04 -2.66 -1.53
8.7 -4.6 0.17
5.7 -3.01 -1.49
8.57 -4.53 0.51
6.53 -3.45 -1.44
12.91 -6.82 1.28
7.61 -4.02 -1.36
13.41 -7.08 1.86
9.02 -4.76 -1.25
13.35 -7.05 2.39
12.4 -6.55 -1.23
14.69 -7.76 3.23
12.53 -6.62 -0.74
12.41 -6.56 3.24
12.46 -6.58 -0.25
12.12 -6.4 3.67
5.03 -2.68 -1.53
8.79 -4.68 0.17
5.69 -3.03 -1.49
8.51 -4.53 0.51
6.52 -3.47 -1.44
12.83 -6.83 1.27
7.58 -4.04 -1.36
12.61 -6.71 1.75
8.99 -4.79 -1.25
33.31 -17.73 5.98
9.4 -5 -0.93
16.89 -8.99 3.72
12.59 -6.7 -0.75
15.77 -8.39 4.12
9.69 -5.16 -0.19
12.02 -6.4 3.65
5.02 -2.7 -1.53
8.64 -4.64 0.17
5.66 -3.04 -1.48
8.47 -4.55 0.5
6.5 -3.49 -1.43
12.62 -6.78 1.25
7.55 -4.06 -1.36
13.82 -7.42 1.93
8.98 -4.82 -1.25
33.04 -17.74 5.94
12.47 -6.7 -1.24
12.57 -6.75 2.77
12.8 -6.87 -0.76
15.75 -8.46 4.13
9.06 -4.87 -0.18
12 -6.44 3.65
5 -2.71 -1.52
8.54 -4.63 0.17
5.65 -3.06 -1.48
8.41 -4.55 0.5
6.48 -3.51 -1.43
8.79 -4.76 0.87
7.54 -4.08 -1.36
13.12 -7.11 1.83
8.94 -4.84 -1.25
16.95 -9.18 3.05
9.26 -5.02 -0.92
32.74 -17.73 7.24
12.7 -6.88 -0.76
18.21 -9.86 4.78
9.64 -5.22 -0.19
11.99 -6.5 3.65
4.99 -2.73 -1.52
8.43 -4.61 0.17
5.63 -3.08 -1.48
8.55 -4.67 0.51
6.46 -3.53 -1.43
12.5 -6.83 1.25
7.52 -4.11 -1.36
12.71 -6.94 1.78
8.74 -4.77 -1.22
16.99 -9.28 3.07
9.24 -5.05 -0.92
12.29 -6.71 2.72
8.84 -4.83 -0.53
18.01 -9.84 4.74
8.93 -4.88 -0.18
13.53 -7.39 4.13
4.98 -2.74 -1.52
8.5 -4.68 0.17
5.63 -3.1 -1.48
8.73 -4.81 0.52
6.44 -3.55 -1.43
32.46 -17.88 3.24
7.5 -4.13 -1.36
16.37 -9.02 2.29
8.62 -4.75 -1.21
12.64 -6.96 2.29
9.25 -5.09 -0.92
12.62 -6.95 2.8
8.86 -4.88 -0.53
12.44 -6.85 3.28
12.53 -6.9 -0.25
13.57 -7.47 4.15
4.97 -2.76 -1.52
8.56 -4.75 0.17
5.61 -3.12 -1.48
8.55 -4.75 0.51
6.43 -3.57 -1.43
12.66 -7.03 1.27
7.47 -4.15 -1.35
13.39 -7.44 1.88
8.56 -4.75 -1.2
13.35 -7.42 2.42
12.45 -6.91 2.77
9.49 -5.27 -0.57
31.84 -17.68 8.41
14.45 -8.02 -0.29
17.32 -9.62 5.31
4.96 -2.77 -1.52
8.77 -4.91 0.18
5.59 -3.13 -1.48
8.31 -4.65 0.5
6.41 -3.59 -1.43
8.72 -4.88 0.87
7.45 -4.17 -1.35
13.3 -7.44 1.87
8.42 -4.71 -1.19
14.93 -8.35 2.71
8.79 -4.92 -0.88
12.42 -6.95 2.77
8.8 -4.92 -0.53
13.32 -7.46 3.52
12.36 -6.92 -0.25
13.21 -7.39 4.06
4.95 -2.79 -1.52
8.72 -4.92 0.17
5.57 -3.14 -1.48
8.39 -4.73 0.5
6.39 -3.61 -1.43
8.62 -4.86 0.87
7.44 -4.2 -1.35
31.64 -17.85 4.46
8.42 -4.75 -1.19
14.86 -8.39 2.7
8.86 -5 -0.89
12.43 -7.01 2.77
12.52 -7.06 -0.75
12.99 -7.33 3.44
9 -5.08 -0.18
11.78 -6.65 3.63
4.94 -2.81 -1.52
8.62 -4.9 0.17
5.56 -3.16 -1.48
8.38 -4.77 0.51
6.37 -3.62 -1.42
8.45 -4.81 0.85
7.41 -4.22 -1.35
13.54 -7.7 1.91
8.37 -4.76 -1.18
12.45 -7.08 2.27
8.94 -5.08 -0.9
17.92 -10.19 4.01
8.89 -5.06 -0.54
12.26 -6.97 3.26
11.67 -6.64 3.6
4.91 -2.82 -1.52
8.53 -4.89 0.17
5.55 -3.18 -1.48
8.26 -4.74 0.5
6.35 -3.64 -1.42
8.46 -4.85 0.85
7.39 -4.24 -1.35
12.65 -7.25 1.79
8.37 -4.8 -1.18
14.03 -8.05 2.56
9.06 -5.2 -0.91
12.55 -7.2 2.81
8.83 -5.06 -0.53
13.37 -7.67 3.56
8.85 -5.07 -0.18
13.1 -7.51 4.05
4.9 -2.83 -1.52
8.54 -4.93 0.17
5.54 -3.2 -1.48
8.33 -4.82 0.5
6.34 -3.66 -1.42
8.48 -4.9 0.86
7.37 -4.26 -1.35
12.51 -7.23 1.77
8.38 -4.85 -1.19
13.97 -8.08 2.56
8.61 -4.97 -0.87
17.62 -10.18 3.96
9.34 -5.4 -0.57
12 -6.94 3.2
8.84 -5.11 -0.18
11.85 -6.85 3.67
4.89 -2.85 -1.52
5.51 -3.21 -1.47
8.26 -4.82 0.5
6.31 -3.68 -1.42
8.51 -4.96 0.86
7.35 -4.28 -1.35
12.4 -7.23 1.76
8.31 -4.84 -1.18
12.23 -7.13 2.24
8.46 -4.93 -0.86
12.07 -7.04 2.72
13.02 -7.59 -0.79
12.34 -7.19 3.3
8.79 -5.12 -0.18
11.83 -6.9 3.67
4.88 -2.87 -1.52
8.41 -4.94 0.17
5.5 -3.23 -1.47
8.33 -4.89 0.51
6.3 -3.7 -1.42
12.57 -7.38 1.28
7.33 -4.31 -1.35
9.52 -5.59 1.36
8.3 -4.88 -1.18
13.89 -8.16 2.55
8.64 -5.08 -0.88
12.13 -7.12 2.73
13 -7.64 -0.79
13.35 -7.84 3.57
8.94 -5.25 -0.18
14.16 -8.32 4.4
4.87 -2.88 -1.52
8.47 -5.02 0.17
5.49 -3.25 -1.47
8.39 -4.97 0.51
6.27 -3.71 -1.42
8.58 -5.08 0.87
7.31 -4.33 -1.35
12.89 -7.63 1.84
8.37 -4.95 -1.19
15.65 -9.26 2.88
9.27 -5.49 -0.94
12.79 -7.57 2.89
8.45 -5 -0.51
29.65 -17.55 7.95
8.8 -5.21 -0.18
11.48 -6.8 3.57
4.85 -2.9 -1.51
8.41 -5.02 0.17
5.48 -3.27 -1.47
8.24 -4.92 0.5
6.26 -3.74 -1.42
8.37 -4.99 0.85
7.3 -4.35 -1.35
8.65 -5.16 1.24
8.26 -4.93 -1.18
29.64 -17.69 5.47
8.91 -5.32 -0.91
29.57 -17.65 6.69
8.34 -4.97 -0.51
16.28 -9.71 4.38
8.62 -5.15 -0.18
11.49 -6.86 3.58
4.84 -2.91 -1.51
8.47 -5.1 0.17
5.46 -3.29 -1.47
8.23 -4.95 0.5
6.24 -3.76 -1.42
8.38 -5.04 0.86
7.27 -4.37 -1.34
8.72 -5.25 1.25
8.27 -4.98 -1.19
13.64 -8.21 2.52
8.67 -5.22 -0.89
12.15 -7.31 2.76
8.38 -5.04 -0.51
11.77 -7.08 3.17
8.62 -5.19 -0.18
11.52 -6.93 3.6
4.83 -2.93 -1.51
8.32 -5.05 0.17
5.43 -3.29 -1.47
8.16 -4.95 0.5
6.23 -3.78 -1.42
8.34 -5.06 0.85
7.25 -4.4 -1.34
29.47 -17.87 4.23
8.17 -4.96 -1.17
12.55 -7.61 2.32
8.66 -5.25 -0.89
29.4 -17.82 6.68
8.51 -5.16 -0.52
12.25 -7.43 3.31
8.54 -5.18 -0.17
11.64 -7.06 3.65
4.82 -2.95 -1.51
8.16 -4.99 0.17
5.42 -3.31 -1.47
8.15 -4.98 0.5
6.2 -3.79 -1.41
8.32 -5.08 0.85
7.23 -4.42 -1.34
9.32 -5.7 1.34
8.13 -4.97 -1.17
12.01 -7.34 2.23
8.62 -5.27 -0.88
29.3 -17.91 6.67
8.38 -5.12 -0.51
12.74 -7.78 3.45
8.53 -5.21 -0.17
16.98 -10.38 5.33
4.8 -2.96 -1.51
8.26 -5.09 0.17
5.42 -3.34 -1.47
8.08 -4.98 0.5
6.18 -3.81 -1.41
8.49 -5.23 0.87
7.21 -4.44 -1.34
9.23 -5.68 1.33
7.96 -4.9 -1.15
17.02 -10.48 3.17
8.35 -5.14 -0.86
12.46 -7.67 2.84
8.46 -5.21 -0.52
12 -7.39 3.25
8.24 -5.08 -0.17
11.87 -7.31 3.73
4.79 -2.97 -1.51
8.11 -5.04 0.17
5.4 -3.35 -1.47
7.99 -4.96 0.49
6.17 -3.83 -1.41
9.16 -5.69 0.94
7.2 -4.47 -1.34
8.49 -5.27 1.23
8.02 -4.98 -1.16
12.03 -7.47 2.24
8.23 -5.11 -0.85
29.12 -18.07 6.66
8.45 -5.24 -0.52
12.53 -7.78 3.4
8.32 -5.17 -0.17
11.92 -7.4 3.76
4.77 -2.99 -1.51
7.95 -4.97 0.16
5.39 -3.37 -1.47
7.98 -4.99 0.49
6.16 -3.85 -1.41
8.47 -5.3 0.87
7.17 -4.49 -1.34
8.35 -5.22 1.21
7.93 -4.96 -1.15
11.96 -7.48 2.23
8.66 -5.42 -0.89
11.89 -7.44 2.73
8.19 -5.12 -0.51
12 -7.5 3.27
8.41 -5.26 -0.17
28.95 -18.11 9.15
4.77 -3 -1.51
8 -5.04 0.16
5.37 -3.39 -1.47
8.04 -5.07 0.5
6.15 -3.88 -1.41
8.3 -5.23 0.86
7.15 -4.51 -1.34
8.45 -5.33 1.23
7.82 -4.93 -1.13
11.91 -7.51 2.23
8.54 -5.39 -0.88
15.64 -9.86 3.59
8.26 -5.21 -0.51
12.29 -7.75 3.35
15.81 -9.97 5.01
4.75 -3.02 -1.51
8.08 -5.14 0.17
5.35 -3.4 -1.46
7.85 -4.99 0.49
6.13 -3.89 -1.41
8.41 -5.34 0.87
7.13 -4.53 -1.34
8.43 -5.36 1.23
7.66 -4.86 -1.11
15.54 -9.87 2.92
8.36 -5.31 -0.87
15.57 -9.89 3.59
8.47 -5.38 -0.53
15.65 -9.94 4.28
15.73 -9.99 4.99
4.74 -3.04 -1.51
8.31 -5.32 0.17
5.34 -3.42 -1.46
7.82 -5.01 0.49
6.1 -3.91 -1.41
7.99 -5.12 0.83
7.11 -4.55 -1.34
8.42 -5.39 1.23
7.61 -4.87 -1.11
15.47 -9.91 2.91
8.28 -5.3 -0.86
15.52 -9.94 3.58
8.22 -5.26 -0.51
11.84 -7.58 3.24
8.65 -5.54 -0.18
15.73 -10.07 5.01
4.72 -3.05 -1.51
7.89 -5.09 0.16
5.33 -3.44 -1.46
7.79 -5.03 0.49
6.08 -3.93 -1.41
7.9 -5.1 0.82
7.1 -4.58 -1.34
8.42 -5.43 1.23
7.68 -4.95 -1.12
15.41 -9.94 2.9
8.25 -5.32 -0.86
15.53 -10.02 3.59
8.4 -5.42 -0.52
28.72 -18.53 7.89
8.55 -5.52 -0.18
11.69 -7.54 3.73
4.72 -3.07 -1.51
7.8 -5.07 0.16
5.31 -3.45 -1.46
8.18 -5.32 0.51
6.07 -3.95 -1.41
7.87 -5.11 0.82
7.07 -4.59 -1.34
8.57 -5.57 1.26
7.6 -4.94 -1.11
15.35 -9.98 2.9
8.17 -5.31 -0.85
12.86 -8.36 2.98
8.13 -5.29 -0.51
11.57 -7.52 3.19
8.79 -5.72 -0.18
11.62 -7.55 3.71
4.7 -3.08 -1.51
7.82 -5.12 0.16
5.29 -3.47 -1.46
8.06 -5.28 0.5
6.05 -3.97 -1.41
8.05 -5.27 0.84
7.05 -4.62 -1.33
8.4 -5.5 1.23
7.62 -5 -1.12
12.38 -8.11 2.34
7.96 -5.21 -0.83
12.63 -8.28 2.94
8.12 -5.32 -0.51
15.48 -10.14 4.27
9.22 -6.04 -0.19
11.66 -7.64 3.74
4.69 -3.1 -1.51
8.16 -5.39 0.17
5.28 -3.48 -1.46
7.8 -5.15 0.49
6.04 -3.98 -1.41
8.17 -5.39 0.86
7.04 -4.64 -1.34
8.53 -5.63 1.26
7.56 -4.99 -1.11
28.43 -18.77 5.39
8.13 -5.37 -0.85
12.45 -8.22 2.9
8.11 -5.36 -0.51
15.46 -10.2 4.28
8.22 -5.42 -0.17
13.71 -9.05 4.4
4.68 -3.11 -1.51
5.26 -3.5 -1.46
7.96 -5.3 0.5
6.01 -3.99 -1.4
8.16 -5.43 0.86
7.02 -4.67 -1.34
8.42 -5.6 1.24
7.58 -5.04 -1.12
13.23 -8.8 2.52
8.21 -5.46 -0.86
13.58 -9.03 3.17
7.94 -5.28 -0.5
11.49 -7.65 3.19
8.09 -5.38 -0.17
18.49 -12.3 5.95
4.66 -3.12 -1.5
8.23 -5.52 0.17
5.25 -3.52 -1.46
8.12 -5.44 0.51
5.99 -4.02 -1.4
7.92 -5.31 0.83
7 -4.69 -1.33
8.56 -5.74 1.27
7.58 -5.08 -1.12
15.01 -10.06 2.86
8.42 -5.64 -0.89
16.44 -11.02 3.85
7.89 -5.29 -0.5
11.44 -7.66 3.18
8.06 -5.4 -0.17
11.8 -7.91 3.81
4.65 -3.14 -1.5
7.98 -5.39 0.17
5.24 -3.54 -1.46
8.07 -5.45 0.51
5.97 -4.03 -1.4
7.85 -5.3 0.83
6.97 -4.71 -1.33
8.38 -5.66 1.24
7.61 -5.14 -1.13
28.16 -19.02 5.38
8.07 -5.45 -0.85
16.45 -11.11 3.86
7.94 -5.36 -0.5
11.38 -7.68 3.17
8.33 -5.63 -0.18
28.35 -19.15 9.17
4.64 -3.15 -1.5
7.95 -5.41 0.17
5.21 -3.54 -1.45
7.79 -5.3 0.49
5.96 -4.06 -1.4
7.91 -5.38 0.84
6.95 -4.73 -1.33
8.4 -5.71 1.25
7.56 -5.14 -1.12
28.08 -19.1 5.38
8.11 -5.52 -0.86
14.99 -10.2 3.53
7.97 -5.42 -0.51
11.34 -7.72 3.17
8.25 -5.61 -0.17
4.63 -3.17 -1.5
8.01 -5.49 0.17
5.2 -3.56 -1.45
7.71 -5.29 0.49
5.94 -4.07 -1.4
7.93 -5.44 0.84
6.93 -4.75 -1.33
8.4 -5.76 1.25
7.54 -5.17 -1.12
27.98 -19.18 5.37
8.11 -5.56 -0.86
14.87 -10.19 3.5
7.98 -5.47 -0.51
17.87 -12.25 5
8.14 -5.58 -0.17
12.64 -8.67 4.11
4.61 -3.19 -1.5
7.88 -5.44 0.17
5.19 -3.58 -1.45
7.71 -5.32 0.49
5.92 -4.09 -1.4
7.84 -5.42 0.83
6.91 -4.77 -1.33
8.3 -5.73 1.24
7.69 -5.31 -1.15
12.17 -8.4 2.34
8.13 -5.61 -0.86
12.15 -8.39 2.87
8 -5.52 -0.51
11.98 -8.28 3.36
8.06 -5.57 -0.17
12.58 -8.69 4.1
4.59 -3.2 -1.5
5.18 -3.6 -1.46
7.74 -5.38 0.49
5.9 -4.1 -1.4
8.13 -5.66 0.87
6.89 -4.79 -1.33
8.23 -5.72 1.23
7.7 -5.36 -1.15
16.97 -11.81 3.27
8.01 -5.57 -0.85
12.63 -8.79 2.99
8.04 -5.59 -0.51
16.37 -11.39 4.6
8.09 -5.63 -0.17
15.38 -10.7 5.02
4.58 -3.21 -1.5
7.88 -5.52 0.17
5.16 -3.62 -1.45
7.76 -5.44 0.5
5.88 -4.12 -1.4
7.82 -5.48 0.84
6.86 -4.81 -1.33
8.14 -5.71 1.22
7.63 -5.35 -1.14
8.6 -6.03 1.66
7.98 -5.59 -0.85
12.33 -8.64 2.93
16.41 -11.5 4.63
7.78 -5.46 -0.17
15.36 -10.76 5.02
4.57 -3.23 -1.5
8 -5.65 0.17
5.14 -3.63 -1.45
7.8 -5.51 0.5
5.86 -4.14 -1.4
7.66 -5.41 0.82
6.84 -4.83 -1.33
8.42 -5.94 1.27
7.57 -5.35 -1.14
27.62 -19.51 5.36
8.02 -5.66 -0.86
16.14 -11.4 3.84
13.96 -9.86 3.95
8.36 -5.9 -0.18
15.33 -10.83 5.03
4.56 -3.25 -1.5
7.92 -5.63 0.17
5.12 -3.64 -1.45
7.83 -5.57 0.5
5.85 -4.16 -1.4
8.08 -5.75 0.87
6.81 -4.85 -1.32
7.47 -5.31 1.13
7.52 -5.35 -1.13
12.01 -8.54 2.33
7.91 -5.63 -0.85
12.62 -8.98 3.01
8.09 -5.76 -0.52
19.14 -13.62 5.42
7.98 -5.67 -0.17
17.93 -12.76 5.9
4.55 -3.26 -1.5
5.11 -3.66 -1.45
7.48 -5.36 0.48
5.82 -4.17 -1.39
7.91 -5.67 0.85
6.79 -4.86 -1.32
8.08 -5.79 1.22
7.62 -5.46 -1.15
8.92 -6.39 1.74
7.87 -5.64 -0.85
12.64 -9.06 3.02
8.09 -5.8 -0.52
12.62 -9.04 3.58
8.45 -6.06 -0.18
12.56 -9 4.14
4.53 -3.27 -1.5
7.85 -5.67 0.17
5.09 -3.68 -1.45
7.69 -5.55 0.5
5.81 -4.19 -1.39
7.59 -5.48 0.82
6.78 -4.89 -1.32
8.12 -5.86 1.23
7.63 -5.51 -1.16
11.89 -8.59 2.32
7.98 -5.77 -0.86
12.42 -8.96 2.98
8.12 -5.87 -0.53
12.5 -9.02 3.56
12.44 -8.98 4.11
4.52 -3.28 -1.5
7.95 -5.79 0.17
5.08 -3.69 -1.45
7.79 -5.66 0.5
5.79 -4.21 -1.39
7.81 -5.68 0.84
6.75 -4.91 -1.32
7.94 -5.78 1.21
7.63 -5.55 -1.16
7.95 -5.78 -0.86
12.48 -9.08 3
8.21 -5.97 -0.53
12.48 -9.08 3.56
8.11 -5.9 -0.18
12.41 -9.03 4.11
4.51 -3.3 -1.5
7.86 -5.76 0.17
5.05 -3.7 -1.45
7.81 -5.72 0.51
5.77 -4.23 -1.39
7.88 -5.78 0.86
6.74 -4.94 -1.32
8.4 -6.15 1.28
7.58 -5.55 -1.15
12.52 -9.18 2.46
7.94 -5.82 -0.86
12.47 -9.14 3.01
7.8 -5.71 -0.51
12.46 -9.13 3.57
7.86 -5.76 -0.17
12.4 -9.09 4.12
4.49 -3.32 -1.5
7.58 -5.6 0.16
5.04 -3.72 -1.45
7.7 -5.68 0.5
5.75 -4.25 -1.39
7.61 -5.62 0.83
6.72 -4.96 -1.32
8.15 -6.02 1.24
7.55 -5.57 -1.15
12.54 -9.25 2.47
7.99 -5.9 -0.87
12.42 -9.17 3
8.2 -6.05 -0.53
12.43 -9.18 3.57
7.94 -5.86 -0.17
12.39 -9.14 4.13
4.48 -3.33 -1.5
7.55 -5.61 0.16
5.03 -3.74 -1.45
7.63 -5.67 0.5
5.72 -4.25 -1.39
7.67 -5.71 0.84
6.71 -4.99 -1.32
7.81 -5.8 1.19
7.61 -5.66 -1.16
9.15 -6.8 1.81
7.93 -5.9 -0.86
7.8 -5.8 -0.51
7.95 -5.91 -0.17
14.42 -10.72 4.81
4.45 -3.34 -1.49
7.51 -5.62 0.16
5.01 -3.75 -1.45
7.8 -5.84 0.51
5.7 -4.27 -1.38
7.75 -5.8 0.85
6.68 -5 -1.32
8.08 -6.05 1.24
7.61 -5.7 -1.17
12.35 -9.25 2.44
7.81 -5.85 -0.85
16.55 -12.4 4.02
7.98 -5.98 -0.52
12.99 -9.73 3.75
14.37 -10.76 4.81
4.45 -3.36 -1.49
7.5 -5.66 0.16
5 -3.77 -1.45
7.54 -5.69 0.5
5.69 -4.29 -1.39
7.72 -5.82 0.85
6.65 -5.02 -1.32
8.59 -6.48 1.32
7.63 -5.76 -1.17
8.84 -6.67 1.75
7.87 -5.94 -0.86
14.42 -10.88 3.51
8.37 -6.31 -0.55
12.42 -9.37 3.59
8.11 -6.12 -0.18
10.26 -7.74 3.44
4.43 -3.37 -1.49
7.55 -5.74 0.17
4.97 -3.78 -1.44
7.57 -5.75 0.5
5.68 -4.31 -1.39
7.85 -5.96 0.86
6.63 -5.04 -1.32
8.45 -6.42 1.3
7.65 -5.81 -1.18
8.85 -6.72 1.76
7.94 -6.03 -0.87
11.44 -8.69 2.79
8.14 -6.19 -0.54
12.55 -9.54 3.64
7.55 -5.74 -0.17
15.58 -11.84 5.24
4.42 -3.38 -1.49
8.08 -6.19 0.18
4.96 -3.79 -1.44
7.64 -5.84 0.5
5.65 -4.33 -1.38
7.85 -6.01 0.86
6.6 -5.05 -1.32
7.87 -6.03 1.22
7.63 -5.84 -1.18
11.9 -9.11 2.37
7.91 -6.05 -0.87
11.42 -8.74 2.8
8.15 -6.24 -0.54
17.03 -13.03 4.95
8.13 -6.22 -0.18
15.31 -11.72 5.17
4.41 -3.4 -1.49
7.98 -6.15 0.18
4.95 -3.81 -1.44
7.73 -5.96 0.51
5.63 -4.34 -1.38
7.78 -6 0.86
6.58 -5.07 -1.32
7.82 -6.03 1.21
7.48 -5.76 -1.16
8.82 -6.8 1.76
7.91 -6.1 -0.87
11.62 -8.96 2.85
7.56 -5.83 -0.5
13.87 -10.69 4.04
7.93 -6.11 -0.17
17.48 -13.47 5.91
4.38 -3.4 -1.49
8.04 -6.25 0.18
4.93 -3.83 -1.44
7.59 -5.89 0.5
5.61 -4.36 -1.38
7.52 -5.84 0.83
6.55 -5.09 -1.31
8.59 -6.67 1.33
7.43 -5.77 -1.15
8.79 -6.83 1.76
7.88 -6.12 -0.87
14.37 -11.16 3.54
7.52 -5.84 -0.5
12.12 -9.41 3.54
7.91 -6.14 -0.17
10.17 -7.9 3.45
4.37 -3.42 -1.49
8.18 -6.4 0.18
4.91 -3.84 -1.44
7.63 -5.97 0.51
5.6 -4.38 -1.38
7.77 -6.08 0.86
6.53 -5.1 -1.31
7.88 -6.16 1.23
7.38 -5.77 -1.15
12.58 -9.84 2.53
7.94 -6.21 -0.88
12.75 -9.98 3.15
8.2 -6.42 -0.55
16.65 -13.02 4.88
11.65 -9.11 3.96
4.36 -3.44 -1.49
7.59 -5.98 0.17
4.89 -3.85 -1.44
7.67 -6.04 0.51
5.58 -4.39 -1.38
7.7 -6.07 0.86
6.5 -5.12 -1.31
8.09 -6.38 1.27
7.34 -5.78 -1.15
26.27 -20.7 5.3
7.97 -6.28 -0.89
12.22 -9.62 3.02
12.07 -9.51 3.55
8.03 -6.33 -0.18
11.64 -9.17 3.97
4.35 -3.45 -1.49
7.29 -5.78 0.16
4.87 -3.86 -1.44
7.56 -6 0.51
5.56 -4.41 -1.38
7.49 -5.94 0.84
6.49 -5.15 -1.31
7.28 -5.78 -1.14
12.36 -9.8 2.5
7.9 -6.26 -0.88
14.22 -11.28 3.53
7.48 -5.94 -0.5
12.88 -10.22 3.8
8.01 -6.36 -0.18
11.61 -9.21 3.97
4.34 -3.47 -1.49
8.5 -6.79 0.19
4.86 -3.89 -1.44
7.55 -6.03 0.51
5.54 -4.42 -1.38
7.74 -6.19 0.87
6.45 -5.15 -1.31
8.33 -6.65 1.31
7.24 -5.78 -1.14
13.37 -10.69 2.71
7.83 -6.26 -0.88
14.27 -11.41 3.55
8.67 -6.93 -0.58
12.99 -10.38 3.84
8.34 -6.67 -0.19
10.24 -8.19 3.51
4.32 -3.48 -1.49
8.03 -6.46 0.18
4.85 -3.91 -1.44
7.55 -6.07 0.51
5.51 -4.44 -1.38
7.58 -6.1 0.85
6.41 -5.16 -1.3
7.58 -6.1 1.19
7.23 -5.82 -1.14
26.01 -20.94 5.29
7.95 -6.4 -0.89
12.6 -10.14 3.14
8.25 -6.64 -0.55
11.63 -9.36 3.45
8.13 -6.54 -0.18
9.88 -7.95 3.4
4.3 -3.49 -1.48
4.83 -3.91 -1.44
7.76 -6.29 0.52
5.5 -4.46 -1.38
7.56 -6.13 0.85
6.36 -5.16 -1.3
12.42 -10.07 1.96
7.17 -5.81 -1.13
16.06 -13.02 3.28
8.19 -6.64 -0.92
11.67 -9.46 2.92
8.38 -6.79 -0.57
25.87 -20.97 7.69
8.34 -6.76 -0.19
10.18 -8.25 3.51
4.28 -3.5 -1.48
7.97 -6.51 0.18
4.8 -3.92 -1.43
7.7 -6.28 0.52
5.48 -4.47 -1.37
8.2 -6.7 0.93
6.33 -5.17 -1.29
8.42 -6.88 1.34
7.14 -5.83 -1.13
13.02 -10.63 2.66
8.8 -7.18 -0.99
25.79 -21.06 6.47
8.46 -6.91 -0.57
12.32 -10.06 3.67
8.21 -6.7 -0.18
11.87 -9.69 4.11
4.27 -3.51 -1.48
7.95 -6.53 0.18
4.79 -3.94 -1.43
7.65 -6.29 0.52
5.46 -4.49 -1.37
7.39 -6.08 0.84
6.29 -5.17 -1.29
12.14 -9.98 1.93
7.11 -5.84 -1.13
12.74 -10.48 2.61
8.09 -6.66 -0.92
25.7 -21.13 6.47
8.83 -7.26 -0.6
12.3 -10.11 3.68
11.43 -9.4 3.97
4.27 -3.53 -1.48
7.9 -6.54 0.18
4.77 -3.95 -1.43
7.66 -6.34 0.52
5.44 -4.5 -1.37
6.26 -5.18 -1.29
11.94 -9.89 1.9
7.08 -5.86 -1.13
25.64 -21.24 5.27
8.8 -7.29 -1
12.76 -10.57 3.22
8.06 -6.67 -0.55
9.88 -8.18 2.96
7.94 -6.58 -0.18
25.54 -21.15 8.89
4.24 -3.53 -1.48
7.86 -6.55 0.18
4.76 -3.97 -1.43
7.6 -6.33 0.52
5.42 -4.52 -1.37
8.01 -6.68 0.91
6.22 -5.19 -1.28
8.45 -7.05 1.35
7.09 -5.91 -1.13
25.56 -21.32 5.27
8.74 -7.29 -1
25.54 -21.3 6.46
8.29 -6.91 -0.57
9.94 -8.29 2.99
8.18 -6.82 -0.19
11.52 -9.61 4.02
4.23 -3.55 -1.48
7.91 -6.64 0.18
4.74 -3.98 -1.43
7.59 -6.38 0.52
5.41 -4.54 -1.37
7.56 -6.35 0.86
6.19 -5.2 -1.28
8.68 -7.29 1.39
7.05 -5.92 -1.13
13.47 -11.31 2.79
7.55 -6.34 -0.86
12.87 -10.81 3.27
8.72 -7.32 -0.6
25.43 -21.36 7.67
8.22 -6.91 -0.19
9.9 -8.32 3.47
4.21 -3.56 -1.48
8.05 -6.81 0.18
4.72 -3.99 -1.43
7.7 -6.51 0.53
5.39 -4.56 -1.37
7.52 -6.36 0.86
6.16 -5.21 -1.28
8.5 -7.19 1.37
7.02 -5.94 -1.13
12.25 -10.37 2.54
7.62 -6.45 -0.87
15.21 -12.86 3.87
8.43 -7.13 -0.58
9.96 -8.42 3.01
8.01 -6.78 -0.18
25.27 -21.37 8.87
4.21 -3.58 -1.48
7.88 -6.71 0.18
4.7 -4.01 -1.43
7.76 -6.61 0.53
5.37 -4.58 -1.37
6.13 -5.22 -1.28
8.43 -7.18 1.36
6.96 -5.93 -1.12
11.68 -9.96 2.43
7.43 -6.33 -0.85
13.31 -11.34 3.4
8.18 -6.97 -0.56
9.89 -8.43 3
8.14 -6.94 -0.19
9.81 -8.36 3.45
4.19 -3.59 -1.48
7.7 -6.6 0.18
4.69 -4.02 -1.43
7.79 -6.68 0.54
5.35 -4.59 -1.37
7.48 -6.42 0.86
6.1 -5.23 -1.27
11.89 -10.2 1.92
6.96 -5.97 -1.13
25.21 -21.63 5.26
7.84 -6.73 -0.9
25.17 -21.6 6.45
8.29 -7.12 -0.57
9.83 -8.43 2.99
8.83 -7.57 -0.2
25.08 -21.52 8.85
4.15 -3.59 -1.47
7.69 -6.64 0.18
4.68 -4.04 -1.43
7.57 -6.54 0.52
5.34 -4.61 -1.37
6.06 -5.24 -1.27
7.65 -6.61 1.24
6.89 -5.95 -1.12
25.12 -21.71 5.26
8.19 -7.08 -0.95
13.29 -11.49 3.42
10.99 -9.5 3.35
11.62 -10.04 4.12
4.15 -3.61 -1.47
7.7 -6.7 0.18
4.66 -4.06 -1.43
7.57 -6.59 0.53
5.32 -4.63 -1.37
7.7 -6.7 0.89
6.02 -5.24 -1.26
8.38 -7.29 1.36
6.85 -5.96 -1.12
8.39 -7.3 1.76
7.54 -6.56 -0.87
25 -21.75 6.44
8.34 -7.25 -0.58
24.97 -21.73 7.64
7.79 -6.77 -0.18
12.27 -10.68 4.36
4.14 -3.62 -1.47
7.7 -6.74 0.18
4.63 -4.06 -1.42
7.81 -6.84 0.54
5.3 -4.64 -1.37
7.8 -6.83 0.91
5.99 -5.25 -1.26
8.46 -7.42 1.38
6.88 -6.03 -1.12
11.98 -10.49 2.52
24.96 -21.87 6.45
8.39 -7.35 -0.58
25.22 -22.1 7.74
7.86 -6.89 -0.18
9.66 -8.47 3.44
4.13 -3.64 -1.47
7.73 -6.82 0.18
4.61 -4.07 -1.42
8.24 -7.27 0.58
5.28 -4.66 -1.37
8.22 -7.26 0.96
5.95 -5.25 -1.26
8.47 -7.48 1.39
6.87 -6.06 -1.12
13.17 -11.62 2.78
7.78 -6.87 -0.91
10.93 -9.64 2.83
8.34 -7.36 -0.58
25.28 -22.31 7.78
7.79 -6.87 -0.18
9.56 -8.43 3.42
4.11 -3.65 -1.47
7.76 -6.9 0.18
4.6 -4.09 -1.42
8 -7.11 0.56
5.26 -4.68 -1.37
8.08 -7.18 0.95
5.92 -5.26 -1.25
8.05 -7.15 1.32
6.85 -6.09 -1.13
25.29 -22.48 5.36
7.35 -6.53 -0.86
14.89 -13.23 3.87
8.25 -7.33 -0.58
12.62 -11.21 3.9
7.57 -6.73 -0.18
9.53 -8.47 3.42
4.09 -3.66 -1.47
7.98 -7.14 0.19
4.59 -4.11 -1.42
8 -7.16 0.56
5.24 -4.69 -1.37
7.94 -7.1 0.93
5.87 -5.26 -1.25
8.37 -7.49 1.38
6.81 -6.09 -1.12
25.27 -22.62 5.37
7.06 -6.32 -0.83
13.8 -12.35 3.6
12.54 -11.22 3.88
9.91 -8.87 3.56
4.08 -3.67 -1.47
7.72 -6.96 0.18
4.57 -4.12 -1.42
7.87 -7.09 0.55
5.23 -4.71 -1.37
7.79 -7.02 0.92
5.85 -5.27 -1.25
8.35 -7.52 1.38
6.78 -6.11 -1.12
12.14 -10.95 2.59
7.04 -6.35 -0.83
25.23 -22.74 6.6
7.5 -6.76 -0.53
12.52 -11.28 3.89
7.61 -6.86 -0.18
10.03 -9.04 3.62
4.07 -3.69 -1.47
7.58 -6.88 0.18
4.54 -4.12 -1.42
7.81 -7.09 0.55
5.21 -4.73 -1.37
7.99 -7.26 0.94
5.82 -5.28 -1.24
8.1 -7.35 1.34
6.73 -6.11 -1.12
12.13 -11.01 2.6
6.99 -6.35 -0.83
25.2 -22.88 6.62
7.45 -6.76 -0.53
11.19 -10.15 3.49
7.55 -6.85 -0.18
9.66 -8.77 3.5
4.05 -3.71 -1.47
4.53 -4.14 -1.42
7.77 -7.1 0.55
5.19 -4.74 -1.37
8.05 -7.36 0.95
5.78 -5.29 -1.24
8.25 -7.54 1.37
6.66 -6.09 -1.11
12.15 -11.11 2.61
6.98 -6.38 -0.83
25.17 -23.01 6.63
7.44 -6.8 -0.53
25.17 -23 7.87
9.65 -8.82 3.5
4.04 -3.72 -1.47
7.39 -6.81 0.18
4.51 -4.16 -1.42
7.66 -7.05 0.55
5.17 -4.76 -1.37
7.92 -7.29 0.94
5.76 -5.3 -1.24
7.79 -7.17 1.3
6.62 -6.1 -1.11
25.19 -23.18 5.42
7.01 -6.45 -0.83
10.64 -9.8 2.81
7.53 -6.93 -0.54
25.15 -23.15 7.89
7.47 -6.87 -0.18
9.66 -8.89 3.52
4.02 -3.72 -1.47
8.01 -7.42 0.19
4.5 -4.17 -1.42
7.58 -7.02 0.54
5.15 -4.78 -1.37
7.82 -7.25 0.93
5.72 -5.3 -1.23
8.24 -7.64 1.38
6.59 -6.11 -1.1
13.33 -12.35 2.88
7.21 -6.68 -0.86
11 -10.19 2.91
7.38 -6.84 -0.53
25.1 -23.26 7.9
7.44 -6.9 -0.18
9.5 -8.8 3.47
4 -3.74 -1.47
7.65 -7.14 0.18
4.49 -4.19 -1.42
7.79 -7.27 0.56
5.13 -4.79 -1.37
7.86 -7.34 0.94
5.69 -5.31 -1.23
14.3 -13.35 2.4
6.56 -6.12 -1.1
25.16 -23.48 5.45
7.16 -6.69 -0.86
25.1 -23.43 6.67
7.62 -7.11 -0.55
25.1 -23.43 7.93
7.53 -7.03 -0.18
9.44 -8.81 3.46
3.99 -3.75 -1.47
7.75 -7.28 0.19
4.46 -4.2 -1.41
7.77 -7.3 0.56
5.12 -4.81 -1.37
7.83 -7.36 0.94
5.64 -5.31 -1.23
25.13 -23.62 4.23
6.55 -6.16 -1.1
25.11 -23.61 5.46
6.93 -6.51 -0.83
25.07 -23.57 6.69
7.31 -6.87 -0.53
25.08 -23.58 7.95
7.6 -7.15 -0.18
9.32 -8.76 3.43
3.98 -3.76 -1.47
4.45 -4.21 -1.41
7.47 -7.07 0.54
5.1 -4.83 -1.37
7.96 -7.53 0.96
5.61 -5.31 -1.22
7.42 -7.03 1.26
6.52 -6.17 -1.1
12.31 -11.65 2.68
7.01 -6.64 -0.84
25.05 -23.71 6.7
7.5 -7.1 -0.54
11.03 -10.45 3.51
7.58 -7.18 -0.18
9.48 -8.97 3.5
3.96 -3.78 -1.47
7.4 -7.05 0.18
4.43 -4.22 -1.41
7.48 -7.13 0.54
5.07 -4.84 -1.36
7.48 -7.13 0.9
5.58 -5.32 -1.22
7.41 -7.06 1.26
6.51 -6.21 -1.1
25.07 -23.9 5.49
7.02 -6.69 -0.85
25.03 -23.86 6.72
7.45 -7.1 -0.54
12.22 -11.65 3.9
7.5 -7.15 -0.18
9.49 -9.05 3.51
3.94 -3.78 -1.46
7.68 -7.38 0.19
4.42 -4.24 -1.41
7.42 -7.12 0.54
5.06 -4.86 -1.36
7.59 -7.29 0.92
5.54 -5.32 -1.22
8.84 -8.49 1.51
6.41 -6.15 -1.09
10.5 -10.08 2.3
7.1 -6.82 -0.86
25 -24 6.74
7.34 -7.04 -0.53
12.53 -12.03 4.01
7.71 -7.4 -0.19
9.46 -9.08 3.51
3.92 -3.79 -1.46
7.78 -7.52 0.19
4.4 -4.25 -1.41
7.54 -7.29 0.55
5.05 -4.88 -1.37
7.62 -7.37 0.93
5.49 -5.31 -1.21
7.96 -7.69 1.36
6.5 -6.28 -1.11
14.62 -14.13 3.22
6.85 -6.62 -0.83
24.97 -24.14 6.75
7.33 -7.09 -0.53
12.22 -11.81 3.92
7.45 -7.2 -0.18
9.5 -9.19 3.54
3.92 -3.81 -1.46
7.76 -7.56 0.19
4.38 -4.26 -1.41
7.66 -7.45 0.56
5.03 -4.9 -1.36
7.84 -7.64 0.96
5.45 -5.3 -1.2
6.41 -6.24 -1.1
11.96 -11.65 2.64
6.88 -6.7 -0.84
24.95 -24.29 6.77
7.34 -7.14 -0.54
9.22 -8.98 2.97
7.47 -7.27 -0.18
9.4 -9.15 3.51
3.9 -3.82 -1.46
7.74 -7.59 0.19
4.36 -4.28 -1.41
7.51 -7.35 0.55
5.02 -4.91 -1.36
5.48 -5.37 -1.21
7.32 -7.17 1.26
6.35 -6.22 -1.09
14.4 -14.11 3.19
6.87 -6.73 -0.84
24.94 -24.43 6.79
7.15 -7.01 -0.52
13.33 -13.05 4.31
7.5 -7.35 -0.18
10.44 -10.23 3.92
3.89 -3.84 -1.46
7.62 -7.52 0.19
4.35 -4.29 -1.41
7.62 -7.51 0.56
4.98 -4.92 -1.36
7.68 -7.58 0.94
5.48 -5.4 -1.22
7.5 -7.4 1.29
6.31 -6.23 -1.09
8.1 -7.99 1.8
6.82 -6.72 -0.84
24.92 -24.58 6.8
7.04 -6.95 -0.52
13.25 -13.07 4.3
8.1 -7.99 -0.2
10.37 -10.23 3.9
3.86 -3.84 -1.46
7.56 -7.51 0.19
4.33 -4.31 -1.41
7.54 -7.5 0.56
4.97 -4.94 -1.36
7.81 -7.76 0.96
5.46 -5.42 -1.22
7.6 -7.56 1.32
6.29 -6.25 -1.09
8.06 -8.01 1.8
6.75 -6.71 -0.83
24.88 -24.74 6.82
6.89 -6.84 -0.51
13.36 -13.28 4.35
7.92 -7.88 -0.2
25.5 -25.35 9.64
3.85 -3.85 -1.46
7.79 -7.8 0.19
4.32 -4.32 -1.41
7.15 -7.15 0.53
4.95 -4.96 -1.36
7.69 -7.69 0.95
5.42 -5.43 -1.22
8.51 -8.51 1.48
6.27 -6.27 -1.09
11.89 -11.9 2.66
6.81 -6.82 -0.84
12.86 -12.87 3.54
6.85 -6.85 -0.51
9.59 -9.6 3.13
7.93 -7.94 -0.2
25.5 -25.53 9.67
3.84 -3.87 -1.46
7.73 -7.79 0.19
4.29 -4.33 -1.41
7.67 -7.73 0.57
4.93 -4.97 -1.36
7.71 -7.77 0.96
5.4 -5.45 -1.22
7.71 -7.78 1.34
6.22 -6.27 -1.08
8.43 -8.5 1.9
6.9 -6.96 -0.86
12.61 -12.71 3.48
6.94 -7 -0.52
12.97 -13.08 4.25
7.47 -7.53 -0.19
3.83 -3.89 -1.46
4.28 -4.34 -1.41
7.4 -7.51 0.55
4.92 -4.99 -1.36
7.26 -7.37 0.9
5.38 -5.46 -1.21
7.68 -7.79 1.34
6.15 -6.25 -1.08
11.85 -12.03 2.67
6.79 -6.9 -0.85
12.69 -12.88 3.51
7.09 -7.19 -0.53
12.89 -13.09 4.24
10.98 -11.15 4.19
3.81 -3.9 -1.46
7.23 -7.39 0.18
4.26 -4.36 -1.41
7.28 -7.45 0.55
4.89 -5 -1.36
5.36 -5.48 -1.21
7.6 -7.77 1.34
6.11 -6.24 -1.07
11.75 -12.02 2.66
6.76 -6.91 -0.85
11.7 -11.96 3.25
6.94 -7.09 -0.52
12.86 -13.15 4.25
7.53 -7.7 -0.19
11.31 -11.56 4.33
3.79 -3.9 -1.46
7.3 -7.51 0.18
4.25 -4.38 -1.41
7.37 -7.58 0.55
4.87 -5.01 -1.36
7.42 -7.64 0.93
5.34 -5.5 -1.21
7.53 -7.75 1.33
6.08 -6.26 -1.07
11.6 -11.94 2.64
6.77 -6.96 -0.85
24.85 -25.58 6.93
6.87 -7.07 -0.52
13.14 -13.53 4.35
7.52 -7.74 -0.19
3.78 -3.92 -1.46
4.23 -4.39 -1.41
4.86 -5.03 -1.36
7.13 -7.39 0.9
5.32 -5.51 -1.21
8.41 -8.72 1.49
6.05 -6.27 -1.07
11.49 -11.91 2.62
6.63 -6.88 -0.84
24.84 -25.75 6.96
7.06 -7.32 -0.53
13.08 -13.56 4.35
3.76 -3.93 -1.46
7.33 -7.65 0.18
4.21 -4.39 -1.41
8.24 -8.6 0.62
4.84 -5.05 -1.36
7.24 -7.55 0.92
5.36 -5.6 -1.23
8.33 -8.7 1.48
6.03 -6.29 -1.07
11.44 -11.94 2.62
6.65 -6.94 -0.84
24.79 -25.88 6.97
6.81 -7.11 -0.52
13.01 -13.58 4.34
7.57 -7.9 -0.19
13.1 -13.68 5.08
3.75 -3.94 -1.46
7.37 -7.74 0.19
4.19 -4.41 -1.4
8.11 -8.52 0.62
4.81 -5.06 -1.36
7.57 -7.96 0.96
5.34 -5.61 -1.23
7.54 -7.93 1.34
5.99 -6.3 -1.07
13.58 -14.27 3.12
6.71 -7.06 -0.85
12.47 -13.11 3.52
7.68 -8.07 -0.58
12.9 -13.56 4.32
7.54 -7.92 -0.19
13.06 -13.73 5.08
3.73 -3.95 -1.46
7.79 -8.25 0.2
4.18 -4.43 -1.41
7.49 -7.93 0.57
4.79 -5.07 -1.36
7.76 -8.22 0.99
5.32 -5.63 -1.23
8.01 -8.48 1.43
5.97 -6.32 -1.07
24.71 -26.16 5.7
6.72 -7.11 -0.86
12.73 -13.47 3.6
7.9 -8.37 -0.6
12.85 -13.61 4.32
7.18 -7.6 -0.18
12.61 -13.34 4.92
3.72 -3.96 -1.46
7.35 -7.83 0.19
4.17 -4.44 -1.41
7.56 -8.06 0.58
4.77 -5.08 -1.36
5.29 -5.63 -1.22
8.13 -8.66 1.46
5.96 -6.35 -1.07
11.34 -12.09 2.62
6.65 -7.09 -0.85
12.72 -13.56 3.61
7.53 -8.03 -0.58
12.83 -13.68 4.33
7.55 -8.05 -0.19
25.68 -27.37 10.06
3.7 -3.97 -1.45
7.07 -7.59 0.18
4.15 -4.45 -1.4
7.3 -7.84 0.56
4.76 -5.11 -1.36
8.04 -8.63 1.03
5.25 -5.64 -1.22
8.09 -8.68 1.46
5.96 -6.4 -1.07
11.25 -12.07 2.61
6.65 -7.14 -0.85
12.64 -13.57 3.6
8.12 -8.72 -0.62
12.47 -13.39 4.22
7.56 -8.11 -0.19
13.49 -14.48 5.3
3.69 -3.99 -1.46
7.49 -8.09 0.19
4.13 -4.46 -1.4
7.21 -7.79 0.56
4.74 -5.12 -1.36
7.75 -8.37 1
5.24 -5.66 -1.22
8.08 -8.73 1.46
5.95 -6.43 -1.08
11.17 -12.07 2.6
6.72 -7.26 -0.87
12.53 -13.54 3.59
7.95 -8.59 -0.61
12.38 -13.37 4.21
7.64 -8.25 -0.2
13.4 -14.47 5.28
3.68 -4 -1.46
7.42 -8.07 0.19
4.11 -4.47 -1.4
7.17 -7.8 0.56
4.72 -5.13 -1.36
7.98 -8.68 1.03
5.24 -5.7 -1.23
8 -8.7 1.45
5.97 -6.49 -1.08
24.6 -26.77 5.76
6.8 -7.4 -0.88
12.35 -13.44 3.55
7.85 -8.54 -0.61
12.3 -13.38 4.2
6.77 -7.36 -0.17
11.99 -13.05 4.75
3.66 -4.01 -1.45
8.09 -8.86 0.21
4.09 -4.49 -1.4
6.89 -7.56 0.54
4.69 -5.14 -1.35
7.76 -8.51 1.01
5.22 -5.73 -1.23
13.69 -15.01 2.5
6.01 -6.59 -1.09
24.55 -26.91 5.77
6.82 -7.48 -0.89
12.37 -13.56 3.57
7.43 -8.15 -0.58
12.24 -13.42 4.19
6.74 -7.39 -0.17
11.91 -13.06 4.74
3.64 -4.01 -1.45
7.76 -8.56 0.2
4.08 -4.51 -1.4
7.36 -8.13 0.57
4.67 -5.16 -1.35
7.33 -8.09 0.96
5.19 -5.73 -1.22
12.42 -13.72 2.27
5.97 -6.59 -1.09
24.52 -27.07 5.78
6.75 -7.45 -0.88
12.31 -13.59 3.57
7.04 -7.77 -0.55
12.33 -13.61 4.24
6.73 -7.43 -0.18
11.87 -13.11 4.74
3.63 -4.03 -1.45
7.17 -7.97 0.19
4.06 -4.52 -1.4
7.41 -8.23 0.58
4.65 -5.17 -1.35
7.42 -8.25 0.97
5.15 -5.73 -1.22
8.17 -9.08 1.5
5.91 -6.57 -1.09
24.49 -27.23 5.8
6.7 -7.45 -0.88
12.49 -13.89 3.63
7.98 -8.87 -0.63
12.53 -13.93 4.33
7.88 -8.76 -0.21
11.94 -13.27 4.78
3.62 -4.05 -1.45
4.04 -4.53 -1.4
7.75 -8.68 0.61
4.64 -5.19 -1.35
7.81 -8.75 1.03
5.13 -5.74 -1.22
8.13 -9.1 1.5
5.92 -6.63 -1.09
24.48 -27.41 5.82
6.44 -7.21 -0.85
24.44 -27.36 7.13
7.86 -8.81 -0.62
12.31 -13.78 4.27
6.53 -7.31 -0.17
13.46 -15.07 5.42
3.6 -4.06 -1.45
7.98 -9 0.21
4.03 -4.54 -1.4
7.04 -7.93 0.56
4.62 -5.2 -1.35
8.35 -9.41 1.1
5.1 -5.75 -1.22
8.39 -9.45 1.55
5.84 -6.58 -1.08
13.19 -14.86 3.15
6.4 -7.21 -0.84
12.04 -13.56 3.52
7.02 -7.91 -0.55
11.9 -13.41 4.14
7.27 -8.19 -0.19
11.41 -12.85 4.61
3.58 -4.06 -1.45
7.8 -8.86 0.21
4.01 -4.56 -1.4
7.87 -8.92 0.62
4.58 -5.19 -1.35
8.02 -9.1 1.06
5.07 -5.76 -1.22
12.95 -14.7 2.41
5.82 -6.6 -1.08
24.44 -27.74 5.86
6.38 -7.24 -0.84
11.99 -13.6 3.52
6.47 -7.34 -0.51
11.75 -13.33 4.1
7.44 -8.44 -0.2
11.35 -12.88 4.6
3.56 -4.07 -1.45
7.28 -8.31 0.19
4 -4.57 -1.4
8.15 -9.32 0.65
4.54 -5.19 -1.34
7.75 -8.86 1.03
5.04 -5.76 -1.21
8.18 -9.35 1.53
5.87 -6.7 -1.09
13.57 -15.5 3.26
6.62 -7.57 -0.88
11.78 -13.46 3.48
6.97 -7.97 -0.55
11.71 -13.38 4.11
6.96 -7.95 -0.18
11.83 -13.52 4.82
3.55 -4.08 -1.45
7.21 -8.29 0.19
3.98 -4.58 -1.4
7.81 -8.99 0.62
4.52 -5.21 -1.34
7.56 -8.7 1.01
5.02 -5.78 -1.21
11.98 -13.78 2.24
5.77 -6.64 -1.08
24.38 -28.05 5.89
6.64 -7.64 -0.89
11.68 -13.44 3.46
12.03 -13.84 4.23
6.96 -8.01 -0.19
13.02 -14.98 5.32
3.53 -4.09 -1.45
6.58 -7.62 0.18
3.96 -4.59 -1.4
8.11 -9.4 0.65
4.52 -5.24 -1.34
7.22 -8.37 0.97
5 -5.79 -1.21
6.53 -7.57 1.23
5.74 -6.66 -1.08
24.33 -28.2 5.9
6.62 -7.67 -0.89
11.67 -13.52 3.47
7.49 -8.68 -0.6
11.75 -13.62 4.15
7.43 -8.61 -0.2
12.06 -13.97 4.95
3.52 -4.11 -1.45
7.73 -9.02 0.21
3.94 -4.6 -1.4
7.51 -8.76 0.6
4.5 -5.25 -1.34
6.55 -7.65 0.88
4.98 -5.81 -1.21
8.08 -9.43 1.52
5.75 -6.71 -1.09
24.32 -28.38 5.92
6.57 -7.67 -0.88
12.16 -14.2 3.63
6.82 -7.97 -0.55
24.22 -28.27 8.59
6.7 -7.82 -0.18
11.75 -13.72 4.84
3.5 -4.12 -1.45
7.26 -8.54 0.2
3.93 -4.62 -1.4
7.23 -8.51 0.59
4.47 -5.26 -1.34
6.57 -7.72 0.89
4.95 -5.82 -1.21
8.15 -9.59 1.55
5.78 -6.8 -1.1
12.25 -14.4 2.99
6.57 -7.73 -0.89
12.9 -15.17 3.87
6.79 -7.99 -0.55
24.18 -28.44 8.62
11.27 -13.26 4.66
3.48 -4.12 -1.45
7.44 -8.82 0.2
3.91 -4.64 -1.4
6.68 -7.91 0.54
4.44 -5.26 -1.34
7.78 -9.22 1.06
4.92 -5.83 -1.21
12.17 -14.41 2.32
6.05 -7.17 -1.15
12.18 -14.43 2.99
11.26 -13.34 3.39
6.74 -7.98 -0.55
13.21 -15.65 4.73
6.49 -7.69 -0.18
11.17 -13.23 4.64
3.47 -4.14 -1.45
7.83 -9.34 0.21
3.9 -4.65 -1.4
6.35 -7.58 0.52
4.42 -5.28 -1.34
6.25 -7.45 0.85
4.88 -5.83 -1.2
12.14 -14.48 2.32
5.99 -7.15 -1.15
12.13 -14.47 2.99
6.61 -7.88 -0.9
11.18 -13.34 3.38
6.74 -8.05 -0.55
6.54 -7.8 -0.18
12.18 -14.53 5.08
3.45 -4.15 -1.45
6.44 -7.73 0.18
3.87 -4.65 -1.4
6.11 -7.34 0.5
4.39 -5.28 -1.34
8.26 -9.92 1.13
4.86 -5.84 -1.2
12.85 -15.44 2.47
6.06 -7.29 -1.16
6.07 -7.3 1.5
6.05 -7.27 1.84
11.28 -13.56 4.07
7.15 -8.59 -0.2
3.44 -4.16 -1.45
6.48 -7.83 0.18
3.86 -4.66 -1.4
6.46 -7.81 0.53
4.37 -5.29 -1.33
6.96 -8.41 0.96
4.83 -5.84 -1.2
5.92 -7.16 -1.14
12.67 -15.32 3.15
6.51 -7.87 -0.89
10.85 -13.12 3.31
6.59 -7.97 -0.54
11.21 -13.55 4.06
7.21 -8.72 -0.2
11.54 -13.96 4.85
3.42 -4.17 -1.44
3.84 -4.68 -1.4
7.51 -9.15 0.62
4.33 -5.28 -1.33
6.94 -8.45 0.96
4.8 -5.84 -1.2
6.85 -8.35 1.33
6.19 -7.54 -1.2
12.49 -15.22 3.12
6.46 -7.87 -0.89
10.79 -13.14 3.31
6.55 -7.97 -0.54
11.13 -13.56 4.05
6.41 -7.8 -0.18
12.83 -15.63 5.42
3.4 -4.17 -1.44
6.63 -8.13 0.18
3.83 -4.7 -1.4
8.11 -9.95 0.67
4.3 -5.28 -1.32
6.89 -8.45 0.95
4.76 -5.84 -1.19
7.27 -8.92 1.41
6.17 -7.56 -1.2
12.55 -15.4 3.15
6.51 -7.99 -0.9
10.74 -13.18 3.31
6.44 -7.9 -0.53
12.41 -15.22 4.53
