# .PCD v0.7 - Point Cloud Data file format
VERSION 0.7
FIELDS x y z
SIZE 4 4 4
TYPE F F F
COUNT 1 1 1
WIDTH 2702
HEIGHT 1
VIEWPOINT 0 0 0 1 0 0 0
POINTS 2702
DATA ascii
0.85 -5.99 -1.62
3.39 -23.82 0.42
1.02 -7.17 -1.67
3.39 -23.84 1.26
1.18 -8.29 -1.63
3.39 -23.82 2.1
1.39 -9.79 -1.57
3.38 -23.8 -2.95
3.38 -23.79 -2.1
3.4 -23.91 4.69
3.38 -23.81 -1.26
3.36 -23.63 5.51
3.39 -23.82 -0.42
0.71 -5 1.35
0.83 -5.99 -1.62
3.3 -23.78 0.42
1 -7.18 -1.67
3.3 -23.8 1.26
1.15 -8.3 -1.63
3.3 -23.79 2.1
1.36 -9.79 -1.57
3.3 -23.77 -2.95
3.3 -23.77 -2.1
3.31 -23.88 4.69
3.3 -23.77 -1.26
3.28 -23.61 5.5
3.3 -23.79 -0.42
0.81 -5.99 -1.62
3.21 -23.76 0.42
0.97 -7.18 -1.67
3.21 -23.76 1.26
1.12 -8.31 -1.63
3.21 -23.75 2.1
1.33 -9.83 -1.57
3.23 -23.89 -2.96
3.23 -23.86 -2.11
3.22 -23.85 4.68
3.21 -23.78 -1.26
3.19 -23.56 5.49
3.21 -23.76 -0.42
4.75 -35.17 9.51
0.79 -5.99 -1.62
3.12 -23.8 0.42
0.94 -7.2 -1.68
3.12 -23.73 1.25
1.09 -8.32 -1.63
3.11 -23.69 2.09
1.29 -9.83 -1.57
3.16 -24.04 -2.98
3.15 -23.99 -2.12
3.13 -23.8 4.67
3.14 -23.93 -1.26
3.09 -23.53 5.48
3.14 -23.9 -0.42
4.6 -35.05 9.47
0.77 -6.01 -1.62
3.06 -23.95 0.42
0.92 -7.2 -1.68
3.03 -23.69 1.25
1.06 -8.32 -1.63
3.02 -23.67 2.09
1.26 -9.84 -1.57
3.09 -24.15 -2.99
3.08 -24.1 -2.13
3.04 -23.76 4.66
3.07 -24.07 -1.27
3 -23.51 5.47
3.07 -24.03 -0.42
0.75 -6.05 -1.63
2.99 -24.07 0.42
0.9 -7.2 -1.67
2.94 -23.66 1.25
1.04 -8.33 -1.63
2.94 -23.64 2.08
1.23 -9.85 -1.57
3 -24.11 -2.98
3 -24.09 -2.12
2.95 -23.72 4.65
3 -24.1 -1.27
0.89 -7.14 1.66
3 -24.1 -0.42
0.84 -6.73 1.82
0.73 -6.06 -1.63
2.91 -24.12 0.42
0.87 -7.21 -1.68
2.85 -23.61 1.25
1.01 -8.34 -1.63
2.85 -23.6 2.08
1.19 -9.88 -1.58
2.91 -24.1 -2.98
2.91 -24.08 -2.12
2.86 -23.69 4.64
0.6 -5 1.16
0.58 -4.79 1.29
0.7 -6 -1.62
2.82 -24.08 0.42
0.85 -7.22 -1.68
2.76 -23.57 1.24
0.98 -8.35 -1.63
2.76 -23.56 2.08
1.16 -9.9 -1.58
2.81 -23.98 -2.97
2.82 -24.05 -2.12
2.77 -23.65 4.63
0.58 -4.99 1.16
4.14 -35.31 -0.62
0.56 -4.75 1.28
0.68 -5.98 -1.61
2.88 -25.36 0.45
0.82 -7.22 -1.68
2.67 -23.53 1.24
0.95 -8.36 -1.63
2.67 -23.51 2.07
1.13 -9.9 -1.58
2.72 -23.94 -2.96
2.73 -23.99 -2.11
2.69 -23.64 4.62
0.55 -4.84 1.13
4 -35.22 -0.62
0.54 -4.74 1.28
0.66 -6 -1.62
2.81 -25.51 0.45
0.8 -7.24 -1.68
2.59 -23.5 1.24
0.92 -8.37 -1.64
2.59 -23.48 2.07
1.09 -9.91 -1.58
2.63 -23.9 -2.95
2.64 -23.98 -2.11
2.6 -23.6 4.62
0.53 -4.82 1.12
3.88 -35.24 -0.62
0.52 -4.74 1.28
0.65 -6.07 -1.63
2.74 -25.7 0.45
0.77 -7.24 -1.68
2.51 -23.46 1.24
0.89 -8.38 -1.64
2.5 -23.44 2.06
1.06 -9.92 -1.58
2.55 -23.86 -2.95
2.56 -23.95 -2.11
0.51 -4.82 1.12
3.76 -35.2 -0.62
0.51 -4.75 1.28
0.63 -6.08 -1.64
2.47 -23.92 0.42
0.75 -7.24 -1.68
2.42 -23.42 1.23
0.87 -8.39 -1.64
2.42 -23.42 2.06
1.02 -9.93 -1.58
2.41 -23.41 2.89
2.46 -23.83 -2.94
2.47 -23.92 -2.1
0.5 -4.81 1.12
3.62 -35.09 -0.62
0.49 -4.77 1.28
0.61 -6.07 -1.63
2.38 -23.9 0.42
0.72 -7.26 -1.69
2.33 -23.38 1.23
0.84 -8.39 -1.64
2.33 -23.37 2.05
0.99 -9.96 -1.58
2.33 -23.36 2.88
2.37 -23.8 -2.94
2.33 -23.37 3.72
2.38 -23.86 -2.1
0.48 -4.81 1.12
3.5 -35.07 -0.62
0.48 -4.79 1.29
0.58 -6.08 -1.64
2.29 -23.86 0.42
0.7 -7.27 -1.69
2.24 -23.34 1.23
0.81 -8.39 -1.64
2.24 -23.33 2.05
0.96 -9.97 -1.59
2.24 -23.33 2.88
2.28 -23.76 -2.93
2.24 -23.35 3.72
2.29 -23.82 -2.09
0.47 -4.86 0.95
0.46 -4.82 1.12
0.61 -6.3 1.7
0.47 -5.12 -1.38
2.21 -23.79 0.42
0.68 -7.28 -1.69
2.16 -23.32 1.23
0.78 -8.41 -1.64
2.16 -23.28 2.05
0.92 -9.96 -1.58
2.16 -23.29 2.87
2.2 -23.72 -2.93
2.16 -23.33 3.71
2.2 -23.76 -2.09
0.45 -4.85 0.95
3.23 -34.9 -0.61
2.17 -23.41 6.3
0.45 -5.08 -1.37
3.1 -34.81 0.61
0.46 -5.12 -1.19
2.07 -23.28 1.22
0.75 -8.43 -1.65
2.07 -23.26 2.04
0.89 -10 -1.59
2.07 -23.25 2.87
1.1 -12.4 -1.53
0.44 -4.97 0.79
2.11 -23.71 -2.08
0.43 -4.85 0.95
2.11 -23.69 -1.25
2.06 -23.09 5.35
3.11 -34.87 -0.61
2.1 -23.53 6.33
0.43 -5.06 -1.36
2.03 -23.67 0.41
0.43 -5.07 -1.17
1.99 -23.24 1.22
0.44 -5.11 -1
2 -23.3 2.05
0.86 -10.01 -1.59
1.99 -23.29 2.87
1.06 -12.4 -1.53
0.43 -4.97 0.79
1.06 -12.4 -1.09
0.41 -4.84 0.94
2.85 -33.25 -1.75
0.6 -7.06 1.64
2.03 -23.68 -0.41
0.53 -6.14 1.65
0.42 -5.04 -1.36
1.95 -23.67 0.41
0.42 -5.07 -1.17
1.91 -23.21 1.22
0.42 -5.06 -0.99
1.93 -23.37 2.05
0.42 -5.11 -0.81
1.93 -23.46 2.89
0.41 -4.96 0.79
1.03 -12.45 -1.09
0.4 -4.84 0.94
2.74 -33.24 -1.75
0.52 -6.33 1.47
2.86 -34.73 -0.61
1.92 -23.29 6.26
0.4 -5.02 -1.35
1.87 -23.63 0.41
1.83 -23.17 1.22
0.4 -5.05 -0.98
1.85 -23.47 2.06
0.4 -5.08 -0.81
1.86 -23.52 2.9
0.39 -4.94 0.79
0.38 -4.85 0.95
2.64 -33.37 -1.75
1.82 -22.99 5.33
2.74 -34.69 -0.61
1.84 -23.25 6.25
0.38 -5.01 -1.35
1.78 -23.57 0.41
1.74 -23.14 1.22
1.78 -23.57 2.07
0.38 -5.04 -0.8
0.37 -4.94 0.78
0.38 -5.09 -0.45
0.37 -4.88 0.95
0.38 -5.09 -0.27
0.48 -6.36 1.47
2.61 -34.58 -0.61
0.43 -5.74 1.54
0.36 -5.01 -1.35
1.7 -23.57 0.41
1.66 -23.11 1.21
0.36 -5.04 -0.98
1.7 -23.58 2.07
0.36 -5.04 -0.8
0.36 -5.05 -0.62
0.35 -4.93 0.78
0.37 -5.08 -0.45
0.36 -5.04 0.98
0.37 -5.07 -0.27
1.65 -22.92 5.31
0.37 -5.11 -0.09
0.37 -5.19 1.39
0.34 -5.01 -1.34
0.35 -5.07 0.09
1.57 -23.06 1.21
0.34 -5.03 -0.98
0.35 -5.1 0.45
0.34 -5.03 -0.8
0.34 -5.04 -0.62
0.34 -4.93 0.78
0.34 -5.05 -0.44
0.34 -5.05 0.98
0.35 -5.07 -0.27
1.56 -22.87 5.29
0.35 -5.07 -0.09
0.35 -5.14 1.38
0.32 -5 -1.34
0.33 -5.04 0.09
0.33 -5.06 0.27
0.33 -5.03 -0.98
0.33 -5.05 0.44
0.32 -5.01 -0.8
0.33 -5.07 0.62
0.33 -5.03 -0.62
0.32 -4.92 0.78
0.33 -5.03 -0.44
0.33 -5.05 0.98
0.33 -5.04 -0.26
1.48 -22.86 5.29
0.33 -5.03 -0.09
0.33 -5.14 1.38
0.31 -4.99 -1.34
0.31 -5.03 0.09
0.31 -5.03 0.26
0.31 -5.03 -0.98
0.31 -5.03 0.44
0.31 -5.01 -0.79
0.31 -5.05 0.62
0.31 -5.02 -0.62
0.3 -4.93 0.78
0.31 -5.02 -0.44
0.31 -5.05 0.98
0.31 -5.02 -0.26
0.39 -6.35 1.47
0.31 -5.02 -0.09
0.31 -5.11 1.37
0.29 -5.04 -1.35
0.29 -5 0.09
0.29 -5.02 0.26
0.29 -5.01 0.44
0.29 -5.01 -0.79
0.29 -5.03 0.62
0.29 -5.02 -0.62
0.29 -4.95 0.78
0.29 -5.02 -0.44
0.29 -5.03 0.98
0.29 -5.02 -0.26
1.32 -22.79 5.27
0.29 -5.01 -0.09
0.3 -5.13 1.38
0.27 -5 0.09
0.27 -5.01 0.26
0.27 -5 0.44
0.27 -5.01 -0.79
0.27 -5 0.61
0.27 -5.02 -0.62
0.27 -4.96 0.79
0.27 -5.02 -0.44
0.27 -5.03 0.98
0.27 -5 -0.26
0.28 -5.07 1.17
0.27 -5.01 -0.09
0.28 -5.13 1.38
0.25 -5 0.09
0.25 -4.99 0.26
0.25 -5 0.44
0.26 -5.03 -0.8
0.25 -4.98 0.61
0.26 -5.01 -0.62
0.25 -4.95 0.79
0.26 -5.02 -0.44
0.26 -5.02 0.98
0.25 -4.99 -0.26
0.26 -5.03 1.16
0.26 -5.01 -0.09
0.26 -5.11 1.37
0.24 -5 0.09
0.24 -4.99 0.26
0.24 -5 0.44
0.24 -5.03 -0.8
0.24 -4.99 0.61
0.24 -5.02 -0.62
0.23 -4.96 0.79
0.24 -5.02 -0.44
0.24 -5.03 0.98
0.24 -5.01 -0.26
0.24 -5.03 1.16
0.24 -5 -0.09
0.23 -4.95 1.33
0.22 -5 0.09
0.22 -5 0.26
0.22 -5.04 -0.98
0.22 -4.99 0.44
0.22 -5.04 -0.8
0.22 -4.99 0.61
0.22 -5.04 -0.62
0.22 -4.96 0.79
0.22 -5.02 -0.44
0.22 -5.03 0.98
0.22 -5.01 -0.26
0.22 -5.02 1.16
0.22 -5 -0.09
0.21 -4.88 1.31
0.2 -4.99 0.09
0.2 -5 0.26
0.2 -5.03 -0.98
0.2 -4.98 0.44
0.2 -5.04 -0.8
0.2 -4.98 0.61
0.2 -5.05 -0.62
0.2 -4.97 0.79
0.2 -5.02 -0.44
0.2 -5.01 0.98
0.2 -5.01 -0.26
0.2 -5.02 1.16
0.2 -5.01 -0.09
0.2 -4.87 1.3
0.18 -5 0.09
0.18 -5 0.26
0.19 -5.06 -0.98
0.18 -5 0.44
0.19 -5.05 -0.8
0.18 -4.97 0.61
0.19 -5.06 -0.62
0.18 -4.97 0.79
0.19 -5.04 -0.44
0.19 -5.01 0.97
0.19 -5.02 -0.26
0.19 -5.02 1.16
0.19 -5.02 -0.09
0.18 -4.87 1.31
0.17 -5 0.09
0.25 -7.37 -1.7
0.17 -5 0.26
0.17 -5 0.44
0.17 -5.07 -0.8
0.17 -4.98 0.61
0.17 -5.07 -0.62
0.17 -5.01 0.79
0.17 -5.05 -0.44
0.17 -5.01 0.98
0.17 -5.03 -0.26
0.17 -5.02 1.16
0.17 -5.04 -0.09
0.16 -4.88 1.31
0.15 -5.03 0.09
0.22 -7.38 -1.7
0.15 -5.01 0.26
0.15 -5.01 0.44
0.31 -10.19 -1.61
0.15 -4.99 0.61
0.15 -5 0.79
0.15 -5.08 -0.44
0.15 -5.02 0.98
0.15 -5.06 -0.27
0.15 -5.02 1.16
0.15 -5.06 -0.09
0.15 -5.02 1.35
0.13 -5.08 0.09
0.13 -5.03 0.26
0.13 -5.02 0.44
0.27 -10.2 -1.62
0.13 -5.01 0.62
0.13 -5 0.79
0.13 -5.02 0.98
0.13 -5.02 1.16
0.13 -5.03 1.35
0.2 -8.56 -1.66
0.12 -5.05 0.44
0.24 -10.22 -1.62
0.12 -5.03 0.62
0.53 -23.02 -2.83
0.11 -4.98 0.79
0.12 -5.03 0.98
0.56 -24.28 -1.27
0.12 -5.03 1.16
0.12 -5.01 1.34
0.45 -23 0.4
0.45 -22.6 1.18
0.17 -8.57 -1.67
0.1 -5.07 0.44
0.2 -10.23 -1.62
0.45 -22.99 -2.82
0.1 -5.07 0.8
0.67 -33.88 -2.96
0.1 -5.03 0.98
0.1 -5.04 1.16
0.1 -5 1.34
0.37 -22.97 0.4
0.37 -22.55 1.18
0.14 -8.58 -1.67
0.17 -10.24 -1.62
0.37 -22.93 -2.82
0.08 -5.08 0.99
0.39 -24.31 -1.27
0.08 -5.05 1.17
0.08 -5.01 1.34
0.3 -22.94 0.4
0.29 -22.52 1.18
0.11 -8.57 -1.67
0.29 -22.68 1.98
0.13 -10.24 -1.62
0.29 -22.47 -2.76
0.29 -22.49 -1.97
0.07 -5.12 0.99
0.29 -22.5 -1.18
0.07 -5.08 1.17
0.07 -5.1 1.37
0.21 -22.66 0.4
0.21 -22.49 1.18
0.08 -8.58 -1.67
0.21 -22.58 1.98
0.1 -10.25 -1.62
0.21 -22.45 -2.76
0.21 -22.45 -1.96
0.07 -6.98 1.36
0.21 -22.48 -1.18
0.05 -5.12 1.18
0.21 -22.47 -0.39
0.06 -6.34 1.7
0.13 -22.44 0.39
0.13 -22.48 1.18
0.05 -8.58 -1.67
0.13 -22.56 1.97
0.06 -10.25 -1.62
0.13 -22.42 -2.75
0.13 -22.4 -1.96
0.13 -22.44 -1.18
0.13 -22.44 -0.39
0.03 -5.55 1.49
0.05 -22.4 0.39
0.05 -22.43 1.18
0.02 -8.59 -1.67
0.06 -22.51 1.97
0.03 -10.26 -1.62
0.05 -22.39 -2.75
0.05 -22.39 -1.96
0.02 -6.91 1.34
0.05 -22.39 -1.17
0.05 -22.42 -0.39
0.01 -5.52 1.48
-0.02 -22.38 0.39
-0.01 -7.41 -1.71
-0.02 -22.39 1.17
-0.01 -8.6 -1.67
-0.02 -22.48 1.97
-0.01 -10.27 -1.63
-0.02 -22.34 -2.74
-0.02 -22.36 -1.96
-0.01 -6.84 1.33
-0.02 -22.36 -1.17
-0.02 -22.21 5.13
-0.02 -22.39 -0.39
-0.01 -5.13 1.38
-0.1 -22.36 0.39
-0.03 -7.41 -1.71
-0.1 -22.36 1.17
-0.04 -8.58 -1.67
-0.1 -22.41 1.96
-0.05 -10.28 -1.63
-0.1 -22.31 -2.74
-0.1 -22.33 -1.95
-0.02 -4.52 0.88
-0.1 -22.34 -1.17
-0.1 -22.16 5.12
-0.1 -22.34 -0.39
-0.02 -5.08 1.36
-0.18 -22.32 0.39
-0.06 -7.42 -1.71
-0.18 -22.33 1.17
-0.07 -8.59 -1.67
-0.18 -22.35 1.96
-0.08 -10.29 -1.63
-0.18 -22.6 2.78
-0.18 -22.28 -2.74
-0.18 -22.5 3.56
-0.18 -22.28 -1.95
-0.04 -4.54 0.88
-0.18 -22.32 -1.17
-0.18 -22.16 5.12
-0.18 -22.3 -0.39
-0.04 -5.08 1.36
-0.26 -22.27 0.39
-0.09 -7.41 -1.71
-0.26 -22.3 1.17
-0.1 -8.59 -1.67
-0.26 -22.32 1.95
-0.12 -10.29 -1.63
-0.26 -22.61 2.78
-0.26 -22.25 -2.73
-0.26 -22.53 3.57
-0.26 -22.24 -1.95
-0.26 -22.28 -1.17
-0.25 -22.13 5.11
-0.26 -22.27 -0.39
-0.06 -5.08 1.36
-0.33 -22.24 0.39
-0.11 -7.41 -1.71
-0.33 -22.26 1.17
-0.13 -8.6 -1.67
-0.33 -22.28 1.95
-0.15 -10.3 -1.63
-0.33 -22.22 -2.73
-0.09 -5.76 0.91
-0.33 -22.21 -1.94
-0.33 -22.23 -1.17
-0.07 -4.6 1.06
-0.33 -22.25 -0.39
-0.08 -5.08 1.36
-0.41 -22.21 0.39
-0.14 -7.42 -1.71
-0.41 -22.22 1.16
-0.16 -8.6 -1.67
-0.41 -22.26 1.95
-0.19 -10.32 -1.63
-0.41 -22.18 -2.72
-0.1 -5.66 0.9
-0.41 -22.18 -1.94
-0.41 -22.19 -1.16
-0.08 -4.58 1.06
-0.41 -22.22 -0.39
-0.09 -5.1 1.37
-0.48 -22.19 0.39
-0.16 -7.42 -1.71
-0.48 -22.19 1.16
-0.19 -8.6 -1.67
-0.48 -22.22 1.94
-0.23 -10.32 -1.63
-0.48 -22.15 -2.72
-0.13 -5.78 0.92
-0.48 -22.16 -1.94
-0.11 -5.26 1.02
-0.48 -22.17 -1.16
-0.1 -4.53 1.05
-0.48 -22.18 -0.39
-0.11 -5.1 1.37
-0.56 -22.16 0.39
-0.19 -7.43 -1.72
-0.56 -22.16 1.16
-0.22 -8.61 -1.67
-0.56 -22.17 1.94
-0.26 -10.32 -1.63
-0.56 -22.11 -2.72
-0.56 -22.13 -1.94
-0.13 -5.33 1.04
-0.56 -22.13 -1.16
-0.11 -4.54 1.05
-0.56 -22.15 -0.39
-0.13 -5.1 1.37
-0.64 -22.11 0.39
-0.21 -7.43 -1.72
-0.64 -22.14 1.16
-0.25 -8.62 -1.68
-0.64 -22.15 1.94
-0.3 -10.32 -1.63
-0.64 -22.08 -2.71
-0.16 -5.64 0.89
-0.64 -22.09 -1.93
-0.64 -22.11 -1.16
-0.63 -21.95 5.07
-0.64 -22.11 -0.39
-0.15 -5.12 1.37
-0.71 -22.08 0.39
-0.24 -7.43 -1.72
-0.71 -22.1 1.16
-0.28 -8.63 -1.68
-0.71 -22.12 1.94
-0.33 -10.33 -1.64
-0.71 -22.05 -2.71
-0.19 -5.76 0.91
-0.71 -22.06 -1.93
-0.16 -5.09 0.99
-0.71 -22.07 -1.16
-0.71 -21.93 5.06
-0.71 -22.08 -0.39
-0.21 -6.59 1.77
-0.8 -22.04 0.39
-0.27 -7.44 -1.72
-0.8 -22.06 1.16
-0.31 -8.62 -1.68
-0.8 -22.08 1.93
-0.37 -10.34 -1.64
-0.8 -22.02 -2.71
-0.8 -22.02 -1.93
-0.18 -5.08 0.99
-0.8 -22.04 -1.16
-0.79 -21.87 5.05
-0.8 -22.05 -0.39
-0.24 -6.56 1.76
-0.87 -22.02 0.38
-0.3 -7.44 -1.72
-0.87 -22.02 1.16
-0.34 -8.62 -1.68
-0.87 -22.05 1.93
-0.41 -10.35 -1.64
-0.87 -22 -2.7
-0.23 -5.81 0.92
-0.87 -21.99 -1.93
-0.2 -5.09 0.99
-0.87 -22.01 -1.15
-0.87 -21.84 5.05
-0.87 -22.02 -0.38
-0.26 -6.63 1.78
-0.94 -21.99 0.38
-0.32 -7.45 -1.72
-0.95 -22 1.15
-0.37 -8.63 -1.68
-0.95 -22.02 1.93
-0.44 -10.35 -1.64
-0.94 -21.98 -2.7
-0.24 -5.68 0.9
-0.94 -21.96 -1.92
-0.22 -5.08 0.99
-0.94 -21.97 -1.15
-0.94 -21.81 5.04
-0.94 -21.99 -0.38
-0.27 -6.32 1.69
-1.02 -21.95 0.38
-0.35 -7.45 -1.72
-1.02 -21.97 1.15
-0.4 -8.63 -1.68
-1.02 -21.98 1.93
-0.48 -10.36 -1.64
-1.02 -21.94 -2.7
-0.26 -5.69 0.9
-1.02 -21.93 -1.92
-0.24 -5.08 0.99
-1.02 -21.95 -1.15
-1.01 -21.79 5.04
-1.02 -21.96 -0.38
-0.29 -6.34 1.7
-1.09 -21.93 0.38
-0.34 -6.74 -1.56
-1.09 -21.94 1.15
-0.43 -8.63 -1.68
-1.09 -21.94 1.92
-0.52 -10.36 -1.64
-1.09 -21.9 -2.69
-0.29 -5.83 0.92
-1.09 -21.91 -1.92
-0.25 -5.08 0.99
-1.09 -21.91 -1.15
-1.08 -21.77 5.03
-1.09 -21.93 -0.38
-0.34 -6.76 1.81
-1.16 -21.9 0.38
-0.4 -7.45 -1.72
-1.16 -21.89 1.15
-0.46 -8.64 -1.68
-1.17 -21.92 1.92
-0.55 -10.37 -1.64
-1.16 -21.86 -2.69
-1.16 -21.88 -1.92
-0.27 -5.08 0.99
-1.16 -21.89 -1.15
-1.16 -21.74 5.03
-1.16 -21.9 -0.38
-0.36 -6.79 1.82
-1.24 -21.86 0.38
-0.42 -7.46 -1.72
-1.24 -21.86 1.15
-0.49 -8.63 -1.68
-1.24 -21.87 1.92
-0.59 -10.39 -1.65
-1.24 -21.83 -2.69
-1.24 -21.84 -1.91
-0.29 -5.08 0.99
-1.24 -21.86 -1.15
-1.23 -21.7 5.02
-1.24 -21.85 -0.38
-0.39 -6.92 1.86
-1.31 -21.83 0.38
-0.45 -7.45 -1.72
-1.31 -21.83 1.15
-0.52 -8.65 -1.68
-1.31 -21.84 1.91
-0.62 -10.4 -1.65
-0.77 -12.79 -1.57
-0.77 -12.79 -1.12
-0.3 -5.08 0.99
-1.31 -21.83 -1.15
-1.3 -21.68 5.01
-1.31 -21.82 -0.38
-0.43 -7.09 1.9
-1.39 -21.78 0.38
-0.48 -7.46 -1.73
-1.39 -21.8 1.14
-0.55 -8.66 -1.69
-1.39 -21.81 1.91
-0.66 -10.39 -1.65
-0.81 -12.77 -1.57
-0.81 -12.76 -1.12
-0.32 -5.08 0.99
-1.39 -21.79 -1.14
-0.32 -5.08 1.18
-1.39 -21.8 -0.38
-0.35 -5.44 1.46
-1.46 -21.76 0.38
-0.5 -7.45 -1.72
-1.46 -21.77 1.14
-0.58 -8.66 -1.69
-1.46 -21.79 1.91
-0.7 -10.4 -1.65
-1.46 -21.76 -2.68
-1.46 -21.74 -1.91
-0.34 -5.08 0.99
-1.46 -21.74 -1.14
-0.34 -5.13 1.19
-1.46 -21.78 -0.38
-0.37 -5.45 1.46
-1.54 -21.74 0.38
-0.53 -7.46 -1.73
-1.54 -21.74 1.14
-0.61 -8.67 -1.69
-1.54 -21.77 1.91
-0.73 -10.41 -1.65
-1.53 -21.71 -2.67
-1.53 -21.73 -1.91
-0.36 -5.08 0.99
-1.53 -21.71 -1.14
-0.36 -5.07 1.17
-1.54 -21.75 -0.38
-0.39 -5.49 1.48
-1.61 -21.72 0.38
-0.55 -7.46 -1.73
-1.61 -21.71 1.14
-0.64 -8.66 -1.69
-1.61 -21.72 1.91
-0.77 -10.41 -1.65
-1.61 -21.68 -2.67
-1.61 -21.69 -1.9
-0.38 -5.09 0.99
-1.61 -21.7 -1.14
-0.38 -5.1 1.18
-1.61 -21.7 -0.38
-0.41 -5.52 1.48
-1.68 -21.68 0.38
-0.58 -7.47 -1.73
-1.68 -21.68 1.14
-0.67 -8.67 -1.69
-1.68 -21.69 1.9
-0.81 -10.42 -1.66
-1.68 -21.66 -2.67
-1.68 -21.66 -1.9
-0.4 -5.09 0.99
-1.68 -21.68 -1.14
-0.4 -5.15 1.19
-1.68 -21.67 -0.38
-0.43 -5.52 1.48
-1.75 -21.64 0.38
-0.61 -7.47 -1.73
-1.76 -21.66 1.14
-0.7 -8.67 -1.69
-1.76 -21.67 1.9
-0.84 -10.42 -1.66
-1.75 -21.63 -2.66
-1.75 -21.61 -1.9
-0.41 -5.08 0.99
-1.76 -21.65 -1.14
-0.42 -5.13 1.19
-1.75 -21.64 -0.38
-0.45 -5.57 1.5
-1.83 -21.61 0.38
-0.63 -7.47 -1.73
-1.83 -21.62 1.14
-0.74 -8.69 -1.69
-1.83 -21.63 1.9
-0.88 -10.43 -1.66
-1.83 -21.6 -2.66
-1.83 -21.59 -1.9
-0.43 -5.08 0.99
-1.83 -21.6 -1.14
-0.43 -5.13 1.19
-1.83 -21.61 -0.38
-1.84 -21.69 5.83
-1.9 -21.58 0.38
-0.66 -7.47 -1.73
-1.9 -21.57 1.14
-0.77 -8.69 -1.7
-1.9 -21.6 1.9
-0.92 -10.44 -1.66
-1.9 -21.56 -2.66
-1.9 -21.56 -1.89
-0.45 -5.09 0.99
-1.9 -21.57 -1.13
-1.9 -21.59 5
-1.9 -21.58 -0.38
-1.91 -21.66 5.83
-1.98 -21.55 0.38
-0.69 -7.48 -1.73
-1.98 -21.55 1.13
-0.8 -8.68 -1.69
-1.98 -21.57 1.9
-0.96 -10.45 -1.66
-0.57 -6.21 0.77
-1.97 -21.53 -2.65
-1.98 -21.54 -1.89
-0.47 -5.09 0.99
-1.98 -21.55 -1.13
-0.56 -6.05 1.4
-1.98 -21.55 -0.38
-1.98 -21.63 5.82
-2.05 -21.53 0.38
-0.71 -7.5 -1.74
-2.05 -21.53 1.13
-0.83 -8.69 -1.7
-2.05 -21.54 1.89
-0.99 -10.45 -1.66
-0.59 -6.2 0.77
-2.05 -21.5 -2.65
-2.05 -21.5 -1.89
-0.49 -5.1 1
-2.05 -21.52 -1.13
-0.56 -5.9 1.37
-2.05 -21.53 -0.38
-2.05 -21.58 5.81
-2.12 -21.48 0.38
-0.74 -7.49 -1.74
-2.12 -21.51 1.13
-0.86 -8.69 -1.7
-2.12 -21.51 1.89
-1.03 -10.45 -1.66
-0.61 -6.19 0.76
-2.12 -21.48 -2.65
-2.12 -21.47 -1.89
-0.5 -5.1 1
-2.12 -21.49 -1.13
-0.59 -5.96 1.38
-2.12 -21.5 -0.38
-2.13 -21.56 5.81
-2.19 -21.47 0.38
-0.76 -7.49 -1.74
-2.19 -21.48 1.13
-0.89 -8.71 -1.7
-2.19 -21.45 1.89
-1.07 -10.46 -1.66
-4.65 -45.58 5.63
-2.19 -21.44 -2.65
-2.19 -21.45 -1.89
-2.2 -21.57 4.21
-2.19 -21.45 -1.13
-0.61 -5.93 1.38
-2.19 -21.48 -0.38
-2.2 -21.53 5.8
-2.26 -21.43 0.38
-0.79 -7.5 -1.74
-2.27 -21.45 1.13
-0.92 -8.7 -1.7
-2.26 -21.4 1.88
-1.11 -10.46 -1.67
-2.26 -21.4 2.64
-2.25 -21.3 -2.63
-2.26 -21.44 3.41
-2.26 -21.4 -1.88
-2.27 -21.47 4.2
-2.26 -21.43 -1.13
-2.27 -21.45 4.98
-2.27 -21.44 -0.38
-2.27 -21.52 5.8
-2.34 -21.42 0.38
-0.82 -7.52 -1.75
-2.34 -21.41 1.13
-0.95 -8.7 -1.7
-2.33 -21.38 1.88
-1.14 -10.48 -1.67
-2.33 -21.38 2.64
-2.31 -21.21 -2.62
-2.33 -21.39 3.41
-2.32 -21.23 -1.87
-2.33 -21.39 4.18
-2.32 -21.24 -1.12
-2.34 -21.42 4.97
-2.33 -21.39 -0.38
-2.34 -21.48 5.79
-2.39 -21.2 0.37
-0.98 -8.7 -1.7
-2.41 -21.34 1.88
-1.18 -10.48 -1.67
-0.69 -6.14 0.76
-2.41 -21.34 -2.64
-2.41 -21.36 3.4
-2.41 -21.34 -1.88
-2.41 -21.37 4.18
-2.4 -21.32 -1.12
-0.66 -5.86 1.36
-2.39 -21.22 -0.37
-0.65 -5.75 1.55
-2.48 -21.31 0.37
-2.47 -21.24 1.12
-1.01 -8.71 -1.7
-2.46 -21.2 1.87
-1.22 -10.47 -1.67
-0.71 -6.13 0.76
-2.48 -21.32 -2.64
-2.47 -21.29 3.39
-2.48 -21.32 -1.88
-2.48 -21.32 4.17
-2.48 -21.34 -1.13
-2.48 -21.35 4.96
-2.48 -21.34 -0.38
-0.67 -5.76 1.55
-2.55 -21.31 0.37
-2.55 -21.33 1.13
-1.04 -8.71 -1.71
-2.55 -21.29 1.88
-1.25 -10.48 -1.67
-0.73 -6.13 0.76
-2.55 -21.29 -2.63
-2.55 -21.26 3.39
-2.55 -21.28 -1.88
-2.55 -21.32 -1.13
-0.7 -5.82 1.35
-2.55 -21.31 -0.37
-0.69 -5.79 1.56
-2.62 -21.28 0.37
-2.62 -21.29 1.12
-1.07 -8.72 -1.71
-2.62 -21.26 1.87
-1.29 -10.48 -1.67
-2.62 -21.25 2.63
-2.62 -21.3 -2.64
-2.62 -21.27 3.39
-2.62 -21.28 -1.88
-2.62 -21.28 4.17
-2.62 -21.27 -1.12
-2.62 -21.28 4.95
-2.62 -21.29 -0.37
-0.71 -5.8 1.57
-2.7 -21.27 0.37
-2.7 -21.25 1.12
-1.11 -8.72 -1.71
-2.69 -21.22 1.87
-1.33 -10.48 -1.67
-2.69 -21.23 2.63
-2.74 -21.58 -2.67
-2.69 -21.24 3.39
-2.73 -21.52 -1.9
-0.87 -6.88 1.35
-2.72 -21.4 -1.13
-0.76 -5.97 1.39
-2.71 -21.34 -0.38
-0.73 -5.79 1.56
-2.8 -21.48 0.38
-2.79 -21.4 1.13
-1.14 -8.72 -1.71
-2.77 -21.22 1.87
-1.37 -10.48 -1.67
-2.76 -21.2 2.63
-2.85 -21.83 -2.7
-2.77 -21.22 3.39
-2.84 -21.77 -1.92
-0.9 -6.88 1.35
-2.82 -21.66 -1.14
-0.82 -6.29 1.46
-2.81 -21.6 -0.38
-0.75 -5.74 1.55
-2.91 -21.72 0.38
-2.9 -21.65 1.14
-1.17 -8.72 -1.71
-2.87 -21.45 1.89
-1.4 -10.48 -1.68
-2.87 -21.4 2.65
-2.96 -22.12 -2.74
-2.85 -21.3 3.4
-2.95 -22.04 -1.95
-2.84 -21.2 4.16
-2.94 -21.93 -1.16
-2.84 -21.22 4.94
-2.93 -21.87 -0.39
-0.77 -5.77 1.56
-3.02 -21.99 0.39
-3.01 -21.9 1.16
-1.2 -8.73 -1.71
-2.98 -21.69 1.92
-1.44 -10.49 -1.68
-2.97 -21.64 2.68
-3.07 -22.38 -2.77
-2.96 -21.56 3.45
-3.07 -22.33 -1.97
-0.71 -5.16 1.01
-3.05 -22.19 -1.17
-2.94 -21.42 4.99
-3.04 -22.14 -0.39
-0.79 -5.77 1.56
-3.13 -22.25 0.39
-3.12 -22.17 1.17
-1.23 -8.73 -1.71
-1.48 -10.5 -1.68
-3.19 -22.66 -2.81
-3.18 -22.61 -2
-0.73 -5.16 1.01
-3.16 -22.47 -1.19
-0.89 -6.35 1.48
-3.15 -22.42 -0.4
-0.81 -5.73 1.55
-3.25 -22.53 0.4
-3.23 -22.44 1.19
-1.26 -8.72 -1.71
-3.2 -22.19 1.96
-1.51 -10.5 -1.68
-3.31 -22.96 -2.85
-0.83 -5.79 0.93
-3.3 -22.89 -2.02
-0.74 -5.16 1.01
-3.28 -22.77 -1.21
-3.13 -21.74 5.07
-3.27 -22.7 -0.4
-0.83 -5.73 1.55
-3.37 -22.82 0.4
-3.36 -22.72 1.2
-1.29 -8.72 -1.71
-3.31 -22.42 1.98
-1.55 -10.5 -1.68
-3.44 -23.27 -2.89
-0.86 -5.8 0.93
-3.43 -23.19 -2.05
-0.77 -5.19 1.02
-3.41 -23.04 -1.22
-0.93 -6.3 1.47
-3.4 -22.98 -0.41
-0.85 -5.73 1.55
-3.49 -23.1 0.41
-3.48 -23.02 1.22
-1.32 -8.72 -1.71
-1.59 -10.5 -1.68
-3.62 -23.95 2.97
-3.57 -23.59 -2.93
-0.88 -5.8 0.93
-3.55 -23.5 -2.08
-0.79 -5.21 1.02
-3.3 -21.83 5.1
-3.53 -23.37 -0.41
-0.87 -5.72 1.55
-3.63 -23.4 0.41
-3.61 -23.32 1.24
-1.35 -8.73 -1.72
-1.63 -10.5 -1.68
-3.71 -23.92 2.97
-3.7 -23.9 -2.97
-0.9 -5.83 0.93
-3.69 -23.8 -2.11
-0.81 -5.2 1.02
-1.02 -6.59 1.54
-3.65 -23.57 -0.42
-0.91 -5.87 1.59
-3.75 -23.7 0.42
-3.74 -23.63 1.25
-1.38 -8.73 -1.72
-4.17 -26.31 2.33
-1.66 -10.51 -1.68
-3.83 -24.21 -3.01
-3.78 -23.88 3.83
-3.82 -24.15 -2.14
-0.83 -5.22 1.03
-1 -6.32 1.48
-3.77 -23.83 -0.42
-0.93 -5.87 1.59
-3.89 -24.02 0.42
-3.88 -23.95 1.27
-1.41 -8.72 -1.72
-4.26 -26.26 2.33
-1.7 -10.5 -1.69
-3.98 -24.55 -3.05
-3.87 -23.87 3.83
-3.97 -24.46 -2.17
-0.85 -5.27 1.04
-0.96 -5.9 1.6
-4.03 -24.37 0.43
-4.02 -24.27 1.29
-1.44 -8.72 -1.72
-4.34 -26.22 2.32
-1.74 -10.5 -1.69
-4.35 -26.25 3.27
-4.12 -24.88 -3.1
-4.11 -24.8 -2.2
-0.88 -5.33 1.05
-0.83 -5.03 1.18
-0.98 -5.92 1.61
-4.18 -24.68 0.44
-4.17 -24.6 1.31
-1.48 -8.73 -1.72
-4.42 -26.13 2.32
-1.78 -10.49 -1.69
-4.43 -26.15 3.26
-4.27 -25.24 -3.14
-4.24 -25.05 4.02
-4.26 -25.14 -2.23
-0.91 -5.4 1.06
-0.85 -5.02 1.18
-0.99 -5.87 1.6
-4.32 -25.02 0.44
-4.31 -24.94 1.33
-1.51 -8.73 -1.72
-4.51 -26.11 2.32
-1.81 -10.5 -1.69
-4.51 -26.1 3.25
-4.42 -25.61 -3.19
-4.32 -25.02 4.02
-4.4 -25.5 -2.26
-0.87 -5.04 1.18
-1.01 -5.84 1.59
-4.47 -25.38 0.45
-4.46 -25.3 1.35
-1.54 -8.73 -1.72
-4.6 -26.08 2.32
-1.85 -10.5 -1.69
-4.6 -26.07 3.25
-4.55 -25.8 -3.22
-4.56 -25.88 -2.3
-0.89 -5.05 1.18
-1.19 -6.73 1.83
-4.63 -25.76 0.46
-4.61 -25.67 1.37
-1.57 -8.73 -1.72
-4.68 -26.04 2.31
-1.89 -10.5 -1.69
-4.68 -26.04 3.25
-4.64 -25.83 -3.22
-4.68 -26.04 4.19
-4.72 -26.27 -2.33
-1.05 -5.86 1.16
-4.7 -26.14 -1.39
-4.8 -26.13 0.46
-4.78 -26.04 1.39
-1.6 -8.72 -1.72
-4.77 -25.99 2.31
-1.93 -10.51 -1.69
-4.77 -26 3.25
-4.75 -25.86 -3.23
-4.77 -26.01 4.19
-4.88 -26.6 -2.37
-1.08 -5.86 1.16
-4.86 -26.45 -1.41
-1.11 -6.07 1.42
-1.09 -5.92 1.61
-4.96 -26.52 0.47
-4.94 -26.44 1.41
-1.63 -8.73 -1.73
-4.89 -26.16 2.33
-1.96 -10.5 -1.69
-4.88 -26.12 3.26
-4.84 -25.87 -3.23
-4.86 -26.02 4.19
-5.05 -27.02 -2.41
-1.07 -5.72 1.13
-5.02 -26.86 -1.43
-1.13 -6.07 1.43
-5.05 -26.99 -0.48
-1.1 -5.91 1.61
-5.14 -26.91 0.48
-5.12 -26.83 1.43
-1.67 -8.73 -1.73
-2.01 -10.5 -1.69
-4.94 -25.89 -3.24
-5.02 -26.27 4.24
-5.24 -27.45 -2.44
-1.09 -5.72 1.13
-5.21 -27.27 -1.46
-1 -5.24 1.23
-5.19 -27.17 -0.48
-1.14 -5.95 1.62
-5.32 -27.35 0.49
-5.29 -27.22 1.45
-1.7 -8.73 -1.73
-5.56 -28.59 2.55
-2.04 -10.51 -1.7
-5.03 -25.9 -3.24
-5.42 -27.87 -2.48
-5.38 -27.69 -1.48
-1.01 -5.22 1.23
-5.36 -27.58 -0.49
-1.15 -5.94 1.62
-5.5 -27.8 0.49
-5.47 -27.66 1.48
-1.73 -8.72 -1.73
-2.08 -10.51 -1.7
-2.62 -13.22 -1.66
-1.06 -5.37 0.87
-2.62 -13.24 -1.18
-5.56 -28.12 -1.5
-1.02 -5.18 1.22
-5.54 -28 -0.5
-0.98 -4.98 1.36
-5.69 -28.25 0.5
-5.66 -28.11 1.5
-1.76 -8.72 -1.73
-6.22 -30.92 2.76
-2.12 -10.53 -1.7
-5.74 -28.5 3.57
-2.66 -13.2 -1.65
-1.19 -5.93 0.96
-2.66 -13.2 -1.18
-1.2 -5.99 1.19
-5.76 -28.6 -1.53
-5.83 -28.96 6.82
-5.73 -28.47 -0.51
-0.99 -4.92 1.35
-5.89 -28.68 0.51
-5.86 -28.56 1.53
-1.79 -8.73 -1.73
-6.32 -30.81 2.75
-2.16 -10.51 -1.7
-5.75 -28.01 4.53
-2.72 -13.24 -1.18
-5.96 -29.05 -1.55
-0.99 -4.84 1.14
-5.94 -28.95 -0.52
-1.02 -4.95 1.35
-6.09 -29.17 0.52
-6.06 -29.04 1.55
-1.82 -8.73 -1.73
-6.42 -30.77 2.75
-2.2 -10.52 -1.7
-6.17 -29.56 3.71
-5.43 -26 -3.26
-1.16 -5.57 0.9
-6.22 -29.78 -2.66
-6.02 -28.82 5.72
-6.17 -29.57 -1.58
-1.02 -4.87 1.15
-6.14 -29.42 -0.52
-1.04 -4.98 1.36
-6.3 -29.65 0.53
-6.27 -29.51 1.58
-1.86 -8.75 -1.74
-6.52 -30.69 2.75
-2.24 -10.53 -1.7
-6.37 -29.99 3.76
-5.52 -26 -3.26
-1.27 -5.97 0.97
-6.43 -30.27 -2.71
-1.38 -6.52 1.29
-6.38 -30.04 -1.61
-1.05 -4.93 1.16
-6.35 -29.92 -0.53
-1.04 -4.91 1.35
-6.51 -30.17 0.54
-6.48 -30.01 1.61
-1.89 -8.73 -1.74
-6.62 -30.66 2.74
-2.27 -10.53 -1.71
-6.6 -30.58 3.84
-5.62 -26.02 -3.27
-6.35 -29.43 4.77
-6.65 -30.83 -2.76
-1.4 -6.48 1.29
-6.61 -30.6 -1.64
-6.57 -30.45 -0.54
-1.07 -4.97 1.36
-6.74 -30.69 0.55
-6.71 -30.54 1.64
-1.92 -8.74 -1.74
-6.72 -30.6 2.74
-2.31 -10.53 -1.71
-6.73 -30.62 3.85
-5.72 -26.03 -3.27
-6.89 -31.37 -2.81
-6.54 -29.77 5.92
-6.84 -31.12 -1.67
-6.52 -29.69 7.02
-6.81 -30.98 -0.55
-1.09 -4.97 1.36
-6.97 -31.22 0.56
-6.93 -31.04 1.67
-1.95 -8.74 -1.74
-6.86 -30.72 2.75
-2.35 -10.52 -1.71
-6.84 -30.64 3.86
-5.82 -26.05 -3.28
-7.12 -31.87 -2.86
-1.44 -6.47 1.29
-7.08 -31.71 -1.7
-6.74 -30.19 7.14
-7.04 -31.54 -0.56
-1.1 -4.94 1.36
-7.21 -31.75 0.57
-7.14 -31.44 1.69
-1.99 -8.75 -1.74
-2.39 -10.54 -1.71
-5.91 -26.04 -3.28
-7.5 -33.02 -2.96
-1.45 -6.4 1.28
-7.48 -32.96 -1.77
-1.1 -4.83 1.14
-7.5 -33.04 -0.59
-1.13 -4.99 1.37
-7.47 -32.4 0.58
-2.01 -8.73 -1.74
-7.65 -33.17 2.98
-2.43 -10.54 -1.71
-6.01 -26.05 -3.28
-1.21 -5.25 0.85
-7.64 -33.12 -2.97
-1.47 -6.37 1.27
-7.61 -32.99 -1.77
-1.1 -4.79 1.13
-7.62 -33.03 -0.59
-1.15 -4.98 1.37
-7.73 -32.99 0.59
-2.05 -8.73 -1.74
-2.47 -10.54 -1.71
-7.75 -33.08 4.17
-6.11 -26.05 -3.29
-7.53 -32.13 5.23
-7.49 -31.95 6.38
-7.84 -33.43 -1.8
-1.12 -4.8 1.14
-7.81 -33.34 -0.6
-8 -33.61 0.6
-2.08 -8.73 -1.75
-8.42 -35.36 3.18
-2.51 -10.54 -1.72
-7.89 -33.15 4.18
-6.21 -26.08 -3.29
-7.79 -32.72 5.33
-8.79 -36.91 -3.32
-7.75 -32.55 6.5
-8.76 -36.82 -1.98
-7.7 -32.36 8.91
-8.28 -34.27 0.62
-8.55 -35.36 1.91
-2.11 -8.74 -1.75
-8.53 -35.3 3.18
-2.55 -10.53 -1.72
-1.36 -5.63 0.71
-6.31 -26.09 -3.3
-8.06 -33.34 5.43
-8.89 -36.78 -3.31
-1.44 -5.96 1.19
-8.89 -36.78 -1.98
-1.55 -6.43 1.53
-8.9 -36.8 -0.66
-7.97 -32.98 9.09
-8.58 -34.96 0.63
-8.65 -35.23 1.9
-2.15 -8.74 -1.75
-8.65 -35.25 3.18
-2.58 -10.53 -1.72
-1.4 -5.71 0.72
-6.41 -26.12 -3.3
-1.56 -6.35 1.04
-9.02 -36.74 -3.31
-1.46 -5.96 1.19
-9.01 -36.72 -1.98
-1.56 -6.38 1.52
-9.03 -36.77 -0.66
-1.32 -5.38 1.48
-8.77 -35.2 1.9
-2.18 -8.73 -1.75
-8.77 -35.22 3.18
-2.62 -10.53 -1.72
-8.73 -35.06 4.44
-6.5 -26.1 -3.3
-1.56 -6.28 1.02
-9.15 -36.71 -3.31
-8.6 -34.52 6.91
-9.14 -36.68 -1.98
-1.59 -6.4 1.52
-9.15 -36.73 -0.66
-8.56 -34.34 9.48
-9.24 -36.55 0.66
-10.13 -40.08 2.17
-2.21 -8.73 -1.75
-2.66 -10.53 -1.72
-9.01 -35.65 4.51
-6.6 -26.11 -3.31
-1.58 -6.25 1.02
-9.37 -37.05 -3.34
-1.27 -5.02 1.01
-9.37 -37.05 -2
-1.33 -5.26 1.25
-9.31 -36.81 -0.66
-8.82 -34.88 9.64
-9.54 -37.2 0.67
-10.25 -39.99 2.16
-2.24 -8.73 -1.75
-9.67 -37.73 3.41
-2.7 -10.53 -1.72
-1.36 -5.29 0.67
-6.7 -26.13 -3.31
-1.6 -6.25 1.02
-9.49 -37.01 -3.34
-1.28 -5 1
-10.38 -40.49 -2.19
-1.35 -5.25 1.25
-10.38 -40.51 -0.73
-10.38 -39.91 2.16
-2.27 -8.73 -1.75
-2.74 -10.52 -1.72
-9.69 -37.26 4.73
-6.8 -26.13 -3.32
-1.64 -6.32 1.03
-9.65 -37.09 -3.35
-10.52 -40.45 -2.19
-1.76 -6.76 1.61
-10.53 -40.48 -0.73
-10.52 -39.86 2.16
-2.3 -8.73 -1.75
-10.52 -39.88 3.61
-2.77 -10.51 -1.72
-9.87 -37.41 4.75
-6.9 -26.16 -3.32
-1.68 -6.35 1.04
-9.8 -37.13 -3.36
-9.9 -37.53 7.55
-10.65 -40.38 -2.19
-1.77 -6.7 1.6
-10.66 -40.42 -0.73
-10.65 -39.8 2.16
-2.33 -8.73 -1.76
-10.66 -39.82 3.61
-2.82 -10.52 -1.73
-10.45 -39.05 4.96
-7 -26.17 -3.33
-1.68 -6.29 1.03
-9.94 -37.13 -3.36
-1.59 -5.94 1.19
-10.85 -40.55 -2.2
-1.8 -6.73 1.61
-10.81 -40.41 -0.73
-10.21 -38.15 10.58
-11.06 -40.75 0.74
-10.84 -39.97 2.17
-2.36 -8.71 -1.76
-10.84 -39.96 3.62
-2.86 -10.52 -1.73
-1.53 -5.65 0.72
-7.1 -26.17 -3.33
-1.76 -6.5 1.07
-10.09 -37.17 -3.37
-1.61 -5.95 1.2
-11.98 -44.16 -2.4
-11.98 -44.17 -0.8
-10.55 -38.89 10.8
-12.26 -44.57 2.42
-2.4 -8.72 -1.76
-11.65 -42.34 3.84
-2.89 -10.52 -1.73
-1.54 -5.61 0.71
-7.2 -26.18 -3.33
-1.79 -6.49 1.07
-10.23 -37.21 -3.38
-1.47 -5.33 1.07
-12.14 -44.12 -2.4
-1.53 -5.56 1.33
-12.14 -44.14 -0.8
-1.36 -4.93 1.37
-12.4 -44.48 2.42
-2.43 -8.72 -1.76
-2.93 -10.51 -1.73
-1.57 -5.64 0.72
-7.3 -26.19 -3.34
-1.74 -6.26 1.03
-10.4 -37.29 -3.39
-12.29 -44.06 -2.4
-1.56 -5.59 1.34
-12.29 -44.07 -0.8
-1.37 -4.91 1.37
-12.55 -44.42 2.42
-2.47 -8.73 -1.76
-12.56 -44.43 4.04
-2.97 -10.51 -1.73
-1.58 -5.59 0.71
-7.41 -26.21 -3.34
-1.77 -6.26 1.03
-10.55 -37.33 -3.39
-1.51 -5.33 1.08
-12.68 -44.87 -2.44
-1.63 -5.77 1.39
-1.4 -4.94 1.37
-12.87 -44.94 0.82
-12.71 -44.39 2.42
-2.5 -8.72 -1.76
-12.72 -44.41 4.04
-3.01 -10.52 -1.73
-1.6 -5.59 0.71
-7.51 -26.21 -3.35
-1.85 -6.47 1.07
-10.69 -37.32 -3.4
-1.54 -5.36 1.08
-13.14 -45.9 -2.5
-1.64 -5.72 1.37
-13.05 -45.57 -0.83
-13.41 -46.22 0.84
-13.25 -45.68 2.49
-2.53 -8.71 -1.76
-13.24 -45.64 4.16
-3.05 -10.52 -1.73
-7.61 -26.22 -3.35
-10.83 -37.34 -3.4
-1.55 -5.36 1.08
-13.7 -47.22 -2.58
-1.63 -5.6 1.35
-13.58 -46.8 -0.85
-1.65 -5.67 1.58
-13.96 -47.51 0.86
-13.82 -47.01 2.57
-2.56 -8.72 -1.77
-3.09 -10.52 -1.74
-7.7 -26.21 -3.35
-10.98 -37.35 -3.41
-14.28 -48.59 -2.65
-14.16 -48.18 -0.88
-1.65 -5.62 1.57
-14.52 -48.77 0.89
-14.41 -48.4 2.65
-2.6 -8.72 -1.77
-3.13 -10.51 -1.74
-7.81 -26.23 -3.36
-1.49 -5 0.83
-11.12 -37.36 -3.41
-1.67 -5.62 1.57
-25.23 -83.73 1.53
-25.25 -83.8 4.59
-2.63 -8.72 -1.77
-3.17 -10.51 -1.74
-7.9 -26.22 -3.36
-11.27 -37.39 -3.42
-25.24 -83.74 -1.53
-1.69 -5.62 1.57
-25.52 -83.63 1.53
-25.54 -83.69 4.59
-2.66 -8.73 -1.77
-3.21 -10.51 -1.74
-8.01 -26.25 -3.37
-11.42 -37.43 -3.42
-1.8 -5.88 1.42
-25.51 -83.59 -1.53
-1.69 -5.53 1.55
-25.79 -83.51 1.53
-25.8 -83.54 4.58
-2.69 -8.71 -1.77
-3.25 -10.52 -1.74
-8.1 -26.24 -3.37
-11.56 -37.43 -3.43
-1.71 -5.53 1.55
-26.08 -83.41 1.53
-26.09 -83.43 4.58
-2.72 -8.71 -1.77
-26.1 -83.46 7.65
-3.29 -10.51 -1.74
-8.21 -26.25 -3.38
-11.7 -37.43 -3.43
-1.8 -5.76 1.39
-26.37 -83.27 1.52
-26.38 -83.31 4.58
-2.76 -8.71 -1.78
-26.39 -83.33 7.65
-3.33 -10.5 -1.75
-8.31 -26.25 -3.38
-11.87 -37.49 -3.44
-1.9 -5.99 1.22
-1.58 -4.99 1.4
-26.66 -83.15 1.52
-26.67 -83.19 4.58
-2.79 -8.71 -1.78
-26.68 -83.23 7.65
-3.37 -10.51 -1.75
-4.45 -13.88 -1.79
-4.45 -13.89 -1.28
-1.92 -5.99 1.22
-26.68 -83.22 -1.53
-1.59 -4.96 1.4
-26.93 -83.03 1.52
-26.93 -83.04 4.58
-2.82 -8.71 -1.78
-26.95 -83.08 7.64
-3.41 -10.5 -1.75
-4.49 -13.84 -1.79
-4.5 -13.87 -1.28
-1.93 -5.96 1.22
-1.61 -4.97 1.4
-27.22 -82.9 1.52
-27.23 -82.94 4.57
-2.85 -8.69 -1.78
-27.24 -82.98 7.64
-3.45 -10.5 -1.75
-1.94 -5.91 1.21
-27.22 -82.91 -1.52
-1.64 -5 1.41
-27.47 -82.78 1.52
-27.49 -82.82 4.57
-2.88 -8.69 -1.78
-27.5 -82.86 7.64
-3.48 -10.5 -1.75
-8.73 -26.31 -3.4
-12.44 -37.48 -3.45
-1.64 -4.93 1.39
-27.77 -82.67 1.52
-27.78 -82.7 4.57
-2.92 -8.68 -1.78
-27.79 -82.75 7.64
-3.52 -10.48 -1.75
-8.83 -26.29 -3.4
-12.6 -37.51 -3.46
-1.73 -5.15 1.06
-27.78 -82.7 -1.52
-1.66 -4.94 1.4
-28.05 -82.53 1.52
-28.07 -82.59 4.57
-2.95 -8.69 -1.78
-28.08 -82.62 7.63
-3.56 -10.48 -1.75
-8.94 -26.3 -3.41
-12.77 -37.58 -3.47
-1.74 -5.13 1.05
-1.58 -4.65 1.13
-28.06 -82.56 -1.52
-1.7 -5 1.41
-28.34 -82.41 1.52
-28.36 -82.47 4.57
-2.98 -8.68 -1.78
-28.37 -82.52 7.63
-3.6 -10.48 -1.76
-9.04 -26.3 -3.42
-12.92 -37.57 -3.48
-1.84 -5.37 1.1
-1.61 -4.69 1.15
-28.35 -82.45 -1.52
-1.98 -5.76 1.63
-28.58 -82.31 1.52
-28.6 -82.36 4.57
-3.01 -8.66 -1.78
-28.61 -82.39 7.63
-3.64 -10.48 -1.76
-9.14 -26.33 -3.42
-13.05 -37.57 -3.48
-1.95 -5.62 1.16
-1.71 -4.92 1.2
-28.58 -82.29 -1.52
-28.87 -82.19 1.52
-28.88 -82.22 4.57
-3.05 -8.67 -1.79
-28.9 -82.26 7.63
-3.68 -10.48 -1.76
-9.24 -26.31 -3.42
-13.19 -37.56 -3.48
-1.96 -5.59 1.15
-1.74 -4.95 1.21
-28.87 -82.19 -1.52
-29.16 -82.04 1.52
-29.2 -82.13 4.57
-3.08 -8.66 -1.79
-29.21 -82.16 7.63
-3.72 -10.46 -1.76
-9.36 -26.33 -3.43
-13.37 -37.62 -3.49
-1.99 -5.6 1.16
-29.18 -82.08 -1.52
-2.12 -5.96 1.69
-29.46 -81.93 1.52
-29.47 -81.97 4.57
-3.11 -8.66 -1.79
-29.49 -82.03 7.63
-3.76 -10.46 -1.76
-9.46 -26.31 -3.43
-13.52 -37.62 -3.5
-2.02 -5.62 1.16
-29.47 -81.98 -1.52
-2.13 -5.93 1.69
-29.72 -81.82 1.52
-29.73 -81.86 4.56
-3.15 -8.66 -1.79
-29.75 -81.91 7.62
-3.8 -10.46 -1.76
-9.56 -26.31 -3.44
-13.67 -37.65 -3.5
-2.04 -5.63 1.16
-29.71 -81.82 -1.52
-2.08 -5.71 1.63
-30 -81.69 1.52
-30.02 -81.75 4.56
-3.18 -8.65 -1.79
-30.03 -81.79 7.62
-3.84 -10.46 -1.77
-1.83 -4.97 0.65
-9.67 -26.34 -3.45
-13.82 -37.63 -3.51
-2.29 -6.22 1.53
-30 -81.7 -1.52
-2.07 -5.64 1.61
-30.27 -81.57 1.52
-30.3 -81.65 4.56
-3.21 -8.65 -1.79
-30.31 -81.68 7.62
-3.88 -10.45 -1.77
-1.84 -4.97 0.65
-9.77 -26.33 -3.45
-13.96 -37.62 -3.51
-2.1 -5.65 1.17
-2.32 -6.25 1.54
-30.28 -81.58 -1.52
-2.17 -5.84 1.67
-30.56 -81.46 1.52
-30.58 -81.51 4.56
-3.25 -8.66 -1.8
-30.59 -81.54 7.62
-3.92 -10.45 -1.77
-30.6 -81.57 10.7
-9.88 -26.33 -3.45
-14.1 -37.59 -3.51
-1.94 -5.17 1.07
-1.87 -4.98 1.23
-30.56 -81.45 -1.52
-2.2 -5.87 1.68
-30.81 -81.37 1.52
-30.83 -81.43 4.56
-3.28 -8.66 -1.8
-30.84 -81.44 7.62
-3.96 -10.45 -1.77
-1.86 -4.91 0.64
-9.97 -26.34 -3.46
-14.24 -37.6 -3.52
-2.35 -6.19 1.53
-30.81 -81.36 -1.52
-2.15 -5.67 1.62
-31.1 -81.24 1.52
-31.11 -81.27 4.56
-3.31 -8.66 -1.8
-31.14 -81.36 7.62
-4 -10.45 -1.77
-31.12 -81.32 10.69
-10.08 -26.34 -3.46
-14.42 -37.66 -3.53
-1.92 -5.01 1.04
-31.1 -81.24 -1.52
-2.25 -5.87 1.68
-31.37 -81.13 1.52
-31.39 -81.17 4.56
-3.35 -8.65 -1.8
-31.41 -81.22 7.62
-4.04 -10.44 -1.77
-1.89 -4.89 0.64
-10.19 -26.34 -3.47
-14.57 -37.69 -3.54
-1.94 -5.01 1.04
-2.39 -6.19 1.53
-31.37 -81.14 -1.52
-2.27 -5.87 1.69
-31.66 -81.01 1.52
-31.67 -81.03 4.56
-3.38 -8.65 -1.81
-31.69 -81.08 7.62
-4.08 -10.44 -1.78
-1.91 -4.88 0.64
-10.3 -26.35 -3.47
-14.71 -37.65 -3.54
-1.94 -4.97 1.23
-31.66 -81.03 -1.52
-2.26 -5.79 1.67
-31.92 -80.87 1.52
-31.94 -80.91 4.56
-3.42 -8.65 -1.81
-31.96 -80.98 7.62
-4.12 -10.43 -1.78
-1.92 -4.87 0.64
-10.4 -26.35 -3.48
-14.86 -37.64 -3.54
-2.16 -5.48 1.36
-31.94 -80.92 -1.52
-2.29 -5.81 1.67
-32.21 -80.76 1.52
-32.23 -80.79 4.56
-3.45 -8.64 -1.81
-32.24 -80.84 7.61
-4.16 -10.42 -1.78
-1.93 -4.85 0.64
-10.51 -26.34 -3.48
-14.99 -37.59 -3.54
-32.21 -80.77 -1.52
-2.32 -5.81 1.68
-32.5 -80.64 1.52
-32.51 -80.68 4.56
-3.49 -8.66 -1.81
-32.54 -80.74 7.62
-4.2 -10.42 -1.78
-1.94 -4.82 0.64
-10.62 -26.35 -3.49
-15.14 -37.57 -3.54
-32.52 -80.69 -1.52
-2.38 -5.92 1.71
-32.77 -80.53 1.52
-32.79 -80.57 4.56
-3.51 -8.62 -1.81
-32.82 -80.63 7.62
-4.24 -10.42 -1.78
-1.96 -4.82 0.64
-10.72 -26.35 -3.49
-15.29 -37.56 -3.55
-2.09 -5.14 1.28
-32.79 -80.58 -1.52
-33.04 -80.41 1.52
-33.06 -80.44 4.56
-3.54 -8.62 -1.81
-33.07 -80.48 7.61
-4.28 -10.41 -1.78
-1.98 -4.82 0.64
-10.83 -26.35 -3.5
-15.42 -37.54 -3.55
-2.09 -5.08 1.27
-33.07 -80.46 -1.52
-33.31 -80.28 1.52
-33.34 -80.34 4.56
-3.58 -8.62 -1.81
-33.35 -80.39 7.61
-4.32 -10.4 -1.78
-10.93 -26.33 -3.5
-15.56 -37.51 -3.55
-33.32 -80.3 -1.52
-2.32 -5.59 1.62
-33.59 -80.17 1.52
-33.61 -80.24 4.56
-3.61 -8.62 -1.82
-33.63 -80.27 7.61
-4.35 -10.39 -1.78
-11.03 -26.32 -3.5
-15.7 -37.47 -3.55
-33.6 -80.2 -1.52
-2.23 -5.31 1.54
-33.87 -80.08 1.52
-33.88 -80.12 4.56
-3.64 -8.61 -1.82
-33.9 -80.15 7.61
-4.4 -10.4 -1.79
-6.18 -14.61 -1.95
-6.19 -14.63 -1.39
-33.89 -80.12 -1.52
-2.14 -5.06 1.47
-34.15 -79.96 1.52
-34.16 -79.98 4.56
-3.67 -8.6 -1.82
-34.18 -80.03 7.61
-4.44 -10.39 -1.79
-6.24 -14.6 -1.95
-6.24 -14.6 -1.39
-34.16 -79.97 -1.52
-2.17 -5.08 1.48
-34.42 -79.82 1.52
-34.42 -79.84 4.56
-3.7 -8.59 -1.82
-34.45 -79.9 7.61
-4.48 -10.38 -1.79
-11.35 -26.33 -3.52
-34.43 -79.85 -1.52
-34.72 -79.69 1.52
-34.73 -79.72 4.56
-3.74 -8.6 -1.82
-34.76 -79.8 7.61
-4.52 -10.37 -1.79
-11.45 -26.29 -3.52
-34.73 -79.72 -1.52
-34.98 -79.57 1.52
-35.02 -79.64 4.56
-3.78 -8.59 -1.82
-35.02 -79.66 7.61
-4.56 -10.37 -1.79
-5.75 -13.07 -1.75
-2.25 -5.13 1.29
-35.02 -79.63 -1.52
-35.27 -79.47 1.52
-35.28 -79.51 4.56
-3.81 -8.58 -1.83
-35.3 -79.56 7.61
-4.6 -10.37 -1.8
-11.67 -26.29 -3.53
-2.29 -5.15 1.3
-35.29 -79.51 -1.52
-35.54 -79.35 1.52
-35.56 -79.4 4.56
-3.84 -8.57 -1.83
-35.57 -79.42 7.61
-4.64 -10.37 -1.8
-5.74 -12.82 -1.73
-35.56 -79.39 -1.52
-35.82 -79.23 1.52
-35.84 -79.27 4.56
-3.88 -8.57 -1.83
-35.86 -79.3 7.61
-4.68 -10.36 -1.8
-5.81 -12.85 -1.73
-35.82 -79.23 -1.52
-36.09 -79.11 1.52
-36.11 -79.15 4.56
-3.91 -8.58 -1.83
-36.12 -79.17 7.61
-4.72 -10.34 -1.8
-5.86 -12.83 -1.73
-2.07 -4.54 0.97
-36.09 -79.1 -1.52
-36.38 -78.99 1.52
-36.4 -79.04 4.56
-3.95 -8.58 -1.84
-36.42 -79.06 7.62
-4.76 -10.34 -1.8
-5.91 -12.83 -1.73
-2.16 -4.7 1.19
-36.39 -79.01 -1.52
-36.64 -78.85 1.52
-36.67 -78.92 4.56
-4.8 -10.34 -1.81
-5.97 -12.84 -1.74
-21.84 -46.99 -2.72
-2.31 -4.98 1.27
-36.66 -78.89 -1.52
-36.92 -78.75 1.52
-36.94 -78.79 4.56
-4.84 -10.33 -1.81
-6.09 -12.98 -1.76
-21.99 -46.9 -2.71
-2.33 -4.97 1.27
-36.93 -78.77 -1.52
-37.2 -78.65 1.52
-37.23 -78.71 4.56
-4.88 -10.33 -1.81
-6.14 -12.98 -1.76
-22.15 -46.83 -2.71
-2.14 -4.52 1.16
-37.2 -78.64 -1.52
-37.51 -78.53 1.52
-37.52 -78.56 4.56
-4.92 -10.3 -1.81
-6.18 -12.94 -1.76
-2.15 -4.51 1.15
-37.49 -78.5 -1.52
-37.77 -78.39 1.52
-37.79 -78.43 4.56
-4.17 -8.66 -1.87
-4.96 -10.3 -1.81
-6.23 -12.94 -1.76
-2.19 -4.54 1.16
-37.78 -78.41 -1.52
-2.43 -5.04 1.5
-38.05 -78.28 1.52
-38.06 -78.31 4.56
-4.09 -8.41 -1.82
-5.01 -10.3 -1.81
-6.32 -13 -1.78
-19.16 -39.43 -2.3
-28.26 -58.15 -1.13
-2.45 -5.04 1.5
-38.31 -78.16 1.52
-38.35 -78.22 4.57
-5.04 -10.29 -1.82
-6.37 -13 -1.78
-19.33 -39.42 -2.3
-2.21 -4.51 1.16
-38.38 -78.29 -1.52
-38.69 -78.21 4.57
-5.09 -10.29 -1.82
-6.43 -13 -1.78
-2.24 -4.52 1.16
-5.12 -10.27 -1.82
-6.49 -13 -1.78
-7.81 -15.65 -1.53
-2.25 -4.52 1.17
-5.17 -10.27 -1.82
-6.53 -12.97 -1.78
-7.86 -15.62 -1.53
-5.21 -10.26 -1.82
-6.59 -12.97 -1.79
-2.54 -4.99 1.5
-5.26 -10.27 -1.83
-6.65 -12.98 -1.79
-2.57 -5.02 1.51
-4.3 -8.32 -1.82
-5.3 -10.26 -1.83
-6.72 -13.01 -1.8
-4.33 -8.31 -1.82
-5.34 -10.24 -1.83
-6.8 -13.05 -1.81
-4.35 -8.27 -1.82
-5.38 -10.24 -1.83
-6.87 -13.07 -1.81
-2.32 -4.41 1.33
-26.53 -50.07 0.99
-4.4 -8.31 -1.83
-5.42 -10.24 -1.83
-6.94 -13.09 -1.82
-2.34 -4.41 1.34
-4.44 -8.3 -1.83
-5.47 -10.23 -1.84
-7.01 -13.13 -1.83
-4.88 -9.14 2.01
-2.35 -4.39 1.33
-5.51 -10.22 -1.84
-7.09 -13.16 -1.84
-4.92 -9.12 2.01
-2.36 -4.38 1.33
-5.54 -10.2 -1.84
-7.17 -13.19 -1.84
-25.25 -46.47 -2.77
-5.59 -10.2 -1.84
-7.24 -13.22 -1.85
-25.4 -46.38 -2.77
-5.63 -10.19 -1.84
-7.31 -13.24 -1.86
-5.21 -9.43 2.09
-25.57 -46.29 -2.77
-4.97 -9 2.37
-9.19 -16.5 0.99
-5.67 -10.18 -1.85
-7.38 -13.25 -1.86
-25.97 -46.64 -2.8
-5.01 -8.99 2.38
-3.25 -5.78 -1.78
-17.72 -31.57 0.63
-9.24 -16.45 0.99
-9.21 -16.4 1.65
-5.71 -10.17 -1.85
-7.43 -13.24 -1.86
-5.25 -9.35 2.08
-26.12 -46.53 -2.8
-5.17 -9.22 2.44
-35.67 -63.54 -1.27
-3.27 -5.78 -1.78
-16.78 -29.65 0.59
-9.49 -16.76 1.01
-9.49 -16.77 1.69
-5.75 -10.15 -1.85
-9.37 -16.55 2.34
-7.49 -13.24 -1.87
-9.22 -16.29 2.96
-9.42 -16.64 -1.67
-5.28 -9.33 2.08
-26.25 -46.37 -2.79
-5.08 -8.98 2.38
-3.29 -5.77 -1.78
-17.91 -31.38 0.63
-9.58 -16.79 1.01
-9.59 -16.8 1.69
-5.79 -10.14 -1.85
-9.54 -16.72 2.36
-7.54 -13.22 -1.87
-9.39 -16.46 3
-9.46 -16.58 -1.67
-9.28 -16.27 3.64
-9.25 -16.2 4.31
-36.12 -63.3 -1.27
-3.27 -5.69 -1.76
-17.06 -29.65 0.6
-9.66 -16.79 1.02
-9.67 -16.81 1.7
-5.83 -10.14 -1.85
-9.64 -16.76 2.37
-7.59 -13.2 -1.87
-9.57 -16.64 3.04
-9.47 -16.46 3.69
-26.07 -45.32 -2.74
-9.37 -16.29 4.34
-32.68 -56.81 -1.14
-9.28 -16.14 4.99
-3.28 -5.66 -1.75
-9.73 -16.77 1.02
-9.78 -16.86 1.71
-5.88 -10.14 -1.86
-9.73 -16.77 2.38
-7.65 -13.2 -1.87
-9.7 -16.73 3.06
-9.67 -16.67 -1.69
-5.46 -9.42 2.12
-9.57 -16.5 4.4
-9.46 -16.32 5.05
-3.29 -5.64 -1.75
-17.19 -29.42 0.59
-9.8 -16.77 1.02
-9.84 -16.84 1.71
-5.92 -10.14 -1.86
-9.84 -16.84 2.39
-7.71 -13.2 -1.88
-9.78 -16.74 3.07
-9.74 -16.68 -1.69
-9.76 -16.7 3.76
-9.71 -16.63 4.45
-17.78 -30.44 -0.62
-9.62 -16.48 5.11
-3.31 -5.62 -1.75
-18.21 -30.92 0.63
-9.88 -16.78 1.02
-9.94 -16.88 1.71
-5.96 -10.12 -1.86
-9.95 -16.9 2.41
-7.77 -13.19 -1.88
-9.88 -16.78 3.08
-9.83 -16.69 -1.69
-5.33 -9.05 2.04
-9.87 -16.77 4.49
-3.34 -5.62 -1.75
-10.18 -17.15 0.35
-9.94 -16.74 1.02
-10.05 -16.92 1.72
-6 -10.11 -1.86
-10.1 -17.01 2.43
-7.82 -13.18 -1.88
-10.07 -16.96 3.12
-10.02 -16.87 -1.72
-9.99 -16.83 3.8
-10.18 -17.15 -1.05
-10.01 -16.86 4.53
-10.18 -17.14 -0.35
-3.37 -5.63 -1.76
-10.24 -17.11 0.35
-10.24 -17.11 1.04
-10.25 -17.13 1.75
-6.05 -10.11 -1.87
-10.25 -17.13 2.45
-7.88 -13.17 -1.88
-10.25 -17.13 3.16
-10.02 -16.75 -1.71
-10.25 -17.13 3.88
-10.24 -17.11 4.6
-3.39 -5.62 -1.76
-4.81 -7.98 -1.81
-6.09 -10.09 -1.87
-7.93 -13.14 -1.88
-10.11 -16.76 -1.71
-3.39 -5.58 -1.75
-18.33 -30.15 0.62
-18.07 -29.72 1.82
-4.83 -7.94 -1.81
-6.13 -10.08 -1.87
-7.99 -13.14 -1.89
-10.2 -16.78 -1.72
-18.34 -30.16 -1.85
-17.79 -29.27 -0.6
-3.41 -5.56 -1.75
-18.55 -30.28 0.62
-18.45 -30.13 1.85
-4.88 -7.96 -1.81
-6.17 -10.07 -1.87
-8.04 -13.13 -1.89
-10.3 -16.82 -1.73
-5.73 -9.36 2.13
-18.52 -30.23 -0.62
-3.42 -5.55 -1.75
-4.9 -7.93 -1.81
-6.21 -10.06 -1.87
-8.09 -13.1 -1.89
-10.4 -16.85 -1.73
-5.7 -9.24 2.51
-3.44 -5.53 -1.75
-18.43 -29.64 1.83
-4.94 -7.94 -1.82
-18.6 -29.91 3.08
-6.25 -10.05 -1.87
-8.14 -13.09 -1.89
-10.5 -16.89 -1.74
-5.78 -9.29 2.13
-26.25 -42.21 -2.61
-5.73 -9.21 2.5
-18.55 -29.82 -0.61
-3.48 -5.55 -1.76
-19.21 -30.65 1.9
-6.29 -10.04 -1.88
-8.2 -13.08 -1.9
-5.87 -9.37 1.75
-10.59 -16.9 -1.75
-5.77 -9.21 2.51
-18.51 -29.53 -0.61
-3.52 -5.57 -1.77
-18.69 -29.59 0.61
-18.36 -29.07 1.8
-6.33 -10.02 -1.88
-8.27 -13.09 -1.9
-10.69 -16.93 -1.75
-5.9 -9.34 2.15
-5.81 -9.2 2.51
-18.44 -29.19 -0.6
-3.54 -5.56 -1.77
-18.29 -28.73 0.59
-5.05 -7.93 -1.83
-6.37 -10.01 -1.88
-8.32 -13.08 -1.9
-5.78 -9.08 1.7
-10.79 -16.96 -1.76
-5.89 -9.26 2.13
-19.24 -30.22 -0.63
-3.56 -5.55 -1.77
-5.09 -7.94 -1.83
-6.41 -10 -1.88
-5.12 -7.97 1.16
-8.38 -13.06 -1.91
-5.02 -7.83 1.47
-10.9 -16.99 -1.77
-3.54 -5.48 -1.75
-18.52 -28.66 0.6
-6.46 -10 -1.89
-5.15 -7.96 1.16
-8.43 -13.04 -1.91
-5.84 -9.04 1.7
-11.01 -17.03 -1.77
-19.07 -29.51 -0.61
-3.56 -5.46 -1.75
-18.7 -28.7 0.6
-18.66 -28.64 1.79
-6.24 -9.58 1
-6.51 -9.99 -1.89
-5.74 -8.81 1.29
-8.49 -13.04 -1.91
-5.91 -9.08 1.72
-11.11 -17.06 -1.78
-5.74 -8.81 2.04
-3.56 -5.43 -1.74
-6.55 -9.98 -1.89
-8.55 -13.03 -1.91
-11.21 -17.08 -1.79
-5.79 -8.82 2.05
-3.61 -5.46 -1.75
-19.9 -30.09 0.63
-6.59 -9.96 -1.89
-5.3 -8.02 1.18
-8.62 -13.04 -1.92
-5.92 -8.94 1.7
-11.31 -17.1 -1.79
-5.9 -8.92 2.08
-3.64 -5.47 -1.76
-20.18 -30.29 0.64
-6.43 -9.66 1.02
-6.63 -9.95 -1.89
-5.27 -7.91 1.17
-8.68 -13.02 -1.92
-5.97 -8.95 1.7
-11.4 -17.11 -1.8
-5.97 -8.96 2.09
-5.8 -8.7 2.41
-3.65 -5.44 -1.76
-19.49 -29.03 0.61
-19.44 -28.96 1.83
-6.68 -9.94 -1.9
-5.32 -7.92 1.17
-8.73 -13 -1.92
-11.51 -17.13 -1.81
-3.65 -5.4 -1.75
-19.87 -29.38 0.62
-6.72 -9.94 -1.9
-8.79 -12.99 -1.93
-11.6 -17.15 -1.81
-5.87 -8.68 2.42
-3.66 -5.37 -1.74
-19.48 -28.59 0.6
-20.25 -29.73 1.89
-6.76 -9.93 -1.9
-8.84 -12.98 -1.93
-6.37 -9.35 1.79
-17.96 -26.37 -2.79
-5.2 -7.64 1.8
-5.9 -8.66 2.42
-3.67 -5.34 -1.74
-20.08 -29.26 0.62
-6.8 -9.91 -1.9
-8.9 -12.97 -1.93
-6.37 -9.29 1.78
-17.76 -25.89 -2.75
-5.24 -7.64 1.8
-5.94 -8.65 2.42
-3.68 -5.33 -1.74
-19.73 -28.53 0.61
-6.84 -9.9 -1.91
-8.95 -12.95 -1.93
-6.41 -9.27 1.79
-17.56 -25.4 -2.7
-5.3 -7.67 1.81
-3.71 -5.32 -1.74
-26.35 -37.84 0.8
-6.89 -9.89 -1.91
-9 -12.92 -1.93
-17.36 -24.93 -2.66
-5.32 -7.63 1.81
-5.94 -8.53 2.4
-3.73 -5.31 -1.74
-10.13 -14.44 0.31
-6.93 -9.88 -1.91
-9.04 -12.89 -1.93
-17.18 -24.49 -2.62
-5.97 -8.51 2.02
-5.87 -8.37 2.36
-3.74 -5.3 -1.74
-10.14 -14.35 0.31
-10.17 -14.38 0.92
-5.82 -8.24 0.88
-6.97 -9.86 -1.91
-9.11 -12.88 -1.94
-7.21 -10.21 1.98
-10.06 -14.23 -1.52
-6.02 -8.52 2.03
-10.07 -14.25 -0.91
-5.95 -8.42 2.38
-10.11 -14.3 -0.31
-5.66 -8.01 2.63
-3.78 -5.31 -1.75
-10.12 -14.21 0.3
-10.15 -14.25 0.92
-7.01 -9.84 -1.91
-5.93 -8.33 1.26
-9.16 -12.86 -1.94
-7.34 -10.3 2
-16.81 -23.6 -2.54
-6.71 -9.43 2.25
-10.19 -14.31 -0.92
-10.14 -14.23 -0.3
-5.71 -8.01 2.64
-3.8 -5.3 -1.75
-10.18 -14.19 0.3
-10.21 -14.23 0.92
-7.05 -9.83 -1.92
-5.98 -8.33 1.26
-9.21 -12.84 -1.94
-7.31 -10.19 1.99
-15.7 -21.89 -2.36
-6.14 -8.55 2.05
-3.82 -5.29 -1.75
-10.21 -14.14 0.3
-10.25 -14.18 0.92
-7.1 -9.82 -1.92
-6.05 -8.38 1.27
-9.26 -12.81 -1.94
-7.33 -10.14 1.98
-15.57 -21.55 -2.33
-6.18 -8.55 2.05
-10.25 -14.08 0.3
-10.28 -14.12 0.92
-5.91 -8.12 0.88
-6.99 -9.61 -1.88
-6.3 -8.65 1.31
-9.31 -12.79 -1.94
-15.41 -21.17 -2.29
-6.21 -8.53 2.05
-15.95 -21.91 -1.42
-5.92 -8.07 0.88
-6.97 -9.49 -1.87
-6.33 -8.63 1.31
-9.37 -12.77 -1.94
-6.39 -8.71 1.71
-15.25 -20.78 -2.26
-6.23 -8.49 2.05
-6 -8.11 0.88
-7.03 -9.51 -1.87
-9.42 -12.75 -1.95
-6.42 -8.69 1.71
-15.09 -20.42 -2.22
-5.73 -7.76 1.88
-16.86 -22.81 -1.49
-52.03 -70.41 -1.53
-6.06 -8.14 0.89
-7.06 -9.49 -1.87
-7.17 -9.64 1.48
-9.47 -12.73 -1.95
-6.61 -8.88 1.75
-14.94 -20.08 -2.19
-5.77 -7.75 1.88
-3.91 -5.22 -1.75
-19.15 -25.57 0.56
-19.09 -25.48 1.67
-6.1 -8.15 0.89
-7.14 -9.53 -1.89
-7.2 -9.61 1.47
-9.52 -12.71 -1.95
-14.87 -19.85 -2.17
-5.36 -7.15 1.74
-7.1 -9.48 2.73
-3.94 -5.21 -1.75
-7.18 -9.5 -1.89
-6.3 -8.34 1.28
-9.58 -12.68 -1.95
-6.6 -8.74 1.73
-13.11 -17.36 -1.9
-5.41 -7.16 1.74
-15.16 -20.06 -1.32
-5.97 -7.91 2.29
-5.08 -6.73 2.26
-3.95 -5.19 -1.75
-6.13 -8.06 0.89
-7.22 -9.49 -1.89
-6.31 -8.3 1.28
-9.63 -12.66 -1.95
-13.15 -17.29 -1.9
-5.43 -7.14 1.74
-15 -19.71 -1.3
-5.44 -7.15 2.07
-5.1 -6.71 2.26
-3.99 -5.21 -1.76
-6.19 -8.08 0.89
-7.26 -9.48 -1.89
-6.43 -8.39 1.3
-9.69 -12.64 -1.96
-6.47 -8.44 1.68
-14.81 -19.33 -2.13
-5.44 -7.1 1.74
-14.88 -19.41 -1.28
-5.46 -7.13 2.07
-5.19 -6.78 2.29
-4.03 -5.22 -1.77
-6.3 -8.16 0.9
-7.29 -9.45 -1.89
-9.74 -12.62 -1.96
-14.78 -19.15 -2.12
-5.64 -7.32 1.8
-14.71 -19.07 -1.26
-5.17 -6.7 2.27
-4.06 -5.23 -1.77
-7.39 -9.5 -1.91
-9.78 -12.59 -1.96
-14.76 -18.99 -2.1
-5.11 -6.58 1.62
-14.59 -18.77 -1.25
-5.42 -6.97 2.04
-5.18 -6.67 2.26
-4.09 -5.23 -1.78
-6.54 -8.36 0.93
-7.42 -9.49 -1.91
-9.84 -12.57 -1.96
-7.9 -10.09 2.03
-14.45 -18.47 -2.05
-14.46 -18.48 -1.23
-5.42 -6.93 2.03
-5.23 -6.68 2.27
-4.12 -5.23 -1.78
-6.57 -8.33 0.93
-7.44 -9.43 -1.9
-9.9 -12.55 -1.96
-5.27 -6.69 1.35
-14.5 -18.39 -2.05
-5.61 -7.11 1.76
-14.37 -18.22 -1.22
-6.34 -8.05 2.37
-5.26 -6.67 2.28
-4.13 -5.2 -1.78
-7.5 -9.44 -1.91
-6.68 -8.42 1.32
-9.95 -12.53 -1.96
-5.3 -6.68 1.35
-15.29 -19.26 -2.15
-5.71 -7.2 1.79
-14.24 -17.94 -1.2
-6.04 -7.61 2.6
-4.15 -5.19 -1.78
-7.54 -9.43 -1.91
-6.69 -8.37 1.32
-10.01 -12.51 -1.97
-5.75 -7.19 1.46
-14.06 -17.58 -1.97
-5.76 -7.2 1.79
-14.04 -17.55 -1.18
-6.35 -7.94 2.35
-59.7 -74.65 -1.67
-6.13 -7.67 2.63
-4.17 -5.18 -1.78
-6.24 -7.74 0.87
-7.6 -9.44 -1.92
-7.28 -9.04 1.43
-10.05 -12.48 -1.97
-5.86 -7.28 1.48
-14.11 -17.52 -1.97
-7.83 -9.72 2.43
-14.1 -17.51 -1.18
-6.19 -7.68 2.64
-4.2 -5.18 -1.79
-58.68 -72.33 1.63
-6.26 -7.71 0.87
-7.67 -9.46 -1.93
-6.83 -8.41 1.33
-10.11 -12.46 -1.97
-5.91 -7.29 1.49
-15.26 -18.82 -2.12
-7.07 -8.71 2.59
-4.24 -5.19 -1.8
-6.3 -7.71 0.87
-7.64 -9.36 -1.91
-10.16 -12.44 -1.97
-5.65 -6.91 1.41
-15.26 -18.68 -2.11
-4.26 -5.18 -1.8
-6.36 -7.73 0.88
-7.71 -9.37 -1.92
-6.81 -8.28 1.32
-10.23 -12.43 -1.98
-15.4 -18.71 -2.12
-6.45 -7.84 2.35
-4.28 -5.17 -1.8
-6.74 -8.13 0.55
-6.95 -8.39 0.95
-7.74 -9.34 -1.92
-6.82 -8.23 1.31
-10.28 -12.41 -1.98
-15.35 -18.52 -2.1
-5.65 -6.82 1.72
-5.47 -6.6 1.98
-4.31 -5.16 -1.8
-6.75 -8.09 0.55
-6.93 -8.3 0.95
-7.78 -9.32 -1.92
-10.34 -12.39 -1.98
-15.46 -18.53 -2.11
-5.69 -6.81 1.73
-45.65 -54.69 -3.73
-5.43 -6.51 1.96
-4.31 -5.13 -1.8
-6.78 -8.06 0.55
-6.97 -8.29 0.95
-7.8 -9.28 -1.92
-6.17 -7.34 1.18
-10.39 -12.37 -1.98
-5.79 -6.9 1.43
-17.31 -20.6 -2.35
-6.52 -7.76 2.34
-4.33 -5.12 -1.8
-6.81 -8.05 0.55
-6.79 -8.02 -1.66
-7.57 -8.94 1.44
-10.45 -12.35 -1.99
-5.83 -6.88 1.43
-17.46 -20.63 -2.36
-7.79 -9.21 2.34
-7.03 -8.31 2.51
-4.36 -5.11 -1.8
-6.84 -8.03 0.55
-6.99 -8.21 0.94
-6.78 -7.96 -1.66
-6.09 -7.14 1.15
-6.83 -8.02 -1.29
-7.35 -8.63 1.8
-6.83 -8.01 -0.92
-5.76 -6.76 1.73
-7.07 -8.3 2.52
-6.43 -7.55 2.66
-4.41 -5.13 -1.81
-7.18 -8.37 0.96
-6.8 -7.92 -1.65
-6.11 -7.12 1.15
-6.83 -7.96 -1.29
-6.37 -7.42 1.55
-6.84 -7.97 -0.92
-5.78 -6.73 1.72
-6.86 -7.99 -0.55
-7.07 -8.24 2.51
-6.45 -7.52 2.65
-4.45 -5.16 -1.83
-6.9 -7.99 0.18
-6.76 -7.82 0.54
-6.52 -7.55 0.87
-6.82 -7.9 -1.65
-6.84 -7.92 -1.28
-6.36 -7.37 1.54
-6.86 -7.94 -0.92
-5.78 -6.69 1.72
-6.85 -7.93 -0.55
-6.76 -7.82 2.39
-4.49 -5.16 -1.83
-6.9 -7.93 0.18
-7.02 -8.07 0.56
-6.12 -7.03 0.82
-6.86 -7.88 -1.66
-6.88 -7.91 -1.29
-7.44 -8.55 1.8
-6.88 -7.91 -0.92
-6.88 -7.9 -0.55
-6.78 -7.8 2.39
-6.89 -7.92 -0.18
-7.09 -8.15 2.89
-4.54 -5.18 -1.85
-6.92 -7.9 0.18
-6.95 -7.92 0.55
-6.9 -7.87 -1.66
-6.18 -7.05 1.15
-6.92 -7.89 -1.29
-7.45 -8.51 1.79
-6.9 -7.87 -0.92
-7.04 -8.03 2.08
-6.92 -7.9 -0.55
-7.16 -8.17 2.51
-6.91 -7.88 -0.18
-7.03 -8.02 2.86
-4.59 -5.2 -1.86
-6.94 -7.86 0.18
-6.95 -7.87 0.55
-7.05 -7.99 -1.69
-6.2 -7.03 1.15
-7.03 -7.96 -1.3
-6.26 -7.09 1.5
-6.96 -7.88 -0.92
-7 -7.93 2.06
-6.96 -7.88 -0.55
-7.02 -7.95 2.45
-6.94 -7.87 -0.18
-6.97 -7.9 2.82
-4.65 -5.23 -1.87
-6.97 -7.85 0.18
-6.96 -7.83 0.55
-6.18 -6.96 0.81
-8.02 -9.03 -1.91
-6.17 -6.94 1.14
-6.88 -7.74 -1.27
-6.35 -7.14 1.51
-6.92 -7.79 -0.91
-7.02 -7.89 2.05
-6.99 -7.86 -0.55
-7.02 -7.9 2.44
-6.99 -7.87 -0.18
-6.99 -7.86 2.82
-4.69 -5.24 -1.89
-7.03 -7.85 0.18
-5.22 -5.83 -1.81
-6.92 -7.73 0.54
-6.83 -7.63 -1.62
-7.03 -7.85 1.29
-6.83 -7.63 -1.26
-7.05 -7.87 1.67
-6.82 -7.62 -0.9
-7.05 -7.88 2.06
