# .PCD v0.7 - Point Cloud Data file format
VERSION 0.7
FIELDS x y z
SIZE 4 4 4
TYPE F F F
COUNT 1 1 1
WIDTH 2894
HEIGHT 1
VIEWPOINT 0 0 0 1 0 0 0
POINTS 2894
DATA ascii
17.93 7.82 2.4
9.7 4.23 -1.3
9.72 4.24 -0.93
5.86 2.53 -1.71
6.84 2.96 -1.72
8.09 3.5 -1.71
17.67 7.64 1.68
9.93 4.29 -1.71
18.61 8.04 2.49
9.76 4.22 -1.3
17.78 7.68 -1.69
45.58 19.7 -0.87
5.88 2.52 -1.71
6.85 2.93 -1.72
45.17 19.33 2.58
8.1 3.47 -1.71
9.93 4.25 -1.71
13.2 5.65 -1.76
17.71 7.58 -1.69
45.72 19.57 -0.87
5.88 2.49 -1.71
6.84 2.9 -1.72
8.1 3.43 -1.71
9.94 4.21 -1.71
13.2 5.6 -1.76
17.73 7.51 -1.68
24.37 10.33 -1.39
5.89 2.47 -1.71
6.86 2.88 -1.72
8.12 3.41 -1.71
43.05 18.07 4.08
9.95 4.18 -1.71
18.84 7.91 2.51
13.2 5.54 -1.76
17.79 7.47 -1.69
24.31 10.2 -1.38
5.9 2.45 -1.71
6.87 2.85 -1.72
43.01 17.88 2.44
8.12 3.38 -1.71
42.96 17.85 4.07
9.96 4.14 -1.71
42.35 17.6 5.63
13.22 5.49 -1.76
17.77 7.39 -1.68
24.3 10.1 -1.38
5.89 2.43 -1.71
6.87 2.83 -1.72
43.02 17.72 2.44
8.12 3.35 -1.71
9.96 4.1 -1.71
42.02 17.31 5.58
13.23 5.45 -1.76
17.77 7.32 -1.68
24.3 10.01 -1.38
5.9 2.41 -1.71
42.68 17.41 0.8
6.87 2.8 -1.71
43.14 17.6 2.44
8.13 3.32 -1.71
9.96 4.06 -1.7
41.62 16.97 5.52
13.23 5.4 -1.75
17.85 7.28 -1.69
24.25 9.89 -1.37
5.91 2.39 -1.71
42.27 17.07 0.8
6.88 2.78 -1.71
43.22 17.45 2.44
8.15 3.29 -1.71
9.97 4.03 -1.7
41.26 16.66 5.46
13.23 5.34 -1.75
17.87 7.22 -1.69
24.25 9.79 -1.37
42.49 17.16 -0.8
5.92 2.37 -1.71
41.96 16.78 0.79
6.89 2.75 -1.71
8.15 3.26 -1.71
9.98 3.99 -1.7
40.93 16.36 5.41
13.22 5.28 -1.75
17.92 7.17 -1.69
24.23 9.69 -1.37
42.57 17.02 -0.8
5.93 2.35 -1.71
41.65 16.47 0.78
6.9 2.73 -1.71
8.15 3.22 -1.7
10 3.95 -1.7
40.62 16.07 5.36
13.25 5.24 -1.75
18.01 7.13 -1.69
24.2 9.57 -1.36
42.74 16.91 -0.8
5.93 2.32 -1.71
41.24 16.15 0.77
6.9 2.7 -1.71
8.16 3.2 -1.7
10 3.92 -1.7
40.3 15.78 5.31
13.24 5.18 -1.75
17.98 7.04 -1.69
24.22 9.48 -1.36
5.93 2.3 -1.7
40.9 15.85 0.77
6.91 2.68 -1.71
8.16 3.17 -1.7
10.01 3.88 -1.7
39.99 15.5 5.27
13.26 5.14 -1.75
17.98 6.97 -1.69
24.19 9.38 -1.36
5.95 2.28 -1.71
40.61 15.58 0.76
6.9 2.65 -1.71
8.17 3.14 -1.7
10.02 3.84 -1.7
39.67 15.22 5.22
13.26 5.09 -1.74
17.96 6.89 -1.68
24.17 9.27 -1.36
5.95 2.26 -1.71
40.24 15.28 0.75
6.92 2.63 -1.71
8.19 3.11 -1.7
10.02 3.81 -1.7
39.38 14.95 5.17
13.23 5.02 -1.74
17.7 6.72 -1.66
24.15 9.17 -1.35
5.96 2.24 -1.7
39.95 15.01 0.74
6.93 2.6 -1.71
8.17 3.07 -1.7
39.36 14.79 3.68
10.02 3.77 -1.7
39.08 14.68 5.13
13.23 4.97 -1.74
17.73 6.66 -1.66
24.16 9.08 -1.35
5.96 2.21 -1.7
39.65 14.74 0.74
6.93 2.58 -1.71
39.34 14.62 2.2
8.19 3.04 -1.7
39.17 14.56 3.66
10.04 3.73 -1.7
38.78 14.42 5.08
13.22 4.91 -1.73
17.89 6.65 -1.67
24.18 8.99 -1.35
39.78 14.79 -0.74
5.96 2.19 -1.7
39.42 14.49 0.73
6.94 2.55 -1.71
8.2 3.02 -1.7
39.26 14.44 3.66
10.03 3.69 -1.69
38.49 14.16 5.04
13.25 4.87 -1.73
17.88 6.58 -1.67
24.16 8.88 -1.35
39.49 14.52 -0.73
5.97 2.17 -1.7
39.04 14.2 0.73
6.93 2.52 -1.7
8.21 2.99 -1.7
10.03 3.65 -1.69
38.2 13.89 4.99
13.23 4.81 -1.73
38.26 13.92 6.45
17.97 6.54 -1.67
24.15 8.78 -1.35
39.55 14.39 -0.73
5.98 2.15 -1.7
38.72 13.93 0.72
6.95 2.5 -1.7
8.22 2.96 -1.7
10.05 3.61 -1.69
37.92 13.64 4.95
13.24 4.77 -1.73
38.01 13.68 6.4
17.83 6.42 -1.66
24.16 8.69 -1.35
39.68 14.28 -0.74
5.98 2.13 -1.7
38.47 13.69 0.71
6.96 2.48 -1.71
8.22 2.92 -1.7
10.05 3.58 -1.69
37.74 13.43 4.92
13.23 4.71 -1.72
37.73 13.43 6.34
17.91 6.37 -1.66
24.16 8.6 -1.34
5.98 2.1 -1.7
38.16 13.43 0.71
6.96 2.45 -1.7
8.23 2.9 -1.7
10.06 3.54 -1.69
37.56 13.22 4.89
13.25 4.66 -1.72
37.48 13.19 6.29
17.93 6.31 -1.66
24.13 8.49 -1.34
5.98 2.08 -1.7
37.87 13.18 0.7
6.97 2.43 -1.7
8.23 2.87 -1.69
10.05 3.5 -1.68
13.25 4.61 -1.72
37.19 12.94 6.24
17.79 6.19 -1.65
24.12 8.39 -1.34
5.99 2.06 -1.7
37.68 12.97 0.7
6.97 2.4 -1.7
37.54 12.92 2.08
8.25 2.84 -1.7
84.53 29.09 7.82
10.06 3.46 -1.68
13.26 4.56 -1.72
36.97 12.72 6.19
17.78 6.12 -1.64
24.11 8.3 -1.34
6 2.04 -1.7
37.35 12.72 0.69
6.97 2.37 -1.7
37.2 12.66 2.06
8.26 2.81 -1.7
37.66 12.82 3.48
10.05 3.42 -1.68
13.26 4.52 -1.72
36.68 12.49 6.14
17.82 6.07 -1.65
24.1 8.21 -1.33
6.01 2.02 -1.7
37.09 12.48 0.68
6.98 2.35 -1.7
36.93 12.43 2.04
8.25 2.78 -1.69
10.06 3.39 -1.68
13.28 4.47 -1.72
36.44 12.26 6.09
17.65 5.94 -1.63
24.1 8.11 -1.33
6 2 -1.69
36.82 12.25 0.68
6.98 2.32 -1.7
36.65 12.19 2.02
8.25 2.75 -1.69
10.07 3.35 -1.68
13.35 4.44 -1.73
36.19 12.04 6.04
17.56 5.84 -1.62
24.1 8.02 -1.33
36.93 12.29 -0.68
6.01 1.97 -1.69
36.56 12.02 0.67
6.99 2.3 -1.7
36.45 11.99 2.01
8.26 2.72 -1.69
10.07 3.31 -1.68
13.27 4.36 -1.71
36.06 11.86 6.01
17.43 5.73 -1.61
24.1 7.92 -1.33
36.71 12.07 -0.67
6.02 1.95 -1.69
36.41 11.83 0.67
6.99 2.27 -1.7
36.2 11.76 1.99
8.27 2.69 -1.69
10.08 3.27 -1.68
35.57 11.56 4.59
13.28 4.32 -1.71
36.17 11.75 6.02
17.42 5.66 -1.6
24.09 7.83 -1.33
36.48 11.85 -0.67
6.04 1.94 -1.7
36.49 11.72 0.67
7 2.25 -1.7
35.93 11.54 1.98
8.28 2.66 -1.69
35.61 11.43 3.27
10.09 3.24 -1.68
35.39 11.36 4.56
13.3 4.27 -1.71
17.4 5.59 -1.6
24.07 7.73 -1.33
36.54 11.73 -0.67
6.03 1.91 -1.7
36.63 11.62 0.67
7 2.22 -1.7
35.68 11.32 1.96
8.27 2.62 -1.69
35.43 11.24 3.25
10.1 3.2 -1.68
35.4 11.23 4.56
13.31 4.22 -1.71
34.65 10.99 5.76
17.46 5.54 -1.6
24.09 7.64 -1.32
36.64 11.62 -0.67
6.03 1.89 -1.69
7.01 2.2 -1.7
35.45 11.11 1.95
8.27 2.59 -1.69
35.51 11.13 3.26
10.09 3.16 -1.67
13.33 4.18 -1.71
17.41 5.46 -1.6
24.08 7.55 -1.32
6.03 1.87 -1.69
7.02 2.17 -1.7
35.25 10.91 1.93
8.29 2.57 -1.69
35.58 11.02 3.26
10.08 3.12 -1.67
13.34 4.13 -1.71
17.33 5.36 -1.59
24.08 7.45 -1.32
6.04 1.85 -1.69
7.01 2.14 -1.69
35.01 10.7 1.92
8.29 2.53 -1.68
10.09 3.08 -1.67
13.35 4.08 -1.71
17.19 5.26 -1.57
24.07 7.36 -1.32
6.05 1.83 -1.69
7.02 2.12 -1.69
34.75 10.49 1.9
8.3 2.51 -1.69
10.1 3.05 -1.67
34.61 10.45 4.44
13.31 4.02 -1.71
17.25 5.21 -1.58
24.08 7.27 -1.32
6.05 1.8 -1.69
7.03 2.09 -1.69
34.52 10.29 1.89
8.29 2.47 -1.68
10.12 3.02 -1.67
13.32 3.97 -1.71
33.65 10.03 5.56
17.32 5.16 -1.58
24.09 7.18 -1.32
6.05 1.78 -1.69
7.03 2.07 -1.69
34.33 10.1 1.88
8.3 2.44 -1.68
10.12 2.98 -1.67
13.29 3.91 -1.7
17.4 5.12 -1.59
24.1 7.09 -1.32
6.05 1.76 -1.69
35.07 10.19 0.64
7.03 2.04 -1.69
34.12 9.91 1.86
8.3 2.41 -1.68
10.11 2.94 -1.67
13.28 3.86 -1.7
17.32 5.03 -1.58
24.1 7 -1.32
6.06 1.74 -1.69
7.04 2.02 -1.69
17.41 4.99 0.95
8.31 2.39 -1.68
10.11 2.9 -1.67
33.7 9.67 4.31
13.27 3.81 -1.7
17.26 4.95 -1.57
24.11 6.92 -1.31
6.07 1.72 -1.69
33.81 9.57 0.61
7.04 1.99 -1.69
17.39 4.92 0.95
8.3 2.35 -1.68
17.36 4.92 1.58
10.12 2.87 -1.67
13.26 3.76 -1.69
17.25 4.88 -1.57
24.14 6.84 -1.31
33.96 9.62 -0.62
6.08 1.7 -1.69
33.58 9.38 0.61
7.06 1.97 -1.69
8.31 2.32 -1.68
10.12 2.83 -1.66
13.27 3.7 -1.69
17.2 4.8 -1.56
24.18 6.75 -1.32
33.7 9.41 -0.61
6.07 1.67 -1.69
33.4 9.2 0.6
7.07 1.95 -1.69
8.31 2.29 -1.68
10.12 2.79 -1.66
17.44 4.8 2.22
13.26 3.65 -1.69
32.52 8.96 5.34
17.2 4.74 -1.56
24.25 6.68 -1.32
33.49 9.23 -0.61
6.07 1.65 -1.69
33.19 9.02 0.6
7.07 1.92 -1.69
8.32 2.26 -1.68
17.44 4.74 1.58
10.12 2.75 -1.66
17.46 4.75 2.22
13.26 3.6 -1.69
32.46 8.82 5.33
17.24 4.68 -1.56
32.56 8.85 6.56
33.47 9.09 -1.82
33.29 9.05 -0.6
6.07 1.63 -1.68
32.98 8.84 0.6
7.07 1.89 -1.69
17.45 4.68 0.95
8.33 2.23 -1.68
17.48 4.68 1.58
10.13 2.71 -1.66
17.5 4.69 2.22
13.25 3.55 -1.68
32.31 8.66 5.3
17.1 4.58 -1.55
32.29 8.65 6.5
33.18 8.89 -1.8
33.09 8.87 -0.6
6.09 1.61 -1.69
32.8 8.67 0.59
7.06 1.87 -1.69
17.48 4.62 0.95
8.33 2.2 -1.68
17.53 4.64 1.59
10.12 2.68 -1.66
17.55 4.64 2.23
13.25 3.5 -1.68
17.04 4.51 -1.54
32.12 8.49 6.46
33 8.72 -1.79
32.9 8.7 -0.59
6.09 1.59 -1.69
32.59 8.49 0.59
7.08 1.85 -1.69
17.52 4.57 0.95
8.33 2.17 -1.67
17.57 4.58 1.59
10.14 2.64 -1.66
17.57 4.58 2.23
13.23 3.45 -1.68
17.1 4.46 -1.55
31.92 8.32 6.41
32.82 8.56 -1.78
32.65 8.51 -0.59
6.08 1.56 -1.68
32.41 8.33 0.58
7.08 1.82 -1.69
17.57 4.51 0.95
8.33 2.14 -1.67
17.6 4.52 1.59
10.14 2.61 -1.66
17.6 4.52 2.23
13.25 3.4 -1.68
17.07 4.39 -1.54
31.75 8.16 6.37
32.61 8.38 -1.76
32.48 8.35 -0.59
17.69 4.55 4.89
6.09 1.54 -1.68
32.2 8.15 0.58
7.09 1.79 -1.69
17.61 4.46 0.95
8.32 2.11 -1.67
17.63 4.46 1.59
10.14 2.57 -1.66
17.64 4.47 2.23
13.23 3.35 -1.68
31.56 7.99 5.16
17.09 4.33 -1.54
31.6 8 6.34
32.41 8.21 -1.75
17.72 4.49 4.22
32.31 8.18 -0.58
17.68 4.48 4.89
6.1 1.52 -1.68
31.71 7.91 0.57
7.07 1.76 -1.68
17.65 4.4 0.95
8.34 2.08 -1.67
17.66 4.41 1.59
10.13 2.53 -1.65
17.67 4.41 2.24
13.25 3.3 -1.68
17.74 4.43 2.9
17.02 4.25 -1.53
17.7 4.42 3.55
32.23 8.04 -1.74
17.74 4.43 4.22
32.14 8.02 -0.58
6.1 1.5 -1.68
31.84 7.83 0.57
7.08 1.74 -1.68
17.68 4.35 0.95
8.34 2.05 -1.67
17.71 4.35 1.6
10.13 2.49 -1.65
17.7 4.35 2.24
13.24 3.25 -1.67
16.23 3.99 2.65
17.02 4.18 -1.53
31.71 7.79 6.35
31.77 7.81 -1.71
31.9 7.84 -0.57
6.11 1.48 -1.68
17.78 4.31 0.32
7.08 1.72 -1.68
17.72 4.29 0.96
8.32 2.01 -1.66
17.74 4.3 1.6
10.14 2.46 -1.65
17.73 4.29 2.24
13.25 3.21 -1.67
16.18 3.92 2.64
17.04 4.13 -1.53
31.73 7.68 6.35
31.89 7.72 -1.72
17.83 4.32 -0.32
6.1 1.45 -1.68
17.78 4.24 0.32
7.09 1.69 -1.68
17.75 4.23 0.96
8.33 1.99 -1.66
17.76 4.24 1.6
10.15 2.42 -1.65
17.76 4.23 2.24
13.25 3.16 -1.67
31.7 7.56 5.16
17 4.05 -1.53
31.83 7.59 6.36
17.82 4.25 -0.96
15.24 3.63 3.62
17.82 4.25 -0.32
6.11 1.43 -1.68
17.82 4.18 0.32
7.09 1.66 -1.68
17.79 4.18 0.96
8.34 1.96 -1.67
17.81 4.18 1.6
10.12 2.38 -1.65
17.79 4.18 2.24
13.25 3.11 -1.67
31.79 7.46 5.17
17 3.99 -1.53
31.91 7.49 6.37
17.82 4.18 -0.96
17.86 4.19 -0.32
6.1 1.41 -1.68
31.86 7.36 0.57
7.08 1.64 -1.68
17.83 4.12 0.96
8.34 1.93 -1.66
17.84 4.12 1.6
10.11 2.34 -1.64
17.8 4.11 2.24
13.23 3.06 -1.67
31.79 7.34 5.17
16.97 3.92 -1.52
32.18 7.44 6.42
31.86 7.36 -1.71
15.37 3.55 3.64
31.89 7.37 -0.57
6.11 1.39 -1.68
31.95 7.27 0.57
7.08 1.61 -1.68
17.86 4.06 0.96
8.35 1.9 -1.66
17.88 4.07 1.6
10.13 2.3 -1.64
17.84 4.06 2.25
13.2 3 -1.66
16.07 3.65 2.61
16.92 3.85 -1.52
32.06 7.29 6.39
31.93 7.26 -1.72
31.97 7.27 -0.57
6.13 1.37 -1.68
32.05 7.17 0.57
7.1 1.59 -1.68
17.9 4 0.96
8.34 1.87 -1.66
17.91 4.01 1.61
10.13 2.27 -1.64
17.87 4 2.25
13.19 2.95 -1.66
16.99 3.8 -1.52
32.15 7.19 6.4
32.02 7.16 -1.72
32.04 7.17 -0.57
6.11 1.35 -1.68
32.12 7.07 0.57
7.1 1.56 -1.68
17.94 3.95 0.96
8.34 1.83 -1.66
17.93 3.95 1.61
10.13 2.23 -1.64
17.92 3.94 2.25
13.18 2.9 -1.66
16.25 3.57 2.63
16.97 3.73 -1.52
32.23 7.09 6.41
24.32 5.35 -1.31
15.35 3.38 3.63
32.14 7.07 -0.57
16.31 3.59 4.47
6.11 1.32 -1.68
32.18 6.96 0.57
7.1 1.54 -1.68
17.99 3.89 0.96
8.34 1.8 -1.66
17.97 3.89 1.61
10.11 2.19 -1.64
17.94 3.88 2.25
13.16 2.85 -1.65
16.24 3.51 2.63
17.02 3.68 -1.52
32.3 6.99 6.42
24.36 5.27 -1.31
15.38 3.33 3.63
32.22 6.97 -0.58
16.2 3.51 4.44
6.14 1.31 -1.68
32.3 6.87 0.58
7.09 1.51 -1.67
18.03 3.84 0.97
8.35 1.78 -1.66
10.11 2.15 -1.64
13.15 2.8 -1.65
16.26 3.46 2.63
16.98 3.61 -1.52
32.4 6.89 6.44
32.28 6.87 -1.73
32.32 6.88 -0.58
16.15 3.44 4.42
6.14 1.28 -1.68
32.39 6.77 0.58
7.09 1.48 -1.67
18.05 3.78 0.97
8.35 1.75 -1.66
10.13 2.12 -1.64
13.14 2.75 -1.65
16.26 3.4 2.63
16.93 3.54 -1.51
32.51 6.8 6.46
32.35 6.77 -1.73
15.67 3.28 3.7
32.4 6.78 -0.58
15.66 3.27 4.29
6.14 1.26 -1.68
32.48 6.67 0.58
7.1 1.46 -1.67
18.09 3.72 0.97
8.33 1.71 -1.65
10.12 2.08 -1.64
17.98 3.69 2.25
13.13 2.7 -1.65
16.96 3.48 -1.51
15.61 3.21 3.1
32.46 6.67 -1.74
32.47 6.67 -0.58
6.14 1.24 -1.68
32.56 6.57 0.58
7.1 1.43 -1.67
18.13 3.66 0.97
8.35 1.68 -1.66
10.12 2.04 -1.64
16.14 3.26 2.02
13.12 2.65 -1.64
16.28 3.29 2.63
16.95 3.42 -1.51
15.71 3.17 3.12
32.54 6.57 -1.74
32.57 6.57 -0.58
6.14 1.22 -1.68
32.63 6.47 0.58
7.11 1.41 -1.67
18.12 3.59 0.97
8.35 1.66 -1.66
10.12 2.01 -1.63
16.23 3.22 2.03
13.12 2.6 -1.64
32.45 6.44 5.24
16.97 3.37 -1.51
32.75 6.5 6.49
32.61 6.47 -1.74
32.66 6.48 -0.58
16.28 3.23 4.45
6.15 1.2 -1.68
32.72 6.37 0.58
7.09 1.38 -1.67
18.13 3.53 0.97
8.36 1.63 -1.65
10.12 1.97 -1.63
15.44 3.01 1.93
13.1 2.55 -1.64
32.54 6.34 5.25
16.95 3.3 -1.51
15.65 3.05 3.1
32.7 6.37 -1.75
17.11 3.33 4.02
32.75 6.38 -0.58
15.86 3.09 4.33
6.16 1.18 -1.68
32.81 6.27 0.58
7.1 1.36 -1.67
18.15 3.47 0.97
8.36 1.6 -1.65
10.13 1.94 -1.63
15.43 2.95 1.93
13.08 2.5 -1.63
16.42 3.14 2.65
16.91 3.23 -1.51
15.75 3.01 3.12
32.81 6.27 -1.75
16.17 3.09 3.8
32.84 6.28 -0.58
15.73 3.01 4.29
6.17 1.16 -1.68
32.9 6.17 0.58
7.1 1.33 -1.67
8.35 1.57 -1.65
16.18 3.03 1.44
10.14 1.9 -1.63
17.87 3.35 2.23
13.06 2.45 -1.63
32.71 6.13 5.27
16.89 3.17 -1.5
33.04 6.19 6.53
32.88 6.16 -1.75
16.19 3.04 3.8
32.92 6.17 -0.58
16.93 3.17 4.62
6.15 1.13 -1.67
32.99 6.07 0.59
7.1 1.31 -1.67
21.93 4.03 1.17
8.35 1.54 -1.65
10.15 1.87 -1.63
17.85 3.28 2.23
13.06 2.4 -1.63
32.81 6.03 5.28
16.88 3.1 -1.5
33.12 6.09 6.55
32.98 6.07 -1.76
24.04 4.42 5.64
33.01 6.07 -0.59
17.22 3.17 4.69
6.15 1.11 -1.68
22.05 3.97 0.39
7.11 1.28 -1.67
8.35 1.51 -1.65
10.11 1.82 -1.63
17.83 3.21 2.22
13.07 2.36 -1.63
16.79 3.03 2.7
16.93 3.05 -1.51
17.19 3.1 3.4
33.08 5.96 -1.76
24.07 4.34 5.65
22.15 3.99 -0.39
6.16 1.09 -1.68
33.16 5.86 0.59
7.09 1.25 -1.66
22.18 3.92 1.18
8.36 1.48 -1.65
16.58 2.93 1.47
10.12 1.79 -1.63
13.08 2.31 -1.63
16.2 2.86 2.61
16.86 2.98 -1.5
14.78 2.61 2.92
22.12 3.91 -1.18
15.47 2.73 3.63
16.29 2.88 4.43
6.17 1.07 -1.68
33.25 5.76 0.59
7.1 1.23 -1.66
8.36 1.45 -1.65
16.46 2.85 1.46
10.13 1.75 -1.63
15.52 2.69 1.93
13.09 2.27 -1.63
16.1 2.79 2.59
16.94 2.93 -1.5
14.81 2.56 2.92
33.25 5.76 -1.77
16.22 2.81 3.8
16.34 2.83 4.44
6.17 1.05 -1.68
33.34 5.65 0.59
7.11 1.2 -1.66
33.35 5.65 1.77
8.34 1.41 -1.64
10.13 1.72 -1.63
24.24 4.11 3.02
13.13 2.22 -1.63
16.09 2.73 2.58
16.86 2.86 -1.5
14.81 2.51 2.92
33.35 5.65 -1.77
17.14 2.9 4.01
33.36 5.66 -0.59
17.58 2.98 4.78
6.15 1.02 -1.67
33.44 5.55 0.59
7.11 1.18 -1.66
17.4 2.89 0.92
8.35 1.39 -1.65
16.07 2.67 1.43
10.13 1.68 -1.63
17.71 2.94 2.2
13.13 2.18 -1.63
15.78 2.62 2.53
16.89 2.8 -1.5
16.05 2.66 3.16
33.43 5.55 -1.78
16 2.65 3.74
15.65 2.6 4.25
6.16 1 -1.67
33.51 5.44 0.59
7.12 1.15 -1.66
33.56 5.45 1.78
8.35 1.36 -1.65
17.55 2.85 1.56
10.12 1.64 -1.62
24.28 3.94 3.02
13.15 2.13 -1.64
16.28 2.64 2.61
16.88 2.74 -1.5
24.25 3.94 4.78
33.53 5.44 -1.78
16.16 2.62 3.78
16.04 2.6 4.35
6.16 0.98 -1.67
33.6 5.33 0.59
7.09 1.13 -1.66
33.65 5.34 1.79
8.36 1.33 -1.64
24.27 3.85 2.15
10.12 1.61 -1.62
15.54 2.47 1.93
13.14 2.09 -1.63
24.34 3.86 3.9
16.84 2.67 -1.49
16.38 2.6 3.22
33.6 5.33 -1.78
24.26 3.85 5.67
15.63 2.48 4.24
6.17 0.96 -1.67
33.7 5.23 0.6
7.1 1.1 -1.66
24.38 3.78 1.29
8.35 1.3 -1.64
24.31 3.77 2.15
10.11 1.57 -1.62
15.99 2.48 1.99
13.15 2.04 -1.63
15.67 2.43 2.51
16.84 2.61 -1.49
16.59 2.57 3.26
33.69 5.23 -1.79
24.28 3.77 5.67
16.15 2.51 4.38
6.16 0.93 -1.67
33.81 5.12 0.6
7.11 1.08 -1.66
24.35 3.69 1.29
8.35 1.27 -1.64
24.31 3.69 2.15
10.13 1.54 -1.62
16.57 2.51 2.06
13.22 2 -1.64
16.55 2.51 2.65
16.82 2.55 -1.49
24.33 3.69 4.78
33.8 5.12 -1.79
24.32 3.69 5.68
16.37 2.48 4.44
6.15 0.91 -1.67
33.9 5.02 0.6
7.11 1.05 -1.66
24.28 3.59 1.29
8.35 1.24 -1.64
16.8 2.49 1.49
10.13 1.5 -1.62
16.05 2.38 1.99
13.23 1.96 -1.64
24.32 3.6 3.89
16.8 2.49 -1.49
24.33 3.6 4.78
33.88 5.02 -1.79
16.13 2.39 3.76
16.74 2.48 4.54
6.15 0.89 -1.67
17.34 2.5 0.31
7.11 1.03 -1.66
17.24 2.49 0.91
8.35 1.21 -1.64
16.82 2.43 1.49
10.1 1.46 -1.62
17.34 2.51 2.15
13.23 1.91 -1.64
24.32 3.51 3.89
16.88 2.44 -1.49
16.52 2.39 3.24
17.43 2.52 -0.92
24.38 3.52 5.69
17.4 2.51 -0.31
17.49 2.53 4.74
6.17 0.87 -1.67
17.3 2.44 0.3
7.09 1 -1.65
17.19 2.42 0.91
8.37 1.18 -1.64
17.2 2.42 1.52
10.1 1.42 -1.61
16.16 2.28 2
13.24 1.87 -1.64
17.37 2.45 2.78
16.78 2.36 -1.48
16.2 2.28 3.18
17.37 2.45 -0.92
16.89 2.38 3.94
17.37 2.45 -0.31
16 2.25 4.33
6.17 0.85 -1.67
17.32 2.38 0.31
7.1 0.97 -1.65
17.24 2.37 0.91
8.36 1.15 -1.64
17.28 2.37 1.53
10.11 1.39 -1.62
15.84 2.18 1.96
13.18 1.81 -1.63
16.89 2.32 2.7
16.78 2.31 -1.48
17.33 2.38 3.4
17.37 2.39 -0.92
15.52 2.13 3.62
17.38 2.39 -0.31
15.45 2.12 4.18
6.17 0.83 -1.67
34.26 4.58 0.6
7.11 0.95 -1.66
17.34 2.32 0.92
8.34 1.12 -1.64
24.19 3.24 2.13
10.11 1.35 -1.62
24.24 3.24 3
13.2 1.77 -1.64
17.26 2.31 2.76
16.75 2.24 -1.48
24.42 3.27 4.79
17.43 2.33 -0.92
15.71 2.1 3.66
34.29 4.59 -0.6
16.51 2.21 4.46
6.16 0.8 -1.66
34.37 4.48 0.6
7.11 0.93 -1.66
34.4 4.48 1.82
8.34 1.09 -1.64
24.19 3.15 2.13
10.1 1.32 -1.61
24.27 3.16 3.01
13.19 1.72 -1.63
24.4 3.18 3.9
16.7 2.18 -1.47
24.45 3.18 4.79
34.36 4.47 -1.82
15.66 2.04 3.65
34.4 4.48 -0.61
15.02 1.96 4.06
6.16 0.78 -1.66
34.45 4.36 0.61
7.12 0.9 -1.66
34.5 4.37 1.82
8.34 1.06 -1.63
24.24 3.07 2.14
10.09 1.28 -1.61
17.99 2.28 2.23
13.18 1.67 -1.63
15.88 2.01 2.53
16.72 2.12 -1.47
24.47 3.1 4.79
34.46 4.37 -1.82
15.89 2.01 3.7
34.49 4.37 -0.61
15.03 1.9 4.06
6.16 0.76 -1.66
34.55 4.25 0.61
7.11 0.88 -1.65
34.59 4.26 1.83
8.36 1.03 -1.64
17.63 2.17 1.55
10.1 1.24 -1.61
16.41 2.02 2.03
13.16 1.62 -1.63
15.79 1.94 2.52
16.69 2.06 -1.47
17.39 2.14 3.41
34.54 4.25 -1.82
16.47 2.03 3.83
34.6 4.26 -0.61
15.6 1.92 4.21
6.17 0.74 -1.66
34.65 4.14 0.61
7.11 0.85 -1.65
34.67 4.15 1.83
8.34 1 -1.63
17.61 2.11 1.55
10.1 1.21 -1.61
17.73 2.12 2.19
13.15 1.57 -1.63
24.58 2.94 3.92
16.73 2 -1.47
15.3 1.83 3
34.63 4.14 -1.83
18.23 2.18 4.24
34.73 4.15 -0.61
15.65 1.87 4.22
6.17 0.72 -1.67
34.74 4.03 0.61
7.11 0.82 -1.65
34.79 4.04 1.84
8.34 0.97 -1.63
17.54 2.04 1.55
10.1 1.17 -1.61
24.61 2.86 3.04
13.14 1.52 -1.62
24.57 2.85 3.92
16.75 1.94 -1.48
17.61 2.04 3.45
34.75 4.03 -1.83
17.77 2.06 4.13
34.81 4.04 -0.61
15.34 1.78 4.14
6.16 0.69 -1.66
34.86 3.92 0.61
7.11 0.8 -1.65
24.64 2.77 1.3
8.34 0.94 -1.63
18.2 2.05 1.6
10.1 1.14 -1.61
24.59 2.77 3.04
13.14 1.48 -1.62
24.6 2.77 3.92
16.74 1.88 -1.47
15.43 1.74 3.02
34.82 3.92 -1.84
16.09 1.81 3.74
15.1 1.7 4.07
6.16 0.67 -1.66
34.93 3.81 0.61
7.12 0.78 -1.65
24.62 2.68 1.3
8.33 0.91 -1.63
24.63 2.68 2.17
10.08 1.1 -1.61
34.95 3.81 4.32
13.12 1.43 -1.62
34.83 3.8 5.55
16.75 1.83 -1.47
16.74 1.82 3.27
34.94 3.81 -1.84
16.12 1.76 3.74
15.44 1.68 4.16
6.17 0.65 -1.66
24.64 2.6 0.43
7.11 0.75 -1.65
24.65 2.6 1.3
8.35 0.88 -1.63
35.04 3.7 3.08
10.09 1.06 -1.61
16.87 1.78 2.08
13.1 1.38 -1.62
16.32 1.72 2.6
16.7 1.76 -1.47
35.03 3.69 -1.85
16.07 1.69 3.73
24.68 2.6 -0.43
6.17 0.63 -1.66
35.15 3.58 0.62
7.1 0.72 -1.65
35.14 3.58 1.85
8.34 0.85 -1.63
18.22 1.86 1.6
10.08 1.03 -1.61
16.62 1.69 2.05
13.06 1.33 -1.61
16.2 1.65 2.58
16.73 1.71 -1.47
15.06 1.53 2.94
24.67 2.51 -1.3
16.57 1.69 3.85
24.73 2.52 -0.43
17.81 1.82 4.8
6.17 0.61 -1.66
35.25 3.47 0.62
7.12 0.7 -1.65
35.26 3.47 1.86
8.32 0.82 -1.62
18.17 1.79 1.6
10.09 0.99 -1.61
16.48 1.62 2.03
13.06 1.28 -1.61
16.67 1.64 2.65
16.7 1.64 -1.47
15.09 1.48 2.95
35.23 3.47 -1.86
16.56 1.63 3.84
17.69 1.74 4.76
6.16 0.58 -1.66
35.35 3.35 0.62
7.12 0.68 -1.65
35.34 3.35 1.86
8.33 0.79 -1.63
10.08 0.96 -1.6
16.63 1.58 2.05
13.06 1.24 -1.61
16.67 1.58 2.65
16.69 1.58 -1.47
16.38 1.55 3.2
35.33 3.35 -1.86
17.63 1.67 4.75
6.16 0.56 -1.66
35.42 3.24 0.62
7.11 0.65 -1.65
35.47 3.24 1.87
8.32 0.76 -1.62
10.07 0.92 -1.6
13.05 1.19 -1.61
16.68 1.52 -1.47
16.35 1.49 3.19
35.43 3.24 -1.86
15.9 1.45 3.69
17.51 1.6 4.71
6.17 0.54 -1.66
35.54 3.12 0.62
7.09 0.62 -1.64
35.56 3.12 1.87
8.32 0.73 -1.62
10.07 0.88 -1.6
16.83 1.48 2.07
13.04 1.15 -1.61
18.91 1.66 3.01
16.69 1.47 -1.47
16.35 1.44 3.19
35.52 3.12 -1.87
15.86 1.39 3.68
35.6 3.13 -0.62
17.49 1.54 4.7
6.18 0.52 -1.66
35.63 3.01 0.62
7.09 0.6 -1.64
35.65 3.01 1.87
8.32 0.7 -1.62
10.08 0.85 -1.6
17 1.44 2.09
13.03 1.1 -1.61
18.49 1.56 2.94
16.73 1.41 -1.47
16.32 1.38 3.18
35.63 3.01 -1.87
16.81 1.42 3.89
35.67 3.01 -0.62
6.17 0.5 -1.66
35.75 2.9 0.63
7.1 0.57 -1.64
35.76 2.9 1.88
8.3 0.67 -1.62
10.06 0.81 -1.6
16.99 1.38 2.09
13.03 1.06 -1.61
18.42 1.49 2.93
16.7 1.35 -1.47
35.72 2.89 -1.88
16.48 1.33 3.82
35.75 2.9 -0.63
6.16 0.48 -1.65
35.83 2.78 0.63
7.11 0.55 -1.65
35.87 2.78 1.89
8.31 0.64 -1.62
10.04 0.78 -1.6
17.06 1.32 2.1
13.02 1.01 -1.6
35.73 2.77 5.68
16.63 1.29 -1.46
16.39 1.27 3.2
35.85 2.78 -1.88
16.35 1.27 3.79
35.86 2.78 -0.63
6.17 0.46 -1.66
35.93 2.66 0.63
7.1 0.53 -1.64
35.97 2.66 1.89
8.31 0.61 -1.62
10.04 0.74 -1.59
17.15 1.27 2.11
13.02 0.96 -1.6
16.34 1.21 2.59
16.65 1.23 -1.46
35.93 2.66 -1.89
37.98 2.81 8.79
35.97 2.66 -0.63
6.17 0.43 -1.66
36.04 2.54 0.63
7.08 0.5 -1.64
36.07 2.54 1.9
8.3 0.58 -1.62
10.04 0.71 -1.59
17.21 1.21 2.12
13 0.92 -1.6
18.28 1.29 2.9
16.69 1.18 -1.46
36.02 2.54 -1.89
17.64 1.24 4.08
36.08 2.54 -0.63
6.17 0.41 -1.66
36.16 2.42 0.63
7.09 0.47 -1.64
36.17 2.42 1.9
8.3 0.56 -1.62
10.03 0.67 -1.59
17.8 1.19 2.19
12.99 0.87 -1.6
16.77 1.12 2.66
16.69 1.12 -1.46
36.14 2.42 -1.9
17.71 1.19 4.1
36.18 2.42 -0.63
6.17 0.39 -1.66
36.25 2.3 0.63
7.09 0.45 -1.64
36.26 2.3 1.9
8.3 0.53 -1.62
10.03 0.64 -1.59
18.03 1.14 2.22
12.98 0.82 -1.6
16.37 1.04 2.6
16.67 1.06 -1.46
24.19 1.53 -1.27
16.32 1.04 3.78
36.27 2.3 -0.63
6.16 0.37 -1.65
36.36 2.18 0.64
7.1 0.43 -1.64
36.39 2.18 1.91
8.31 0.5 -1.62
37.67 2.26 3.3
10.02 0.6 -1.59
17.86 1.07 2.2
12.97 0.78 -1.6
16.59 0.99 2.63
16.7 1 -1.46
37.45 2.24 7.29
36.34 2.18 -1.91
36.38 2.18 -0.64
6.15 0.35 -1.65
36.44 2.06 0.64
7.1 0.4 -1.64
36.49 2.06 1.92
8.3 0.47 -1.62
10.01 0.57 -1.59
18.05 1.02 2.22
12.96 0.73 -1.59
16.74 0.94 2.66
16.75 0.95 -1.47
37.27 2.1 7.26
36.45 2.06 -1.91
37.19 2.1 8.6
36.49 2.06 -0.64
43.31 2.44 11.62
6.16 0.33 -1.65
36.57 1.94 0.64
7.07 0.37 -1.63
36.58 1.94 1.92
8.29 0.44 -1.61
10.01 0.53 -1.59
18.07 0.96 2.22
12.94 0.69 -1.59
36.59 1.94 5.8
16.68 0.88 -1.46
37.13 1.97 7.23
36.56 1.94 -1.92
37.05 1.96 8.57
36.61 1.94 -0.64
6.16 0.31 -1.65
36.67 1.82 0.64
7.08 0.35 -1.64
36.69 1.82 1.93
8.3 0.41 -1.62
10 0.5 -1.59
16.87 0.84 2.07
12.9 0.64 -1.59
36.71 1.82 5.82
16.71 0.83 -1.46
37 1.84 7.2
36.66 1.82 -1.92
36.89 1.83 8.53
36.7 1.82 -0.64
6.16 0.28 -1.65
36.79 1.7 0.64
7.08 0.33 -1.64
36.8 1.7 1.93
8.3 0.38 -1.61
10 0.46 -1.58
16.79 0.77 2.06
12.9 0.59 -1.59
17.28 0.8 2.74
16.75 0.77 -1.47
36.87 1.7 7.17
36.77 1.7 -1.93
36.85 1.7 8.52
36.8 1.7 -0.64
6.15 0.26 -1.65
36.88 1.57 0.64
7.07 0.3 -1.63
36.91 1.57 1.94
8.28 0.35 -1.61
9.99 0.42 -1.58
16.74 0.71 2.06
12.89 0.55 -1.58
17.3 0.73 2.74
16.74 0.71 -1.47
36.91 1.57 7.18
36.88 1.57 -1.93
36.96 1.57 8.54
36.9 1.57 -0.64
6.15 0.24 -1.65
37 1.44 0.65
7.08 0.28 -1.64
37.01 1.44 1.94
8.28 0.32 -1.61
9.98 0.39 -1.58
12.89 0.5 -1.58
37.03 1.44 5.87
16.72 0.65 -1.46
37.02 1.44 7.2
36.98 1.44 -1.94
37.08 1.44 8.57
37.02 1.44 -0.65
6.15 0.22 -1.65
37.1 1.32 0.65
7.06 0.25 -1.63
37.13 1.32 1.95
8.28 0.29 -1.61
9.98 0.36 -1.58
12.87 0.46 -1.58
37.13 1.32 5.88
16.75 0.6 -1.47
37.12 1.32 7.22
37.1 1.32 -1.95
37.18 1.32 8.59
37.13 1.32 -0.65
6.16 0.2 -1.65
37.22 1.2 0.65
7.07 0.23 -1.63
37.25 1.2 1.95
8.28 0.27 -1.61
9.97 0.32 -1.58
18.29 0.59 2.25
12.85 0.41 -1.58
37.24 1.2 5.9
16.69 0.54 -1.46
37.25 1.2 7.25
37.21 1.2 -1.95
37.29 1.2 8.61
37.25 1.2 -0.65
6.15 0.18 -1.65
37.33 1.06 0.65
7.07 0.2 -1.63
37.34 1.06 1.96
8.25 0.23 -1.61
9.97 0.28 -1.58
18.4 0.52 2.26
12.84 0.37 -1.58
37.35 1.06 5.92
16.71 0.48 -1.46
37.34 1.06 7.26
37.32 1.06 -1.96
37.38 1.06 8.63
37.34 1.06 -0.65
6.15 0.15 -1.65
37.44 0.93 0.65
7.07 0.18 -1.63
37.45 0.94 1.96
8.26 0.21 -1.61
9.96 0.25 -1.58
18.44 0.46 2.27
12.84 0.32 -1.58
37.44 0.93 5.93
16.74 0.42 -1.46
37.48 0.94 7.29
37.42 0.93 -1.96
37.52 0.94 8.66
37.45 0.93 -0.65
6.15 0.13 -1.65
37.53 0.81 0.66
7.07 0.15 -1.63
17.59 0.38 0.92
8.25 0.18 -1.6
9.95 0.21 -1.58
18.4 0.4 2.26
12.83 0.28 -1.58
37.58 0.81 5.95
16.74 0.36 -1.46
37.57 0.81 7.3
37.55 0.81 -1.97
37.62 0.81 8.69
37.58 0.81 -0.66
37.87 0.81 10.15
6.14 0.11 -1.64
37.67 0.68 0.66
7.06 0.13 -1.63
37.67 0.68 1.97
8.26 0.15 -1.61
9.95 0.18 -1.58
18.5 0.34 2.27
12.82 0.23 -1.57
37.69 0.68 5.97
16.76 0.3 -1.47
37.68 0.68 7.33
37.64 0.68 -1.97
37.74 0.69 8.71
37.71 0.68 -0.66
37.58 0.68 10.07
6.16 0.09 -1.65
37.75 0.56 0.66
7.06 0.1 -1.63
37.79 0.56 1.98
8.26 0.12 -1.61
9.95 0.15 -1.58
18.53 0.27 2.28
12.8 0.19 -1.57
37.79 0.56 5.99
16.78 0.25 -1.47
37.81 0.56 7.35
37.78 0.56 -1.98
37.84 0.56 8.74
37.8 0.56 -0.66
37.59 0.56 10.07
6.15 0.07 -1.65
37.88 0.44 0.66
7.06 0.08 -1.63
37.89 0.44 1.99
8.23 0.09 -1.6
9.95 0.11 -1.58
18.56 0.21 2.28
12.79 0.15 -1.57
37.89 0.44 6
16.81 0.19 -1.47
37.93 0.44 7.37
22.49 0.26 -1.18
37.95 0.44 8.76
37.91 0.44 -0.66
6.15 0.05 -1.65
37.98 0.3 0.66
7.05 0.06 -1.63
38.04 0.3 1.99
8.23 0.06 -1.6
38.47 0.3 3.37
9.95 0.08 -1.58
38.31 0.3 4.7
12.78 0.1 -1.57
38 0.3 6.02
16.82 0.13 -1.47
38.03 0.3 7.39
37.98 0.3 -1.99
38.08 0.3 8.79
38.03 0.3 -0.66
6.14 0.03 -1.64
38.11 0.17 0.67
7.06 0.03 -1.63
38.13 0.17 2
8.24 0.04 -1.6
38.36 0.17 3.36
9.92 0.05 -1.57
38.19 0.17 4.69
12.77 0.06 -1.57
38.15 0.17 6.04
16.84 0.08 -1.47
38.13 0.17 7.41
22.53 0.1 -1.18
38.19 0.17 8.82
23.65 0.11 -0.41
38.21 0.17 10.24
6.15 0 -1.65
38.22 0.02 0.67
7.04 0 -1.63
38.27 0.02 2.01
8.22 0 -1.6
17.59 0.01 1.54
9.92 0.01 -1.57
38.21 0.02 4.69
12.76 0.01 -1.57
38.25 0.02 6.06
16.88 0.01 -1.48
38.25 0.02 7.44
22.7 0.01 -1.19
38.31 0.02 8.85
23.61 0.01 -0.41
38.32 0.02 10.27
6.14 -0.02 -1.65
17.62 -0.05 0.31
7.05 -0.02 -1.63
17.55 -0.05 0.92
8.22 -0.02 -1.6
17.55 -0.05 1.54
9.92 -0.03 -1.57
38.33 -0.11 4.71
12.74 -0.04 -1.56
38.36 -0.11 6.08
16.9 -0.05 -1.48
38.37 -0.11 7.46
22.54 -0.06 -1.18
38.41 -0.11 8.87
17.73 -0.05 -0.31
38.45 -0.11 10.3
6.15 -0.04 -1.65
38.48 -0.25 0.67
7.05 -0.05 -1.63
17.56 -0.11 0.92
8.2 -0.05 -1.59
17.4 -0.11 1.52
9.92 -0.06 -1.57
38.71 -0.25 4.75
12.73 -0.08 -1.56
38.47 -0.25 6.09
16.89 -0.11 -1.48
38.48 -0.25 7.48
17.71 -0.11 -0.93
38.54 -0.25 8.9
23.61 -0.15 -0.41
38.56 -0.25 10.33
6.13 -0.06 -1.64
38.58 -0.38 0.67
7.04 -0.07 -1.63
17.45 -0.17 0.91
8.21 -0.08 -1.6
9.9 -0.1 -1.57
38.83 -0.38 4.77
12.72 -0.12 -1.56
38.59 -0.38 6.11
16.88 -0.16 -1.48
38.61 -0.38 7.51
22.63 -0.22 -1.19
38.66 -0.38 8.93
23.52 -0.23 -0.41
38.67 -0.38 10.36
6.13 -0.08 -1.64
38.68 -0.51 0.68
7.04 -0.09 -1.63
38.71 -0.51 2.03
8.2 -0.11 -1.59
9.9 -0.13 -1.57
38.94 -0.52 4.78
12.71 -0.17 -1.56
38.72 -0.51 6.13
16.9 -0.22 -1.48
38.71 -0.51 7.53
22.63 -0.3 -1.19
38.77 -0.51 8.95
23.51 -0.31 -0.41
38.79 -0.51 10.39
6.13 -0.1 -1.64
38.81 -0.64 0.68
7.04 -0.12 -1.63
38.84 -0.64 2.04
8.19 -0.14 -1.59
9.89 -0.16 -1.57
39.05 -0.65 4.8
12.68 -0.21 -1.56
38.84 -0.64 6.15
16.93 -0.28 -1.48
38.85 -0.64 7.55
22.63 -0.38 -1.19
38.89 -0.64 8.98
23.49 -0.39 -0.41
38.92 -0.65 10.43
6.12 -0.12 -1.64
38.92 -0.78 0.68
7.02 -0.14 -1.62
38.96 -0.78 2.04
8.19 -0.16 -1.59
9.89 -0.2 -1.57
39.18 -0.79 4.81
12.6 -0.25 -1.55
38.96 -0.78 6.17
16.98 -0.34 -1.49
38.97 -0.78 7.58
22.6 -0.45 -1.18
39 -0.78 9.01
23.47 -0.47 -0.41
39.03 -0.78 10.46
6.13 -0.14 -1.64
39.05 -0.91 0.68
7.03 -0.16 -1.62
39.06 -0.91 2.05
8.18 -0.19 -1.59
9.87 -0.23 -1.56
39.3 -0.92 4.83
12.59 -0.29 -1.55
39.07 -0.91 6.19
17.01 -0.4 -1.49
39.1 -0.91 7.6
22.63 -0.53 -1.19
39.13 -0.92 9.04
23.43 -0.55 -0.41
39.16 -0.92 10.5
6.13 -0.17 -1.64
39.17 -1.06 0.68
7.03 -0.19 -1.62
39.19 -1.06 2.05
8.16 -0.22 -1.59
9.87 -0.27 -1.56
39.43 -1.07 4.84
11.45 -0.31 -1.41
39.19 -1.06 6.21
17.05 -0.46 -1.49
39.21 -1.06 7.62
22.65 -0.61 -1.19
39.26 -1.06 9.07
23.43 -0.63 -0.41
39.26 -1.06 10.52
6.12 -0.19 -1.64
39.42 -1.2 0.69
7.03 -0.21 -1.62
39.29 -1.19 2.06
8.17 -0.25 -1.59
9.85 -0.3 -1.56
39.57 -1.2 4.86
11.45 -0.35 -1.41
39.32 -1.19 6.23
17.09 -0.52 -1.5
39.3 -1.19 7.64
22.68 -0.69 -1.19
39.38 -1.2 9.09
23.42 -0.71 -0.41
39.4 -1.2 10.56
6.13 -0.21 -1.64
7.02 -0.24 -1.62
39.42 -1.35 2.07
8.18 -0.28 -1.59
9.84 -0.34 -1.56
39.68 -1.36 4.87
11.47 -0.39 -1.41
39.44 -1.35 6.25
17.12 -0.59 -1.5
39.44 -1.35 7.67
22.65 -0.78 -1.19
39.5 -1.35 9.12
23.44 -0.8 -0.41
39.53 -1.35 10.6
6.13 -0.23 -1.64
7.03 -0.26 -1.62
39.55 -1.48 2.07
8.16 -0.31 -1.59
9.83 -0.37 -1.56
39.79 -1.49 4.89
11.46 -0.43 -1.41
39.55 -1.48 6.27
17.17 -0.64 -1.5
39.58 -1.49 7.7
22.67 -0.85 -1.19
39.62 -1.49 9.15
39.64 -1.49 10.63
6.13 -0.25 -1.64
7.02 -0.29 -1.62
39.66 -1.63 2.08
8.15 -0.34 -1.59
9.83 -0.41 -1.56
39.93 -1.65 4.91
11.44 -0.47 -1.41
39.69 -1.64 6.29
17.22 -0.71 -1.51
39.69 -1.64 7.72
22.69 -0.94 -1.19
39.72 -1.64 9.18
39.77 -1.64 10.67
6.11 -0.27 -1.64
39.96 -1.78 0.7
7.02 -0.31 -1.62
39.79 -1.77 2.09
8.15 -0.36 -1.59
40.29 -1.79 3.53
9.82 -0.44 -1.56
40.03 -1.78 4.92
11.4 -0.51 -1.4
39.81 -1.77 6.31
17.26 -0.77 -1.51
39.84 -1.77 7.75
22.69 -1.01 -1.19
39.84 -1.77 9.21
39.9 -1.78 10.7
6.11 -0.29 -1.64
40.07 -1.93 0.7
7.01 -0.34 -1.62
39.91 -1.92 2.09
8.15 -0.39 -1.59
9.8 -0.47 -1.55
40.17 -1.94 4.94
11.35 -0.55 -1.4
39.94 -1.93 6.33
39.94 -1.93 7.77
39.97 -1.93 9.24
23.36 -1.13 -0.41
40.01 -1.93 10.73
6.11 -0.32 -1.64
40.04 -2.06 0.7
7 -0.36 -1.62
40.05 -2.06 2.1
8.15 -0.42 -1.59
9.8 -0.5 -1.55
40.3 -2.08 4.95
11.38 -0.59 -1.4
40.08 -2.07 6.36
40.06 -2.06 7.8
40.1 -2.07 9.27
23.33 -1.2 -0.41
40.15 -2.07 10.77
6.11 -0.34 -1.64
40.18 -2.21 0.7
7 -0.38 -1.62
40.17 -2.21 2.11
8.14 -0.45 -1.59
9.81 -0.54 -1.56
40.43 -2.22 4.97
11.36 -0.63 -1.4
40.2 -2.21 6.38
40.21 -2.21 7.83
40.24 -2.21 9.3
40.2 -2.21 -0.7
40.3 -2.22 10.81
6.11 -0.36 -1.64
40.31 -2.35 0.7
7.01 -0.41 -1.62
40.32 -2.35 2.12
8.13 -0.47 -1.58
9.8 -0.57 -1.55
40.55 -2.37 4.99
11.3 -0.66 -1.39
40.31 -2.35 6.4
40.32 -2.35 7.85
40.37 -2.36 9.34
40.32 -2.35 -0.71
40.42 -2.36 10.85
6.1 -0.38 -1.64
40.42 -2.5 0.71
7 -0.43 -1.62
40.45 -2.5 2.12
8.12 -0.5 -1.58
9.79 -0.61 -1.55
40.74 -2.52 5.01
11.29 -0.7 -1.39
40.45 -2.5 6.42
40.47 -2.5 7.88
40.49 -2.51 9.37
40.49 -2.5 -0.71
40.53 -2.51 10.88
6.09 -0.4 -1.64
6.99 -0.46 -1.62
40.56 -2.65 2.13
8.12 -0.53 -1.58
9.77 -0.64 -1.55
40.81 -2.67 5.02
11.28 -0.74 -1.39
40.6 -2.66 6.44
40.58 -2.66 7.91
40.62 -2.66 9.4
40.6 -2.66 -0.71
40.68 -2.66 10.92
6.1 -0.42 -1.64
6.99 -0.48 -1.62
40.7 -2.81 2.14
8.12 -0.56 -1.58
9.76 -0.67 -1.55
40.95 -2.83 5.04
11.22 -0.78 -1.38
40.71 -2.81 6.46
40.71 -2.81 7.93
40.76 -2.81 9.43
40.82 -2.82 10.96
6.1 -0.44 -1.64
6.98 -0.51 -1.62
40.8 -2.96 2.14
8.11 -0.59 -1.58
9.76 -0.71 -1.55
41.06 -2.98 5.05
11.18 -0.81 -1.38
40.84 -2.97 6.49
15.01 -1.09 -1.32
40.85 -2.97 7.96
40.89 -2.97 9.47
40.93 -2.97 11
6.1 -0.46 -1.64
41.68 -3.17 0.73
6.99 -0.53 -1.62
40.95 -3.12 2.15
8.11 -0.62 -1.58
9.75 -0.74 -1.55
41.22 -3.14 5.08
11.15 -0.85 -1.37
40.98 -3.12 6.51
14.93 -1.14 -1.31
40.98 -3.12 7.99
41.01 -3.12 9.5
24.02 -1.83 -0.42
41.05 -3.12 11.03
6.09 -0.48 -1.64
6.97 -0.56 -1.61
41.08 -3.27 2.16
8.1 -0.65 -1.58
9.75 -0.78 -1.55
41.36 -3.3 5.09
11.12 -0.89 -1.37
41.11 -3.27 6.53
14.8 -1.18 -1.3
41.12 -3.28 8.02
41.15 -3.28 9.53
23.94 -1.91 -0.42
6.09 -0.5 -1.64
6.98 -0.58 -1.62
41.22 -3.42 2.17
8.1 -0.67 -1.58
41.77 -3.46 3.67
9.73 -0.81 -1.55
41.48 -3.44 5.11
11.12 -0.92 -1.37
41.24 -3.42 6.55
41.25 -3.42 8.05
41.3 -3.42 9.57
6.08 -0.53 -1.64
6.97 -0.6 -1.61
41.34 -3.58 2.17
8.09 -0.7 -1.58
41.66 -3.6 3.66
9.72 -0.84 -1.55
41.49 -3.59 5.11
11.09 -0.96 -1.37
41.39 -3.58 6.58
14.59 -1.26 -1.28
41.4 -3.58 8.08
41.44 -3.59 9.6
6.09 -0.55 -1.64
6.96 -0.63 -1.61
41.47 -3.73 2.18
8.09 -0.73 -1.58
41.54 -3.74 3.65
9.72 -0.87 -1.55
41.49 -3.73 5.12
11.07 -1 -1.36
41.53 -3.74 6.6
14.59 -1.31 -1.28
41.54 -3.74 8.11
41.58 -3.74 9.64
6.08 -0.57 -1.64
42.21 -3.95 0.74
6.96 -0.65 -1.61
41.61 -3.89 2.19
8.07 -0.76 -1.58
41.62 -3.89 3.66
9.7 -0.91 -1.54
41.62 -3.89 5.13
11.01 -1.03 -1.36
41.66 -3.9 6.63
41.66 -3.9 8.13
41.76 -3.91 9.68
6.07 -0.59 -1.64
6.96 -0.68 -1.61
41.78 -4.06 2.2
8.07 -0.78 -1.58
41.75 -4.06 3.67
9.7 -0.94 -1.54
11.01 -1.07 -1.36
41.79 -4.06 6.65
41.83 -4.06 8.17
14.62 -1.42 -0.77
41.94 -4.07 9.73
6.07 -0.61 -1.63
6.95 -0.7 -1.61
41.9 -4.22 2.21
8.08 -0.81 -1.58
9.69 -0.98 -1.54
10.95 -1.1 -1.35
41.94 -4.23 6.68
41.93 -4.23 8.19
14.59 -1.47 -0.77
42.12 -4.24 9.77
6.07 -0.63 -1.63
6.94 -0.72 -1.61
42.03 -4.38 2.21
8.07 -0.84 -1.58
9.68 -1.01 -1.54
10.97 -1.14 -1.35
42.08 -4.39 6.7
14.54 -1.52 -1.28
42.08 -4.39 8.22
14.55 -1.52 -0.77
42.29 -4.41 9.82
6.08 -0.66 -1.64
6.95 -0.75 -1.61
42.18 -4.55 2.22
8.06 -0.87 -1.58
9.67 -1.04 -1.54
10.92 -1.18 -1.35
42.22 -4.55 6.73
14.48 -1.56 -1.27
42.21 -4.55 8.25
14.5 -1.56 -0.76
42.38 -4.57 9.84
6.06 -0.67 -1.63
42.96 -4.77 0.75
6.94 -0.77 -1.61
42.32 -4.7 2.23
8.04 -0.89 -1.57
9.67 -1.07 -1.54
42.57 -4.73 5.26
10.89 -1.21 -1.35
42.35 -4.71 6.75
14.48 -1.61 -1.27
42.36 -4.71 8.28
14.51 -1.61 -0.76
42.52 -4.72 9.88
6.06 -0.7 -1.63
42.81 -4.91 0.75
6.94 -0.8 -1.61
42.48 -4.87 2.24
8.04 -0.92 -1.57
9.67 -1.11 -1.54
10.91 -1.25 -1.35
42.49 -4.88 6.77
14.55 -1.67 -1.28
42.51 -4.88 8.32
14.57 -1.67 -0.77
42.66 -4.89 9.91
6.05 -0.72 -1.63
42.68 -5.04 0.75
6.93 -0.82 -1.61
42.62 -5.04 2.25
8.04 -0.95 -1.57
9.66 -1.14 -1.54
10.89 -1.29 -1.35
42.64 -5.04 6.8
42.67 -5.04 8.35
14.57 -1.72 -0.77
42.81 -5.06 9.95
6.04 -0.74 -1.63
42.75 -5.21 0.75
6.92 -0.84 -1.61
42.8 -5.21 2.26
8.04 -0.98 -1.57
9.65 -1.18 -1.54
10.87 -1.32 -1.34
42.79 -5.21 6.83
14.54 -1.77 -1.28
42.83 -5.22 8.39
14.53 -1.77 -0.77
42.95 -5.23 9.99
6.06 -0.76 -1.64
42.91 -5.38 0.75
6.92 -0.87 -1.61
42.92 -5.38 2.27
8.02 -1.01 -1.57
9.63 -1.21 -1.54
10.87 -1.36 -1.35
42.95 -5.39 6.86
14.61 -1.83 -1.29
42.97 -5.39 8.42
43.08 -5.4 10.02
6.04 -0.78 -1.63
43.07 -5.56 0.76
6.92 -0.89 -1.61
43.07 -5.56 2.28
8.01 -1.03 -1.57
9.63 -1.24 -1.54
43.3 -5.59 5.36
10.8 -1.39 -1.34
43.09 -5.56 6.88
14.56 -1.88 -1.28
43.11 -5.56 8.45
43.24 -5.58 10.07
6.02 -0.8 -1.63
6.92 -0.92 -1.61
43.2 -5.72 2.28
8.01 -1.06 -1.57
9.61 -1.27 -1.54
10.81 -1.43 -1.34
43.24 -5.72 6.91
14.55 -1.93 -1.28
43.26 -5.73 8.48
43.4 -5.75 10.11
6.02 -0.82 -1.63
6.9 -0.94 -1.61
43.36 -5.9 2.29
8.01 -1.09 -1.57
9.59 -1.3 -1.53
10.81 -1.47 -1.34
43.39 -5.9 6.94
14.66 -1.99 -1.29
43.39 -5.9 8.51
43.55 -5.92 10.15
6.02 -0.84 -1.63
6.9 -0.96 -1.61
43.51 -6.07 2.3
8.01 -1.12 -1.57
9.58 -1.34 -1.53
10.79 -1.5 -1.34
43.53 -6.07 6.96
14.65 -2.04 -1.29
43.56 -6.08 8.55
43.71 -6.1 10.19
6.04 -0.86 -1.63
6.9 -0.99 -1.61
43.62 -6.24 2.31
8 -1.14 -1.57
9.57 -1.37 -1.53
10.81 -1.55 -1.34
43.69 -6.25 6.99
14.69 -2.1 -1.3
43.72 -6.26 8.59
43.82 -6.27 10.22
43.79 -6.27 11.85
6.03 -0.88 -1.63
6.89 -1.01 -1.61
43.78 -6.42 2.32
7.97 -1.17 -1.57
9.56 -1.4 -1.53
44.06 -6.46 5.47
10.83 -1.59 -1.34
43.84 -6.43 7.02
14.73 -2.16 -1.3
43.88 -6.43 8.62
43.89 -6.43 10.24
43.96 -6.44 11.9
6.01 -0.9 -1.63
6.89 -1.03 -1.61
43.96 -6.6 2.33
7.97 -1.2 -1.57
9.55 -1.43 -1.53
10.78 -1.62 -1.34
44.01 -6.61 7.05
14.8 -2.22 -1.31
44.04 -6.61 8.66
44.06 -6.62 10.29
44.1 -6.62 11.95
6.01 -0.92 -1.63
52.17 -8.02 0.92
6.87 -1.06 -1.61
44.12 -6.78 2.34
7.97 -1.23 -1.57
9.53 -1.47 -1.53
10.68 -1.64 -1.33
44.15 -6.79 7.08
14.77 -2.27 -1.31
44.18 -6.79 8.69
44.22 -6.8 10.33
44.27 -6.81 12
6.01 -0.94 -1.63
6.87 -1.08 -1.61
44.27 -6.96 2.35
7.97 -1.25 -1.57
9.52 -1.5 -1.53
10.67 -1.68 -1.33
44.33 -6.97 7.11
14.83 -2.33 -1.31
44.34 -6.98 8.73
44.38 -6.98 10.37
44.44 -6.99 12.05
6 -0.97 -1.63
6.86 -1.1 -1.6
44.44 -7.15 2.36
7.96 -1.28 -1.57
45.09 -7.25 4
9.52 -1.53 -1.53
44.87 -7.22 5.58
10.63 -1.71 -1.32
44.49 -7.16 7.14
16.39 -2.64 -1.45
44.49 -7.16 8.76
44.52 -7.16 10.41
44.61 -7.18 12.11
6 -0.99 -1.63
51.88 -8.53 0.92
6.86 -1.13 -1.61
44.6 -7.33 2.37
7.94 -1.31 -1.56
44.95 -7.39 3.99
9.51 -1.56 -1.53
44.8 -7.37 5.58
10.69 -1.76 -1.33
44.61 -7.34 7.16
16.35 -2.69 -1.45
44.66 -7.34 8.8
44.71 -7.35 10.46
44.75 -7.36 12.15
5.98 -1 -1.62
10.77 -1.81 0.19
6.86 -1.15 -1.61
10.77 -1.81 0.57
7.94 -1.33 -1.56
10.76 -1.81 0.95
9.5 -1.59 -1.53
10.75 -1.81 1.34
10.75 -1.8 -1.34
10.74 -1.8 1.72
10.81 -1.81 -0.96
44.82 -7.52 8.83
10.8 -1.81 -0.57
44.85 -7.53 10.5
10.78 -1.81 -0.19
44.92 -7.54 12.2
5.99 -1.03 -1.63
10.76 -1.84 0.19
6.85 -1.17 -1.6
10.77 -1.85 0.57
7.95 -1.36 -1.57
10.77 -1.85 0.96
9.48 -1.63 -1.52
10.67 -1.83 -1.33
10.8 -1.85 1.74
10.8 -1.85 -0.96
44.98 -7.71 8.87
10.8 -1.85 -0.57
45.03 -7.72 10.55
10.79 -1.85 -0.19
45.07 -7.73 12.25
5.97 -1.05 -1.62
6.83 -1.2 -1.6
7.94 -1.39 -1.57
9.46 -1.66 -1.52
10.83 -1.9 -1.35
16.23 -2.84 -1.44
45.13 -7.91 8.91
45.19 -7.92 10.59
45.2 -7.92 12.3
5.98 -1.07 -1.63
45.3 -8.1 0.8
6.82 -1.22 -1.6
45.27 -8.1 2.41
7.93 -1.42 -1.57
9.46 -1.69 -1.52
10.83 -1.94 -1.35
10.88 -1.95 1.75
16.19 -2.9 -1.44
45.29 -8.1 8.94
45.35 -8.11 10.64
5.98 -1.09 -1.63
45.43 -8.28 0.81
6.83 -1.24 -1.6
45.45 -8.28 2.42
7.91 -1.44 -1.56
9.45 -1.72 -1.52
10.66 -1.94 -1.33
10.92 -1.99 1.76
16.14 -2.94 -1.43
45.48 -8.29 8.99
45.52 -8.3 10.68
16.13 -2.94 -0.29
5.96 -1.11 -1.62
45.58 -8.47 0.81
6.83 -1.27 -1.6
45.61 -8.48 2.43
7.91 -1.47 -1.56
9.44 -1.76 -1.52
45.84 -8.52 5.73
10.62 -1.97 -1.33
10.96 -2.04 1.77
16.1 -2.99 -1.43
45.65 -8.49 9.03
45.69 -8.49 10.73
16 -2.97 -0.28
5.95 -1.13 -1.62
45.72 -8.66 0.81
6.82 -1.29 -1.6
45.76 -8.67 2.44
7.9 -1.5 -1.56
9.42 -1.79 -1.52
10.59 -2.01 -1.32
11.01 -2.09 1.77
16.07 -3.05 -1.43
45.79 -8.68 9.06
45.87 -8.69 10.78
15.92 -3.02 -0.28
5.96 -1.15 -1.63
50.45 -9.74 0.9
6.8 -1.31 -1.6
45.94 -8.87 2.45
7.9 -1.53 -1.56
9.41 -1.82 -1.52
10.65 -2.06 -1.33
11.06 -2.14 1.78
16.05 -3.1 -1.43
45.99 -8.88 9.11
46.05 -8.89 10.83
15.89 -3.07 -0.28
5.95 -1.17 -1.63
6.8 -1.34 -1.6
46.1 -9.07 2.46
7.89 -1.55 -1.56
9.4 -1.85 -1.52
10.62 -2.09 -1.33
11.11 -2.19 1.79
16.02 -3.15 -1.43
46.18 -9.08 9.15
46.21 -9.09 10.87
15.85 -3.12 -0.28
5.94 -1.19 -1.62
50.19 -10.06 0.89
6.79 -1.36 -1.6
46.25 -9.27 2.47
7.88 -1.58 -1.56
9.4 -1.88 -1.52
46.54 -9.33 5.83
10.58 -2.12 -1.32
11.14 -2.23 1.8
15.99 -3.2 -1.43
46.35 -9.29 9.19
46.39 -9.29 10.92
15.86 -3.18 -0.28
5.93 -1.21 -1.62
49.96 -10.19 0.89
6.79 -1.38 -1.6
46.45 -9.48 2.48
7.87 -1.61 -1.56
9.37 -1.91 -1.51
10.61 -2.17 -1.33
11.19 -2.28 1.81
15.95 -3.25 -1.42
46.52 -9.49 9.23
46.55 -9.5 10.97
15.94 -3.25 -0.28
5.93 -1.23 -1.62
6.78 -1.41 -1.6
46.63 -9.68 2.5
7.87 -1.63 -1.56
9.37 -1.94 -1.52
10.6 -2.2 -1.33
11.24 -2.33 1.82
15.91 -3.3 -1.42
46.68 -9.69 9.27
46.74 -9.71 11.02
5.93 -1.25 -1.62
6.76 -1.43 -1.6
46.79 -9.89 2.51
7.86 -1.66 -1.56
9.35 -1.98 -1.51
10.63 -2.25 -1.33
11.29 -2.39 1.83
15.88 -3.35 -1.42
46.86 -9.9 9.31
46.86 -9.9 11.06
5.92 -1.27 -1.62
49.46 -10.63 0.88
6.77 -1.45 -1.6
46.99 -10.1 2.52
7.85 -1.69 -1.56
9.34 -2.01 -1.51
47.31 -10.17 5.94
10.51 -2.26 -1.32
11.34 -2.44 1.84
15.84 -3.4 -1.42
47.05 -10.11 9.36
5.91 -1.29 -1.62
49.3 -10.78 0.88
6.77 -1.48 -1.6
47.13 -10.3 2.53
7.83 -1.71 -1.56
9.34 -2.04 -1.51
10.5 -2.3 -1.32
11.36 -2.48 1.84
15.79 -3.45 -1.41
47.25 -10.33 9.4
5.89 -1.31 -1.62
49.12 -10.92 0.88
6.76 -1.5 -1.6
47.35 -10.52 2.54
7.83 -1.74 -1.56
9.32 -2.07 -1.51
10.49 -2.33 -1.32
15.73 -3.5 -1.41
47.44 -10.54 9.45
5.89 -1.33 -1.62
48.17 -10.88 0.86
6.76 -1.53 -1.6
47.52 -10.74 2.55
7.83 -1.77 -1.56
9.29 -2.1 -1.51
10.5 -2.37 -1.32
15.7 -3.55 -1.41
47.64 -10.76 9.49
5.88 -1.35 -1.62
48.02 -11.02 0.86
6.74 -1.55 -1.6
47.71 -10.95 2.57
7.82 -1.8 -1.56
48.29 -11.09 4.34
9.27 -2.13 -1.51
48.01 -11.02 6.05
10.49 -2.41 -1.32
47.79 -10.97 7.77
15.64 -3.59 -1.4
47.81 -10.98 9.53
5.88 -1.37 -1.62
47.92 -11.18 0.86
6.73 -1.57 -1.6
47.94 -11.18 2.58
7.81 -1.82 -1.56
48.13 -11.23 4.32
9.25 -2.16 -1.5
47.98 -11.19 6.05
10.48 -2.45 -1.32
47.98 -11.19 7.8
15.6 -3.64 -1.4
48.01 -11.2 9.58
5.87 -1.39 -1.62
48.07 -11.39 0.86
6.73 -1.59 -1.6
48.13 -11.4 2.59
7.79 -1.85 -1.56
48.14 -11.41 4.33
9.23 -2.19 -1.5
48.16 -11.41 6.08
10.48 -2.48 -1.32
48.16 -11.41 7.84
15.54 -3.68 -1.4
48.2 -11.42 9.63
5.87 -1.41 -1.62
48.27 -11.62 0.87
6.72 -1.62 -1.6
48.31 -11.63 2.6
7.79 -1.87 -1.56
48.32 -11.63 4.35
9.2 -2.21 -1.5
48.37 -11.64 6.11
10.46 -2.52 -1.32
15.48 -3.73 -1.39
5.86 -1.43 -1.62
48.45 -11.84 0.87
6.72 -1.64 -1.6
48.48 -11.84 2.62
7.79 -1.9 -1.56
48.55 -11.86 4.37
9.16 -2.24 -1.49
48.59 -11.87 6.14
10.45 -2.55 -1.32
15.44 -3.77 -1.39
5.86 -1.45 -1.62
48.61 -12.06 0.87
6.71 -1.66 -1.6
48.68 -12.07 2.63
7.78 -1.93 -1.56
48.75 -12.09 4.39
9.14 -2.27 -1.49
48.77 -12.1 6.17
10.45 -2.59 -1.32
15.4 -3.82 -1.39
5.86 -1.47 -1.62
48.83 -12.29 0.88
6.7 -1.69 -1.59
48.88 -12.3 2.64
7.78 -1.96 -1.56
48.97 -12.33 4.42
9.12 -2.3 -1.49
48.98 -12.33 6.2
10.47 -2.63 -1.33
13.95 -3.51 -1.26
5.85 -1.49 -1.62
49.05 -12.51 0.88
6.69 -1.71 -1.59
49.07 -12.52 2.65
7.76 -1.98 -1.56
49.17 -12.54 4.44
9.1 -2.32 -1.49
49.2 -12.55 6.23
10.53 -2.68 -1.33
13.73 -3.5 -1.24
16.06 -4.1 -0.87
5.83 -1.51 -1.61
49.25 -12.75 0.89
6.7 -1.73 -1.6
49.29 -12.76 2.67
7.75 -2 -1.56
49.35 -12.77 4.46
9.12 -2.36 -1.49
49.39 -12.78 6.26
10.57 -2.74 -1.34
13.71 -3.55 -1.24
16.06 -4.16 -0.87
5.83 -1.53 -1.62
49.42 -12.98 0.89
6.69 -1.76 -1.6
49.51 -13.01 2.68
7.75 -2.04 -1.56
49.57 -13.02 4.48
9.14 -2.4 -1.5
10.46 -2.75 -1.33
13.69 -3.6 -1.24
16.1 -4.23 -0.87
5.82 -1.55 -1.61
49.66 -13.23 0.9
6.67 -1.78 -1.59
49.7 -13.24 2.7
7.73 -2.06 -1.56
49.78 -13.26 4.51
9.18 -2.44 -1.5
10.42 -2.78 -1.32
13.74 -3.66 -1.24
16.17 -4.31 -0.88
5.82 -1.57 -1.62
49.87 -13.47 0.9
6.66 -1.8 -1.59
49.9 -13.48 2.71
7.73 -2.09 -1.56
49.98 -13.5 4.53
9.17 -2.48 -1.5
10.38 -2.81 -1.32
13.85 -3.74 -1.26
16.13 -4.36 -0.88
5.82 -1.59 -1.62
50.06 -13.71 0.91
6.66 -1.83 -1.6
50.15 -13.74 2.72
7.71 -2.11 -1.55
50.22 -13.76 4.56
9.15 -2.51 -1.5
10.38 -2.84 -1.32
13.85 -3.79 -1.26
16.29 -4.46 -0.89
5.81 -1.61 -1.61
50.31 -13.97 0.91
6.65 -1.85 -1.59
32.74 -9.09 1.78
7.71 -2.14 -1.55
50.44 -14.01 4.58
9.14 -2.54 -1.5
10.45 -2.9 -1.33
13.81 -3.84 -1.25
16.35 -4.54 -0.89
5.8 -1.63 -1.62
50.5 -14.21 0.92
6.65 -1.87 -1.59
50.57 -14.23 2.75
7.7 -2.17 -1.56
50.67 -14.26 4.61
9.13 -2.57 -1.5
10.42 -2.93 -1.33
13.81 -3.89 -1.25
16.38 -4.61 -0.89
5.8 -1.65 -1.62
50.72 -14.47 0.92
6.63 -1.89 -1.59
50.76 -14.48 2.77
7.7 -2.2 -1.56
50.9 -14.52 4.63
9.12 -2.6 -1.5
10.46 -2.98 -1.34
13.82 -3.94 -1.26
50.84 -14.5 -0.92
5.8 -1.68 -1.62
50.96 -14.73 0.93
6.63 -1.92 -1.59
7.7 -2.22 -1.56
51.13 -14.78 4.66
9.1 -2.63 -1.5
10.52 -3.04 -1.35
13.75 -3.97 -1.25
51.04 -14.75 -0.93
5.78 -1.69 -1.61
51.16 -14.98 0.93
6.62 -1.94 -1.59
7.67 -2.25 -1.55
51.28 -15.01 4.67
9.1 -2.66 -1.5
10.54 -3.09 -1.35
13.7 -4.01 -1.25
22 -6.44 -1.2
51.25 -15 -0.93
5.76 -1.71 -1.61
6.62 -1.96 -1.59
7.66 -2.27 -1.55
9.09 -2.7 -1.5
10.52 -3.12 -1.35
13.69 -4.06 -1.25
21.99 -6.52 -1.2
5.77 -1.73 -1.61
6.6 -1.98 -1.59
7.66 -2.3 -1.55
9.07 -2.72 -1.5
10.49 -3.15 -1.34
13.62 -4.09 -1.24
21.98 -6.6 -1.2
5.76 -1.75 -1.61
6.59 -2 -1.59
7.64 -2.32 -1.55
9.07 -2.76 -1.5
10.44 -3.17 -1.34
13.56 -4.12 -1.24
21.99 -6.68 -1.2
5.76 -1.77 -1.62
6.58 -2.03 -1.59
7.64 -2.35 -1.55
9.06 -2.79 -1.5
10.46 -3.22 -1.34
13.57 -4.18 -1.24
22.03 -6.78 -1.21
5.75 -1.79 -1.61
32.84 -10.24 0.6
6.58 -2.05 -1.59
7.62 -2.38 -1.55
31.44 -9.8 2.88
9.05 -2.82 -1.5
10.44 -3.26 -1.34
13.57 -4.23 -1.24
22.11 -6.9 -1.21
5.73 -1.81 -1.61
6.58 -2.08 -1.59
7.63 -2.41 -1.55
31.66 -9.99 2.9
9.04 -2.85 -1.5
10.43 -3.29 -1.34
13.56 -4.28 -1.24
22.2 -7 -1.22
5.73 -1.83 -1.61
6.56 -2.1 -1.59
7.62 -2.43 -1.56
28.34 -9.05 2.6
9.02 -2.88 -1.5
32.46 -10.37 4.18
10.43 -3.33 -1.34
13.55 -4.33 -1.24
22.29 -7.12 -1.23
32.82 -10.48 -0.6
5.73 -1.85 -1.61
6.55 -2.12 -1.59
7.59 -2.45 -1.55
32.66 -10.56 3
9.01 -2.91 -1.5
32.44 -10.49 4.19
10.35 -3.35 -1.34
13.53 -4.37 -1.24
22.37 -7.24 -1.23
5.73 -1.88 -1.62
32.33 -10.58 0.59
6.55 -2.14 -1.59
7.59 -2.48 -1.55
31.58 -10.33 2.91
9.01 -2.95 -1.5
10.38 -3.4 -1.34
13.56 -4.44 -1.25
22.47 -7.35 -1.24
5.72 -1.9 -1.62
32.46 -10.75 0.6
6.55 -2.17 -1.59
32.57 -10.78 1.8
7.55 -2.5 -1.55
9 -2.98 -1.5
10.43 -3.45 -1.35
13.57 -4.49 -1.25
22.57 -7.47 -1.25
5.71 -1.91 -1.61
32.6 -10.92 0.6
6.54 -2.19 -1.59
7.56 -2.53 -1.55
31.44 -10.53 2.9
9 -3.01 -1.5
10.45 -3.5 -1.35
13.46 -4.51 -1.24
22.71 -7.61 -1.26
5.7 -1.93 -1.61
32.34 -10.95 0.6
6.53 -2.21 -1.59
7.55 -2.56 -1.55
8.98 -3.04 -1.5
10.46 -3.54 -1.36
13.36 -4.52 -1.23
5.69 -1.95 -1.61
32.27 -11.05 0.6
6.51 -2.23 -1.59
7.54 -2.58 -1.55
8.97 -3.07 -1.5
10.47 -3.58 -1.36
13.26 -4.54 -1.23
5.69 -1.97 -1.61
6.5 -2.25 -1.59
31.54 -10.93 1.75
7.53 -2.61 -1.55
8.97 -3.11 -1.5
10.48 -3.63 -1.36
13.23 -4.59 -1.22
22.48 -7.79 -1.25
5.68 -1.99 -1.61
6.49 -2.28 -1.59
7.52 -2.64 -1.55
8.96 -3.14 -1.5
10.47 -3.67 -1.36
13.25 -4.65 -1.23
22.41 -7.86 -1.24
5.67 -2.01 -1.61
6.49 -2.3 -1.59
7.51 -2.66 -1.55
30.92 -10.95 2.87
8.95 -3.17 -1.5
10.45 -3.7 -1.36
13.29 -4.71 -1.23
22.37 -7.92 -1.24
5.66 -2.03 -1.61
6.48 -2.32 -1.59
7.5 -2.69 -1.55
32.38 -11.59 3.01
8.93 -3.2 -1.5
10.48 -3.75 -1.37
13.26 -4.75 -1.23
22.27 -7.97 -1.24
5.65 -2.05 -1.61
6.46 -2.34 -1.59
7.5 -2.72 -1.55
8.92 -3.23 -1.5
10.52 -3.81 -1.37
13.23 -4.8 -1.23
22.2 -8.04 -1.24
5.65 -2.07 -1.61
6.45 -2.36 -1.59
7.49 -2.74 -1.55
8.91 -3.26 -1.5
10.57 -3.87 -1.38
13.23 -4.85 -1.23
22.11 -8.1 -1.23
5.64 -2.09 -1.61
6.44 -2.38 -1.59
7.47 -2.77 -1.55
31.82 -11.78 2.97
8.9 -3.3 -1.5
10.63 -3.94 -1.39
13.21 -4.89 -1.23
21.99 -8.14 -1.23
5.62 -2.1 -1.61
6.44 -2.41 -1.59
7.45 -2.79 -1.55
8.89 -3.33 -1.5
10.68 -4 -1.4
13.16 -4.93 -1.23
21.95 -8.22 -1.23
5.62 -2.13 -1.61
6.44 -2.43 -1.59
7.43 -2.81 -1.54
8.87 -3.35 -1.5
10.72 -4.05 -1.41
13.08 -4.94 -1.22
21.96 -8.3 -1.23
5.62 -2.15 -1.61
6.41 -2.45 -1.59
7.41 -2.83 -1.54
8.86 -3.39 -1.5
10.73 -4.1 -1.41
13.08 -5 -1.22
21.88 -8.36 -1.23
5.61 -2.17 -1.61
6.4 -2.47 -1.59
7.42 -2.86 -1.55
8.85 -3.42 -1.5
10.74 -4.15 -1.41
13.02 -5.03 -1.22
21.86 -8.44 -1.23
32.18 -12.42 -0.6
5.61 -2.19 -1.61
6.4 -2.5 -1.59
7.41 -2.89 -1.55
8.84 -3.45 -1.5
10.75 -4.19 -1.42
13.04 -5.09 -1.22
21.83 -8.52 -1.23
32.1 -12.52 -0.6
5.59 -2.2 -1.61
6.39 -2.52 -1.59
7.4 -2.92 -1.55
8.83 -3.48 -1.5
10.77 -4.24 -1.42
13 -5.12 -1.22
21.76 -8.58 -1.23
32.24 -12.71 -0.6
5.58 -2.22 -1.61
6.39 -2.54 -1.59
7.41 -2.95 -1.55
8.8 -3.51 -1.5
10.83 -4.31 -1.43
21.63 -8.61 -1.22
32.38 -12.89 -0.61
5.57 -2.24 -1.61
6.37 -2.56 -1.59
7.4 -2.98 -1.55
8.8 -3.54 -1.5
10.84 -4.36 -1.43
12.97 -5.21 -1.22
21.51 -8.65 -1.22
5.57 -2.26 -1.61
6.36 -2.58 -1.59
7.38 -3 -1.55
8.79 -3.57 -1.5
10.81 -4.39 -1.43
13.92 -5.66 -1.31
21.36 -8.68 -1.21
32.47 -13.19 -0.61
5.56 -2.28 -1.61
6.36 -2.61 -1.59
7.36 -3.02 -1.55
8.77 -3.6 -1.5
10.82 -4.44 -1.44
13.89 -5.7 -1.31
21.27 -8.72 -1.2
32.66 -13.4 -0.62
5.54 -2.3 -1.61
6.34 -2.63 -1.59
7.35 -3.04 -1.55
8.76 -3.63 -1.5
10.8 -4.47 -1.44
12.91 -5.35 -1.22
21.18 -8.77 -1.2
32.8 -13.59 -0.62
5.54 -2.32 -1.61
6.34 -2.65 -1.59
7.35 -3.07 -1.55
8.74 -3.66 -1.5
10.79 -4.51 -1.44
13.84 -5.79 -1.31
21.09 -8.83 -1.2
32.96 -13.79 -0.62
5.53 -2.34 -1.61
6.32 -2.67 -1.58
7.34 -3.1 -1.55
8.73 -3.69 -1.5
10.78 -4.56 -1.44
13.82 -5.84 -1.31
20.99 -8.87 -1.19
33.18 -14.02 -0.63
5.52 -2.36 -1.61
6.32 -2.7 -1.59
7.32 -3.13 -1.55
8.72 -3.72 -1.5
10.75 -4.59 -1.44
13.79 -5.89 -1.31
20.9 -8.92 -1.19
33.33 -14.22 -0.63
5.52 -2.38 -1.61
6.31 -2.72 -1.59
7.31 -3.15 -1.55
8.71 -3.75 -1.5
10.75 -4.63 -1.44
13.77 -5.93 -1.31
20.78 -8.95 -1.19
33.47 -14.42 -0.64
5.5 -2.39 -1.61
6.3 -2.74 -1.59
7.3 -3.17 -1.55
8.7 -3.78 -1.5
10.74 -4.67 -1.44
13.74 -5.97 -1.31
20.73 -9.01 -1.18
5.49 -2.41 -1.61
6.29 -2.76 -1.59
7.31 -3.21 -1.55
8.68 -3.81 -1.5
10.73 -4.71 -1.44
13.72 -6.02 -1.31
20.67 -9.07 -1.18
32.83 -14.41 -0.63
5.49 -2.43 -1.61
6.27 -2.78 -1.58
7.3 -3.24 -1.55
8.67 -3.84 -1.5
10.71 -4.75 -1.44
13.71 -6.08 -1.31
20.58 -9.12 -1.18
32.92 -14.59 -0.63
5.48 -2.45 -1.61
6.26 -2.8 -1.58
7.27 -3.25 -1.55
8.67 -3.88 -1.5
10.7 -4.78 -1.44
12.59 -5.63 -1.21
20.52 -9.18 -1.18
32.84 -14.69 -0.63
5.46 -2.47 -1.61
6.26 -2.82 -1.59
7.25 -3.27 -1.55
8.66 -3.91 -1.5
10.68 -4.82 -1.44
13.67 -6.17 -1.31
20.44 -9.22 -1.18
32.93 -14.86 -0.63
5.44 -2.48 -1.6
6.25 -2.85 -1.59
7.25 -3.3 -1.55
8.65 -3.94 -1.5
10.67 -4.86 -1.44
13.64 -6.21 -1.31
20.36 -9.27 -1.17
33.06 -15.06 -0.63
5.44 -2.5 -1.61
46.09 -21.2 0.89
6.24 -2.87 -1.59
7.24 -3.33 -1.55
8.63 -3.97 -1.5
10.66 -4.9 -1.44
13.61 -6.26 -1.31
20.31 -9.34 -1.17
33.23 -15.28 -0.64
5.44 -2.52 -1.61
46.07 -21.38 0.89
6.22 -2.89 -1.58
7.24 -3.36 -1.55
8.62 -4 -1.5
10.64 -4.94 -1.44
13.6 -6.31 -1.31
20.19 -9.37 -1.17
33.39 -15.5 -0.64
5.43 -2.54 -1.61
45.94 -21.52 0.89
6.21 -2.91 -1.58
7.21 -3.38 -1.55
8.6 -4.03 -1.5
10.61 -4.97 -1.44
13.58 -6.36 -1.31
20.1 -9.42 -1.16
33.5 -15.69 -0.65
5.42 -2.56 -1.61
45.85 -21.67 0.89
6.21 -2.93 -1.59
7.21 -3.41 -1.55
8.59 -4.06 -1.51
10.6 -5.01 -1.44
13.55 -6.41 -1.31
17.96 -8.49 -1.04
33.68 -15.92 -0.65
5.4 -2.58 -1.6
6.2 -2.96 -1.59
7.2 -3.44 -1.55
8.59 -4.1 -1.51
10.59 -5.05 -1.44
13.52 -6.45 -1.31
17.9 -8.54 -1.04
33.8 -16.12 -0.65
5.39 -2.6 -1.6
6.18 -2.98 -1.58
7.2 -3.47 -1.55
8.58 -4.13 -1.51
18.54 -8.92 2.53
10.57 -5.09 -1.44
13.5 -6.5 -1.31
17.92 -8.63 -1.04
33.92 -16.33 -0.66
5.39 -2.62 -1.61
6.17 -2.99 -1.58
7.2 -3.5 -1.56
8.56 -4.16 -1.51
10.56 -5.13 -1.44
13.48 -6.55 -1.31
17.79 -8.64 -1.04
5.38 -2.64 -1.61
6.15 -3.01 -1.58
7.18 -3.52 -1.55
8.53 -4.18 -1.51
10.54 -5.16 -1.44
13.48 -6.6 -1.31
17.67 -8.66 -1.03
5.37 -2.65 -1.61
6.15 -3.04 -1.58
7.17 -3.54 -1.55
8.53 -4.21 -1.51
10.53 -5.2 -1.44
13.47 -6.65 -1.31
17.56 -8.67 -1.03
5.35 -2.67 -1.6
6.15 -3.06 -1.59
7.17 -3.57 -1.56
8.51 -4.24 -1.51
10.51 -5.24 -1.44
