# .PCD v0.7 - Point Cloud Data file format
VERSION 0.7
FIELDS x y z
SIZE 4 4 4
TYPE F F F
COUNT 1 1 1
WIDTH 2913
HEIGHT 1
VIEWPOINT 0 0 0 1 0 0 0
POINTS 2913
DATA ascii
-14.6 26.91 0.53
-4.38 8.08 -1.79
-5.45 10.04 -1.81
-7.7 14.19 -1.98
-13.32 24.56 4.42
-10.33 19.05 -1.9
-13.05 24.05 -1.43
-15.54 28.64 -0.57
-13.8 25.65 1.53
-4.36 8.1 -1.79
-5.41 10.06 -1.81
-7.67 14.26 -1.99
-13.95 25.93 4.66
-10.26 19.07 -1.89
-14.32 26.62 5.88
-12.73 23.66 -1.41
-15.38 28.58 -0.57
-4.32 8.11 -1.79
-5.38 10.08 -1.81
-14.09 26.42 3.68
-7.58 14.21 -1.98
-13.61 25.52 4.58
-10.2 19.11 -1.89
-13.05 24.46 -1.45
-15.26 28.6 -0.57
-4.3 8.12 -1.79
-5.34 10.1 -1.81
-14.05 26.57 3.69
-7.51 14.19 -1.97
-12.92 24.42 4.38
-10.19 19.26 -1.91
-13.07 24.71 -1.47
-15.2 28.73 -0.57
-4.27 8.14 -1.79
-5.3 10.11 -1.81
-13.81 26.33 3.65
-7.41 14.13 -1.96
-13.7 26.12 4.67
-10.13 19.3 -1.91
-13.09 24.95 -1.48
-15.05 28.69 -0.57
-4.24 8.15 -1.79
-5.27 10.13 -1.81
-12.41 23.85 3.3
-7.4 14.22 -1.97
-12.56 24.15 4.31
-10.01 19.24 -1.9
-12.17 23.41 -1.38
-14.96 28.76 -0.57
-4.21 8.17 -1.79
-5.23 10.15 -1.81
-7.35 14.26 -1.97
-12.95 25.12 4.48
-9.95 19.3 -1.9
-12.48 24.21 -1.43
-14.92 28.93 -0.57
-4.18 8.18 -1.78
-5.2 10.17 -1.81
-7.35 14.37 -1.98
-13.43 26.27 4.67
-9.87 19.3 -1.9
-12.4 24.25 -1.43
-14.83 29 -0.57
-4.15 8.19 -1.78
-5.16 10.18 -1.81
-7.3 14.41 -1.98
-12.29 24.25 4.31
-9.78 19.3 -1.89
-12.21 24.09 -1.42
-14.78 29.15 -0.57
-4.12 8.21 -1.79
-5.12 10.19 -1.81
-7.27 14.47 -1.99
-9.79 19.48 -1.91
-10.4 20.69 -1.21
-14.7 29.26 -0.57
-4.1 8.22 -1.79
-5.09 10.21 -1.81
-13.4 26.9 3.69
-7.2 14.45 -1.98
-9.68 19.44 -1.9
-12.7 25.5 -1.49
-10.86 21.8 -0.43
-4.07 8.24 -1.79
-5.05 10.22 -1.81
-13.24 26.81 3.67
-7.15 14.47 -1.98
-9.57 19.38 -1.89
-12.81 25.95 -1.52
-14.51 29.37 -0.57
-4.03 8.24 -1.78
-5.01 10.24 -1.81
-13.16 26.89 3.68
-7.03 14.37 -1.96
-9.45 19.3 -1.88
-12.36 25.24 5.46
-13.11 26.78 -1.56
-14.43 29.47 -0.57
-4.01 8.26 -1.78
-4.98 10.26 -1.81
-6.99 14.39 -1.96
-9.36 19.27 -1.87
-12.07 24.85 5.37
-11.27 23.22 -1.35
-14.35 29.56 -0.57
-3.98 8.27 -1.78
-4.94 10.26 -1.8
-12.96 26.92 3.67
-6.93 14.4 -1.96
-9.35 19.44 -1.89
-11.74 24.39 -1.42
-14.29 29.68 -0.57
-3.95 8.29 -1.79
-4.9 10.28 -1.8
-6.87 14.42 -1.96
-9.23 19.37 -1.88
-11.69 24.54 -1.42
-10.96 22.99 -0.44
-3.92 8.3 -1.78
-4.87 10.31 -1.81
-6.79 14.38 -1.95
-9.19 19.46 -1.88
-11.66 24.69 -1.43
-14.13 29.92 -0.58
-3.89 8.3 -1.78
-4.83 10.32 -1.8
-6.75 14.41 -1.95
-9.13 19.51 -1.88
-11.62 24.82 -1.44
-14.06 30.02 -0.58
-3.86 8.32 -1.78
-4.79 10.33 -1.8
-6.69 14.42 -1.95
-9.07 19.55 -1.89
-11.59 24.98 -1.44
-14.01 30.19 -0.58
-3.83 8.33 -1.78
-4.75 10.34 -1.8
-6.66 14.48 -1.96
-8.94 19.45 -1.87
-11.55 25.12 -1.45
-3.8 8.35 -1.78
-4.72 10.35 -1.8
-6.62 14.52 -1.96
-8.85 19.42 -1.87
-11.43 25.1 -1.45
-3.77 8.36 -1.78
-4.68 10.36 -1.8
-6.57 14.55 -1.96
-8.76 19.4 -1.86
-11.39 25.23 -1.45
-3.74 8.37 -1.78
-4.64 10.39 -1.8
-6.51 14.56 -1.96
-8.66 19.37 -1.86
-11.31 25.29 -1.45
-3.71 8.38 -1.78
-4.6 10.4 -1.8
-6.44 14.53 -1.95
-8.59 19.4 -1.86
-11.23 25.35 -1.45
-3.68 8.39 -1.78
-4.57 10.4 -1.8
-6.39 14.55 -1.95
-8.54 19.47 -1.86
-11.29 25.72 -1.47
-3.66 8.41 -1.78
-4.53 10.42 -1.8
-6.33 14.57 -1.95
-8.48 19.51 -1.86
-11.34 26.08 -1.49
-3.63 8.42 -1.78
-4.49 10.44 -1.8
-6.29 14.61 -1.95
-8.4 19.51 -1.86
-12.54 29.12 -1.66
-3.59 8.42 -1.78
-4.46 10.46 -1.8
-6.23 14.61 -1.95
-8.3 19.47 -1.85
-12.42 29.14 -1.66
-3.56 8.44 -1.78
-4.42 10.46 -1.8
-6.14 14.55 -1.94
-8.26 19.56 -1.86
-11.18 26.48 -1.51
-3.53 8.45 -1.78
-4.38 10.47 -1.8
-6.07 14.53 -1.93
-8.21 19.63 -1.86
-11.16 26.69 -1.52
-3.5 8.47 -1.78
-4.34 10.48 -1.8
-6.01 14.51 -1.93
-8.09 19.54 -1.85
-11.1 26.8 -1.52
-13.33 32.21 -0.61
-3.48 8.47 -1.78
-4.31 10.5 -1.8
-6 14.64 -1.94
-8.04 19.6 -1.85
-11.07 26.99 -1.53
-3.44 8.48 -1.78
-4.27 10.52 -1.8
-5.94 14.64 -1.94
-7.97 19.62 -1.85
-8.97 22.1 -1.25
-3.41 8.49 -1.78
-4.23 10.53 -1.8
-5.86 14.58 -1.93
-7.96 19.81 -1.87
-11.81 29.37 -1.66
-2.85 7.17 -1.78
-3.38 8.5 -1.78
-4.19 10.53 -1.79
-5.81 14.59 -1.93
-7.91 19.87 -1.87
-11.41 28.68 -1.62
-2.82 7.16 -1.78
-3.35 8.51 -1.78
-4.15 10.54 -1.79
-5.76 14.63 -1.93
-7.83 19.87 -1.87
-11.35 28.8 -1.62
-2.8 7.19 -1.78
-3.32 8.52 -1.78
-4.11 10.55 -1.79
-5.71 14.65 -1.93
-7.77 19.93 -1.87
-3.29 8.52 -1.78
-4.08 10.57 -1.79
-5.66 14.66 -1.93
-7.67 19.89 -1.86
-10.77 27.91 -1.57
-3.26 8.54 -1.78
-4.04 10.57 -1.79
-5.61 14.7 -1.93
-7.59 19.88 -1.86
-10.79 28.25 -1.58
-3.23 8.55 -1.78
-4 10.58 -1.79
-5.56 14.72 -1.93
-7.56 20.02 -1.87
-10.95 28.98 -1.62
-3.2 8.57 -1.78
-3.96 10.58 -1.79
-5.51 14.74 -1.93
-7.46 19.95 -1.86
-10.85 29.01 -1.62
-3.17 8.58 -1.78
-3.92 10.6 -1.79
-5.46 14.77 -1.93
-7.38 19.96 -1.86
-10.76 29.1 -1.63
-3.14 8.57 -1.77
-3.88 10.61 -1.79
-5.41 14.79 -1.93
-7.31 19.98 -1.86
-10.64 29.08 -1.62
-3.11 8.57 -1.77
-3.85 10.62 -1.79
-5.36 14.79 -1.93
-7.24 19.99 -1.86
-10.55 29.13 -1.62
-3.08 8.59 -1.77
-3.81 10.63 -1.79
-5.29 14.76 -1.93
-7.14 19.93 -1.85
-10.29 28.73 -1.6
-3.05 8.61 -1.77
-3.77 10.64 -1.79
-5.23 14.77 -1.92
-7.06 19.93 -1.85
-10.18 28.74 -1.6
-3.02 8.62 -1.77
-3.73 10.65 -1.79
-5.17 14.77 -1.92
-7.06 20.15 -1.87
-10.25 29.26 -1.62
-2.99 8.62 -1.77
-3.7 10.67 -1.79
-5.13 14.81 -1.92
-7 20.19 -1.87
-10.15 29.29 -1.62
-2.96 8.62 -1.77
-3.66 10.68 -1.79
-5.07 14.78 -1.92
-6.89 20.1 -1.86
-9.99 29.15 -1.62
-2.93 8.64 -1.77
-3.62 10.68 -1.79
-5.01 14.78 -1.92
-6.84 20.18 -1.86
-9.82 29 -1.6
-2.9 8.65 -1.77
-3.58 10.69 -1.79
-4.92 14.69 -1.9
-6.78 20.24 -1.87
-9.72 29.04 -1.61
-2.86 8.66 -1.77
-3.54 10.71 -1.79
-4.85 14.67 -1.9
-6.7 20.24 -1.87
-9.61 29.03 -1.6
-10.5 31.72 -0.58
-2.83 8.65 -1.77
-3.5 10.72 -1.79
-4.63 14.16 -1.83
-6.63 20.28 -1.87
-8.87 27.12 -1.5
-2.8 8.66 -1.77
-3.47 10.73 -1.79
-4.58 14.17 -1.83
-6.54 20.25 -1.86
-8.78 27.17 -1.5
-2.77 8.67 -1.77
-3.43 10.73 -1.78
-4.56 14.27 -1.84
-6.5 20.35 -1.87
-8.68 27.18 -1.5
-2.74 8.69 -1.77
-3.39 10.74 -1.78
-4.51 14.28 -1.84
-6.44 20.42 -1.87
-9.24 29.29 -1.61
-2.71 8.69 -1.77
-3.35 10.75 -1.78
-4.43 14.21 -1.83
-6.37 20.44 -1.87
-9.06 29.09 -1.6
-2.67 8.68 -1.77
-3.32 10.76 -1.78
-4.38 14.21 -1.83
-6.3 20.46 -1.87
-9.03 29.3 -1.61
-2.64 8.69 -1.77
-3.28 10.77 -1.78
-4.33 14.23 -1.83
-6.23 20.48 -1.87
-6.22 20.45 -1.12
-2.61 8.7 -1.77
-3.24 10.77 -1.78
-4.27 14.23 -1.82
-6.16 20.5 -1.87
-8.88 29.56 -1.62
-2.59 8.72 -1.77
-3.2 10.78 -1.78
-4.24 14.3 -1.83
-6.12 20.62 -1.88
-8.78 29.59 -1.62
-2.55 8.73 -1.77
-3.16 10.8 -1.78
-4.17 14.24 -1.82
-6.06 20.71 -1.89
-8.7 29.73 -1.62
-2.52 8.72 -1.76
-3.12 10.81 -1.78
-4.09 14.15 -1.81
-6 20.77 -1.89
-8.82 30.51 -1.66
-2.49 8.73 -1.76
-3.09 10.82 -1.78
-4.03 14.13 -1.8
-5.92 20.74 -1.89
-8.72 30.57 -1.67
-2.46 8.74 -1.76
-3.04 10.82 -1.78
-4.01 14.26 -1.82
-5.85 20.8 -1.89
-8.58 30.47 -1.66
-2.43 8.75 -1.77
-3.01 10.83 -1.78
-3.96 14.24 -1.82
-5.83 20.99 -1.91
-8.34 30.04 -1.63
-2.4 8.75 -1.76
-2.97 10.84 -1.78
-3.91 14.28 -1.82
-5.78 21.1 -1.91
-6.09 22.24 -1.21
-2.37 8.75 -1.76
-2.93 10.85 -1.78
-3.87 14.33 -1.82
-5.72 21.16 -1.92
-6.05 22.36 -1.21
-2.34 8.76 -1.76
-2.89 10.85 -1.78
-3.83 14.37 -1.83
-5.66 21.24 -1.92
-7.7 28.86 -1.57
-2.31 8.77 -1.76
-2.85 10.85 -1.78
-3.79 14.4 -1.83
-5.6 21.3 -1.93
-7.73 29.39 -1.59
-2.28 8.78 -1.76
-2.82 10.86 -1.78
-3.74 14.42 -1.83
-5.55 21.39 -1.93
-7.63 29.44 -1.59
-2.24 8.78 -1.76
-2.78 10.87 -1.78
-3.68 14.41 -1.83
-5.5 21.52 -1.94
-6.69 26.21 -1.42
-2.21 8.78 -1.76
-2.74 10.89 -1.78
-3.64 14.44 -1.83
-7.85 31.17 -1.68
-2.18 8.79 -1.76
-2.7 10.89 -1.78
-3.56 14.33 -1.81
-5.4 21.75 -1.96
-6.37 25.68 -1.39
-2.15 8.79 -1.76
-2.66 10.89 -1.78
-3.51 14.33 -1.81
-5.32 21.77 -1.96
-7.61 31.1 -1.68
-2.12 8.81 -1.76
-2.62 10.9 -1.77
-3.45 14.33 -1.81
-5.22 21.71 -1.95
-7.46 30.98 -1.67
-3.13 13.02 3.59
-2.09 8.81 -1.76
-2.59 10.91 -1.78
-3.16 13.31 1.68
-3.4 14.36 -1.81
-3.15 13.3 2.17
-5.13 21.65 -1.95
-3.14 13.24 2.64
-7.36 31.05 -1.67
-3.14 13.24 3.14
-3.09 13.02 3.59
-3.11 13.32 0.24
-3.11 13.33 0.72
-2.06 8.81 -1.76
-3.1 13.28 1.19
-2.55 10.91 -1.78
-3.09 13.25 1.67
-3.34 14.32 -1.81
-3.09 13.24 2.15
-5.01 21.48 -1.93
-3.09 13.23 2.64
-7.24 31.02 -1.67
-3.09 13.23 3.14
-3.12 13.35 -0.24
-3.05 13.05 3.59
-3.05 13.29 0.24
-3.05 13.28 0.71
-2.02 8.81 -1.76
-3.05 13.26 1.19
-2.51 10.92 -1.77
-3.05 13.25 1.67
-3.07 13.35 -1.68
-3.04 13.24 2.15
-3.06 13.31 -1.19
-3.04 13.23 2.64
-3.06 13.33 -0.72
-3.05 13.25 3.14
-3.05 13.29 -0.24
-3 13.26 0.24
-3 13.28 0.71
-1.99 8.81 -1.76
-3 13.27 1.19
-2.47 10.92 -1.77
-3 13.28 1.67
-3.02 13.34 -1.68
-3 13.27 2.16
-3.01 13.32 -1.19
-3 13.26 2.64
-3.01 13.31 -0.71
-3 13.29 -0.24
-2.95 13.28 0.24
-2.96 13.3 0.71
-1.96 8.82 -1.76
-2.96 13.31 1.19
-2.43 10.92 -1.77
-2.96 13.31 1.67
-2.97 13.34 -1.68
-2.96 13.31 -1.19
-2.96 13.31 -0.71
-2.96 13.31 -0.24
-2.92 13.34 0.24
-1.62 7.41 -1.75
-2.92 13.35 0.72
-1.93 8.83 -1.76
-2.39 10.93 -1.77
-2.92 13.35 -1.68
-2.93 13.36 -1.2
-2.92 13.34 -0.72
-2.93 13.36 -0.24
-1.59 7.4 -1.75
-2.87 13.33 0.71
-1.9 8.83 -1.76
-2.87 13.33 1.19
-2.36 10.94 -1.77
-2.89 13.4 -1.68
-4.75 22.07 -1.98
-1.57 7.41 -1.75
-2.82 13.33 0.71
-1.87 8.83 -1.75
-2.82 13.31 1.19
-2.32 10.94 -1.77
-3.03 14.32 -1.8
-4.68 22.13 -1.98
-6.54 30.89 -1.65
-1.54 7.41 -1.75
-2.77 13.31 0.71
-1.84 8.84 -1.76
-2.76 13.25 1.18
-2.28 10.94 -1.77
-2.99 14.37 -1.8
-4.61 22.17 -1.98
-6.4 30.77 -1.65
-1.51 7.4 -1.74
-2.71 13.31 0.71
-1.81 8.85 -1.76
-2.23 10.95 -1.77
-2.93 14.39 -1.8
-4.54 22.28 -1.99
-6.28 30.78 -1.65
-1.48 7.41 -1.74
-1.78 8.86 -1.76
-2.66 13.25 1.18
-2.2 10.96 -1.77
-2.88 14.36 -1.8
-4.49 22.39 -2
-6.17 30.8 -1.65
-1.46 7.41 -1.74
-1.75 8.85 -1.75
-2.61 13.23 1.18
-2.16 10.96 -1.77
-2.83 14.37 -1.8
-4.45 22.6 -2.01
-6.08 30.85 -1.65
-1.44 7.42 -1.74
-1.71 8.86 -1.75
-2.57 13.3 1.18
-2.12 10.97 -1.77
-2.79 14.39 -1.8
-4.38 22.61 -2.01
-5.95 30.73 -1.64
-1.41 7.43 -1.75
-1.68 8.86 -1.75
-2.54 13.39 1.19
-2.08 10.95 -1.77
-2.73 14.4 -1.8
-4.25 22.39 -1.99
-5.84 30.77 -1.64
-1.38 7.42 -1.74
-1.65 8.87 -1.75
-2.04 10.97 -1.77
-2.69 14.44 -1.8
-4.2 22.56 -2.01
-5.74 30.83 -1.64
-1.35 7.43 -1.74
-1.62 8.88 -1.75
-2 10.97 -1.77
-2.61 14.34 -1.79
-4.1 22.51 -2
-5.63 30.89 -1.65
-1.33 7.43 -1.74
-1.59 8.88 -1.75
-1.96 10.98 -1.77
-2.56 14.31 -1.78
-4.04 22.61 -2.01
-5.5 30.79 -1.64
-1.3 7.43 -1.74
-1.56 8.88 -1.75
-1.93 10.98 -1.76
-2.5 14.23 -1.77
-3.96 22.58 -2.01
-5.42 30.87 -1.64
-1.28 7.43 -1.74
-1.53 8.89 -1.75
-1.89 10.97 -1.76
-2.44 14.19 -1.77
-3.88 22.59 -2.01
-5.33 30.97 -1.65
-1.25 7.44 -1.74
-1.5 8.9 -1.75
-1.85 10.97 -1.76
-2.39 14.21 -1.77
-3.79 22.54 -2
-5.21 30.97 -1.65
-1.22 7.44 -1.74
-1.47 8.9 -1.75
-1.81 10.98 -1.76
-2.35 14.26 -1.77
-3.71 22.5 -1.99
-5.1 30.98 -1.65
-1.2 7.44 -1.74
-1.43 8.89 -1.75
-1.77 10.99 -1.76
-2.3 14.29 -1.78
-3.6 22.35 -1.98
-4.99 30.97 -1.64
-1.17 7.45 -1.74
-1.4 8.9 -1.75
-1.73 10.99 -1.76
-2.25 14.29 -1.78
-3.53 22.38 -1.98
-4.87 30.88 -1.64
-1.15 7.46 -1.74
-1.37 8.9 -1.75
-1.69 10.98 -1.76
-3.46 22.49 -1.99
-4.73 30.74 -1.63
-1.12 7.45 -1.74
-1.34 8.91 -1.75
-1.65 10.99 -1.76
-2.16 14.34 -1.78
-3.35 22.32 -1.97
-4.62 30.73 -1.63
-1.09 7.45 -1.74
-1.31 8.91 -1.75
-1.61 10.99 -1.76
-2.1 14.33 -1.78
-3.26 22.2 -1.96
-4.5 30.68 -1.63
-1.07 7.46 -1.74
-1.28 8.9 -1.75
-1.58 11 -1.76
-2.06 14.37 -1.78
-3.2 22.3 -1.97
-4.4 30.72 -1.63
-1.04 7.46 -1.74
-1.25 8.91 -1.75
-1.54 11 -1.76
-2.01 14.34 -1.78
-3.11 22.24 -1.97
-4.28 30.59 -1.62
-1.02 7.46 -1.74
-1.22 8.92 -1.75
-1.5 10.99 -1.76
-1.96 14.41 -1.79
-3.04 22.3 -1.97
-4.18 30.65 -1.62
-0.99 7.45 -1.74
-1.18 8.92 -1.75
-1.46 11 -1.76
-1.91 14.39 -1.78
-2.94 22.15 -1.95
-4.07 30.63 -1.62
-0.96 7.46 -1.74
-1.15 8.92 -1.75
-1.42 11 -1.76
-1.85 14.33 -1.77
-2.88 22.26 -1.96
-3.94 30.47 -1.61
-0.94 7.46 -1.74
-1.12 8.92 -1.75
-1.38 11.01 -1.76
-1.8 14.35 -1.78
-2.72 21.68 -1.91
-3.82 30.39 -1.61
-0.91 7.47 -1.74
-1.09 8.92 -1.75
-1.34 11.01 -1.76
-1.75 14.32 -1.77
-2.65 21.65 -1.91
-3.71 30.39 -1.6
-0.89 7.47 -1.74
-1.06 8.93 -1.75
-1.3 11 -1.75
-1.69 14.29 -1.77
-2.63 22.17 -1.95
-3.59 30.32 -1.6
-0.86 7.46 -1.73
-1.03 8.93 -1.75
-1.27 11.01 -1.76
-1.63 14.21 -1.76
-2.56 22.21 -1.96
-3.49 30.32 -1.6
-0.83 7.47 -1.73
-1 8.94 -1.75
-1.23 11.01 -1.76
-1.57 14.1 -1.74
-2.48 22.29 -1.96
-3.38 30.33 -1.6
-0.81 7.47 -1.74
-0.96 8.93 -1.75
-1.19 11.02 -1.76
-1.52 14.05 -1.74
-2.41 22.32 -1.96
-3.27 30.31 -1.6
-0.78 7.48 -1.74
-0.93 8.93 -1.75
-1.15 11.02 -1.75
-1.51 14.46 -1.79
-2.32 22.24 -1.96
-3.16 30.27 -1.59
-0.76 7.48 -1.74
-0.9 8.94 -1.75
-1.11 11.01 -1.75
-1.45 14.37 -1.77
-2.26 22.36 -1.97
-3.05 30.24 -1.59
-0.73 7.47 -1.73
-0.87 8.94 -1.75
-1.07 11.01 -1.75
-1.4 14.4 -1.78
-2.17 22.32 -1.96
-2.94 30.18 -1.59
-0.7 7.48 -1.73
-0.84 8.94 -1.75
-1.03 11.01 -1.75
-1.34 14.3 -1.76
-2.09 22.28 -1.96
-2.83 30.12 -1.59
-0.68 7.48 -1.73
-0.81 8.93 -1.74
-1 11.02 -1.75
-1.3 14.33 -1.77
-1.87 20.66 -1.82
-2.69 29.68 -1.56
-0.65 7.48 -1.73
-0.78 8.93 -1.74
-0.96 11.01 -1.75
-1.27 14.64 -1.8
-2.58 29.58 -1.56
-0.62 7.48 -1.73
-0.75 8.94 -1.74
-0.92 11.01 -1.75
-1.23 14.68 -1.81
-1.75 20.93 -1.84
-2.47 29.59 -1.56
-0.6 7.47 -1.73
-0.5 6.22 -1.21
-0.88 11.02 -1.75
-1.17 14.62 -1.8
-1.71 21.34 -1.87
-2.37 29.65 -1.56
-0.47 6.15 -1.2
-0.84 11.02 -1.75
-1.12 14.67 -1.81
-0.44 6.02 -1.39
-0.44 5.98 -1.16
-0.47 6.4 -1.02
-1.07 14.62 -1.8
-1.55 21.27 -1.87
-2.12 29.04 -1.53
-0.41 5.88 -1.36
-0.41 5.92 -1.15
-0.44 6.29 -1
-1.01 14.63 -1.8
-1.47 21.26 -1.86
-2.01 28.97 -1.52
-0.39 5.85 -1.35
-0.39 5.87 -1.14
-0.41 6.18 -0.98
-0.96 14.62 -1.8
-1.4 21.25 -1.86
-1.9 28.94 -1.52
-0.4 6.44 -1.73
-0.36 5.84 -1.35
-0.36 5.82 -1.13
-0.38 6.12 -0.97
-0.92 14.68 -1.81
-1.32 21.22 -1.86
-1.8 28.83 -1.51
-0.38 6.44 -1.73
-0.34 5.82 -1.35
-0.34 5.79 -1.13
-0.36 6.06 -0.96
-0.87 14.72 -1.81
-1.25 21.17 -1.86
-1.73 29.28 -1.54
-0.36 6.45 -1.73
-0.32 5.8 -1.34
-0.32 5.75 -1.12
-0.33 6 -0.95
-0.81 14.58 -1.79
-1.17 21.07 -1.85
-1.62 29.25 -1.54
-0.33 6.43 -1.73
-0.3 5.78 -1.34
-0.3 5.72 -1.11
-0.31 5.94 -0.94
-0.76 14.6 -1.8
-1.09 21.05 -1.84
-1.52 29.32 -1.54
-0.31 6.44 -1.73
-0.28 5.72 -1.32
-0.27 5.67 -1.1
-0.28 5.87 -0.93
-0.71 14.59 -1.79
-1.01 20.95 -1.84
-1.43 29.46 -1.55
-0.29 6.43 -1.72
-0.25 5.66 -1.31
-0.25 5.64 -1.1
-0.26 5.85 -0.93
-0.66 14.62 -1.8
-0.94 20.85 -1.83
-1.32 29.4 -1.54
-0.23 5.56 -1.29
-0.23 5.61 -1.09
-0.24 5.82 -0.92
-0.6 14.6 -1.79
-0.86 20.81 -1.82
-1.2 29.05 -1.52
-0.21 5.63 -1.51
-0.21 5.54 -1.28
-0.21 5.58 -1.08
-0.22 5.79 -0.92
-0.56 14.69 -1.81
-1.1 29.02 -1.52
-0.19 5.66 -1.52
-0.19 5.54 -1.28
-0.19 5.57 -1.08
-0.2 5.76 -0.91
-0.51 14.72 -1.81
-0.72 20.85 -1.83
-1 28.99 -1.52
-0.18 5.66 -1.52
-0.17 5.51 -1.27
-0.17 5.56 -1.08
-0.18 5.71 -0.91
-0.46 14.71 -1.81
-0.9 29.02 -1.52
-0.15 5.59 -1.5
-0.15 5.49 -1.27
-0.15 5.55 -1.08
-0.16 5.71 -0.9
-0.4 14.68 -1.8
-0.58 21.07 -1.84
-0.79 29 -1.52
-0.13 5.59 -1.5
-0.13 5.54 -1.28
-0.13 5.55 -1.08
-0.14 5.69 -0.9
-0.17 6.93 -0.85
-0.51 21.42 -1.87
-0.7 29 -1.52
-0.11 5.54 -1.49
-0.11 5.58 -1.29
-0.11 5.54 -1.08
-0.12 5.67 -0.9
-0.14 6.8 -0.84
-0.44 21.43 -1.87
-0.59 28.69 -1.5
-0.09 5.57 -1.49
-0.09 5.58 -1.29
-0.09 5.53 -1.08
-0.1 5.64 -0.89
-0.11 6.54 -0.8
-0.37 21.47 -1.88
-0.49 28.62 -1.5
-0.08 5.53 -1.48
-0.08 5.58 -1.29
-0.08 5.52 -1.07
-0.08 5.62 -0.89
-0.09 6.46 -0.79
-0.38 27.75 -1.45
-0.06 5.55 -1.49
-0.06 5.58 -1.29
-0.06 5.53 -1.07
-0.06 5.6 -0.89
-0.07 6.39 -0.78
-0.22 21.53 -1.88
-0.3 28.6 -1.5
-0.04 5.47 -1.47
-0.04 5.53 -1.28
-0.04 5.53 -1.07
-0.04 5.59 -0.89
-0.04 6.32 -0.78
-0.15 21.7 -1.9
-0.19 28.61 -1.5
-0.02 5.5 -1.47
-0.02 5.5 -1.27
-0.02 5.49 -1.07
-0.02 5.58 -0.88
-0.02 6.28 -0.77
-0.07 21.75 -1.9
-0.1 28.53 -1.5
0 5.75 -1.54
0 5.5 -1.27
0 5.52 -1.07
0 5.58 -0.88
0 6.23 -0.77
0 21.75 -1.9
0 28.38 -1.49
0.02 5.8 -1.55
0.02 5.84 -1.35
0.02 5.47 -1.06
0.02 5.56 -0.88
0.02 6.2 -0.76
0.08 21.61 -1.89
0.1 28.58 -1.5
0.04 5.85 -1.57
0.04 5.85 -1.35
0.04 5.49 -1.07
0.04 5.56 -0.88
0.04 6.15 -0.75
0.15 21.5 -1.88
0.2 28.61 -1.5
0.06 5.49 -1.47
0.06 5.55 -1.28
0.06 5.49 -1.07
0.06 5.56 -0.88
0.06 6.12 -0.75
0.23 21.43 -1.88
0.3 28.62 -1.5
0.08 5.48 -1.47
0.08 5.49 -1.27
0.08 5.46 -1.06
0.09 6.09 -0.75
0.3 21.39 -1.87
0.39 27.46 -1.44
0.1 5.45 -1.46
0.1 5.49 -1.27
0.1 5.47 -1.06
0.11 6.07 -0.74
0.38 21.32 -1.87
0.49 27.66 -1.45
0.12 5.46 -1.46
0.12 5.48 -1.27
0.12 5.49 -1.07
0.12 5.59 -0.89
0.13 6.05 -0.74
0.45 21.28 -1.86
0.59 27.76 -1.46
0.13 5.46 -1.46
0.13 5.47 -1.26
0.14 5.49 -1.07
0.14 5.54 -0.88
0.15 6.02 -0.74
0.52 21.19 -1.85
0.69 27.98 -1.47
0.15 5.48 -1.47
0.15 5.47 -1.26
0.15 5.5 -1.07
0.15 5.54 -0.88
0.17 6 -0.74
0.59 21.1 -1.85
0.81 28.87 -1.51
0.17 5.48 -1.47
0.17 5.48 -1.27
0.18 5.78 -1.12
0.17 5.54 -0.88
0.19 5.99 -0.74
0.66 21.03 -1.84
0.91 28.84 -1.51
0.19 5.49 -1.47
0.19 5.46 -1.26
0.2 5.82 -1.13
0.19 5.54 -0.88
0.21 5.99 -0.74
0.73 21.02 -1.84
1.01 28.81 -1.51
0.21 5.56 -1.49
0.21 5.5 -1.27
0.22 5.81 -1.13
0.21 5.53 -0.88
0.23 5.97 -0.73
0.81 21 -1.84
1.11 28.81 -1.51
0.23 5.52 -1.48
0.23 5.5 -1.27
0.24 5.63 -1.1
0.23 5.53 -0.88
0.25 5.91 -0.73
0.88 21.05 -1.84
0.25 5.49 -1.47
0.26 5.64 -1.3
0.25 5.6 -1.09
0.25 5.53 -0.88
0.27 5.91 -0.73
0.95 20.97 -1.84
1.22 26.92 -1.41
0.27 5.48 -1.47
0.27 5.57 -1.29
0.27 5.55 -1.08
0.27 5.53 -0.88
0.29 5.87 -0.72
1.02 20.96 -1.84
1.41 28.74 -1.51
0.29 5.48 -1.47
0.29 5.57 -1.29
0.29 5.53 -1.08
0.31 5.83 -0.72
1.1 21 -1.84
1.46 27.81 -1.46
0.31 5.49 -1.47
0.31 5.49 -1.27
0.31 5.52 -1.07
0.33 5.83 -0.72
1.18 20.95 -1.84
1.42 25.33 -1.33
0.33 5.51 -1.28
0.33 5.51 -1.07
0.33 5.53 -0.88
0.34 5.78 -0.71
1.25 20.98 -1.84
1.63 27.37 -1.44
0.35 5.51 -1.48
0.35 5.56 -1.29
0.35 5.52 -1.07
0.35 5.53 -0.88
0.36 5.77 -0.71
1.35 21.46 -1.88
1.8 28.57 -1.5
0.36 5.49 -1.47
0.37 5.56 -1.29
0.37 5.5 -1.07
0.37 5.53 -0.88
0.38 5.74 -0.71
1.41 21.29 -1.87
0.38 5.47 -1.47
0.38 5.49 -1.27
0.39 5.52 -1.08
0.39 5.53 -0.88
0.4 5.76 -0.71
1.48 21.19 -1.86
2 28.73 -1.51
0.41 5.55 -1.49
0.41 5.56 -1.29
0.41 5.53 -1.08
0.4 5.52 -0.88
0.42 5.71 -0.7
1.55 21.15 -1.86
2.1 28.6 -1.5
0.42 5.48 -1.47
0.43 5.61 -1.3
0.43 5.56 -1.08
0.42 5.52 -0.88
0.44 5.69 -0.7
1.46 19.04 3.02
1.62 21.16 -1.86
2.16 28.19 -1.48
0.44 5.49 -1.48
0.46 5.67 -1.31
0.45 5.6 -1.09
0.46 5.7 -0.7
1.52 18.99 3.02
1.68 20.98 -1.84
2.23 27.78 -1.46
0.46 5.5 -1.48
0.47 5.56 -1.29
0.49 5.81 -1.13
0.47 5.62 -0.89
0.48 5.72 -0.7
1.59 18.99 3.02
0.57 6.78 -0.6
2.19 26.19 -1.38
0.49 5.63 -1.51
0.48 5.52 -1.28
0.51 5.85 -1.14
0.48 5.52 -0.88
0.49 5.66 -0.7
1.66 18.97 3.02
0.58 6.62 -0.58
2.48 28.44 -1.5
0.5 5.52 -1.49
0.5 5.52 -1.28
0.53 5.84 -1.14
0.5 5.52 -0.88
0.52 5.68 -0.7
1.72 18.98 3.02
0.59 6.55 -0.58
2.52 27.74 -1.46
0.52 5.51 -1.48
0.52 5.5 -1.28
0.55 5.84 -1.14
0.53 5.67 -0.7
1.79 18.97 3.02
0.61 6.45 -0.57
2.73 28.9 -1.52
0.54 5.5 -1.48
0.54 5.5 -1.28
0.57 5.83 -1.14
0.55 5.65 -0.7
1.86 18.97 3.02
0.62 6.36 -0.56
2.82 28.79 -1.52
0.56 5.5 -1.48
0.56 5.5 -1.28
0.59 5.8 -1.13
0.58 5.68 -0.7
1.92 18.97 3.02
0.64 6.3 -0.55
2.91 28.67 -1.51
0.58 5.48 -1.48
0.58 5.51 -1.28
0.58 5.48 -1.07
0.58 5.51 -0.88
0.59 5.67 -0.7
1.99 18.97 3.02
0.66 6.25 -0.55
3.02 28.8 -1.52
0.59 5.48 -1.48
0.6 5.51 -1.28
0.59 5.48 -1.07
0.61 5.65 -0.7
2.06 18.99 3.03
0.67 6.22 -0.55
0.62 5.5 -1.48
0.62 5.54 -1.29
0.62 5.49 -1.07
0.63 5.6 -0.89
0.63 5.65 -0.7
2.13 18.99 3.03
0.69 6.15 -0.54
3.01 26.92 -1.42
0.67 5.81 -1.35
0.63 5.49 -1.07
0.64 5.55 -0.89
0.65 5.64 -0.7
2.2 19.01 3.03
0.71 6.12 -0.54
3 26 -1.37
0.75 6.33 -1.71
0.69 5.77 -1.34
0.65 5.48 -1.07
0.66 5.53 -0.88
0.67 5.61 -0.69
0.72 6.05 -0.53
3.09 26.02 -1.37
0.77 6.31 -1.7
0.71 5.76 -1.34
0.67 5.49 -1.08
0.68 5.54 -0.88
0.69 5.62 -0.7
0.74 6.05 -0.53
3.16 25.81 -1.36
0.79 6.3 -1.7
0.7 5.53 -1.29
0.69 5.5 -1.08
0.7 5.56 -0.89
0.71 5.64 -0.7
0.76 6.05 -0.53
3.29 26.08 -1.38
0.72 5.57 -1.5
0.71 5.51 -1.28
0.71 5.5 -1.08
0.72 5.53 -0.88
0.73 5.67 -0.7
3.37 25.97 -1.37
0.73 5.51 -1.28
0.73 5.5 -1.08
0.74 5.55 -0.89
0.76 5.68 -0.7
3.5 26.28 -1.39
0.76 5.55 -1.5
0.76 5.52 -1.29
0.75 5.49 -1.08
0.76 5.54 -0.89
0.77 5.65 -0.7
3.76 27.47 -1.45
0.78 5.55 -1.5
0.77 5.53 -1.29
0.77 5.49 -1.08
0.78 5.53 -0.88
0.8 5.69 -0.7
3.66 26.13 -1.38
0.8 5.56 -1.5
0.8 5.53 -1.29
0.79 5.5 -1.08
0.8 5.54 -0.89
0.82 5.73 -0.71
0.99 6.9 -0.37
0.82 5.56 -1.51
0.81 5.52 -1.29
0.81 5.51 -1.08
0.81 5.53 -0.89
0.85 5.74 -0.71
0.85 5.79 -0.51
0.98 6.68 -0.35
0.84 5.57 -1.51
0.83 5.53 -1.29
0.83 5.51 -1.08
0.83 5.53 -0.89
0.86 5.69 -0.71
0.87 5.74 -0.51
0.99 6.56 -0.35
0.86 5.58 -1.51
0.86 5.54 -1.29
0.85 5.5 -1.08
0.86 5.54 -0.89
0.88 5.67 -0.7
1 6.47 -0.34
0.88 5.57 -1.51
0.87 5.54 -1.29
0.87 5.5 -1.08
0.88 5.54 -0.89
0.9 5.71 -0.71
1.01 6.42 -0.34
0.9 5.58 -1.51
0.9 5.54 -1.3
0.89 5.51 -1.08
0.9 5.54 -0.89
0.92 5.69 -0.71
0.93 5.73 -0.51
1.03 6.35 -0.34
0.92 5.58 -1.51
0.91 5.53 -1.29
0.91 5.51 -1.08
0.91 5.54 -0.89
0.94 5.67 -0.71
0.94 5.7 -0.51
1.04 6.29 -0.33
0.94 5.59 -1.52
0.93 5.54 -1.3
0.93 5.51 -1.09
0.94 5.54 -0.89
0.95 5.65 -0.7
0.96 5.71 -0.51
1.05 6.22 -0.33
0.96 5.59 -1.52
0.96 5.54 -1.3
0.95 5.5 -1.08
0.96 5.54 -0.89
0.98 5.66 -0.7
0.98 5.7 -0.51
1.06 6.17 -0.33
0.98 5.57 -1.52
0.98 5.55 -1.3
0.97 5.51 -1.09
0.97 5.54 -0.89
0.99 5.65 -0.7
1.01 5.77 -0.51
1.09 6.17 -0.33
1 5.59 -1.52
1 5.55 -1.3
0.99 5.52 -1.09
0.99 5.54 -0.89
1.02 5.66 -0.71
1.05 5.83 -0.52
1.1 6.13 -0.33
1.03 5.6 -1.53
1.02 5.54 -1.3
1.01 5.51 -1.09
1.02 5.55 -0.89
1.11 6.08 -0.32
1.04 5.6 -1.53
1.04 5.55 -1.3
1.03 5.51 -1.09
1.03 5.55 -0.89
1.05 5.61 -0.7
1.13 6.07 -0.32
1.07 5.63 -1.53
1.06 5.56 -1.31
1.05 5.51 -1.09
1.05 5.55 -0.89
1.07 5.61 -0.7
1.09 5.71 -0.51
1.08 5.6 -1.53
1.08 5.56 -1.31
1.06 5.5 -1.09
1.07 5.55 -0.89
1.08 5.57 -0.7
1.1 5.69 -0.51
1.12 5.69 -1.55
1.1 5.56 -1.31
1.09 5.52 -1.09
1.09 5.54 -0.89
1.09 5.54 -0.69
1.12 5.69 -0.51
1.19 5.91 -1.62
1.12 5.56 -1.31
1.11 5.52 -1.09
1.11 5.54 -0.9
1.11 5.52 -0.69
1.15 5.7 -0.51
1.18 5.87 -0.31
1.26 6.16 -1.68
1.14 5.57 -1.31
1.13 5.53 -1.1
1.14 5.55 -0.9
1.12 5.48 -0.69
1.17 5.73 -0.51
1.19 5.82 -0.31
5.37 26.26 -0.47
1.29 6.2 -1.7
1.16 5.57 -1.31
1.15 5.51 -1.09
1.15 5.55 -0.9
1.14 5.5 -0.69
1.21 5.83 -0.31
1.31 6.19 -1.7
1.18 5.56 -1.31
1.17 5.52 -1.1
1.18 5.56 -0.9
1.18 5.55 -0.7
1.24 5.87 -0.31
5.49 25.89 -0.46
1.33 6.19 -1.7
1.2 5.57 -1.32
1.19 5.53 -1.1
1.2 5.55 -0.9
1.2 5.58 -0.7
1.51 7 -0.63
5.64 26.18 -0.47
1.36 6.19 -1.7
1.22 5.57 -1.32
1.21 5.54 -1.1
1.22 5.55 -0.9
1.22 5.57 -0.7
1.53 6.96 -0.62
1.28 5.83 -0.31
5.75 26.22 -0.47
1.38 6.19 -1.7
1.24 5.56 -1.31
1.23 5.53 -1.1
1.24 5.56 -0.9
1.23 5.52 -0.69
1.55 6.94 -0.62
1.29 5.77 -0.31
1.4 6.18 -1.7
1.26 5.57 -1.32
1.25 5.54 -1.1
1.26 5.56 -0.9
1.28 5.64 -0.71
1.57 6.93 -0.62
1.31 5.77 -0.31
1.42 6.16 -1.69
1.28 5.58 -1.32
1.27 5.54 -1.11
1.28 5.58 -0.91
1.3 5.65 -0.71
1.58 6.86 -0.62
1.33 5.78 -0.31
1.44 6.16 -1.7
1.31 5.59 -1.32
1.3 5.54 -1.11
1.3 5.55 -0.9
1.32 5.66 -0.71
1.58 6.73 -0.6
1.35 5.79 -0.31
1.46 6.16 -1.7
1.32 5.57 -1.32
1.32 5.55 -1.11
1.32 5.57 -0.91
1.35 5.69 -0.72
1.58 6.67 -0.6
1.39 5.84 -0.31
1.49 6.16 -1.7
1.35 5.57 -1.32
1.34 5.56 -1.11
1.35 5.58 -0.91
1.37 5.68 -0.72
1.62 6.7 -0.6
1.51 6.15 -1.7
1.36 5.57 -1.32
1.36 5.54 -1.11
1.37 5.58 -0.91
1.39 5.69 -0.72
1.51 6.18 -0.56
1.52 6.13 -1.69
1.39 5.59 -1.33
1.38 5.54 -1.11
1.39 5.58 -0.91
1.42 5.71 -0.72
1.5 6.03 -0.54
1.52 6.1 -0.33
1.64 6.61 -0.12
1.54 6.12 -1.69
1.41 5.58 -1.33
1.4 5.55 -1.11
1.41 5.59 -0.91
1.44 5.71 -0.72
1.52 6.02 -0.54
1.53 6.08 -0.33
1.66 6.57 -0.12
1.57 6.12 -1.69
1.43 5.58 -1.33
1.42 5.56 -1.11
1.43 5.59 -0.91
1.46 5.68 -0.72
1.54 6.02 -0.54
1.55 6.07 -0.33
1.67 6.53 -0.12
1.59 6.12 -1.69
1.45 5.58 -1.33
1.44 5.56 -1.12
1.45 5.6 -0.92
1.48 5.69 -0.72
1.57 6.03 -0.54
1.57 6.05 -0.33
1.69 6.5 -0.12
1.61 6.12 -1.7
1.48 5.6 -1.34
1.46 5.56 -1.12
1.47 5.59 -0.92
1.5 5.69 -0.72
1.59 6.02 -0.55
1.59 6.04 -0.33
1.7 6.43 -0.12
1.63 6.09 -1.69
1.49 5.59 -1.34
1.49 5.56 -1.12
1.49 5.59 -0.92
1.52 5.67 -0.72
1.61 6.02 -0.54
1.62 6.06 -0.33
1.71 6.38 -0.12
1.65 6.09 -1.69
1.52 5.61 -1.34
1.51 5.57 -1.12
1.51 5.58 -0.92
1.54 5.7 -0.72
1.63 6.02 -0.55
1.65 6.08 -0.33
1.72 6.36 -0.12
1.67 6.09 -1.69
1.54 5.6 -1.34
1.53 5.58 -1.12
1.53 5.58 -0.92
1.57 5.71 -0.73
1.66 6.03 -0.55
1.74 6.34 -0.11
1.7 6.09 -1.69
1.56 5.59 -1.34
1.55 5.57 -1.12
1.56 5.59 -0.92
1.58 5.68 -0.72
1.69 6.06 -0.55
1.76 6.31 -0.11
1.72 6.08 -1.69
1.58 5.6 -1.34
1.57 5.57 -1.13
1.58 5.6 -0.92
1.61 5.69 -0.73
1.77 6.27 -0.11
1.73 6.06 -1.69
1.61 5.61 -1.35
1.59 5.57 -1.13
1.6 5.6 -0.92
1.63 5.68 -0.73
1.77 6.18 -0.56
6.83 23.86 5.73
1.79 6.26 -0.11
1.76 6.05 -1.69
1.63 5.6 -1.35
1.61 5.56 -1.12
1.62 5.58 -0.92
1.66 5.73 -0.73
6.9 23.8 3.92
1.77 6.1 -0.56
1.81 6.23 -0.11
1.78 6.05 -1.69
1.64 5.6 -1.35
1.64 5.57 -1.13
1.64 5.6 -0.92
1.67 5.68 -0.73
1.83 6.22 -0.11
1.8 6.04 -1.69
1.67 5.6 -1.35
1.66 5.57 -1.13
1.67 5.59 -0.92
1.72 5.78 -0.74
1.8 6.03 -0.55
1.84 6.19 -0.11
1.82 6.04 -1.69
1.69 5.61 -1.35
1.67 5.56 -1.13
1.69 5.6 -0.93
1.72 5.71 -0.73
1.82 6.03 -0.55
7.18 23.85 5.75
1.86 6.17 -0.11
1.84 6.02 -1.69
1.71 5.61 -1.36
1.7 5.56 -1.13
1.71 5.6 -0.93
1.75 5.73 -0.74
1.88 6.16 -0.11
1.86 6.01 -1.69
1.73 5.61 -1.36
1.72 5.57 -1.13
1.73 5.59 -0.93
1.76 5.71 -0.73
7.38 23.9 4.86
7.34 23.76 5.74
1.9 6.16 -0.11
1.88 6.01 -1.69
1.75 5.6 -1.35
1.74 5.57 -1.14
1.75 5.58 -0.93
1.8 5.76 -0.74
1.8 5.74 -0.53
7.47 23.88 4.86
8 25.57 6.19
1.92 6.14 -0.11
1.9 6 -1.69
1.78 5.61 -1.36
1.76 5.58 -1.14
1.79 5.65 -0.94
1.82 5.75 -0.74
1.84 5.81 -0.53
1.86 5.87 -0.32
7.5 23.73 5.74
1.94 6.12 -0.11
7.25 22.92 6.44
1.92 6.01 -1.69
1.8 5.61 -1.36
1.79 5.58 -1.14
1.8 5.61 -0.93
8.71 27.2 3.51
1.81 5.66 -0.73
1.86 5.81 -0.53
7.65 23.88 4.87
1.86 5.81 -0.32
7.6 23.74 5.75
1.95 6.1 -0.11
7.31 22.82 6.42
1.94 5.98 -1.68
1.82 5.62 -1.36
1.81 5.58 -1.14
1.81 5.6 -0.93
8.73 26.95 3.48
1.85 5.71 -0.74
1.88 5.8 -0.53
1.89 5.85 -0.32
1.98 6.1 -0.11
7.42 22.92 6.46
1.96 5.98 -1.69
1.84 5.62 -1.37
1.83 5.59 -1.14
1.83 5.59 -0.93
8.74 26.66 3.44
1.87 5.72 -0.74
1.89 5.76 -0.53
7.89 24.08 4.93
1.91 5.82 -0.32
2 6.1 -0.11
1.98 5.97 -1.69
1.86 5.61 -1.37
1.85 5.59 -1.14
1.86 5.6 -0.93
8.8 26.53 3.43
1.89 5.7 -0.74
1.92 5.79 -0.53
1.93 5.82 -0.32
8.02 24.19 5.88
2.02 6.08 -0.11
2.01 5.98 -1.69
1.88 5.62 -1.37
1.88 5.61 -1.15
1.88 5.61 -0.94
8.85 26.39 3.42
1.92 5.72 -0.74
1.94 5.78 -0.53
1.95 5.81 -0.32
2.04 6.08 -0.11
2.02 5.97 -1.69
1.91 5.63 -1.37
1.9 5.59 -1.15
1.9 5.61 -0.94
1.94 5.71 -0.74
1.96 5.77 -0.53
1.97 5.81 -0.32
2.06 6.07 -0.11
2.04 5.95 -1.69
1.94 5.64 -1.38
1.92 5.6 -1.15
1.93 5.62 -0.94
1.96 5.71 -0.74
8.75 25.47 5.24
8.15 23.74 5.8
2.08 6.05 -0.11
2.06 5.94 -1.68
1.96 5.63 -1.38
1.95 5.61 -1.16
1.95 5.62 -0.94
9.36 26.96 3.5
1.98 5.7 -0.74
2.41 6.93 -0.64
8.19 23.58 4.85
2.1 6.06 -0.11
8.22 23.67 6.71
2.08 5.93 -1.68
1.98 5.63 -1.38
1.97 5.61 -1.16
1.97 5.6 -0.94
9.39 26.73 3.48
2 5.69 -0.74
2.43 6.91 -0.64
8.88 25.28 5.21
9.17 26.09 6.38
2.13 6.06 -0.11
2.1 5.93 -1.69
2 5.63 -1.38
1.99 5.61 -1.16
1.99 5.61 -0.94
2.02 5.69 -0.74
2.44 6.86 -0.64
7.43 20.91 5.12
2.15 6.04 -0.11
8.32 23.43 6.66
2.13 5.92 -1.68
2.03 5.65 -1.39
2.01 5.61 -1.16
2.01 5.61 -0.94
7.95 22.14 2.89
2.04 5.68 -0.74
2.36 6.58 -0.61
9.32 25.95 6.37
2.16 6.02 -0.11
8.67 24.13 6.87
2.14 5.9 -1.68
2.05 5.66 -1.39
2.04 5.62 -1.16
7.72 21.28 1.98
2.04 5.62 -0.95
8 22.06 2.88
2.07 5.7 -0.74
2.36 6.51 -0.61
9.41 25.93 6.37
2.19 6.04 -0.11
2.16 5.89 -1.68
2.07 5.66 -1.39
2.05 5.6 -1.16
7.75 21.13 1.97
2.06 5.61 -0.95
2.08 5.68 -0.74
2.38 6.48 -0.6
7.55 20.6 4.26
2.21 6.01 -0.11
2.18 5.89 -1.68
2.09 5.64 -1.39
2.08 5.62 -1.16
13.8 37.23 3.47
2.08 5.61 -0.95
2.1 5.68 -0.74
2.37 6.4 -0.6
7.67 20.68 4.29
2.42 6.52 -0.36
10.35 27.92 6.87
2.24 6.04 -0.11
10 26.98 7.71
2.2 5.88 -1.68
2.12 5.66 -1.39
2.1 5.62 -1.17
13.98 37.32 3.49
2.11 5.63 -0.95
8.11 21.64 2.84
2.12 5.67 -0.74
2.38 6.36 -0.59
7.74 20.65 4.29
2.44 6.5 -0.36
8.8 23.5 5.79
2.27 6.06 -0.11
2.22 5.87 -1.68
2.15 5.67 -1.4
2.12 5.6 -1.16
2.13 5.62 -0.95
8.2 21.67 2.84
2.15 5.67 -0.74
2.4 6.34 -0.59
2.45 6.49 -0.36
7.69 20.32 5.02
2.28 6.04 -0.11
10.23 27.04 7.75
2.24 5.85 -1.68
2.2 5.76 -1.42
2.15 5.61 -1.17
2.15 5.61 -0.95
8.59 22.47 2.95
2.18 5.7 -0.75
9.8 25.63 4.35
2.32 6.07 -0.57
2.48 6.48 -0.36
7.72 20.18 4.99
2.3 6.02 -0.11
2.26 5.85 -1.68
2.22 5.75 -1.42
2.17 5.61 -1.17
2.16 5.6 -0.95
8.13 21.04 2.77
2.2 5.68 -0.75
8.41 21.74 3.69
2.33 6.02 -0.56
9.3 24.04 5.01
2.5 6.47 -0.36
2.33 6.03 -0.11
9.1 23.55 6.76
2.28 5.84 -1.68
2.23 5.7 -1.41
2.2 5.63 -1.18
2.19 5.61 -0.95
8.11 20.77 2.74
2.22 5.69 -0.75
8.41 21.53 3.66
2.35 6.01 -0.56
7.94 20.32 4.24
2.52 6.46 -0.36
10.29 26.34 6.53
2.36 6.04 -0.11
14.57 37.3 10.73
2.3 5.84 -1.68
14.12 35.79 0.67
2.25 5.7 -1.41
2.22 5.63 -1.18
2.22 5.62 -0.96
8.81 22.32 2.95
2.25 5.71 -0.75
2.36 5.99 -0.56
7.93 20.11 4.2
2.55 6.47 -0.36
10.89 27.61 6.85
2.39 6.05 -0.11
8.92 22.6 6.51
2.32 5.83 -1.68
14.26 35.77 0.67
2.26 5.67 -1.41
2.24 5.63 -1.18
2.24 5.63 -0.96
14.43 36.21 4.79
2.27 5.7 -0.75
8.75 21.96 3.74
2.39 5.99 -0.56
7.99 20.06 4.2
14.89 37.35 9.28
2.41 6.05 -0.11
7.99 20.04 5.78
2.34 5.81 -1.68
14.42 35.81 0.67
2.28 5.67 -1.41
14.69 36.47 2.06
2.27 5.63 -1.18
2.27 5.63 -0.96
2.3 5.72 -0.76
8.89 22.06 3.77
2.4 5.97 -0.56
8.24 20.46 4.29
2.44 6.05 -0.11
8.22 20.4 5.89
2.36 5.8 -1.68
2.31 5.68 -1.42
2.3 5.65 -1.18
2.29 5.62 -0.96
14.76 36.27 4.81
2.32 5.7 -0.76
10.18 25.03 4.28
2.43 5.98 -0.56
8.31 20.43 4.29
10.71 26.33 6.56
2.46 6.04 -0.11
8.21 20.19 5.84
2.38 5.79 -1.68
14.7 35.76 0.67
2.33 5.66 -1.41
2.31 5.63 -1.18
2.31 5.62 -0.96
2.34 5.7 -0.76
10.77 26.2 4.49
2.46 5.99 -0.57
8.41 20.46 4.3
10.77 26.21 6.54
2.48 6.05 -0.11
8.38 20.4 5.91
2.4 5.79 -1.68
14.82 35.72 0.68
2.35 5.67 -1.42
14.98 36.09 2.05
2.34 5.65 -1.19
8.51 20.51 1.94
2.34 5.64 -0.97
2.39 5.76 -0.77
8.8 21.21 3.64
2.48 5.97 -0.57
8.5 20.47 4.31
8.34 20.09 5.02
2.5 6.03 -0.11
8.14 19.61 5.69
2.42 5.77 -1.68
2.38 5.68 -1.42
15.1 36.05 2.05
2.36 5.64 -1.19
8.61 20.56 1.95
2.36 5.64 -0.97
2.41 5.75 -0.77
15.4 36.75 6.31
2.49 5.95 -0.56
8.58 20.48 4.32
2.53 6.04 -0.11
9.72 23.2 6.74
2.43 5.76 -1.67
15.29 36.15 0.69
2.41 5.69 -1.43
2.39 5.66 -1.19
2.39 5.65 -0.97
15.49 36.61 4.88
2.43 5.74 -0.77
10.3 24.36 4.19
2.51 5.93 -0.56
8.65 20.45 4.32
9.28 21.93 5.5
2.55 6.04 -0.11
9.81 23.18 6.74
2.46 5.75 -1.68
14.74 34.5 0.65
2.43 5.7 -1.43
15.49 36.27 2.07
2.42 5.66 -1.2
8.74 20.47 1.95
2.41 5.64 -0.97
8.84 20.69 2.76
2.44 5.71 -0.76
10.31 24.13 4.16
2.54 5.95 -0.57
8.6 20.14 4.26
2.6 6.08 -0.12
9.92 23.22 6.76
2.48 5.74 -1.68
14.89 34.53 0.66
2.45 5.68 -1.43
15.56 36.09 2.06
2.44 5.65 -1.2
15.2 35.25 3.36
2.43 5.64 -0.97
15.73 36.48 4.88
2.48 5.75 -0.77
10.3 23.88 4.12
2.49 5.78 -0.55
8.53 19.79 4.19
2.52 5.84 -0.33
15.76 36.55 9.19
2.63 6.09 -0.12
9.89 22.92 6.69
2.5 5.74 -1.68
15.3 35.13 0.67
2.48 5.69 -1.43
2.46 5.65 -1.2
15.18 34.85 3.33
2.46 5.64 -0.97
2.49 5.71 -0.77
2.52 5.79 -0.55
8.33 19.13 4.05
2.56 5.89 -0.34
8.96 20.57 5.18
2.64 6.06 -0.12
9.32 21.41 6.26
2.52 5.73 -1.68
2.5 5.69 -1.44
15.97 36.32 2.08
2.48 5.65 -1.2
15.7 35.71 3.41
2.49 5.66 -0.98
8.95 20.35 2.73
2.51 5.71 -0.77
9.88 22.49 3.89
2.63 5.98 -0.57
8.58 19.52 4.14
9.08 20.66 5.21
2.67 6.08 -0.12
8.72 19.83 5.8
2.53 5.71 -1.67
15.96 35.96 0.69
2.53 5.7 -1.44
16.05 36.16 2.07
2.51 5.65 -1.2
2.5 5.64 -0.98
16.22 36.56 4.91
2.54 5.72 -0.77
16.13 36.34 6.3
2.63 5.94 -0.57
9.76 21.99 5.55
2.71 6.11 -0.12
2.55 5.7 -1.67
15.9 35.49 0.68
2.55 5.69 -1.44
15.75 35.15 2.02
2.53 5.66 -1.2
2.53 5.65 -0.98
2.55 5.69 -0.77
10.67 23.82 4.13
9.16 20.45 5.17
2.73 6.1 -0.12
2.57 5.69 -1.67
16.18 35.79 0.69
2.57 5.69 -1.44
16.32 36.1 2.08
2.56 5.66 -1.21
16.55 36.6 3.51
2.56 5.66 -0.98
16.72 36.99 4.98
2.58 5.7 -0.77
10.75 23.78 4.13
16.41 36.29 7.74
17.44 38.57 9.77
2.76 6.09 -0.12
9.91 21.91 6.44
2.6 5.69 -1.68
16.28 35.67 0.68
2.66 5.83 -1.48
16.32 35.75 2.06
2.58 5.66 -1.21
16.66 36.5 3.51
2.58 5.65 -0.98
11.06 24.24 3.27
2.6 5.71 -0.77
9.42 20.64 5.24
2.78 6.09 -0.12
10.58 23.19 6.83
1.81 3.94 -1.16
2.66 5.77 -1.47
16.14 35.04 2.02
2.61 5.66 -1.21
2.61 5.66 -0.99
11.17 24.26 3.28
2.63 5.71 -0.77
11.41 24.76 5.3
9.32 20.23 5.14
2.8 6.08 -0.12
10.12 21.98 6.48
1.79 3.86 -1.14
8.63 18.57 0.36
2.66 5.73 -1.46
8.62 18.55 1.07
2.66 5.73 -1.23
8.59 18.5 1.78
2.63 5.65 -0.99
8.59 18.48 2.5
2.68 5.77 -0.78
8.57 18.44 3.22
11.72 25.22 5.4
11.87 25.55 6.5
2.82 6.07 -0.12
10.29 22.14 6.54
1.8 3.84 -1.14
8.67 18.51 0.36
2.67 5.71 -1.45
8.66 18.48 1.07
2.68 5.71 -1.23
8.65 18.45 1.78
2.65 5.66 -0.99
8.64 18.43 2.5
2.71 5.78 -0.78
8.62 18.39 3.22
9.84 21.01 4.51
12.36 26.37 6.72
2.85 6.08 -0.12
9.24 19.71 5.83
1.8 3.81 -1.13
8.74 18.49 0.36
1.87 3.96 -1.01
8.73 18.47 1.07
2.69 5.69 -1.22
8.73 18.47 1.79
2.67 5.65 -0.99
11.36 24.04 3.26
2.72 5.76 -0.78
8.7 18.4 3.22
11.88 25.13 5.4
2.77 5.87 -0.34
9.41 19.9 5.08
2.87 6.08 -0.12
10.4 22 6.52
1.81 3.8 -1.13
8.83 18.5 0.36
1.9 3.97 -1.02
2.71 5.67 -1.22
17.06 35.72 3.46
2.7 5.66 -0.99
11.43 23.95 3.26
2.73 5.73 -0.78
17.66 36.99 6.49
2.79 5.84 -0.57
17.63 36.92 7.95
2.8 5.87 -0.34
11.19 23.43 5.99
2.91 6.09 -0.12
10.46 21.9 6.5
1.81 3.76 -1.12
17.34 36.01 0.7
1.91 3.97 -1.02
17.3 35.94 2.09
1.94 4.02 -0.87
2.73 5.67 -1
11.5 23.88 3.25
2.77 5.76 -0.78
17.96 37.3 6.56
2.81 5.83 -0.57
17.81 37 7.98
2.85 5.92 -0.34
11.24 23.34 5.98
2.93 6.08 -0.12
10.38 21.55 6.41
1.81 3.73 -1.11
1.9 3.9 -1
1.94 3.99 -0.86
2.76 5.69 -1
11.47 23.61 3.22
2.81 5.78 -0.79
10.58 21.76 3.83
2.82 5.8 -0.56
9.37 19.28 4.17
11.38 23.42 6.01
2.96 6.1 -0.12
9.56 19.68 5.86
1.83 3.72 -1.11
1.88 3.84 -0.99
1.94 3.97 -0.86
2.78 5.68 -1
11.55 23.56 3.22
2.83 5.78 -0.79
10.67 21.77 3.84
2.85 5.81 -0.57
12.37 25.25 5.47
11.14 22.73 5.84
3 6.12 -0.12
9.79 19.97 5.96
1.83 3.7 -1.11
14.34 28.99 0.56
1.88 3.81 -0.98
1.94 3.93 -0.85
11.68 23.6 2.3
2.8 5.67 -1
11.74 23.73 3.25
2.85 5.76 -0.79
11.37 22.99 4.06
2.88 5.82 -0.57
9.5 19.21 4.17
11.27 22.79 5.87
3.03 6.12 -0.12
9.88 19.97 5.97
1.84 3.68 -1.1
14.42 28.91 0.56
1.89 3.79 -0.98
1.94 3.9 -0.85
11.63 23.33 2.28
2.84 5.7 -1.01
11.19 22.44 3.08
2.87 5.76 -0.79
12.06 24.19 4.28
2.9 5.82 -0.57
9.53 19.11 4.15
9.57 19.18 4.95
3.07 6.15 -0.12
18.97 38.03 11.39
1.84 3.66 -1.1
14.56 28.93 0.57
1.9 3.78 -0.98
18.42 36.6 2.15
1.94 3.86 -0.84
11.8 23.45 2.3
2.91 5.78 -1.02
11.32 22.49 3.09
2.89 5.74 -0.79
12.38 24.59 4.36
2.93 5.83 -0.57
9.55 18.98 4.13
9.75 19.37 5.01
3.1 6.16 -0.12
1.84 3.62 -1.09
18.47 36.38 0.71
1.91 3.77 -0.98
18.54 36.54 2.15
1.95 3.84 -0.84
11.96 23.56 2.31
2.92 5.76 -1.02
11.48 22.62 3.11
2.93 5.77 -0.79
12.5 24.63 4.37
2.95 5.82 -0.57
11.88 23.42 5.1
10.65 20.98 5.43
3.14 6.18 -0.12
12.34 24.31 7.31
1.85 3.61 -1.09
18.63 36.37 0.71
1.92 3.75 -0.97
18.66 36.43 2.15
1.95 3.82 -0.83
12.07 23.57 2.32
2.94 5.75 -1.02
11.65 22.74 3.14
2.96 5.78 -0.8
12.59 24.57 4.37
3 5.86 -0.58
12.03 23.49 5.13
9.76 19.05 4.94
3.18 6.21 -0.12
12.04 23.51 7.08
1.84 3.56 -1.07
1.92 3.72 -0.97
18.77 36.36 2.14
1.96 3.8 -0.83
12.23 23.69 2.33
2.97 5.74 -1.02
11.74 22.73 3.14
3 5.8 -0.8
12.65 24.5 4.37
12.24 23.71 5.19
10.71 20.74 5.39
3.22 6.23 -0.12
12.12 23.48 7.08
1.84 3.52 -1.06
1.91 3.66 -0.95
18.9 36.28 2.14
1.97 3.78 -0.83
12.51 24.01 2.37
2.99 5.74 -1.03
12.65 24.29 3.36
3 5.76 -0.8
11.02 21.14 3.78
12.36 23.71 5.2
12.28 23.57 6.14
3.25 6.24 -0.12
12.13 23.28 7.03
1.84 3.5 -1.06
18.69 35.59 0.7
1.9 3.62 -0.94
15.46 29.44 1.74
1.97 3.75 -0.82
12.45 23.69 2.34
3.03 5.76 -1.03
12.75 24.27 3.37
3.05 5.8 -0.8
12.46 23.73 4.25
3.11 5.93 -0.59
12.44 23.69 5.2
12.4 23.61 6.16
12.77 24.32 -0.48
1.83 3.46 -1.05
15.8 29.83 0.59
1.9 3.58 -0.94
12.78 24.12 1.43
1.97 3.73 -0.82
12.42 23.45 2.32
2.2 4.14 -0.74
12.91 24.37 3.39
3.08 5.81 -0.81
10.86 20.49 3.67
3.18 6.01 -0.36
14.98 28.28 -0.56
1.83 3.43 -1.04
12.93 24.21 0.48
1.88 3.52 -0.92
12.85 24.07 1.43
1.98 3.7 -0.82
12.8 23.98 2.38
2.19 4.11 -0.74
12.68 23.75 3.31
3.12 5.85 -0.81
12.66 23.71 4.26
3.18 5.96 -0.35
10.97 20.54 5.38
13.09 24.51 -0.49
1.84 3.42 -1.04
12.97 24.07 0.48
1.89 3.51 -0.92
12.95 24.02 1.43
1.98 3.68 -0.81
12.89 23.93 2.38
2.2 4.08 -0.73
12.74 23.64 3.3
3.15 5.84 -0.81
12.85 23.85 4.29
11.9 22.09 4.88
3.19 5.92 -0.35
10.58 19.63 5.15
13.08 24.28 -0.48
1.85 3.41 -1.04
13.05 24.03 0.48
1.89 3.47 -0.91
13.04 24.01 1.43
1.99 3.66 -0.81
12.97 23.89 2.38
2.21 4.07 -0.73
12.82 23.59 3.3
3.16 5.83 -0.81
13.38 24.63 4.44
12.27 22.59 5
3.21 5.91 -0.35
11.08 20.39 5.36
13.13 24.18 -0.48
1.87 3.41 -1.04
13.18 24.08 0.48
1.9 3.46 -0.91
13.16 24.03 1.44
1.99 3.63 -0.8
10.97 20.04 2
2.21 4.04 -0.73
12.61 23.03 3.22
3.18 5.82 -0.81
12.69 23.19 4.19
3.24 5.92 -0.35
11.23 20.5 5.4
13.2 24.11 -0.48
10.62 19.4 5.92
1.88 3.4 -1.04
1.9 3.44 -0.91
1.99 3.61 -0.8
11.03 20 2
2.22 4.01 -0.73
12.68 22.98 3.22
3.2 5.81 -0.81
12.79 23.19 4.19
12.22 22.15 4.92
11.28 20.45 5.39
13.29 24.08 -0.48
10.87 19.7 6.03
1.89 3.39 -1.04
1.9 3.41 -0.9
2 3.6 -0.8
11.04 19.82 1.98
2.22 3.98 -0.72
12.72 22.85 3.21
3.23 5.79 -0.81
10.48 18.83 3.41
12.73 22.86 5.09
12.54 22.53 5.95
13.39 24.04 -0.48
12.32 22.12 6.79
1.89 3.36 -1.03
1.9 3.39 -0.9
2.01 3.58 -0.8
11.15 19.87 1.99
2.22 3.96 -0.72
12.79 22.8 3.21
3.24 5.78 -0.81
10.63 18.95 3.44
12.8 22.82 5.09
12.7 22.64 5.99
16.27 28.99 -0.58
11.03 19.66 6.04
1.89 3.33 -1.03
18.73 33.09 0.66
1.9 3.36 -0.89
18.83 33.26 2
2.02 3.57 -0.8
11.22 19.83 1.99
2.23 3.94 -0.72
12.86 22.73 3.21
3.27 5.77 -0.81
13.53 23.91 4.35
10.75 18.99 4.24
11.17 19.74 5.24
13.58 24 -0.48
12.65 22.35 6.88
1.9 3.34 -1.03
18.85 33.03 0.66
1.91 3.34 -0.89
18.84 33.01 1.99
2.02 3.54 -0.79
11.31 19.82 2
2.24 3.92 -0.72
12.89 22.59 3.19
13.59 23.82 4.34
11.19 19.61 5.21
1.9 3.31 -1.02
19.89 34.57 0.7
1.91 3.33 -0.89
19 33.03 2
2.03 3.52 -0.79
11.23 19.51 1.97
2.24 3.9 -0.71
13.27 23.07 3.27
10.84 18.84 3.44
15.52 26.97 -0.54
12.83 22.3 6.89
1.9 3.27 -1.01
16.82 29 0.59
1.92 3.31 -0.88
2.04 3.51 -0.79
13.4 23.1 2.34
2.24 3.86 -0.71
13.37 23.05 3.27
12.03 20.75 3.8
12.87 22.19 6.87
1.91 3.27 -1.02
16.84 28.81 0.58
1.92 3.29 -0.88
2.04 3.49 -0.79
13.44 23 2.33
2.25 3.84 -0.71
11.78 20.15 2.87
13.71 23.45 4.3
16.97 29.03 -0.59
12.91 22.08 6.85
1.92 3.26 -1.01
15.15 25.7 0.52
1.93 3.27 -0.88
2.05 3.48 -0.79
15.43 26.19 2.66
2.25 3.82 -0.7
13.43 22.78 3.25
12.46 21.15 3.89
13.33 22.62 5.1
12.38 21.02 -1.28
1.94 3.26 -1.02
15.31 25.78 0.52
1.94 3.26 -0.88
2.05 3.45 -0.78
11.51 19.39 1.97
2.26 3.8 -0.7
13.54 22.81 3.26
12.59 21.2 3.91
12.47 21.01 -1.28
12.4 20.88 6.51
1.96 3.27 -1.02
15.49 25.89 0.53
1.94 3.25 -0.87
2.06 3.44 -0.78
15.63 26.12 2.66
2.26 3.77 -0.7
13.59 22.71 3.25
12.56 20.99 3.87
11.65 19.47 4.41
12.53 20.94 -1.28
11.04 18.45 4.96
14.43 24.1 -0.49
1.96 3.24 -1.01
15.63 25.9 0.53
1.95 3.23 -0.87
15.46 25.62 1.57
2.06 3.42 -0.78
14.05 23.29 2.38
2.26 3.74 -0.69
15.31 25.36 3.64
3.53 5.85 -0.84
12.59 20.86 3.86
11.36 18.82 4.27
12.68 21.01 -1.29
11.21 18.58 5.01
1.94 3.18 -1
15.7 25.8 0.53
1.95 3.2 -0.87
2.08 3.41 -0.78
14.15 23.26 2.38
2.27 3.73 -0.69
15.3 25.15 3.61
2.61 4.28 -0.62
12.25 20.15 3.73
12.73 20.93 -1.28
15.93 26.2 -0.54
1.93 3.15 -0.99
15.79 25.75 0.53
1.96 3.19 -0.86
15.66 25.55 1.57
2.08 3.39 -0.77
14.15 23.09 2.37
2.28 3.72 -0.69
13.34 21.75 3.13
2.62 4.27 -0.62
10.17 16.58 -1.7
13.75 22.43 5.11
12.67 20.67 -1.27
11.37 18.54 5.02
16.02 26.13 -0.53
1.92 3.11 -0.98
15.89 25.72 0.53
1.96 3.18 -0.86
15.66 25.35 1.56
2.08 3.36 -0.77
14.2 22.99 2.36
2.29 3.7 -0.69
15.57 25.21 3.64
2.62 4.24 -0.61
12.96 20.98 3.91
10.2 16.5 -1.7
13.81 22.35 5.11
12.76 20.65 -1.27
13.6 22.01 -0.45
1.93 3.09 -0.98
15.94 25.61 0.53
1.97 3.17 -0.86
2.09 3.35 -0.77
14.21 22.82 2.35
2.29 3.68 -0.69
15.51 24.92 3.6
2.62 4.22 -0.61
16.4 26.34 4.91
10.23 16.44 -1.69
12.84 20.63 -1.27
13.6 21.85 -0.45
15.44 24.81 7.83
1.95 3.1 -0.98
16.05 25.58 0.53
1.98 3.16 -0.86
15.9 25.35 1.57
2.1 3.34 -0.77
14.33 22.84 2.36
2.3 3.66 -0.68
15.62 24.91 3.61
2.63 4.19 -0.61
13.21 21.06 3.94
10.29 16.41 -1.69
12.88 20.53 -1.27
13.47 21.47 -0.44
15.57 24.82 7.85
1.96 3.09 -0.98
16.09 25.45 0.53
1.98 3.13 -0.85
15.97 25.27 1.57
2.1 3.33 -0.76
14.29 22.6 2.34
2.3 3.64 -0.68
15.74 24.9 3.62
2.62 4.15 -0.6
13.24 20.94 3.92
10.34 16.36 -1.69
12.18 19.27 4.43
12.91 20.42 -1.27
16.33 25.84 -0.53
15.6 24.68 7.82
1.95 3.07 -0.97
16.08 25.25 0.52
1.98 3.11 -0.85
16.07 25.22 1.57
2.11 3.3 -0.76
14.44 22.66 2.35
2.31 3.63 -0.68
15.75 24.72 3.6
11.76 18.46 3.47
10.39 16.31 -1.69
13.29 20.86 -1.3
15.16 23.8 6.51
13.76 21.61 -0.45
14.04 22.03 7
1.95 3.04 -0.97
16.17 25.19 0.52
1.99 3.1 -0.85
16.19 25.21 1.57
2.11 3.29 -0.76
15.72 24.48 2.55
2.32 3.61 -0.68
22.27 34.69 5.06
2.71 4.22 -0.62
13.43 20.92 3.94
10.45 16.28 -1.69
13.26 20.66 -1.29
13.61 21.19 5.81
17 26.47 -0.55
14.05 21.89 6.97
1.96 3.03 -0.97
19.34 29.9 0.62
2 3.09 -0.85
17.46 27 1.69
2.12 3.28 -0.76
15.78 24.39 2.54
2.33 3.59 -0.68
16 24.73 3.62
2.7 4.17 -0.61
11.86 18.34 3.46
10.49 16.21 -1.69
15.68 24.24 5.61
13.37 20.67 -1.29
13.61 21.04 5.79
13.82 21.37 -0.44
14.26 22.05 7.04
1.97 3.02 -0.97
16.33 25.05 0.52
2.01 3.08 -0.85
16.41 25.17 1.57
2.13 3.27 -0.76
14.44 22.15 2.31
2.32 3.56 -0.67
16.07 24.65 3.61
11.8 18.1 3.42
10.54 16.17 -1.69
12.05 18.48 4.29
13.71 21.04 -1.32
13.97 21.42 5.9
13.97 21.42 -0.45
15.48 23.74 7.59
1.98 3.01 -0.96
16.44 25.03 0.52
2 3.05 -0.84
19.54 29.74 1.86
2.14 3.26 -0.76
15.92 24.24 2.54
2.33 3.55 -0.67
14.41 21.94 3.22
12 18.26 3.46
10.6 16.13 -1.69
13.52 20.58 4.79
13.26 20.19 -1.27
15.35 23.36 6.45
15.56 23.68 7.59
1.98 2.99 -0.96
19.17 28.96 0.61
2.01 3.04 -0.84
2.15 3.25 -0.76
16.15 24.39 2.56
2.34 3.54 -0.67
14.54 21.97 3.23
12.1 18.28 3.47
10.65 16.09 -1.69
13.65 20.62 4.81
13.91 21.01 -1.32
15.89 24 6.64
14.17 21.41 -0.45
15.73 23.76 7.64
1.99 2.98 -0.96
19.34 28.99 0.61
2.02 3.03 -0.84
17.58 26.35 1.66
2.15 3.22 -0.75
2.35 3.52 -0.67
14.63 21.93 3.24
16.12 24.17 4.6
10.7 16.05 -1.69
13.75 20.61 4.82
14.23 21.34 -1.34
14.32 21.47 5.96
13.99 20.98 -0.44
14.56 21.84 7.03
1.99 2.96 -0.96
19.32 28.76 0.6
2.03 3.02 -0.84
17.62 26.24 1.66
2.16 3.21 -0.75
2.35 3.5 -0.67
14.44 21.5 3.18
13.8 20.55 3.92
2.92 4.34 -0.46
13.81 20.55 -1.3
15.74 23.43 6.52
15.02 22.36 -0.47
13.12 19.53 6.3
2.01 2.97 -0.96
17.94 26.51 0.56
2.04 3.01 -0.84
2.17 3.2 -0.75
17.71 26.16 2.76
2.35 3.47 -0.66
14.14 20.89 3.1
13.18 19.47 3.72
2.92 4.32 -0.46
13.86 20.48 -1.3
15.82 23.38 6.52
14.41 21.29 -0.45
14.01 20.71 6.7
2.01 2.95 -0.96
18.05 26.47 0.56
2.04 2.99 -0.84
17.93 26.29 1.67
2.18 3.2 -0.75
17.12 25.1 2.66
2.36 3.46 -0.66
16.29 23.9 3.55
17.67 25.92 4.97
2.94 4.32 -0.46
14.51 21.27 5
14.02 20.56 -1.3
12.88 18.89 5.28
14.55 21.33 -0.45
14.61 21.42 6.95
2.02 2.95 -0.96
19.46 28.32 0.6
2.04 2.97 -0.83
19.92 29 1.84
2.19 3.18 -0.75
2.37 3.45 -0.66
16.36 23.81 3.55
18.51 26.95 5.18
2.95 4.29 -0.46
14 20.38 4.81
14.31 20.83 -0.44
14.77 21.5 6.99
2.1 3.03 -0.99
19.61 28.33 0.6
2.06 2.97 -0.83
19.97 28.84 1.84
2.19 3.16 -0.75
2.38 3.44 -0.66
16.4 23.7 3.54
17.73 25.61 4.93
2.98 4.31 -0.46
14.02 20.26 4.79
14.01 20.24 -1.29
17.56 25.36 7.12
14.11 20.39 -0.43
13.35 19.28 6.28
19.67 28.21 0.6
2.06 2.96 -0.83
20.13 28.86 1.84
2.2 3.15 -0.75
17.93 25.71 2.74
2.38 3.42 -0.66
16.51 23.67 3.54
2.77 3.98 -0.6
2.99 4.29 -0.46
14.23 20.4 -1.3
19.87 28.5 8.02
14.23 20.4 -0.43
13.36 19.16 6.26
18.4 26.2 0.56
2.08 2.96 -0.83
2.21 3.14 -0.75
2.39 3.4 -0.66
16.65 23.71 3.56
2.72 3.87 -0.58
13.84 19.7 3.81
3 4.28 -0.46
16.12 22.96 5.45
14.25 20.3 -1.3
13.35 19.01 6.22
2.12 2.99 -0.98
2.08 2.94 -0.83
2.21 3.13 -0.75
13.87 19.61 2.1
2.4 3.39 -0.66
13.96 19.73 3.83
3.06 4.33 -0.46
13.11 18.53 4.41
14.14 19.99 -1.28
18.2 25.72 7.27
14.24 20.13 -0.43
13.37 18.9 6.2
20.37 28.56 0.61
2.09 2.93 -0.83
2.22 3.12 -0.74
14.04 19.69 2.12
2.41 3.38 -0.66
15.01 21.05 3.17
14.02 19.66 3.83
3.08 4.32 -0.46
13.68 19.19 4.58
14.51 20.35 -1.31
14.6 20.47 -0.44
15.31 21.47 7.06
2.07 2.88 -0.95
20.54 28.59 0.61
2.1 2.92 -0.83
17.66 24.59 1.59
2.22 3.09 -0.74
2.42 3.37 -0.66
18.15 25.26 3.82
12.88 17.93 3.5
3.1 4.32 -0.47
13.64 18.98 4.54
14.57 20.28 -1.31
17.16 23.89 6.79
14.5 20.19 -0.43
15.38 21.4 7.06
2.07 2.86 -0.95
19.83 27.41 0.59
2.11 2.92 -0.83
2.23 3.08 -0.74
14.13 19.53 2.11
2.42 3.35 -0.66
14.63 20.22 3.06
13.01 17.98 3.52
3.13 4.32 -0.47
16.29 22.52 5.4
14.51 20.06 -1.3
13.91 19.22 5.48
14.71 20.34 -0.44
14.31 19.78 6.54
2.08 2.85 -0.94
17.86 24.5 0.53
2.12 2.9 -0.83
17.86 24.51 1.59
2.24 3.07 -0.74
18.73 25.7 2.78
2.43 3.33 -0.65
14.75 20.24 3.07
13.36 18.33 3.59
16.22 22.26 5.35
3.17 4.35 -0.28
13.94 19.13 5.47
14.65 20.1 -0.43
14.42 19.79 6.56
2.09 2.84 -0.95
17.92 24.42 0.53
2.13 2.9 -0.83
17.87 24.35 1.58
2.25 3.07 -0.74
17.83 24.3 2.64
2.44 3.32 -0.65
17.75 24.18 3.68
2.75 3.75 -0.57
17.74 24.16 4.75
16.36 22.29 5.37
3.18 4.33 -0.28
17.66 24.07 6.89
14.74 20.07 -0.43
14.49 19.73 6.56
2.1 2.84 -0.95
18.04 24.4 0.53
2.13 2.88 -0.83
17.93 24.25 1.58
2.26 3.05 -0.74
17.91 24.23 2.64
2.45 3.31 -0.65
17.83 24.11 3.68
2.76 3.74 -0.57
13.52 18.29 3.6
16.61 22.47 5.43
3.17 4.29 -0.28
17.7 23.94 6.87
17.66 23.88 7.96
2.11 2.83 -0.95
15.46 20.76 0.45
2.14 2.88 -0.83
14.29 19.19 1.25
2.26 3.03 -0.74
15.36 20.62 2.25
2.46 3.3 -0.65
14.31 19.22 2.94
2.78 3.73 -0.57
14.28 19.17 3.79
16.54 22.21 5.38
3.16 4.24 -0.28
17.81 23.91 6.88
14.93 20.05 -0.44
17.47 23.45 7.84
2.11 2.81 -0.94
15.56 20.73 0.45
2.15 2.87 -0.83
2.26 3.02 -0.73
19.29 25.71 2.81
2.47 3.29 -0.65
2.79 3.72 -0.57
17.82 23.76 4.7
16.63 22.17 5.39
3.17 4.22 -0.28
14.07 18.76 5.41
15.17 20.21 -0.44
17.7 23.6 7.9
2.12 2.81 -0.94
2.16 2.86 -0.83
15.58 20.62 1.35
2.28 3.01 -0.73
14.73 19.5 2.14
2.47 3.26 -0.65
14.82 19.61 3.02
2.85 3.77 -0.58
13.68 18.09 3.59
13.79 18.25 4.45
3.2 4.23 -0.28
17.46 23.11 6.69
15.04 19.91 -0.44
14.29 18.91 6.35
2.13 2.8 -0.94
23.14 30.4 0.67
2.17 2.85 -0.83
2.28 3 -0.73
14.78 19.42 2.14
2.47 3.25 -0.65
2.82 3.7 -0.57
13.82 18.15 3.61
3.19 4.2 -0.28
20.66 27.14 7.87
15.12 19.86 -0.44
14.25 18.72 6.3
2.15 2.81 -0.95
21.36 27.86 0.61
2.17 2.83 -0.82
2.29 2.98 -0.73
15.62 20.37 2.25
2.48 3.24 -0.65
20.31 26.49 4.1
2.83 3.69 -0.57
3.18 4.14 -0.27
20.7 27 7.85
20.67 26.77 0.59
2.19 2.83 -0.83
20.69 26.79 1.77
2.29 2.96 -0.73
2.5 3.23 -0.65
20.52 26.57 4.12
17.73 22.95 4.59
3.18 4.12 -0.27
16.12 20.87 6.09
15.45 20 -0.44
14.28 18.49 6.26
2.17 2.78 -0.95
20.77 26.71 0.59
2.2 2.82 -0.83
16.1 20.7 1.37
2.3 2.95 -0.73
20.69 26.6 2.95
2.5 3.21 -0.64
20.66 26.56 4.13
17.77 22.85 4.58
3.15 4.05 -0.27
16.2 20.83 6.09
15.46 19.87 6.75
2.21 2.83 -0.96
15.97 20.38 0.45
2.21 2.82 -0.83
20.84 26.6 1.77
2.3 2.94 -0.73
20.78 26.52 2.95
2.5 3.19 -0.64
20.72 26.44 4.12
2.87 3.66 -0.57
17.8 22.72 4.57
20.69 26.4 6.52
16.4 20.93 6.14
15.56 19.86 -0.44
18.18 23.2 7.9
2.28 2.89 -0.99
2.21 2.8 -0.82
16.1 20.41 1.36
2.32 2.93 -0.73
20.93 26.53 2.96
2.51 3.18 -0.64
20.83 26.4 4.13
2.88 3.65 -0.57
20.79 26.34 5.32
20.76 26.31 6.52
20.8 26.36 7.75
15.57 19.73 -0.44
18.26 23.14 7.9
24.15 30.39 0.68
2.22 2.79 -0.82
16.16 20.33 1.36
2.32 2.91 -0.72
2.52 3.17 -0.64
2.89 3.64 -0.57
20.92 26.31 5.32
16.35 20.57 6.07
20.91 26.31 9.01
2.21 2.77 -0.95
16.69 20.86 0.47
2.24 2.79 -0.83
2.32 2.9 -0.72
2.53 3.16 -0.64
38.88 48.6 7.64
2.9 3.63 -0.57
20.95 26.19 5.31
17.86 22.32 6.6
3.42 4.27 -0.1
2.23 2.77 -0.95
16.2 20.11 0.45
2.25 2.79 -0.83
2.33 2.89 -0.72
2.54 3.15 -0.64
16.49 20.47 6.07
3.42 4.25 -0.1
2.25 2.77 -0.96
16.37 20.17 0.45
2.25 2.78 -0.83
2.34 2.88 -0.72
2.53 3.12 -0.64
18.09 22.29 3.52
16.54 20.38 6.06
3.42 4.22 -0.09
2.26 2.77 -0.96
24.05 29.43 0.66
2.26 2.77 -0.82
2.35 2.88 -0.72
2.54 3.1 -0.63
39.34 48.13 9.84
16.54 20.24 6.04
3.42 4.19 -0.09
16.59 20.29 7.02
2.28 2.76 -0.96
2.28 2.76 -0.83
2.37 2.87 -0.72
2.55 3.1 -0.64
18.43 22.39 4.59
16.79 20.39 5.13
16.61 20.17 6.03
3.41 4.15 -0.09
2.28 2.75 -0.96
16.3 19.66 0.45
2.29 2.76 -0.83
2.37 2.86 -0.72
2.56 3.09 -0.64
16.84 20.31 5.13
16.73 20.19 6.05
3.4 4.1 -0.09
2.27 2.72 -0.95
24.57 29.42 0.67
2.3 2.76 -0.83
2.38 2.85 -0.72
2.57 3.08 -0.63
18.24 21.84 4.51
16.89 20.23 5.12
16.83 20.15 6.06
3.39 4.06 -0.09
2.3 2.74 -0.96
2.31 2.75 -0.83
2.39 2.85 -0.72
2.56 3.05 -0.63
17.62 20.95 3.36
16.93 20.13 6.07
3.39 4.03 -0.09
2.31 2.73 -0.96
2.32 2.74 -0.83
2.41 2.84 -0.72
2.57 3.04 -0.63
17.85 21.07 3.39
2.88 3.4 -0.55
21.34 25.19 6.42
17.04 20.11 6.09
3.4 4.01 -0.09
2.32 2.71 -0.96
24.84 29.11 0.67
2.34 2.74 -0.83
2.42 2.83 -0.72
2.58 3.03 -0.63
2.89 3.39 -0.55
18.15 21.27 4.43
16.95 19.86 5.08
3.4 3.99 -0.09
2.34 2.72 -0.96
2.35 2.74 -0.83
2.42 2.81 -0.72
2.6 3.02 -0.63
2.9 3.38 -0.55
18.4 21.42 4.47
16.97 19.75 5.06
3.4 3.95 -0.09
17.48 20.34 7.19
2.34 2.71 -0.96
24.93 28.82 0.67
2.37 2.74 -0.84
24.83 28.69 1.99
2.43 2.81 -0.72
2.6 3.01 -0.63
17.65 20.4 3.31
