# .PCD v0.7 - Point Cloud Data file format
VERSION 0.7
FIELDS x y z
SIZE 4 4 4
TYPE F F F
COUNT 1 1 1
WIDTH 3109
HEIGHT 1
VIEWPOINT 0 0 0 1 0 0 0
POINTS 3109
DATA ascii
3.87 7.42 -0.44
6.95 13.31 3.47
3.89 7.45 -0.15
6.95 13.3 4.02
2.71 5.14 -1.56
3.74 7.11 0.14
3.06 5.8 -1.51
3.73 7.08 0.42
3.84 7.29 -1.6
3.95 7.5 0.74
3.89 7.39 -1.32
4.02 7.64 1.06
3.9 7.41 -1.03
7 13.3 2.38
3.9 7.41 -0.73
7 13.29 2.92
3.9 7.4 -0.44
8.54 16.23 4.23
3.91 7.43 -0.15
8.89 16.89 5.11
2.72 5.13 -1.56
3.76 7.08 0.14
3.09 5.81 -1.52
3.76 7.08 0.42
3.86 7.28 -1.6
3.97 7.47 0.74
3.92 7.38 -1.32
4.04 7.61 1.06
3.93 7.39 -1.03
15.26 28.73 5.15
3.93 7.39 -0.73
15.2 28.63 6.3
3.93 7.4 -0.44
8.66 16.31 4.26
3.94 7.42 -0.15
9.39 17.69 5.37
2.73 5.1 -1.55
3.91 7.31 0.14
3.09 5.77 -1.51
4.98 9.29 0.55
3.89 7.27 -1.6
4 7.46 0.74
3.94 7.36 -1.32
4.06 7.59 1.06
3.95 7.38 -1.03
10.39 19.4 3.49
3.95 7.38 -0.73
11.11 20.74 4.57
3.95 7.37 -0.44
3.97 7.41 -0.15
15.94 29.77 9.05
2.75 5.1 -1.55
4.01 7.42 0.15
3.09 5.72 -1.5
5.02 9.29 0.55
3.92 7.27 -1.61
4.03 7.46 0.74
3.97 7.35 -1.32
4.08 7.55 1.05
3.98 7.37 -1.03
10.43 19.32 3.48
3.98 7.37 -0.73
10.43 19.31 4.26
3.97 7.36 -0.44
10.45 19.35 5.08
3.99 7.38 -0.15
16.03 29.69 9.04
2.77 5.09 -1.55
4.04 7.41 0.15
3.1 5.69 -1.5
5.05 9.27 0.55
3.95 7.25 -1.6
4.05 7.44 0.74
4 7.34 -1.32
4.1 7.53 1.05
4 7.35 -1.03
10.49 19.26 3.47
4.01 7.36 -0.73
10.48 19.25 4.26
4 7.35 -0.44
10.48 19.25 5.06
4.01 7.37 -0.15
10.51 19.3 5.89
2.79 5.08 -1.55
4.06 7.4 0.15
3.12 5.67 -1.49
5.08 9.25 0.55
3.96 7.22 -1.6
4.08 7.43 0.74
4.02 7.32 -1.32
4.13 7.52 1.05
4.03 7.33 -1.03
10.57 19.25 3.48
4.03 7.34 -0.73
10.55 19.21 4.26
4.03 7.34 -0.44
10.55 19.22 5.06
4.04 7.35 -0.15
10.55 19.21 5.87
2.79 5.05 -1.55
4.09 7.39 0.15
3.13 5.66 -1.49
5.11 9.24 0.55
3.99 7.21 -1.6
4.1 7.41 0.74
4.05 7.31 -1.32
4.15 7.5 1.05
4.05 7.32 -1.03
10.33 18.67 3.38
4.05 7.32 -0.73
10.05 18.16 4.03
4.05 7.32 -0.44
10.58 19.12 5.05
4.06 7.34 -0.15
10.61 19.17 5.87
2.81 5.03 -1.54
4.11 7.37 0.15
3.16 5.66 -1.5
5.14 9.22 0.55
4.02 7.2 -1.6
4.13 7.41 0.74
4.07 7.29 -1.32
4.19 7.51 1.06
4.08 7.31 -1.03
4.08 7.31 -0.73
10.74 19.25 4.29
4.08 7.31 -0.44
10.68 19.14 5.06
4.09 7.32 -0.15
9.99 17.91 5.5
2.82 5.01 -1.54
5.87 10.43 0.21
3.17 5.64 -1.49
5.18 9.21 0.55
4.04 7.19 -1.6
4.17 7.4 0.74
4.1 7.29 -1.32
4.22 7.5 1.06
4.11 7.3 -1.03
4.21 7.48 1.36
4.11 7.29 -0.73
9.28 16.48 3.68
4.1 7.29 -0.44
10.86 19.29 5.11
4.12 7.32 -0.15
10.66 18.95 5.83
2.83 4.99 -1.54
4.25 7.49 0.15
3.19 5.63 -1.49
5.21 9.18 0.55
4.07 7.16 -1.6
4.19 7.39 0.74
4.95 8.73 -1.59
4.24 7.48 1.06
4.13 7.28 -1.03
4.22 7.44 1.36
4.13 7.28 -0.73
10.22 18.02 4.03
4.13 7.28 -0.44
15.85 27.94 7.42
4.15 7.31 -0.15
10.72 18.89 5.82
2.84 4.96 -1.53
4.21 7.36 0.15
3.22 5.63 -1.5
5.26 9.19 0.55
4.08 7.14 -1.6
4.21 7.36 0.74
4.99 8.73 -1.59
4.26 7.45 1.05
4.15 7.26 -1.03
4.23 7.4 1.35
4.16 7.28 -0.73
16.03 28.03 6.28
4.15 7.26 -0.44
15.94 27.88 7.41
4.16 7.28 -0.15
9.42 16.47 5.08
2.84 4.93 -1.53
4.28 7.42 0.15
3.23 5.61 -1.5
5.3 9.19 0.56
4.11 7.13 -1.6
4.23 7.34 0.74
5.01 8.69 -1.59
4.29 7.44 1.05
4.18 7.24 -1.03
4.25 7.37 1.35
4.18 7.26 -0.73
4.18 7.26 -0.44
9.54 16.56 4.41
4.19 7.27 -0.15
2.82 4.85 -1.5
4.33 7.46 0.15
3.26 5.61 -1.5
4.27 7.35 0.45
4.13 7.1 -1.6
4.26 7.33 0.74
5.04 8.68 -1.59
4.31 7.42 1.05
4.2 7.24 -1.03
4.27 7.35 1.35
4.2 7.23 -0.73
9.64 16.59 3.73
4.2 7.24 -0.44
9.58 16.49 4.4
4.22 7.26 -0.15
10.2 17.55 5.44
2.83 4.84 -1.5
4.27 7.29 0.15
3.28 5.6 -1.5
4.29 7.33 0.45
4.15 7.09 -1.6
4.28 7.32 0.74
5.07 8.66 -1.59
4.33 7.39 1.05
4.6 7.86 -1.12
4.3 7.34 1.35
4.23 7.22 -0.73
9.72 16.6 3.74
4.23 7.22 -0.44
10.34 17.66 4.72
4.25 7.25 -0.15
2.85 4.83 -1.5
4.3 7.28 0.15
3.3 5.59 -1.5
4.32 7.31 0.45
4.18 7.07 -1.6
4.31 7.3 0.74
5.1 8.63 -1.59
4.35 7.36 1.05
4.64 7.85 -1.12
4.32 7.31 1.35
4.25 7.2 -0.73
4.26 7.21 -0.44
4.28 7.24 -0.15
10.31 17.45 5.43
2.88 4.84 -1.51
4.46 7.49 0.15
3.36 5.64 -1.52
4.35 7.3 0.45
4.21 7.06 -1.6
4.34 7.29 0.74
5.13 8.62 -1.59
4.38 7.35 1.05
4.59 7.71 -1.1
4.34 7.29 1.34
4.28 7.19 -0.73
9.76 16.39 3.71
4.28 7.19 -0.44
11.77 19.76 5.31
4.3 7.22 -0.15
2.9 4.83 -1.51
3.41 5.68 -1.53
4.52 7.53 0.46
4.22 7.04 -1.6
4.36 7.26 0.74
5.16 8.6 -1.59
4.4 7.33 1.05
4.64 7.73 -1.11
4.36 7.26 1.34
4.3 7.17 -0.73
4.31 7.18 -0.44
4.32 7.2 -0.15
2.92 4.83 -1.51
4.52 7.48 0.15
3.42 5.65 -1.53
4.55 7.53 0.46
4.25 7.03 -1.6
4.39 7.26 0.74
4.37 7.23 -1.34
4.42 7.31 1.05
4.38 7.24 -1.04
4.39 7.25 1.34
4.33 7.15 -0.73
4.33 7.16 -0.44
4.35 7.2 -0.15
16.46 27.21 8.52
2.94 4.83 -1.52
4.55 7.46 0.15
3.44 5.64 -1.52
4.58 7.51 0.46
4.27 7.01 -1.6
4.42 7.25 0.74
4.39 7.19 -1.33
4.44 7.28 1.05
4.38 7.19 -1.03
4.41 7.24 1.34
4.64 7.61 -0.78
4.35 7.14 -0.44
10.47 17.17 4.64
4.38 7.19 -0.15
2.96 4.81 -1.51
4.55 7.41 0.15
3.45 5.62 -1.52
4.61 7.5 0.46
4.29 6.99 -1.59
4.44 7.23 0.74
4.41 7.17 -1.33
4.46 7.26 1.05
4.4 7.16 -1.03
4.44 7.22 1.34
4.68 7.62 -0.78
12.51 20.36 4.64
4.38 7.13 -0.44
4.41 7.17 -0.15
9.37 15.26 4.8
2.96 4.78 -1.51
4.58 7.39 0.15
3.47 5.61 -1.52
4.65 7.51 0.46
4.31 6.97 -1.59
4.47 7.22 0.74
4.43 7.15 -1.33
4.49 7.25 1.05
4.43 7.15 -1.03
4.45 7.19 1.34
4.71 7.61 -0.78
4.48 7.23 1.65
4.42 7.13 -0.44
4.43 7.15 -0.15
9.56 15.44 4.87
2.98 4.77 -1.51
4.58 7.34 0.15
3.47 5.57 -1.52
4.65 7.45 0.46
4.34 6.96 -1.59
4.49 7.2 0.74
4.46 7.15 -1.33
4.51 7.23 1.05
4.45 7.13 -1.03
4.48 7.18 1.34
4.72 7.57 -0.78
4.48 7.19 1.65
4.44 7.12 -0.44
10.6 17 4.63
4.45 7.14 -0.15
8.21 13.17 4.16
2.99 4.76 -1.51
4.56 7.25 0.15
3.5 5.57 -1.52
4.53 7.21 0.45
4.36 6.94 -1.59
4.52 7.19 0.74
4.48 7.13 -1.33
4.54 7.22 1.05
4.49 7.14 -1.03
4.51 7.17 1.34
4.75 7.56 -0.78
4.49 7.15 1.64
4.47 7.1 -0.44
11.83 18.81 5.13
4.48 7.13 -0.15
8.25 13.13 4.15
3.01 4.76 -1.51
4.52 7.13 0.15
3.51 5.54 -1.52
4.53 7.15 0.44
4.39 6.93 -1.59
4.55 7.18 0.74
4.51 7.12 -1.34
4.56 7.19 1.05
4.52 7.13 -1.04
4.53 7.14 1.34
4.76 7.52 -0.78
4.51 7.12 1.64
4.49 7.09 -0.44
11.91 18.8 5.14
4.51 7.12 -0.15
10.07 15.9 5.04
3.03 4.75 -1.51
4.54 7.11 0.15
3.52 5.52 -1.51
4.55 7.13 0.44
4.42 6.92 -1.6
4.57 7.16 0.74
4.54 7.11 -1.34
4.58 7.17 1.05
4.53 7.1 -1.03
4.55 7.13 1.34
4.81 7.53 -0.78
4.53 7.1 1.64
4.52 7.07 -0.44
4.54 7.11 -0.15
9.79 15.33 4.88
3.05 4.74 -1.51
4.57 7.1 0.15
3.54 5.5 -1.51
4.57 7.11 0.44
4.43 6.88 -1.59
4.61 7.16 0.74
4.59 7.13 -1.34
4.61 7.16 1.05
4.6 7.16 -1.04
4.58 7.12 1.34
4.85 7.54 -0.78
4.55 7.08 1.64
4.54 7.06 -0.44
4.56 7.09 -0.15
9.83 15.27 4.87
3.06 4.72 -1.51
4.59 7.08 0.15
3.54 5.46 -1.5
4.6 7.1 0.44
4.45 6.87 -1.59
4.63 7.13 0.74
4.63 7.13 -1.35
4.63 7.14 1.04
4.59 7.08 -1.04
4.62 7.12 1.34
4.82 7.43 -0.77
4.58 7.06 1.64
4.58 7.06 -0.44
4.59 7.08 -0.15
10.92 16.84 5.38
3.08 4.71 -1.51
4.61 7.06 0.15
3.53 5.41 -1.49
4.63 7.09 0.44
4.47 6.85 -1.59
4.65 7.11 0.74
4.6 7.04 -1.33
4.65 7.12 1.04
4.61 7.05 -1.03
4.64 7.11 1.34
4.67 7.15 -0.75
4.6 7.04 1.63
4.6 7.04 -0.44
4.62 7.07 -0.15
10.97 16.79 5.38
3.09 4.7 -1.51
4.64 7.05 0.15
3.52 5.36 -1.48
4.65 7.07 0.44
4.5 6.84 -1.59
4.68 7.1 0.74
4.59 6.97 -1.32
4.67 7.1 1.04
4.61 7.01 -1.03
4.67 7.09 1.35
4.67 7.1 -0.74
4.62 7.03 -0.44
4.65 7.06 -0.15
10.75 16.34 5.24
3.1 4.68 -1.5
4.66 7.03 0.15
3.53 5.33 -1.48
4.67 7.04 0.44
4.53 6.83 -1.59
4.7 7.09 0.74
4.63 6.99 -1.33
4.7 7.09 1.04
4.62 6.98 -1.03
4.69 7.08 1.35
4.69 7.07 -0.74
9.87 14.88 3.47
4.66 7.03 -0.44
9.34 14.08 3.9
4.65 7.02 -0.15
10.47 15.79 5.07
3.13 4.68 -1.51
4.69 7.02 0.15
3.56 5.32 -1.48
4.69 7.02 0.44
4.55 6.8 -1.59
4.73 7.08 0.75
4.65 6.96 -1.33
4.73 7.08 1.05
4.65 6.96 -1.03
5.59 8.37 1.59
4.71 7.05 -0.74
10.53 15.76 3.68
4.69 7.01 -0.44
8.53 12.77 4.11
3.16 4.69 -1.52
4.71 7 0.15
3.57 5.3 -1.48
4.72 7.02 0.44
4.56 6.77 -1.59
4.74 7.05 0.74
4.67 6.94 -1.32
4.75 7.05 1.04
4.68 6.95 -1.03
5.48 8.14 1.55
4.73 7.03 -0.74
5.5 8.17 1.91
4.71 7 -0.44
11.03 16.38 4.56
4.71 6.99 -0.15
10.54 15.65 5.06
3.17 4.67 -1.51
4.73 6.98 0.15
3.56 5.26 -1.47
4.75 7 0.44
4.59 6.77 -1.59
4.79 7.07 0.75
4.7 6.93 -1.33
5.35 7.89 1.17
4.7 6.93 -1.03
5.37 7.93 1.52
4.76 7.02 -0.74
5.39 7.95 1.87
4.74 6.99 -0.44
4.74 7 -0.15
8.34 12.31 3.98
3.2 4.68 -1.52
4.76 6.96 0.15
3.58 5.24 -1.46
4.77 6.99 0.44
4.61 6.75 -1.59
4.73 6.93 -1.33
5.26 7.71 1.15
4.73 6.93 -1.03
5.28 7.74 1.48
4.8 7.03 -0.74
5.29 7.75 1.82
4.75 6.96 -0.44
4.77 6.99 -0.15
9.09 13.31 4.32
3.21 4.67 -1.52
4.79 6.96 0.15
3.59 5.21 -1.46
4.82 7 0.45
4.64 6.73 -1.59
5.23 7.6 0.81
4.75 6.9 -1.33
5.2 7.56 1.13
4.75 6.9 -1.03
5.21 7.57 1.46
4.85 7.05 -0.75
5.21 7.57 1.79
4.78 6.94 -0.44
4.8 6.97 -0.15
12.78 18.56 6.04
3.22 4.65 -1.52
4.84 6.97 0.15
3.61 5.21 -1.46
5.22 7.53 0.48
4.65 6.71 -1.59
5.18 7.47 0.8
4.8 6.93 -1.34
5.14 7.42 1.11
4.81 6.94 -1.04
5.14 7.41 1.43
5.21 7.52 -0.8
5.12 7.39 1.75
4.8 6.92 -0.44
9.39 13.54 3.8
9.14 13.19 4.3
3.22 4.61 -1.51
5.24 7.5 0.16
3.63 5.2 -1.46
5.21 7.45 0.48
4.68 6.7 -1.59
5.15 7.37 0.79
4.88 6.98 -1.35
5.09 7.28 1.09
4.88 6.99 -1.05
5.08 7.26 1.4
5.23 7.48 -0.8
5.05 7.22 1.71
4.84 6.92 -0.44
9.34 13.36 3.76
8.93 12.79 4.18
3.24 4.6 -1.51
5.22 7.42 0.16
3.62 5.14 -1.45
5.15 7.32 0.47
4.7 6.68 -1.59
5.08 7.21 0.77
4.88 6.93 -1.34
5.04 7.16 1.07
4.91 6.97 -1.05
5.02 7.13 1.38
5.26 7.48 -0.8
4.97 7.07 1.68
4.86 6.91 -0.44
17.35 24.65 6.96
5.26 7.47 -0.16
3.26 4.61 -1.51
5.16 7.28 0.16
3.64 5.13 -1.45
5.09 7.18 0.46
4.72 6.66 -1.59
5.05 7.12 0.76
4.89 6.91 -1.34
4.99 7.04 1.06
4.91 6.92 -1.04
4.98 7.02 1.36
5.27 7.44 -0.8
4.93 6.95 1.66
4.88 6.88 -0.44
4.9 6.92 1.96
5.24 7.39 -0.16
3.29 4.6 -1.52
5.12 7.17 0.15
3.65 5.12 -1.45
5.05 7.08 0.46
4.75 6.65 -1.59
5 7 0.75
4.92 6.89 -1.34
4.94 6.92 1.04
4.92 6.9 -1.04
4.93 6.91 1.34
5.29 7.4 -0.8
4.88 6.83 1.63
5.33 7.47 -0.48
4.84 6.78 1.92
5.21 7.3 -0.16
9.28 13 4.28
3.3 4.59 -1.51
5.06 7.04 0.15
3.69 5.13 -1.46
5.02 6.98 0.45
4.76 6.62 -1.59
4.96 6.89 0.74
4.94 6.87 -1.34
4.91 6.83 1.03
4.94 6.87 -1.04
4.88 6.79 1.32
5.33 7.4 -0.8
4.89 6.8 1.63
5.29 7.36 -0.48
4.87 6.77 1.93
5.15 7.16 -0.15
9.12 12.67 4.18
3.29 4.54 -1.5
5.04 6.95 0.15
3.72 5.13 -1.46
4.97 6.85 0.44
3.92 5.41 -1.3
4.92 6.79 0.73
4.97 6.86 -1.34
4.9 6.76 1.03
4.96 6.85 -1.04
4.9 6.76 1.32
5.31 7.32 -0.79
4.89 6.76 1.62
5.23 7.22 -0.47
4.9 6.77 1.93
5.08 7.02 -0.15
8.87 12.24 4.05
3.29 4.5 -1.49
4.98 6.82 0.15
3.74 5.12 -1.46
4.94 6.77 0.44
4.81 6.59 -1.59
4.92 6.74 0.73
4.99 6.84 -1.34
4.92 6.74 1.02
4.99 6.84 -1.04
4.92 6.74 1.32
5.31 7.27 -0.79
4.92 6.74 1.62
5.16 7.06 -0.46
4.94 6.76 1.93
5.03 6.9 -0.15
9.37 12.83 4.26
3.28 4.47 -1.49
4.95 6.73 0.15
3.75 5.1 -1.46
4.94 6.72 0.44
4.83 6.56 -1.58
4.94 6.72 0.73
5.02 6.83 -1.34
4.94 6.71 1.02
5.02 6.83 -1.04
4.95 6.74 1.32
5.27 7.16 -0.78
4.94 6.73 1.62
5.08 6.91 -0.45
4.97 6.76 1.94
4.96 6.75 -0.15
12.04 16.37 5.44
3.32 4.48 -1.49
4.96 6.7 0.15
3.77 5.09 -1.46
4.96 6.7 0.44
4.86 6.56 -1.59
4.97 6.72 0.73
5.05 6.82 -1.34
4.96 6.69 1.02
5.05 6.82 -1.04
4.98 6.72 1.32
5.04 6.81 -0.74
4.97 6.71 1.62
4.98 6.73 -0.44
4.99 6.75 1.94
4.97 6.71 -0.15
3.32 4.46 -1.49
4.99 6.69 0.15
3.78 5.07 -1.46
4.99 6.69 0.44
4.87 6.53 -1.58
5 6.71 0.73
5.95 7.98 -1.58
4.99 6.69 1.02
5.4 7.25 -1.11
5 6.7 1.32
5.07 6.79 -0.74
4.99 6.7 1.62
5 6.7 -0.44
5.02 6.73 1.94
4.98 6.68 -0.15
10.93 14.66 4.9
3.32 4.42 -1.48
5.02 6.67 0.15
3.8 5.05 -1.46
5.02 6.68 0.44
4.9 6.52 -1.59
5.02 6.68 0.73
5.97 7.95 -1.58
5.02 6.68 1.03
5.43 7.23 -1.11
5.02 6.68 1.32
5.09 6.78 -0.74
5.02 6.68 1.62
5.03 6.7 -0.44
5.05 6.72 1.94
5 6.66 -0.15
10.88 14.48 4.85
3.33 4.4 -1.48
5.03 6.65 0.15
3.82 5.05 -1.46
5.05 6.67 0.44
4.92 6.5 -1.58
5.06 6.68 0.73
5.99 7.92 -1.57
5.04 6.66 1.03
5.45 7.21 -1.11
5.06 6.68 1.33
5.05 6.67 1.63
5.05 6.68 -0.44
5.07 6.71 1.94
5.04 6.66 -0.15
16.63 21.98 7.39
3.36 4.41 -1.49
5.06 6.64 0.15
3.82 5.01 -1.45
5.07 6.66 0.44
4.93 6.47 -1.58
5.08 6.66 0.73
6.02 7.9 -1.57
5.06 6.63 1.02
5.2 6.82 -1.05
5.08 6.67 1.33
5.59 7.33 -0.81
5.08 6.66 1.63
5.08 6.66 -0.44
5.11 6.7 1.94
5.07 6.65 -0.15
16.73 21.95 7.39
3.39 4.42 -1.49
5.1 6.64 0.15
3.83 4.99 -1.45
5.1 6.64 0.44
4.96 6.47 -1.58
5.1 6.65 0.73
6.04 7.87 -1.57
5.09 6.63 1.03
5.17 6.73 -1.04
5.11 6.66 1.33
5.61 7.31 -0.81
5.1 6.64 1.63
5.1 6.65 -0.44
5.13 6.68 1.94
5.11 6.65 -0.15
3.37 4.36 -1.48
5.13 6.63 0.15
3.83 4.96 -1.45
5.12 6.62 0.44
4.98 6.43 -1.58
5.13 6.63 0.73
6.07 7.85 -1.57
5.11 6.61 1.03
5.2 6.72 -1.04
5.13 6.63 1.33
5.63 7.28 -0.81
5.13 6.64 1.63
5.13 6.63 -0.44
5.15 6.66 1.94
5.13 6.64 -0.15
9.84 12.72 4.31
3.4 4.36 -1.48
5.15 6.61 0.15
3.86 4.95 -1.45
5.14 6.6 0.44
4.99 6.41 -1.58
5.15 6.61 0.73
6.09 7.82 -1.57
5.15 6.61 1.03
5.23 6.71 -1.04
5.16 6.62 1.33
5.66 7.27 -0.81
5.16 6.62 1.63
5.16 6.63 -0.44
5.18 6.65 1.95
5.16 6.62 -0.15
12.25 15.73 5.34
3.39 4.32 -1.47
5.16 6.58 0.15
3.88 4.95 -1.45
5.17 6.59 0.44
5.02 6.4 -1.58
5.17 6.59 0.73
6.12 7.79 -1.57
5.17 6.59 1.03
5.26 6.7 -1.05
5.19 6.61 1.33
5.71 7.28 -0.81
5.18 6.6 1.63
5.18 6.61 -0.44
5.21 6.64 1.95
5.19 6.61 -0.15
12.36 15.75 5.36
3.39 4.29 -1.47
5.19 6.57 0.15
3.89 4.92 -1.45
5.2 6.58 0.44
5.04 6.38 -1.58
5.2 6.58 0.73
6.14 7.77 -1.57
5.19 6.57 1.03
5.29 6.69 -1.05
5.21 6.6 1.33
5.74 7.27 -0.81
5.21 6.59 1.63
5.21 6.59 -0.44
5.23 6.62 1.95
5.22 6.6 -0.15
16.55 20.95 7.15
3.42 4.29 -1.47
5.22 6.56 0.15
3.88 4.87 -1.44
5.22 6.56 0.44
5.06 6.36 -1.58
5.23 6.56 0.73
6.17 7.75 -1.57
5.22 6.55 1.03
5.3 6.66 -1.05
5.24 6.59 1.33
5.77 7.25 -0.81
5.24 6.58 1.64
5.23 6.58 -0.44
5.26 6.6 1.95
5.24 6.59 -0.15
16.63 20.89 7.15
3.42 4.26 -1.46
5.25 6.55 0.15
3.9 4.86 -1.44
5.25 6.55 0.44
5.08 6.34 -1.58
5.25 6.56 0.74
6.2 7.73 -1.57
5.25 6.55 1.03
5.33 6.65 -1.05
5.26 6.56 1.33
5.8 7.24 -0.81
5.27 6.57 1.64
5.26 6.57 -0.44
5.28 6.59 1.95
5.26 6.56 -0.15
12.25 15.28 5.25
3.46 4.28 -1.48
5.28 6.54 0.15
3.91 4.84 -1.44
5.27 6.53 0.44
5.1 6.31 -1.58
5.28 6.54 0.74
6.22 7.7 -1.57
5.27 6.53 1.03
5.36 6.64 -1.05
5.29 6.55 1.33
5.83 7.21 -0.81
5.29 6.55 1.64
5.29 6.55 -0.44
5.31 6.58 1.95
5.29 6.55 -0.15
12.27 15.2 5.23
3.46 4.26 -1.47
5.3 6.52 0.15
3.94 4.84 -1.44
5.3 6.52 0.44
5.12 6.3 -1.58
5.3 6.52 0.74
6.24 7.67 -1.57
5.3 6.52 1.03
5.39 6.63 -1.05
5.32 6.54 1.34
5.85 7.2 -0.81
5.32 6.54 1.64
5.32 6.54 -0.44
5.35 6.58 1.96
5.32 6.54 -0.15
11.34 13.94 4.82
3.48 4.25 -1.47
5.32 6.51 0.15
3.99 4.88 -1.46
5.33 6.51 0.44
5.14 6.28 -1.58
5.34 6.52 0.74
6.26 7.65 -1.57
5.32 6.5 1.03
5.42 6.62 -1.05
5.35 6.53 1.34
5.89 7.19 -0.81
5.34 6.53 1.64
5.34 6.53 -0.44
5.37 6.56 1.96
5.35 6.53 -0.15
10.26 12.53 4.34
3.48 4.22 -1.47
5.35 6.5 0.15
4 4.86 -1.45
5.35 6.49 0.44
5.16 6.27 -1.58
5.36 6.51 0.74
6.29 7.63 -1.57
5.35 6.49 1.03
5.44 6.6 -1.05
5.37 6.52 1.34
5.9 7.16 -0.81
5.37 6.52 1.64
5.38 6.52 -0.44
5.39 6.54 1.96
5.37 6.52 -0.15
11.89 14.42 5.01
3.5 4.21 -1.47
5.39 6.48 0.15
4 4.81 -1.44
5.38 6.47 0.44
5.17 6.23 -1.57
5.39 6.49 0.74
6.32 7.61 -1.57
5.38 6.48 1.03
5.47 6.58 -1.05
5.39 6.49 1.34
5.93 7.14 -0.81
5.4 6.51 1.64
5.42 6.52 -0.44
5.43 6.53 1.96
5.39 6.49 -0.15
11.88 14.3 4.98
3.54 4.23 -1.48
5.41 6.47 0.15
3.95 4.73 -1.42
5.41 6.46 0.44
5.2 6.21 -1.57
5.41 6.47 0.74
6.34 7.58 -1.56
5.41 6.47 1.04
5.5 6.57 -1.05
5.42 6.49 1.34
5.96 7.13 -0.81
5.43 6.49 1.65
5.45 6.52 -0.45
5.46 6.53 1.96
5.42 6.48 -0.15
10.74 12.85 4.49
3.57 4.24 -1.48
5.43 6.45 0.15
3.98 4.73 -1.43
5.43 6.45 0.44
5.22 6.2 -1.57
5.44 6.46 0.74
6.36 7.54 -1.56
5.44 6.46 1.04
5.53 6.57 -1.05
5.45 6.47 1.34
5.99 7.11 -0.81
5.45 6.47 1.64
5.49 6.51 -0.45
5.49 6.51 1.97
5.45 6.47 -0.15
10.85 12.88 4.51
3.54 4.17 -1.47
5.47 6.44 0.15
3.99 4.71 -1.43
5.46 6.44 0.44
5.23 6.17 -1.57
5.47 6.45 0.74
6.38 7.52 -1.56
5.46 6.44 1.04
5.56 6.55 -1.06
5.48 6.46 1.34
5.98 7.05 -0.81
5.48 6.46 1.65
5.5 6.49 -0.45
5.52 6.51 1.97
5.48 6.46 -0.15
10.47 12.34 4.34
3.54 4.15 -1.46
5.49 6.43 0.15
3.97 4.65 -1.41
5.48 6.42 0.44
5.25 6.15 -1.57
5.5 6.44 0.74
6.41 7.5 -1.56
5.49 6.42 1.04
5.58 6.53 -1.05
5.5 6.44 1.34
5.98 7 -0.81
5.51 6.45 1.65
5.53 6.48 -0.45
5.54 6.49 1.97
5.51 6.45 -0.15
10.13 11.85 4.18
3.56 4.14 -1.46
5.52 6.42 0.15
3.97 4.62 -1.41
5.51 6.41 0.44
5.26 6.12 -1.57
5.53 6.43 0.74
6.43 7.47 -1.56
5.52 6.41 1.04
5.61 6.52 -1.06
5.53 6.42 1.34
5.96 6.93 -0.8
5.54 6.44 1.65
5.57 6.47 -0.45
5.57 6.47 1.97
5.53 6.43 -0.15
10.17 11.82 4.18
3.58 4.13 -1.46
5.55 6.41 0.15
4.01 4.63 -1.42
5.54 6.4 0.44
5.28 6.1 -1.57
5.54 6.39 0.74
6.45 7.45 -1.56
5.54 6.4 1.04
5.64 6.51 -1.06
5.55 6.41 1.34
5.94 6.85 -0.79
5.56 6.42 1.65
5.59 6.45 -0.45
5.6 6.47 1.98
5.56 6.42 -0.15
12.1 13.97 4.95
3.61 4.13 -1.47
5.57 6.39 0.15
4.17 4.78 -1.46
5.57 6.39 0.44
5.31 6.09 -1.57
5.57 6.38 0.74
6.46 7.41 -1.56
5.57 6.39 1.04
5.67 6.5 -1.06
5.58 6.4 1.35
5.93 6.79 -0.79
5.59 6.4 1.65
5.62 6.44 -0.45
5.63 6.45 1.98
5.59 6.41 -0.15
12.07 13.84 4.92
3.61 4.11 -1.47
5.6 6.37 0.15
4.18 4.76 -1.46
5.6 6.37 0.44
5.33 6.07 -1.57
5.6 6.37 0.74
6.49 7.38 -1.56
5.59 6.37 1.04
5.7 6.49 -1.06
5.61 6.39 1.35
5.92 6.74 -0.78
5.61 6.39 1.65
5.65 6.43 -0.45
5.66 6.44 1.98
5.62 6.4 -0.15
12.07 13.74 4.9
3.62 4.09 -1.46
5.63 6.36 0.15
4.2 4.75 -1.46
5.62 6.35 0.44
5.36 6.06 -1.57
5.63 6.37 0.74
6.52 7.37 -1.56
5.62 6.35 1.04
5.72 6.47 -1.06
5.64 6.38 1.35
5.95 6.72 -0.79
5.65 6.38 1.66
5.66 6.4 -0.45
5.68 6.42 1.98
5.65 6.39 -0.15
10.41 11.77 4.21
3.64 4.09 -1.47
5.66 6.35 0.15
4.22 4.74 -1.46
5.64 6.34 0.44
5.37 6.03 -1.57
5.66 6.35 0.74
6.55 7.35 -1.56
5.65 6.34 1.04
5.75 6.46 -1.06
5.66 6.36 1.35
6.01 6.74 -0.79
5.67 6.37 1.66
5.7 6.4 -0.45
5.71 6.41 1.98
5.67 6.37 -0.15
10.51 11.8 4.23
3.63 4.05 -1.46
5.68 6.34 0.15
4.23 4.72 -1.46
5.68 6.33 0.45
5.38 6 -1.57
5.68 6.33 0.74
6.57 7.32 -1.56
5.68 6.33 1.04
5.78 6.44 -1.06
5.69 6.34 1.35
6.02 6.71 -0.79
5.7 6.36 1.66
5.73 6.39 -0.45
5.74 6.4 1.98
5.7 6.36 -0.15
3.67 4.07 -1.47
5.7 6.31 0.15
4.25 4.71 -1.46
5.71 6.32 0.45
5.41 5.99 -1.57
5.71 6.32 0.74
6.59 7.3 -1.56
5.7 6.31 1.04
5.81 6.43 -1.06
5.73 6.34 1.35
6.04 6.69 -0.79
5.72 6.33 1.66
5.76 6.37 -0.45
5.77 6.38 1.99
5.73 6.35 -0.15
3.67 4.03 -1.46
5.74 6.31 0.15
4.27 4.7 -1.47
5.73 6.3 0.45
5.43 5.97 -1.57
5.74 6.31 0.75
6.61 7.27 -1.56
5.72 6.29 1.04
5.84 6.42 -1.07
5.76 6.33 1.35
6.08 6.68 -0.79
5.75 6.32 1.66
5.77 6.35 -0.45
5.79 6.37 1.99
5.76 6.34 -0.15
3.69 4.03 -1.46
5.77 6.29 0.15
4.3 4.69 -1.47
5.75 6.28 0.45
5.45 5.95 -1.57
5.77 6.3 0.75
6.63 7.24 -1.55
5.75 6.28 1.05
5.86 6.4 -1.07
5.78 6.31 1.36
6.1 6.66 -0.79
5.78 6.31 1.66
5.81 6.34 -0.45
5.82 6.35 1.99
5.79 6.33 -0.15
3.72 4.03 -1.47
5.8 6.28 0.15
4.31 4.67 -1.47
5.78 6.27 0.45
5.45 5.91 -1.56
5.8 6.28 0.75
6.66 7.22 -1.55
5.78 6.27 1.05
5.89 6.38 -1.07
5.8 6.29 1.35
6.13 6.65 -0.79
5.82 6.31 1.67
5.84 6.33 -0.45
5.85 6.34 1.99
5.81 6.3 -0.15
3.74 4.02 -1.47
5.82 6.27 0.15
4.33 4.66 -1.47
5.81 6.26 0.45
5.47 5.9 -1.56
5.81 6.26 0.75
6.68 7.19 -1.55
5.82 6.27 1.05
5.92 6.38 -1.07
5.83 6.28 1.36
6.15 6.63 -0.79
5.84 6.29 1.67
5.86 6.31 -0.45
5.87 6.32 1.99
5.84 6.29 -0.15
3.76 4.02 -1.47
5.84 6.25 0.15
4.37 4.67 -1.48
5.84 6.25 0.45
5.5 5.88 -1.57
5.84 6.25 0.75
6.7 7.16 -1.55
5.84 6.24 1.05
5.95 6.36 -1.07
5.87 6.27 1.36
6.18 6.61 -0.79
5.87 6.27 1.67
5.9 6.3 -0.45
5.9 6.31 2
5.88 6.29 -0.15
11.84 12.66 4.64
3.78 4.01 -1.48
5.88 6.24 0.15
4.37 4.63 -1.47
5.87 6.24 0.45
5.52 5.86 -1.56
5.88 6.24 0.75
6.71 7.12 -1.55
5.87 6.23 1.05
5.98 6.35 -1.07
5.89 6.26 1.36
6.21 6.6 -0.79
5.9 6.26 1.67
5.91 6.28 -0.45
5.93 6.3 2
5.9 6.26 -0.15
16.55 17.57 6.47
3.81 4.01 -1.48
5.9 6.22 0.15
4.38 4.62 -1.47
5.89 6.21 0.45
5.54 5.84 -1.56
5.91 6.23 0.75
6.74 7.11 -1.55
5.9 6.21 1.05
6 6.33 -1.07
5.92 6.24 1.36
6.24 6.58 -0.79
5.93 6.26 1.68
5.94 6.26 -0.45
5.96 6.28 2
5.93 6.25 -0.15
16.62 17.52 6.47
3.85 4.03 -1.49
5.93 6.21 0.15
4.39 4.6 -1.47
5.92 6.2 0.45
5.55 5.81 -1.56
5.93 6.21 0.75
6.77 7.09 -1.55
5.93 6.21 1.05
6.03 6.32 -1.07
5.95 6.23 1.36
6.27 6.57 -0.79
5.96 6.24 1.68
5.98 6.26 -0.45
5.99 6.27 2
5.95 6.23 -0.15
3.85 4 -1.49
5.96 6.2 0.15
4.41 4.59 -1.47
5.95 6.19 0.45
5.57 5.79 -1.56
5.95 6.19 0.75
6.79 7.06 -1.55
5.95 6.19 1.05
6.06 6.3 -1.07
5.98 6.22 1.37
6.29 6.54 -0.79
5.99 6.23 1.68
6 6.24 -0.45
6.02 6.26 2
5.98 6.22 -0.15
3.86 3.99 -1.49
5.99 6.18 0.15
4.43 4.57 -1.47
5.99 6.18 0.45
5.58 5.77 -1.56
5.98 6.18 0.75
6.81 7.03 -1.55
5.99 6.19 1.06
6.1 6.3 -1.08
6.01 6.2 1.37
6.32 6.53 -0.8
6.01 6.21 1.68
6.04 6.23 -0.45
6.05 6.25 2.01
6.01 6.21 -0.15
12.08 12.47 4.65
3.86 3.96 -1.48
6.01 6.16 0.15
4.43 4.55 -1.47
6.01 6.17 0.45
5.61 5.75 -1.56
6.01 6.17 0.75
6.83 7 -1.55
6.01 6.17 1.06
6.13 6.28 -1.08
6.04 6.19 1.37
6.36 6.52 -0.8
6.04 6.2 1.68
6.06 6.21 -0.45
6.08 6.23 2.01
6.04 6.2 -0.15
11.27 11.56 4.33
3.88 3.95 -1.48
6.05 6.16 0.15
4.45 4.53 -1.47
6.04 6.15 0.45
5.63 5.73 -1.56
6.04 6.16 0.75
6.85 6.98 -1.55
6.04 6.15 1.06
6.15 6.26 -1.08
6.06 6.17 1.37
6.39 6.51 -0.8
6.07 6.18 1.68
6.09 6.2 -0.46
6.1 6.21 2.01
6.07 6.18 -0.15
3.91 3.96 -1.49
6.08 6.15 0.15
4.47 4.52 -1.47
6.06 6.13 0.45
5.64 5.7 -1.56
6.07 6.14 0.76
6.88 6.96 -1.55
6.07 6.14 1.06
6.18 6.25 -1.08
6.09 6.15 1.37
6.42 6.49 -0.8
6.1 6.17 1.69
6.12 6.19 -0.46
6.13 6.2 2.01
6.1 6.16 -0.15
3.93 3.95 -1.49
6.11 6.13 0.15
4.49 4.51 -1.47
6.09 6.12 0.45
4.99 5.01 -1.38
6.1 6.12 0.76
6.9 6.93 -1.55
6.1 6.13 1.06
6.21 6.24 -1.08
6.12 6.14 1.37
6.44 6.46 -0.8
6.13 6.16 1.69
6.15 6.17 -0.46
6.16 6.19 2.02
6.13 6.15 -0.15
3.96 3.95 -1.5
6.13 6.12 0.15
4.56 4.55 -1.49
6.12 6.11 0.45
5.67 5.65 -1.56
6.13 6.11 0.76
6.92 6.9 -1.55
6.13 6.11 1.06
6.24 6.22 -1.08
6.15 6.13 1.37
6.63 6.62 -0.82
6.16 6.14 1.69
6.17 6.16 -0.46
6.2 6.18 2.02
6.16 6.14 -0.15
3.98 3.94 -1.5
6.16 6.1 0.15
4.56 4.51 -1.48
6.15 6.09 0.45
4.92 4.88 -1.35
6.16 6.1 0.76
6.94 6.87 -1.55
6.15 6.1 1.06
6.27 6.21 -1.08
6.18 6.12 1.38
6.57 6.51 -0.81
6.18 6.13 1.69
6.2 6.14 -0.46
6.23 6.17 2.02
6.2 6.14 -0.15
11.45 11.34 4.32
4.01 3.94 -1.51
6.19 6.09 0.15
4.55 4.48 -1.47
6.18 6.08 0.45
5.7 5.61 -1.56
6.2 6.09 0.76
6.96 6.85 -1.55
6.18 6.08 1.06
6.29 6.19 -1.08
6.21 6.11 1.38
6.48 6.37 -0.79
6.21 6.11 1.69
6.22 6.12 -0.46
6.25 6.15 2.02
6.22 6.11 -0.15
11.49 11.3 4.32
4.01 3.91 -1.5
6.22 6.07 0.15
4.58 4.48 -1.48
6.21 6.06 0.45
5.73 5.59 -1.56
6.22 6.08 0.76
6.98 6.82 -1.55
6.21 6.07 1.07
6.32 6.17 -1.08
6.23 6.09 1.38
6.38 6.24 -0.78
6.25 6.1 1.7
6.26 6.12 -0.46
6.28 6.13 2.03
6.23 6.08 -0.15
11.56 11.29 4.33
4 3.88 -1.49
6.25 6.06 0.15
4.6 4.46 -1.48
6.24 6.05 0.46
5.75 5.58 -1.56
6.24 6.06 0.76
7 6.79 -1.54
6.24 6.06 1.07
6.35 6.17 -1.09
6.27 6.08 1.38
6.37 6.18 -0.78
6.28 6.09 1.7
6.3 6.11 -0.46
6.31 6.13 2.03
6.27 6.08 -0.15
11.57 11.23 4.32
3.99 3.85 -1.49
6.27 6.04 0.15
4.61 4.44 -1.48
5.76 5.55 -1.56
6.27 6.04 0.76
7.03 6.77 -1.55
6.28 6.05 1.07
6.39 6.16 -1.09
6.3 6.07 1.39
6.38 6.15 -0.78
6.3 6.07 1.7
6.32 6.09 -0.46
6.34 6.11 2.03
6.29 6.07 -0.15
11.83 11.4 4.4
4.01 3.84 -1.49
6.29 6.03 0.15
4.61 4.41 -1.47
5.17 4.95 -1.39
6.3 6.04 0.76
7.04 6.74 -1.54
6.29 6.03 1.07
6.42 6.14 -1.09
6.32 6.06 1.39
6.42 6.14 -0.78
6.33 6.06 1.7
6.34 6.08 -0.46
6.38 6.11 2.04
6.33 6.06 -0.15
11.98 11.48 4.45
4.03 3.83 -1.49
6.33 6.01 0.15
4.59 4.36 -1.46
6.33 6.01 0.46
5.8 5.51 -1.55
6.33 6.02 0.76
7.06 6.7 -1.54
6.33 6.01 1.07
6.44 6.12 -1.09
6.36 6.05 1.39
6.44 6.12 -0.78
6.37 6.05 1.71
6.38 6.06 -0.46
6.41 6.09 2.04
6.36 6.04 -0.15
11.56 10.98 4.27
4.05 3.83 -1.49
6.36 6 0.15
4.61 4.35 -1.46
6.34 5.99 0.46
5.21 4.92 -1.39
6.36 6 0.77
7.09 6.69 -1.54
6.36 6 1.07
6.48 6.11 -1.09
6.37 6.02 1.39
6.47 6.1 -0.78
6.4 6.04 1.71
6.41 6.05 -0.46
6.44 6.08 2.04
6.38 6.03 -0.15
11.9 11.23 4.38
4.09 3.83 -1.5
6.39 5.99 0.15
4.64 4.35 -1.47
6.38 5.98 0.46
5.25 4.92 -1.4
6.39 5.99 0.77
7.1 6.66 -1.54
6.39 5.99 1.08
6.5 6.1 -1.09
6.42 6.02 1.39
6.48 6.08 -0.78
6.42 6.02 1.71
6.44 6.04 -0.46
6.47 6.06 2.05
6.41 6.01 -0.15
11.92 11.17 4.38
4.13 3.84 -1.51
6.41 5.97 0.15
4.66 4.34 -1.47
6.42 5.98 0.46
5.26 4.89 -1.4
6.42 5.97 0.77
7.12 6.63 -1.54
6.42 5.98 1.08
6.54 6.09 -1.1
6.45 6.01 1.4
6.52 6.07 -0.78
6.45 6.01 1.71
6.47 6.03 -0.46
6.5 6.05 2.05
6.45 6 -0.15
11.85 11.04 4.34
4.15 3.83 -1.51
6.44 5.96 0.15
4.64 4.29 -1.46
6.42 5.93 0.46
5.34 4.94 -1.41
6.46 5.97 0.77
7.15 6.61 -1.54
6.45 5.96 1.08
6.56 6.07 -1.1
6.48 5.99 1.4
6.55 6.06 -0.78
6.48 5.99 1.72
6.5 6.01 -0.46
6.54 6.04 2.06
6.48 5.99 -0.15
12.63 11.68 4.61
4.15 3.81 -1.51
6.47 5.94 0.15
4.68 4.29 -1.47
6.45 5.92 0.46
5.37 4.93 -1.42
6.49 5.96 0.77
7.16 6.57 -1.54
6.48 5.95 1.08
6.59 6.06 -1.1
6.51 5.97 1.4
6.59 6.05 -0.78
6.52 5.99 1.72
6.53 6 -0.46
6.57 6.03 2.06
6.5 5.97 -0.15
12.62 11.59 4.59
4.14 3.78 -1.5
6.51 5.93 0.15
4.66 4.25 -1.46
6.49 5.92 0.46
4.84 4.41 -1.27
6.51 5.93 0.77
7.18 6.54 -1.54
6.51 5.93 1.08
6.63 6.04 -1.1
6.53 5.96 1.4
6.62 6.04 -0.78
6.55 5.97 1.72
6.56 5.98 -0.47
6.59 6.01 2.06
6.53 5.95 -0.15
4.14 3.75 -1.5
6.54 5.92 0.15
4.66 4.22 -1.45
5.38 4.87 -1.41
6.53 5.92 0.77
7.19 6.51 -1.54
6.54 5.92 1.08
6.66 6.03 -1.1
6.56 5.94 1.4
6.64 6.02 -0.78
6.58 5.96 1.72
6.59 5.97 -0.47
6.63 6 2.07
6.56 5.94 -0.15
26.05 23.59 9.42
4.17 3.75 -1.5
6.56 5.9 0.15
4.68 4.21 -1.45
6.58 5.91 0.46
5.38 4.83 -1.41
6.57 5.91 0.77
7.21 6.48 -1.54
6.57 5.9 1.08
6.7 6.02 -1.11
6.6 5.93 1.41
6.68 6 -0.79
6.6 5.93 1.73
6.63 5.96 -0.47
6.67 5.99 2.07
6.59 5.92 -0.15
12.72 11.44 4.58
4.17 3.72 -1.5
6.59 5.88 0.15
4.66 4.16 -1.44
5.41 4.83 -1.41
6.6 5.89 0.77
7.23 6.45 -1.53
6.61 5.9 1.09
6.73 6.01 -1.11
6.63 5.92 1.41
6.71 5.99 -0.79
6.64 5.93 1.73
6.65 5.94 -0.47
6.69 5.97 2.07
6.62 5.91 -0.15
12.18 10.87 4.38
4.18 3.7 -1.5
6.62 5.87 0.15
4.69 4.16 -1.45
6.62 5.87 0.46
5.44 4.82 -1.41
6.63 5.87 0.77
7.25 6.42 -1.53
6.64 5.88 1.09
6.76 5.99 -1.11
6.67 5.91 1.41
6.74 5.97 -0.79
6.68 5.91 1.73
6.72 5.95 -0.47
6.74 5.97 2.08
6.66 5.9 -0.16
12.42 11 4.44
4.17 3.67 -1.49
6.66 5.86 0.15
4.71 4.14 -1.45
6.64 5.85 0.46
5.45 4.8 -1.41
6.66 5.86 0.78
7.28 6.41 -1.54
6.67 5.87 1.09
6.79 5.98 -1.11
6.68 5.88 1.41
6.77 5.96 -0.79
6.7 5.9 1.74
7.38 6.5 -0.52
6.68 5.88 -0.16
12.7 11.18 4.53
4.17 3.65 -1.49
6.68 5.84 0.15
4.73 4.13 -1.45
5.46 4.78 -1.41
6.68 5.84 0.78
7.3 6.38 -1.54
6.71 5.86 1.09
6.83 5.97 -1.11
6.72 5.87 1.41
6.8 5.94 -0.79
6.74 5.89 1.74
7.42 6.48 -0.52
13.65 11.93 4.19
6.72 5.87 -0.16
11.88 10.39 4.23
4.18 3.63 -1.48
6.71 5.82 0.16
4.74 4.11 -1.45
5.48 4.76 -1.41
6.71 5.83 0.78
7.3 6.34 -1.53
6.73 5.84 1.09
6.87 5.97 -1.12
6.76 5.87 1.42
6.83 5.93 -0.79
6.76 5.87 1.74
7.44 6.46 -0.52
13.65 11.85 4.17
6.76 5.87 -0.16
25.11 21.8 8.91
4.18 3.6 -1.48
6.75 5.81 0.16
4.74 4.08 -1.44
6.74 5.81 0.47
5.48 4.72 -1.41
6.76 5.82 0.78
7.32 6.31 -1.53
6.76 5.82 1.09
9.4 8.09 -1.52
6.78 5.84 1.42
6.86 5.91 -0.79
6.79 5.85 1.74
7.48 6.44 -0.52
13.4 11.54 4.08
6.79 5.85 -0.16
11.97 10.31 4.23
4.14 3.55 -1.46
6.79 5.81 0.16
4.71 4.03 -1.43
6.77 5.79 0.47
5.47 4.68 -1.4
6.79 5.81 0.78
7.34 6.28 -1.53
6.79 5.81 1.1
9.42 8.06 -1.52
6.83 5.84 1.42
6.89 5.89 -0.79
6.82 5.84 1.75
7.51 6.42 -0.52
6.83 5.84 -0.16
12.03 10.29 4.24
4.17 3.54 -1.46
6.82 5.8 0.16
4.72 4.01 -1.43
5.47 4.65 -1.4
6.82 5.79 0.78
7.37 6.26 -1.53
6.83 5.8 1.1
9.46 8.04 -1.52
6.86 5.83 1.43
6.92 5.88 -0.79
6.86 5.83 1.75
7.54 6.41 -0.52
6.85 5.82 -0.16
13.25 11.26 4.66
4.17 3.52 -1.46
6.85 5.78 0.16
4.74 4 -1.43
6.83 5.76 0.47
5.54 4.67 -1.41
6.84 5.77 0.78
7.39 6.23 -1.53
6.86 5.79 1.1
9.49 8.01 -1.53
6.88 5.8 1.42
6.94 5.86 -0.8
6.89 5.81 1.75
7.57 6.39 -0.52
12.68 10.7 3.83
6.88 5.81 -0.16
13.32 11.24 4.67
4.19 3.51 -1.46
6.87 5.76 0.16
4.74 3.98 -1.43
6.86 5.75 0.47
5.55 4.65 -1.41
6.88 5.76 0.78
7.39 6.2 -1.53
6.9 5.78 1.1
9.53 7.99 -1.53
6.91 5.79 1.43
6.98 5.85 -0.8
6.91 5.79 1.75
7.61 6.38 -0.52
12.78 10.7 3.85
6.91 5.79 -0.16
4.19 3.49 -1.46
6.9 5.74 0.16
4.75 3.95 -1.43
6.89 5.73 0.47
5.56 4.63 -1.41
6.91 5.75 0.79
7.41 6.17 -1.53
6.92 5.76 1.1
9.56 7.96 -1.53
6.95 5.79 1.43
7.01 5.84 -0.8
6.94 5.78 1.76
7.63 6.35 -0.52
25.67 21.36 7.71
6.94 5.78 -0.16
13.57 11.3 4.73
4.21 3.48 -1.46
6.93 5.72 0.16
4.78 3.95 -1.43
6.92 5.72 0.47
5.56 4.59 -1.4
6.95 5.74 0.79
7.43 6.13 -1.53
6.95 5.74 1.11
9.59 7.92 -1.53
6.99 5.77 1.44
7.05 5.82 -0.8
6.98 5.76 1.76
7.67 6.34 -0.52
13.73 11.34 4.11
6.97 5.76 -0.16
13.63 11.26 4.74
4.21 3.45 -1.46
6.97 5.72 0.16
4.81 3.94 -1.43
6.96 5.71 0.47
5.56 4.56 -1.4
6.98 5.73 0.79
7.45 6.11 -1.53
7 5.74 1.11
9.63 7.9 -1.53
7.01 5.75 1.44
7.08 5.81 -0.8
7.01 5.75 1.76
7.72 6.33 -0.52
13.77 11.29 4.11
7 5.74 -0.16
13.58 11.14 4.71
4.22 3.44 -1.46
7 5.7 0.16
4.81 3.92 -1.43
6.99 5.69 0.47
5.59 4.55 -1.4
7 5.7 0.79
7.47 6.08 -1.53
7.03 5.72 1.11
9.66 7.87 -1.53
7.04 5.73 1.44
7.12 5.79 -0.8
7.05 5.74 1.77
7.76 6.32 -0.52
13.97 11.37 4.16
7.02 5.71 -0.16
25.14 20.46 8.68
4.25 3.43 -1.46
7.02 5.68 0.16
4.84 3.91 -1.44
7.02 5.67 0.47
5.61 4.54 -1.4
7.04 5.69 0.79
7.48 6.05 -1.52
7.06 5.7 1.11
9.7 7.84 -1.53
7.08 5.72 1.44
7.14 5.78 -0.8
7.07 5.72 1.77
7.8 6.3 -0.53
12.7 10.26 3.77
7.05 5.7 -0.16
13.57 10.97 4.68
4.26 3.42 -1.46
7.05 5.66 0.16
4.82 3.87 -1.43
5.61 4.51 -1.4
7.08 5.69 0.79
7.5 6.02 -1.52
7.08 5.68 1.11
9.72 7.8 -1.53
7.12 5.71 1.45
7.18 5.76 -0.81
7.1 5.7 1.77
7.82 6.28 -0.53
26.64 21.39 7.89
7.08 5.68 -0.16
4.28 3.41 -1.47
7.09 5.65 0.16
4.84 3.85 -1.43
7.09 5.65 0.47
5.64 4.5 -1.4
7.11 5.67 0.8
7.52 6 -1.52
7.11 5.67 1.12
9.75 7.77 -1.53
7.15 5.7 1.45
7.21 5.75 -0.81
7.14 5.69 1.77
7.86 6.26 -0.53
7.13 5.68 -0.16
14.41 11.49 4.94
4.29 3.4 -1.47
7.13 5.64 0.16
4.85 3.84 -1.43
7.12 5.63 0.48
5.67 4.48 -1.4
7.14 5.65 0.8
7.54 5.97 -1.52
7.15 5.66 1.12
9.78 7.74 -1.53
7.17 5.68 1.45
7.24 5.73 -0.81
7.18 5.68 1.78
7.89 6.24 -0.53
13.5 10.68 3.97
7.15 5.66 -0.16
13.82 10.94 4.72
4.31 3.39 -1.47
7.16 5.63 0.16
4.87 3.83 -1.43
5.71 4.49 -1.41
7.17 5.64 0.8
7.56 5.94 -1.52
7.19 5.65 1.12
9.82 7.71 -1.53
7.21 5.66 1.45
7.27 5.71 -0.81
7.21 5.66 1.78
7.93 6.23 -0.53
26 20.43 7.63
7.18 5.65 -0.16
14.93 11.74 5.09
4.33 3.38 -1.47
7.18 5.61 0.16
4.88 3.81 -1.43
7.18 5.6 0.48
5.74 4.48 -1.42
7.2 5.62 0.8
7.56 5.9 -1.52
7.23 5.64 1.13
9.85 7.68 -1.53
7.24 5.65 1.45
7.3 5.7 -0.81
7.24 5.65 1.78
7.96 6.21 -0.53
7.22 5.63 -0.16
14.73 11.49 5
4.33 3.35 -1.47
7.21 5.59 0.16
4.93 3.82 -1.44
7.21 5.58 0.48
5.72 4.43 -1.41
7.24 5.61 0.8
7.59 5.88 -1.52
7.25 5.62 1.13
9.86 7.64 -1.53
7.28 5.64 1.46
7.34 5.68 -0.81
7.27 5.63 1.79
7.99 6.19 -0.53
7.25 5.62 -0.16
14.59 11.3 4.95
4.33 3.33 -1.46
7.25 5.58 0.16
4.93 3.79 -1.44
5.73 4.41 -1.41
7.27 5.59 0.8
7.6 5.85 -1.52
7.28 5.6 1.13
9.9 7.62 -1.53
7.31 5.63 1.46
7.37 5.67 -0.81
7.3 5.62 1.79
8.02 6.17 -0.53
7.29 5.61 -0.16
13.92 10.71 4.71
4.34 3.32 -1.46
7.29 5.56 0.16
4.9 3.75 -1.42
7.28 5.56 0.48
5.74 4.38 -1.4
7.31 5.58 0.8
7.63 5.83 -1.52
7.31 5.58 1.13
9.93 7.58 -1.53
7.33 5.6 1.46
7.4 5.65 -0.81
7.34 5.6 1.79
8.06 6.16 -0.53
13.59 10.38 3.95
7.31 5.58 -0.16
4.34 3.29 -1.46
7.32 5.55 0.16
4.93 3.73 -1.43
7.31 5.54 0.48
5.76 4.37 -1.41
7.34 5.56 0.81
7.64 5.79 -1.52
7.36 5.58 1.13
9.97 7.56 -1.54
7.37 5.59 1.46
7.43 5.63 -0.82
7.37 5.59 1.8
8.11 6.15 -0.53
40.56 30.75 11.75
7.35 5.57 -0.16
4.35 3.28 -1.46
7.34 5.52 0.16
4.98 3.75 -1.44
5.79 4.36 -1.41
7.37 5.55 0.81
7.65 5.76 -1.52
7.38 5.56 1.13
10 7.53 -1.54
7.41 5.58 1.47
7.46 5.62 -0.82
7.39 5.56 1.8
8.14 6.13 -0.53
15.7 11.82 4.54
7.38 5.56 -0.16
12.79 9.62 4.29
4.37 3.27 -1.46
7.37 5.51 0.16
4.99 3.73 -1.44
7.42 5.54 0.49
5.8 4.33 -1.41
7.41 5.54 0.81
7.68 5.74 -1.52
7.42 5.54 1.14
10.02 7.49 -1.54
7.45 5.56 1.47
7.51 5.61 -0.82
7.43 5.55 1.8
8.18 6.11 -0.53
15.64 11.69 4.51
7.42 5.55 -0.16
12.79 9.56 4.28
4.42 3.28 -1.47
7.41 5.5 0.16
4.95 3.67 -1.42
7.42 5.51 0.48
5.8 4.3 -1.4
7.45 5.53 0.81
7.69 5.71 -1.52
7.46 5.53 1.14
10.05 7.45 -1.54
7.47 5.54 1.47
7.55 5.6 -0.82
7.46 5.54 1.81
8.21 6.09 -0.54
15.72 11.66 4.52
7.45 5.53 -0.16
17.22 12.77 5.74
4.41 3.25 -1.47
7.45 5.48 0.16
4.99 3.67 -1.43
7.45 5.48 0.48
5.81 4.28 -1.4
7.49 5.51 0.81
7.71 5.68 -1.52
7.49 5.52 1.14
10.06 7.41 -1.53
7.49 5.52 1.47
7.59 5.59 -0.82
7.5 5.52 1.81
8.25 6.08 -0.54
13.85 10.2 3.97
7.48 5.51 -0.16
17.51 12.89 5.83
4.41 3.22 -1.46
7.48 5.47 0.16
5.02 3.67 -1.43
5.82 4.25 -1.4
7.52 5.49 0.81
7.72 5.64 -1.51
7.52 5.5 1.14
10.07 7.36 -1.53
7.54 5.51 1.48
7.62 5.57 -0.83
7.53 5.51 1.81
8.28 6.06 -0.54
13.89 10.15 3.97
7.51 5.49 -0.16
13.13 9.6 4.36
4.41 3.2 -1.46
7.5 5.45 0.16
5.02 3.64 -1.43
7.55 5.48 0.49
5.83 4.23 -1.4
7.55 5.48 0.82
7.73 5.61 -1.51
7.56 5.48 1.15
9.7 7.04 -1.47
7.57 5.49 1.48
7.65 5.55 -0.83
7.56 5.49 1.82
8.32 6.04 -0.54
27.2 19.74 7.76
7.55 5.48 -0.16
13.52 9.82 4.48
4.43 3.19 -1.46
7.54 5.43 0.16
5.04 3.63 -1.43
5.86 4.22 -1.4
7.59 5.47 0.82
7.75 5.58 -1.51
7.58 5.46 1.15
9.65 6.95 -1.46
7.61 5.48 1.49
7.68 5.53 -0.83
7.6 5.48 1.82
8.35 6.01 -0.54
14.46 10.42 4.11
7.58 5.46 -0.16
17.84 12.86 5.89
4.43 3.17 -1.46
7.58 5.42 0.16
5.02 3.59 -1.43
7.58 5.43 0.49
5.91 4.23 -1.41
7.62 5.46 0.82
7.77 5.56 -1.51
7.62 5.45 1.15
9.6 6.87 -1.45
7.64 5.47 1.49
7.72 5.52 -0.83
7.63 5.46 1.82
8.39 6 -0.54
14.45 10.34 4.1
7.61 5.45 -0.16
14.37 10.28 4.73
4.44 3.16 -1.46
7.62 5.41 0.16
5.03 3.57 -1.42
5.9 4.19 -1.41
7.66 5.44 0.82
7.79 5.53 -1.51
7.66 5.44 1.15
8.37 5.95 -1.26
7.66 5.44 1.49
7.76 5.51 -0.83
7.68 5.45 1.83
8.41 5.98 -0.54
14.49 10.29 4.1
7.64 5.43 -0.16
17.78 12.63 5.84
4.44 3.13 -1.46
7.65 5.39 0.16
5.07 3.57 -1.43
7.66 5.4 0.49
5.93 4.18 -1.41
7.68 5.42 0.82
7.8 5.5 -1.51
7.69 5.43 1.16
8.36 5.9 -1.26
7.7 5.43 1.49
7.79 5.49 -0.83
7.7 5.43 1.83
8.47 5.97 -0.54
14.49 10.22 4.09
7.68 5.41 -0.16
17.61 12.42 5.77
4.45 3.11 -1.45
7.68 5.37 0.16
5.08 3.56 -1.43
7.7 5.39 0.49
5.9 4.13 -1.4
7.72 5.4 0.82
7.81 5.47 -1.51
7.72 5.4 1.16
8.36 5.85 -1.25
7.73 5.41 1.49
7.82 5.47 -0.84
7.73 5.41 1.83
8.5 5.95 -0.54
15.76 11.03 4.44
7.71 5.4 -0.16
17.84 12.48 5.83
4.46 3.1 -1.46
7.71 5.36 0.16
5.08 3.53 -1.43
7.73 5.37 0.49
5.91 4.1 -1.4
7.76 5.39 0.83
7.83 5.44 -1.51
7.74 5.38 1.16
8.38 5.82 -1.25
7.76 5.39 1.5
7.86 5.46 -0.84
7.76 5.39 1.84
8.53 5.92 -0.54
16.24 11.29 4.57
7.75 5.38 -0.16
17.89 12.43 5.84
4.48 3.09 -1.46
7.75 5.35 0.16
5.09 3.51 -1.43
5.93 4.09 -1.4
7.8 5.38 0.83
7.84 5.41 -1.51
7.79 5.37 1.16
8.44 5.82 -1.26
7.79 5.37 1.5
7.9 5.45 -0.84
7.8 5.38 1.84
8.57 5.91 -0.55
16.24 11.2 4.55
7.78 5.37 -0.17
18.07 12.46 5.88
4.51 3.08 -1.46
7.78 5.33 0.16
5.13 3.51 -1.44
7.8 5.34 0.5
5.91 4.05 -1.39
7.83 5.36 0.83
7.86 5.38 -1.51
7.83 5.36 1.16
8.47 5.8 -1.26
7.82 5.35 1.5
7.94 5.43 -0.84
7.84 5.37 1.85
8.62 5.9 -0.55
16.28 11.14 4.55
7.81 5.34 -0.17
15.06 10.31 4.89
4.52 3.07 -1.46
7.82 5.31 0.17
5.11 3.47 -1.43
7.84 5.32 0.5
5.93 4.03 -1.39
7.86 5.34 0.83
7.87 5.35 -1.51
7.87 5.35 1.17
8.56 5.81 -1.27
7.87 5.34 1.51
7.96 5.41 -0.84
7.87 5.35 1.85
8.66 5.88 -0.55
16.36 11.11 4.57
7.85 5.33 -0.17
14.71 9.99 4.76
4.53 3.06 -1.46
7.85 5.3 0.17
5.1 3.44 -1.42
5.96 4.02 -1.4
7.89 5.32 0.83
7.89 5.32 -1.51
7.9 5.33 1.17
8.6 5.8 -1.27
7.9 5.33 1.51
8 5.4 -0.84
7.9 5.33 1.85
8.69 5.86 -0.55
16.46 11.1 4.58
7.89 5.32 -0.17
14.7 9.91 4.75
4.51 3.02 -1.45
7.88 5.28 0.17
5.15 3.45 -1.43
7.89 5.28 0.5
5.97 4 -1.4
7.93 5.31 0.84
7.89 5.28 -1.5
7.93 5.31 1.17
8.64 5.78 -1.28
7.94 5.31 1.51
8.03 5.38 -0.85
7.94 5.31 1.86
8.72 5.84 -0.55
16.51 11.05 4.59
7.92 5.31 -0.17
17.87 11.96 5.76
4.54 3.01 -1.46
7.92 5.27 0.17
5.07 3.37 -1.41
7.93 5.27 0.5
5.97 3.96 -1.39
7.97 5.29 0.84
7.91 5.26 -1.5
7.96 5.29 1.17
8.66 5.76 -1.28
7.98 5.3 1.52
8.07 5.36 -0.85
7.98 5.3 1.86
8.76 5.82 -0.55
18.22 12.11 5.05
7.96 5.29 -0.17
17.98 11.95 5.79
4.56 3.01 -1.46
7.96 5.25 0.17
5.1 3.36 -1.41
7.96 5.25 0.5
5.98 3.94 -1.39
8 5.27 0.84
7.92 5.22 -1.5
8 5.27 1.18
8.7 5.73 -1.28
8 5.28 1.52
8.12 5.35 -0.85
8.02 5.29 1.87
8.8 5.8 -0.55
17.35 11.44 4.8
7.98 5.26 -0.17
16.63 10.97 5.34
4.55 2.97 -1.46
8 5.23 0.17
5.11 3.35 -1.41
6.01 3.93 -1.4
8.03 5.25 0.84
7.94 5.2 -1.5
8.04 5.26 1.18
8.74 5.72 -1.28
8.03 5.26 1.52
8.14 5.32 -0.85
8.05 5.27 1.87
8.83 5.78 -0.55
8.02 5.25 -0.17
13.42 8.78 4.3
4.54 2.95 -1.45
8.02 5.21 0.17
5.14 3.34 -1.42
8.06 5.23 0.5
6.03 3.91 -1.4
8.07 5.24 0.84
7.95 5.17 -1.5
8.08 5.25 1.18
8.79 5.71 -1.29
8.08 5.25 1.53
8.18 5.31 -0.85
8.08 5.25 1.87
8.87 5.76 -0.55
15.29 9.93 4.21
8.07 5.24 -0.17
17.83 11.58 5.7
4.51 2.91 -1.44
8.06 5.2 0.17
5.15 3.32 -1.42
8.09 5.21 0.5
5.99 3.86 -1.39
8.11 5.22 0.84
7.97 5.13 -1.5
8.09 5.22 1.18
8.83 5.69 -1.29
8.12 5.23 1.53
8.21 5.29 -0.85
8.12 5.23 1.88
8.9 5.74 -0.56
15.37 9.91 4.22
8.1 5.22 -0.17
13.58 8.75 4.33
4.52 2.89 -1.44
8.1 5.18 0.17
5.17 3.31 -1.42
8.11 5.19 0.5
6.05 3.87 -1.4
8.15 5.21 0.85
7.98 5.11 -1.5
8.13 5.2 1.19
8.86 5.67 -1.29
8.15 5.21 1.53
8.24 5.27 -0.86
8.16 5.22 1.88
8.94 5.72 -0.56
18.86 12.06 5.17
8.13 5.2 -0.17
19.14 12.24 6.09
4.57 2.9 -1.45
8.13 5.16 0.17
5.19 3.29 -1.42
6.07 3.85 -1.4
8.18 5.19 0.85
8 5.08 -1.5
8.18 5.19 1.19
8.89 5.64 -1.29
8.18 5.19 1.53
8.29 5.26 -0.86
8.21 5.21 1.89
8.74 5.54 -0.54
15.35 9.74 4.2
8.15 5.17 -0.17
13.65 8.66 4.33
4.59 2.89 -1.45
8.18 5.15 0.17
5.21 3.28 -1.42
8.21 5.17 0.51
6.05 3.81 -1.39
8.21 5.17 0.85
8.01 5.04 -1.5
8.21 5.17 1.19
8.92 5.62 -1.29
8.22 5.17 1.54
8.31 5.24 -0.86
8.24 5.19 1.89
8.7 5.48 -0.54
15.44 9.72 4.21
8.2 5.16 -0.17
19.25 12.12 6.1
4.59 2.87 -1.45
8.21 5.13 0.17
5.23 3.27 -1.42
8.23 5.14 0.51
6.05 3.78 -1.39
8.25 5.15 0.85
8.01 5.01 -1.5
8.25 5.15 1.19
8.79 5.5 -1.27
8.26 5.16 1.54
8.35 5.22 -0.86
8.27 5.17 1.9
8.69 5.43 -0.54
19.06 11.91 5.19
8.24 5.15 -0.17
14.44 9.02 4.56
4.55 2.82 -1.44
8.25 5.11 0.17
5.31 3.3 -1.44
8.26 5.12 0.51
6.05 3.75 -1.38
8.29 5.14 0.85
8.03 4.98 -1.5
8.28 5.13 1.2
8.76 5.43 -1.27
8.3 5.15 1.55
8.39 5.2 -0.86
8.3 5.15 1.9
8.64 5.36 -0.53
19.08 11.83 5.18
8.29 5.14 -0.17
17.97 11.14 5.66
4.57 2.81 -1.44
8.29 5.1 0.17
5.28 3.25 -1.43
8.28 5.1 0.51
6.08 3.74 -1.39
8.33 5.12 0.86
8.05 4.95 -1.5
8.31 5.11 1.2
8.73 5.37 -1.26
8.33 5.13 1.55
8.4 5.17 -0.86
8.34 5.13 1.9
8.62 5.31 -0.53
19.17 11.79 5.2
8.31 5.11 -0.17
4.57 2.79 -1.43
8.33 5.08 0.17
5.26 3.21 -1.42
8.33 5.09 0.51
6.12 3.74 -1.39
8.36 5.1 0.86
8.06 4.92 -1.5
8.35 5.1 1.2
8.72 5.32 -1.25
8.37 5.11 1.55
8.4 5.13 -0.86
8.39 5.12 1.91
8.61 5.25 -0.53
19.27 11.76 5.21
8.34 5.09 -0.17
18.97 11.58 5.96
4.55 2.76 -1.43
8.36 5.07 0.17
5.3 3.21 -1.43
8.37 5.07 0.51
6.11 3.7 -1.39
8.39 5.08 0.86
8.07 4.89 -1.5
8.41 5.09 1.21
8.67 5.26 -1.25
8.41 5.1 1.56
8.4 5.09 -0.86
8.42 5.1 1.91
8.59 5.2 -0.53
19.41 11.76 5.24
8.38 5.08 -0.17
18.96 11.48 5.94
4.57 2.75 -1.43
8.4 5.05 0.17
5.3 3.19 -1.43
6.15 3.7 -1.4
8.43 5.07 0.86
8.09 4.86 -1.49
8.45 5.08 1.21
8.63 5.19 -1.24
8.46 5.08 1.56
8.43 5.07 -0.86
8.45 5.08 1.92
8.56 5.15 -0.52
19.48 11.71 5.25
8.42 5.06 -0.17
19.02 11.44 5.95
4.63 2.76 -1.45
8.43 5.03 0.17
5.3 3.16 -1.43
8.48 5.05 0.52
6.13 3.65 -1.39
8.47 5.05 0.86
8.1 4.83 -1.49
8.48 5.05 1.21
8.6 5.13 -1.23
8.49 5.07 1.57
8.47 5.05 -0.86
8.49 5.06 1.92
8.52 5.08 -0.52
14.58 8.69 3.92
8.46 5.04 -0.17
19.03 11.35 5.94
4.65 2.75 -1.45
8.47 5.01 0.17
5.32 3.15 -1.43
8.52 5.04 0.52
6.15 3.64 -1.39
8.51 5.04 0.87
8.11 4.8 -1.49
8.5 5.03 1.21
8.58 5.07 -1.22
8.54 5.05 1.57
8.59 5.08 -0.87
8.54 5.05 1.93
8.53 5.05 -0.52
16.24 9.61 4.36
8.5 5.03 -0.17
19.02 11.25 5.92
4.63 2.72 -1.44
8.51 5 0.17
5.32 3.12 -1.42
8.53 5.01 0.52
6.16 3.62 -1.39
8.54 5.01 0.87
8.13 4.77 -1.49
8.54 5.01 1.22
8.6 5.05 -1.22
8.57 5.03 1.57
8.61 5.05 -0.87
8.58 5.04 1.93
8.56 5.02 -0.52
15.02 8.81 4.02
8.52 5 -0.17
4.62 2.69 -1.43
8.55 4.98 0.17
5.34 3.11 -1.43
8.58 5 0.52
6.14 3.58 -1.38
8.57 4.99 0.87
8.14 4.74 -1.49
8.59 5 1.22
8.63 5.02 -1.23
8.61 5.01 1.58
8.63 5.02 -0.87
8.62 5.02 1.94
8.59 5 -0.52
8.56 4.99 -0.17
15.55 9.05 4.82
4.63 2.67 -1.43
8.58 4.96 0.17
5.36 3.09 -1.43
8.6 4.96 0.52
6.17 3.56 -1.38
8.61 4.97 0.87
8.15 4.71 -1.49
8.62 4.98 1.22
8.66 5 -1.23
8.66 5 1.58
8.66 5 -0.87
8.65 5 1.94
8.62 4.98 -0.52
16.02 9.25 4.27
8.61 4.97 -0.17
15.56 8.99 4.82
4.65 2.66 -1.44
8.62 4.94 0.17
5.36 3.07 -1.43
8.63 4.95 0.52
6.21 3.56 -1.39
8.66 4.96 0.87
8.15 4.67 -1.49
8.66 4.96 1.23
8.7 4.98 -1.23
8.69 4.98 1.59
8.7 4.98 -0.88
8.7 4.98 1.95
8.64 4.95 -0.52
15.95 9.14 4.24
8.65 4.95 -0.17
15.02 8.6 4.64
4.67 2.66 -1.44
8.66 4.92 0.17
5.31 3.02 -1.41
6.17 3.51 -1.38
8.69 4.94 0.87
8.17 4.65 -1.49
8.7 4.94 1.23
8.74 4.97 -1.24
8.73 4.96 1.59
8.75 4.97 -0.88
8.73 4.96 1.95
8.68 4.94 -0.52
20.37 11.58 5.41
8.69 4.94 -0.17
15.02 8.54 4.63
4.68 2.64 -1.44
8.71 4.91 0.17
5.33 3 -1.41
8.71 4.91 0.52
6.14 3.46 -1.37
8.73 4.92 0.88
8.18 4.61 -1.49
8.75 4.93 1.23
8.94 5.04 -1.26
8.76 4.94 1.59
9.06 5.11 -0.91
8.77 4.95 1.96
8.73 4.92 -0.53
20.35 11.47 5.39
8.71 4.91 -0.17
20.4 11.5 6.27
4.69 2.63 -1.44
8.74 4.89 0.17
5.44 3.04 -1.44
8.75 4.89 0.53
6.16 3.45 -1.37
8.76 4.9 0.88
8.19 4.58 -1.49
8.79 4.92 1.24
9.11 5.1 -1.28
8.79 4.92 1.6
9.1 5.09 -0.91
8.81 4.93 1.96
8.77 4.9 -0.53
8.76 4.9 -0.18
14.39 8.05 4.42
4.71 2.61 -1.44
8.77 4.87 0.18
5.45 3.02 -1.44
8.81 4.89 0.53
6.17 3.42 -1.37
8.79 4.88 0.88
8.2 4.55 -1.49
8.83 4.9 1.24
9.09 5.04 -1.28
8.84 4.9 1.6
9.12 5.06 -0.91
8.85 4.91 1.97
8.8 4.88 -0.53
28.56 15.84 7.54
8.8 4.88 -0.18
14.15 7.85 4.34
4.72 2.6 -1.44
8.81 4.85 0.18
5.44 2.99 -1.43
8.83 4.86 0.53
6.17 3.39 -1.37
8.84 4.87 0.88
8.22 4.52 -1.49
8.86 4.87 1.24
9.07 4.99 -1.27
8.87 4.88 1.6
9.15 5.03 -0.91
8.89 4.89 1.97
8.83 4.86 -0.53
8.83 4.86 -0.18
16.9 9.3 5.17
4.74 2.59 -1.45
8.85 4.83 0.18
5.44 2.97 -1.43
8.86 4.83 0.53
6.17 3.37 -1.37
8.89 4.85 0.89
8.23 4.49 -1.49
8.9 4.85 1.24
9.04 4.93 -1.26
8.93 4.87 1.61
9.18 5.01 -0.91
8.93 4.88 1.98
8.87 4.84 -0.53
8.88 4.84 -0.18
14.66 8 4.47
4.74 2.56 -1.44
8.9 4.81 0.18
5.48 2.96 -1.44
8.89 4.81 0.53
6.13 3.32 -1.36
8.93 4.83 0.89
8.24 4.46 -1.48
8.94 4.84 1.25
9.05 4.9 -1.26
8.96 4.85 1.61
9.13 4.94 -0.91
8.98 4.86 1.98
8.91 4.82 -0.53
14.81 8.02 3.89
8.9 4.82 -0.18
14.77 8 4.5
4.77 2.56 -1.45
8.93 4.79 0.18
5.49 2.95 -1.44
6.25 3.35 -1.38
8.97 4.81 0.89
8.26 4.43 -1.48
8.99 4.82 1.25
9.07 4.87 -1.26
9.01 4.84 1.62
9.09 4.88 -0.9
9.02 4.84 1.99
8.95 4.8 -0.53
16.17 8.68 4.24
8.95 4.8 -0.18
4.79 2.55 -1.45
8.96 4.77 0.18
5.48 2.92 -1.43
9.03 4.8 0.54
6.26 3.33 -1.38
9.01 4.79 0.89
8.26 4.39 -1.48
9.04 4.81 1.26
9.07 4.83 -1.26
9.05 4.82 1.62
9.1 4.84 -0.9
9.05 4.81 1.99
9 4.79 -0.53
9 4.79 -0.18
15.32 8.15 4.65
4.8 2.53 -1.45
9.01 4.75 0.18
5.47 2.89 -1.43
9.04 4.77 0.54
6.25 3.3 -1.37
9.05 4.78 0.9
8.26 4.36 -1.48
9.07 4.79 1.26
9.11 4.81 -1.26
9.09 4.8 1.63
9.12 4.81 -0.9
9.09 4.8 2
9.03 4.77 -0.54
21.18 11.18 5.53
9.03 4.77 -0.18
15.37 8.11 4.66
4.82 2.52 -1.46
9.05 4.73 0.18
5.45 2.85 -1.42
9.08 4.75 0.54
6.26 3.28 -1.37
9.1 4.76 0.9
8.28 4.33 -1.48
9.11 4.76 1.26
9.12 4.77 -1.26
9.15 4.79 1.63
9.15 4.79 -0.9
9.13 4.78 2
9.08 4.75 -0.54
20.57 10.76 5.36
9.08 4.75 -0.18
15.19 7.95 4.59
4.8 2.49 -1.45
9.09 4.72 0.18
5.44 2.82 -1.42
9.11 4.72 0.54
6.25 3.24 -1.37
9.13 4.74 0.9
8.3 4.31 -1.48
9.15 4.75 1.27
9.16 4.75 -1.27
9.17 4.76 1.64
9.18 4.76 -0.91
9.18 4.76 2.01
9.11 4.73 -0.54
9.12 4.73 -0.18
4.81 2.48 -1.45
9.13 4.7 0.18
5.45 2.81 -1.42
9.15 4.71 0.54
6.26 3.22 -1.37
9.16 4.72 0.9
8.3 4.27 -1.48
9.2 4.74 1.27
9.21 4.74 -1.27
9.22 4.75 1.64
9.21 4.74 -0.91
9.22 4.75 2.02
9.16 4.72 -0.54
9.15 4.71 -0.18
15.08 7.76 4.54
4.8 2.45 -1.44
9.16 4.68 0.18
5.47 2.79 -1.42
9.2 4.7 0.54
6.29 3.21 -1.37
9.2 4.7 0.9
8.3 4.24 -1.48
9.23 4.71 1.27
9.28 4.74 -1.28
9.25 4.72 1.65
9.27 4.73 -0.91
9.26 4.72 2.02
9.2 4.7 -0.54
9.2 4.7 -0.18
15.09 7.7 4.54
4.81 2.43 -1.44
9.21 4.66 0.18
5.46 2.76 -1.41
9.21 4.66 0.54
6.31 3.19 -1.37
9.26 4.68 0.91
8.32 4.21 -1.48
9.27 4.69 1.27
10.76 5.44 -1.48
9.3 4.7 1.65
9.53 4.82 -0.93
9.3 4.7 2.03
9.27 4.69 -0.54
18.54 9.38 4.8
9.25 4.68 -0.18
15.14 7.66 4.55
4.83 2.42 -1.45
9.25 4.64 0.18
5.48 2.75 -1.41
6.31 3.16 -1.37
9.3 4.67 0.91
8.33 4.18 -1.48
9.32 4.67 1.28
10.76 5.4 -1.48
9.34 4.68 1.66
9.54 4.78 -0.93
9.34 4.68 2.03
9.87 4.95 -0.58
18.55 9.3 4.79
9.28 4.65 -0.18
4.84 2.41 -1.45
9.29 4.62 0.18
5.51 2.74 -1.42
9.31 4.63 0.54
6.32 3.14 -1.37
9.35 4.65 0.91
8.35 4.15 -1.48
9.36 4.65 1.28
10.77 5.36 -1.48
9.37 4.66 1.66
9.37 4.66 -0.92
9.38 4.66 2.04
9.87 4.9 -0.58
9.32 4.63 -0.18
15.32 7.62 4.58
4.81 2.37 -1.44
9.33 4.6 0.18
5.54 2.73 -1.43
9.34 4.6 0.55
6.33 3.12 -1.37
9.38 4.62 0.92
8.36 4.12 -1.48
9.4 4.63 1.29
10.8 5.32 -1.48
9.42 4.64 1.66
9.4 4.63 -0.92
9.42 4.64 2.04
9.85 4.85 -0.58
18.05 8.89 4.64
9.35 4.61 -0.18
4.82 2.35 -1.44
9.36 4.57 0.18
5.58 2.72 -1.43
6.33 3.09 -1.37
9.43 4.6 0.92
8.36 4.08 -1.47
9.44 4.61 1.29
10.81 5.28 -1.48
9.47 4.63 1.67
9.47 4.63 -0.92
9.46 4.62 2.05
9.81 4.79 -0.57
18.28 8.93 4.7
9.4 4.59 -0.18
17.61 8.6 5.25
4.84 2.34 -1.44
9.4 4.55 0.18
5.58 2.7 -1.43
9.43 4.56 0.55
6.34 3.07 -1.37
9.46 4.58 0.92
8.37 4.05 -1.47
9.48 4.59 1.29
10.82 5.24 -1.48
9.52 4.61 1.68
13.52 6.54 -1.31
9.51 4.6 2.05
9.77 4.73 -0.57
9.45 4.58 -0.18
18.29 8.85 5.44
4.85 2.33 -1.44
9.45 4.53 0.18
5.6 2.69 -1.43
9.45 4.53 0.55
6.34 3.04 -1.37
9.51 4.56 0.92
8.38 4.02 -1.47
9.53 4.57 1.3
10.81 5.19 -1.47
9.56 4.59 1.68
13.53 6.49 -1.31
9.56 4.58 2.06
9.7 4.65 -0.56
18.51 8.88 4.74
9.49 4.55 -0.18
18.29 8.78 5.44
4.88 2.32 -1.45
9.5 4.51 0.18
5.58 2.65 -1.43
6.34 3.01 -1.36
9.55 4.54 0.93
8.41 4 -1.47
9.59 4.56 1.3
10.82 5.15 -1.47
9.6 4.56 1.68
13.57 6.45 -1.32
9.59 4.56 2.06
9.69 4.61 -0.56
18.58 8.83 4.75
9.53 4.53 -0.18
15.38 7.31 4.56
4.9 2.31 -1.45
9.54 4.49 0.18
5.58 2.63 -1.42
9.56 4.5 0.55
6.36 3 -1.37
9.58 4.51 0.93
8.41 3.97 -1.47
9.61 4.53 1.3
10.84 5.11 -1.47
9.64 4.54 1.69
9.69 4.57 -0.94
9.64 4.54 2.07
9.74 4.59 -0.56
21.21 9.99 5.41
9.57 4.51 -0.18
15.64 7.37 4.63
4.92 2.3 -1.46
9.57 4.47 0.18
5.59 2.61 -1.42
9.59 4.48 0.55
6.37 2.98 -1.37
9.63 4.5 0.93
8.4 3.92 -1.47
9.64 4.5 1.31
10.84 5.06 -1.47
9.69 4.52 1.69
9.73 4.55 -0.94
9.68 4.52 2.08
9.75 4.55 -0.56
9.62 4.49 -0.19
15.59 7.28 4.61
4.93 2.28 -1.46
9.62 4.45 0.18
5.6 2.59 -1.42
9.62 4.45 0.56
6.4 2.96 -1.37
9.67 4.48 0.93
8.42 3.9 -1.47
9.69 4.48 1.31
10.86 5.03 -1.47
9.73 4.5 1.7
9.8 4.53 -0.94
9.72 4.5 2.08
9.8 4.54 -0.57
19.87 9.19 5.05
9.66 4.47 -0.19
15.66 7.25 4.62
4.93 2.26 -1.45
9.66 4.43 0.19
5.62 2.58 -1.43
9.68 4.44 0.56
6.43 2.95 -1.37
9.72 4.46 0.94
8.43 3.87 -1.47
9.75 4.47 1.32
10.86 4.98 -1.47
9.76 4.48 1.7
9.84 4.51 -0.95
9.77 4.48 2.09
9.81 4.5 -0.57
19.28 8.84 4.9
9.71 4.45 -0.19
15.47 7.09 4.56
4.93 2.24 -1.45
9.7 4.41 0.19
5.64 2.56 -1.43
9.71 4.41 0.56
6.42 2.92 -1.37
9.76 4.44 0.94
8.46 3.84 -1.47
9.78 4.44 1.32
10.87 4.94 -1.47
9.8 4.45 1.71
9.88 4.49 -0.95
9.82 4.46 2.1
9.85 4.48 -0.57
9.75 4.43 -0.19
16.74 7.6 4.93
4.94 2.22 -1.45
9.74 4.38 0.19
5.64 2.54 -1.43
9.77 4.4 0.56
6.43 2.89 -1.37
9.8 4.41 0.94
8.48 3.82 -1.47
9.84 4.43 1.32
10.89 4.9 -1.47
9.86 4.44 1.71
13.8 6.21 -1.32
9.86 4.44 2.1
9.92 4.47 -0.57
19.99 9 5.06
9.78 4.4 -0.19
16.44 7.4 4.83
4.96 2.21 -1.45
9.77 4.35 0.19
5.64 2.52 -1.43
9.84 4.39 0.56
6.44 2.87 -1.37
9.84 4.39 0.94
8.48 3.78 -1.47
9.89 4.41 1.33
10.9 4.86 -1.47
9.9 4.42 1.72
13.86 6.18 -1.33
9.9 4.41 2.11
10 4.46 -0.57
17.06 7.6 4.31
9.84 4.39 -0.19
16.43 7.33 4.82
4.96 2.19 -1.45
9.82 4.34 0.19
5.63 2.49 -1.42
9.86 4.36 0.56
6.46 2.85 -1.37
9.89 4.37 0.95
8.49 3.75 -1.47
9.92 4.38 1.33
10.9 4.81 -1.46
9.94 4.39 1.72
13.93 6.15 -1.33
9.94 4.39 2.11
10.04 4.44 -0.58
16.84 7.44 4.25
9.88 4.36 -0.19
20.26 8.95 5.94
4.97 2.18 -1.45
9.86 4.32 0.19
5.65 2.47 -1.42
9.91 4.34 0.57
6.47 2.83 -1.37
9.94 4.35 0.95
8.49 3.72 -1.47
9.96 4.36 1.34
10.9 4.77 -1.46
10 4.38 1.73
13.98 6.12 -1.34
9.99 4.38 2.12
10.05 4.4 -0.57
16.89 7.4 4.26
9.92 4.35 -0.19
19.54 8.56 5.72
4.97 2.15 -1.45
9.91 4.3 0.19
5.68 2.46 -1.43
9.94 4.31 0.57
6.42 2.78 -1.36
9.98 4.33 0.95
8.5 3.69 -1.47
10 4.34 1.34
10.92 4.74 -1.46
10.03 4.35 1.73
14.07 6.11 -1.34
10.04 4.36 2.13
10.07 4.37 -0.58
18.62 8.08 4.69
9.96 4.32 -0.19
17.38 7.54 5.08
5 2.15 -1.46
9.95 4.27 0.19
5.68 2.44 -1.43
9.97 4.28 0.57
6.45 2.77 -1.36
10.02 4.3 0.95
8.52 3.65 -1.47
10.06 4.32 1.34
10.95 4.7 -1.46
10.08 4.33 1.74
14.12 6.06 -1.34
10.09 4.33 2.13
10.21 4.38 -0.58
17.33 7.44 4.35
10.01 4.3 -0.19
5 2.12 -1.46
9.98 4.24 0.19
5.68 2.41 -1.42
6.49 2.76 -1.37
10.06 4.28 0.96
8.52 3.62 -1.47
10.1 4.3 1.35
10.96 4.66 -1.46
10.12 4.3 1.74
14.18 6.03 -1.35
10.13 4.3 2.14
10.24 4.35 -0.58
18.14 7.71 4.55
10.06 4.28 -0.19
5.01 2.11 -1.46
10.02 4.22 0.19
5.68 2.39 -1.42
10.07 4.24 0.57
6.52 2.74 -1.37
10.11 4.26 0.96
8.53 3.59 -1.47
10.12 4.26 1.35
10.93 4.6 -1.46
10.17 4.28 1.75
14.22 5.99 -1.35
10.17 4.28 2.14
10.21 4.3 -0.58
17.57 7.4 4.4
10.11 4.26 -0.19
18.35 7.73 5.34
5.01 2.09 -1.46
10.08 4.2 0.19
5.71 2.38 -1.43
10.11 4.22 0.57
6.52 2.72 -1.37
10.16 4.24 0.96
8.54 3.56 -1.46
10.18 4.24 1.35
10.94 4.56 -1.46
10.22 4.26 1.75
14.28 5.96 -1.35
10.22 4.26 2.15
10.32 4.3 -0.59
17.2 7.17 4.3
10.15 4.24 -0.19
17.46 7.28 5.07
5.03 2.08 -1.46
10.13 4.18 0.19
5.71 2.36 -1.43
10.16 4.2 0.58
6.48 2.68 -1.36
10.2 4.21 0.97
8.54 3.53 -1.46
10.23 4.23 1.36
10.95 4.52 -1.45
10.26 4.24 1.76
14.34 5.92 -1.36
10.27 4.24 2.16
