# .PCD v0.7 - Point Cloud Data file format
VERSION 0.7
FIELDS x y z
SIZE 4 4 4
TYPE F F F
COUNT 1 1 1
WIDTH 2734
HEIGHT 1
VIEWPOINT 0 0 0 1 0 0 0
POINTS 2734
DATA ascii
6.32 -0.86 -1.71
7.29 -1 -1.7
8.59 -1.17 -1.69
10.41 -1.42 -1.66
13.3 -1.82 -1.65
18.59 -2.54 -1.64
6.31 -0.88 -1.71
7.29 -1.02 -1.7
8.58 -1.2 -1.68
10.42 -1.46 -1.67
13.29 -1.86 -1.65
18.63 -2.61 -1.65
6.29 -0.9 -1.7
7.31 -1.05 -1.71
8.57 -1.23 -1.68
10.41 -1.49 -1.67
13.3 -1.91 -1.65
18.64 -2.67 -1.65
6.29 -0.92 -1.7
7.29 -1.07 -1.7
8.57 -1.26 -1.68
10.4 -1.53 -1.67
13.3 -1.96 -1.65
18.7 -2.75 -1.65
6.29 -0.95 -1.71
7.29 -1.1 -1.7
8.57 -1.29 -1.69
10.41 -1.57 -1.67
13.3 -2.01 -1.65
18.73 -2.82 -1.66
30.6 -4.61 -1.62
6.29 -0.97 -1.7
7.27 -1.12 -1.7
8.57 -1.32 -1.69
10.41 -1.61 -1.67
13.31 -2.06 -1.65
18.74 -2.89 -1.66
30.61 -4.73 -1.62
6.28 -0.99 -1.7
7.26 -1.15 -1.7
8.56 -1.35 -1.68
10.41 -1.64 -1.67
13.33 -2.1 -1.66
18.76 -2.96 -1.66
30.6 -4.83 -1.62
6.27 -1.01 -1.7
7.28 -1.18 -1.7
8.55 -1.38 -1.68
10.41 -1.68 -1.67
13.35 -2.16 -1.66
18.77 -3.03 -1.66
6.28 -1.04 -1.71
7.29 -1.2 -1.7
8.56 -1.41 -1.69
10.39 -1.71 -1.67
13.34 -2.2 -1.66
18.82 -3.1 -1.67
6.28 -1.06 -1.71
7.27 -1.22 -1.7
8.56 -1.44 -1.69
10.39 -1.75 -1.67
13.33 -2.25 -1.66
18.84 -3.17 -1.67
31.01 -5.22 -1.65
6.28 -1.08 -1.71
7.27 -1.25 -1.7
8.56 -1.47 -1.69
10.39 -1.79 -1.67
13.34 -2.29 -1.66
18.86 -3.24 -1.67
6.28 -1.1 -1.71
7.26 -1.28 -1.7
8.55 -1.5 -1.69
10.39 -1.83 -1.67
13.33 -2.34 -1.66
18.85 -3.31 -1.67
6.26 -1.12 -1.7
7.26 -1.3 -1.7
8.54 -1.53 -1.69
10.38 -1.86 -1.67
13.34 -2.39 -1.66
18.84 -3.38 -1.67
6.25 -1.14 -1.7
7.26 -1.33 -1.7
8.54 -1.56 -1.69
10.37 -1.9 -1.67
13.35 -2.44 -1.67
18.84 -3.45 -1.68
6.26 -1.17 -1.71
7.25 -1.35 -1.7
8.54 -1.59 -1.69
10.37 -1.93 -1.67
13.36 -2.49 -1.67
18.85 -3.51 -1.68
6.26 -1.19 -1.71
7.24 -1.38 -1.7
8.54 -1.62 -1.69
10.37 -1.97 -1.67
13.36 -2.54 -1.67
18.88 -3.59 -1.68
38.04 -7.22 -0.68
6.26 -1.21 -1.71
7.25 -1.4 -1.71
8.53 -1.65 -1.69
10.37 -2.01 -1.67
13.37 -2.59 -1.67
18.9 -3.66 -1.68
37.95 -7.35 -0.67
6.25 -1.23 -1.71
7.24 -1.43 -1.7
8.52 -1.68 -1.69
10.36 -2.04 -1.67
18.87 -3.72 -1.68
37.9 -7.48 -0.67
6.24 -1.25 -1.71
7.25 -1.46 -1.71
8.52 -1.71 -1.69
10.34 -2.08 -1.67
13.42 -2.7 -1.68
18.89 -3.8 -1.69
37.82 -7.6 -0.67
6.25 -1.28 -1.71
7.23 -1.48 -1.7
8.52 -1.74 -1.69
10.33 -2.11 -1.67
13.43 -2.75 -1.68
18.92 -3.87 -1.69
37.76 -7.73 -0.67
6.24 -1.3 -1.71
7.22 -1.5 -1.7
8.52 -1.77 -1.69
10.33 -2.15 -1.67
13.42 -2.79 -1.68
18.93 -3.94 -1.69
37.72 -7.85 -0.67
6.24 -1.32 -1.71
7.23 -1.53 -1.71
8.5 -1.8 -1.69
10.33 -2.19 -1.67
13.44 -2.85 -1.69
19 -4.03 -1.7
37.64 -7.98 -0.67
6.22 -1.34 -1.71
7.23 -1.56 -1.71
8.51 -1.83 -1.69
10.32 -2.22 -1.67
13.45 -2.9 -1.69
19.02 -4.1 -1.7
37.63 -8.1 -0.67
6.22 -1.36 -1.71
7.22 -1.58 -1.71
8.51 -1.87 -1.69
10.31 -2.26 -1.67
13.47 -2.95 -1.69
19.03 -4.17 -1.7
6.22 -1.38 -1.71
7.21 -1.6 -1.7
8.51 -1.89 -1.7
10.31 -2.29 -1.67
13.48 -3 -1.69
19.03 -4.23 -1.71
37.93 -8.44 -0.68
6.22 -1.41 -1.71
7.2 -1.63 -1.71
8.5 -1.92 -1.69
10.32 -2.33 -1.68
13.47 -3.05 -1.7
19.04 -4.31 -1.71
29.5 -6.67 -1.59
38.16 -8.63 -0.68
6.22 -1.43 -1.71
7.22 -1.66 -1.71
8.47 -1.95 -1.69
10.31 -2.37 -1.68
13.48 -3.1 -1.7
19.04 -4.37 -1.71
29.07 -6.68 -1.56
38.55 -8.86 -0.69
6.2 -1.45 -1.71
7.21 -1.68 -1.71
8.48 -1.98 -1.69
10.31 -2.41 -1.68
13.49 -3.15 -1.7
19.05 -4.45 -1.71
29.14 -6.8 -1.57
6.2 -1.47 -1.71
7.2 -1.71 -1.71
8.48 -2.01 -1.69
10.32 -2.45 -1.68
13.5 -3.2 -1.7
19.06 -4.52 -1.71
29.2 -6.93 -1.57
6.2 -1.5 -1.71
7.19 -1.73 -1.71
8.47 -2.04 -1.69
10.3 -2.48 -1.68
13.5 -3.25 -1.71
19.07 -4.6 -1.72
29.09 -7.01 -1.57
6.21 -1.52 -1.71
7.19 -1.76 -1.71
8.47 -2.07 -1.69
10.32 -2.52 -1.68
13.5 -3.3 -1.71
19.08 -4.67 -1.72
6.2 -1.54 -1.71
7.19 -1.79 -1.71
8.44 -2.1 -1.69
10.33 -2.57 -1.69
13.51 -3.35 -1.71
19.08 -4.74 -1.72
29.73 -7.38 -1.61
6.19 -1.56 -1.71
7.19 -1.81 -1.71
8.44 -2.13 -1.69
10.34 -2.6 -1.69
13.52 -3.41 -1.71
19.09 -4.81 -1.72
29.91 -7.53 -1.62
6.18 -1.58 -1.71
7.19 -1.84 -1.71
8.45 -2.16 -1.69
10.33 -2.64 -1.69
13.53 -3.46 -1.71
19.11 -4.89 -1.73
6.19 -1.6 -1.71
7.16 -1.86 -1.71
8.44 -2.19 -1.69
10.34 -2.68 -1.69
13.55 -3.51 -1.72
19.12 -4.96 -1.73
30.66 -7.95 -1.66
6.18 -1.62 -1.71
7.16 -1.88 -1.71
8.44 -2.22 -1.7
10.32 -2.71 -1.69
13.55 -3.56 -1.72
19.15 -5.04 -1.73
30.6 -8.05 -1.66
6.18 -1.65 -1.71
36.24 -9.66 0.65
7.16 -1.91 -1.71
8.42 -2.24 -1.69
10.35 -2.76 -1.7
13.56 -3.61 -1.72
19.18 -5.11 -1.74
30.64 -8.17 -1.66
6.16 -1.67 -1.71
36.14 -9.77 0.65
7.17 -1.94 -1.71
8.41 -2.28 -1.69
10.34 -2.8 -1.7
13.56 -3.67 -1.72
19.15 -5.18 -1.74
30.64 -8.29 -1.66
6.16 -1.69 -1.71
7.16 -1.96 -1.71
8.42 -2.31 -1.7
10.34 -2.83 -1.7
13.56 -3.71 -1.73
19.18 -5.26 -1.74
30.72 -8.42 -1.67
6.16 -1.71 -1.71
7.15 -1.99 -1.71
8.42 -2.34 -1.7
10.33 -2.87 -1.7
13.56 -3.77 -1.73
19.2 -5.33 -1.74
30.82 -8.56 -1.68
6.16 -1.73 -1.71
7.14 -2.01 -1.71
8.41 -2.37 -1.7
10.35 -2.91 -1.7
13.55 -3.81 -1.73
19.2 -5.4 -1.75
30.74 -8.65 -1.67
6.16 -1.76 -1.72
35.92 -10.25 0.65
7.13 -2.04 -1.71
8.4 -2.4 -1.7
10.36 -2.96 -1.71
13.56 -3.87 -1.73
19.21 -5.48 -1.75
30.72 -8.76 -1.67
6.14 -1.78 -1.71
7.13 -2.06 -1.71
8.41 -2.43 -1.7
10.36 -2.99 -1.71
13.56 -3.92 -1.73
19.24 -5.56 -1.75
31.19 -9.02 -1.7
6.14 -1.8 -1.71
35.83 -10.49 0.65
7.13 -2.09 -1.71
8.41 -2.46 -1.7
10.35 -3.03 -1.71
13.59 -3.98 -1.74
19.26 -5.64 -1.76
30.54 -8.94 -1.67
6.14 -1.82 -1.72
35.8 -10.61 0.65
7.11 -2.11 -1.71
8.41 -2.49 -1.71
10.36 -3.07 -1.71
13.57 -4.02 -1.74
19.28 -5.71 -1.76
30.41 -9.01 -1.66
6.13 -1.84 -1.72
35.78 -10.74 0.65
7.1 -2.13 -1.71
8.41 -2.53 -1.71
10.36 -3.11 -1.71
13.54 -4.07 -1.74
19.29 -5.79 -1.76
30.69 -9.22 -1.68
6.13 -1.86 -1.72
7.11 -2.16 -1.72
8.4 -2.55 -1.71
10.36 -3.15 -1.72
13.55 -4.12 -1.74
19.32 -5.87 -1.77
6.12 -1.88 -1.71
7.1 -2.18 -1.72
8.41 -2.59 -1.71
10.37 -3.19 -1.72
13.56 -4.17 -1.74
19.32 -5.95 -1.77
30.86 -9.5 -1.69
61.77 -19.01 -1.13
6.11 -1.9 -1.71
7.09 -2.21 -1.72
8.4 -2.62 -1.71
10.36 -3.23 -1.72
13.57 -4.23 -1.75
19.35 -6.03 -1.77
30.28 -9.43 -1.66
6.11 -1.93 -1.72
7.08 -2.23 -1.71
8.4 -2.65 -1.71
10.36 -3.27 -1.72
76.14 -24.01 9.8
13.59 -4.29 -1.75
19.35 -6.1 -1.78
31.74 -10.01 -1.74
6.11 -1.95 -1.72
7.07 -2.26 -1.71
8.41 -2.69 -1.72
10.36 -3.31 -1.72
75.97 -24.26 9.79
13.6 -4.34 -1.75
19.36 -6.18 -1.78
30.62 -9.78 -1.68
6.1 -1.97 -1.72
7.07 -2.29 -1.72
8.4 -2.71 -1.72
10.36 -3.35 -1.72
75.87 -24.52 9.79
13.6 -4.4 -1.75
19.36 -6.26 -1.78
33.05 -10.68 -1.82
6.09 -1.99 -1.72
7.07 -2.31 -1.72
8.4 -2.75 -1.72
10.36 -3.39 -1.73
75.74 -24.77 9.78
13.61 -4.45 -1.76
19.34 -6.33 -1.78
61.27 -20.04 -1.13
6.08 -2.01 -1.72
7.06 -2.34 -1.72
8.4 -2.78 -1.72
10.36 -3.43 -1.73
75.65 -25.04 9.78
13.62 -4.51 -1.76
19.36 -6.41 -1.78
6.08 -2.04 -1.72
7.05 -2.36 -1.72
8.39 -2.81 -1.72
10.36 -3.47 -1.73
75.44 -25.24 9.77
13.61 -4.56 -1.76
19.39 -6.49 -1.79
6.08 -2.06 -1.72
7.04 -2.38 -1.72
8.4 -2.84 -1.72
10.37 -3.51 -1.73
75.29 -25.49 9.76
13.61 -4.61 -1.76
19.54 -6.61 -1.8
6.07 -2.08 -1.72
7.03 -2.41 -1.72
8.39 -2.87 -1.72
10.37 -3.55 -1.74
75.21 -25.75 9.76
13.61 -4.66 -1.77
33.49 -11.47 -1.86
6.06 -2.1 -1.72
7.04 -2.44 -1.72
8.4 -2.91 -1.73
76.21 -26.39 7.06
10.37 -3.59 -1.74
75.11 -26.01 9.76
13.63 -4.72 -1.77
33.51 -11.6 -1.86
6.05 -2.12 -1.72
7.03 -2.46 -1.72
8.4 -2.94 -1.73
76.04 -26.63 7.05
10.36 -3.63 -1.74
74.93 -26.24 9.75
13.64 -4.78 -1.77
33.28 -11.65 -1.85
6.05 -2.14 -1.72
7.02 -2.49 -1.72
8.4 -2.97 -1.73
75.94 -26.89 7.05
10.36 -3.67 -1.74
13.63 -4.83 -1.78
19.34 -6.85 -1.8
33.5 -11.86 -1.86
6.05 -2.17 -1.72
7.01 -2.51 -1.72
8.4 -3.01 -1.73
75.79 -27.14 7.04
10.37 -3.71 -1.74
74.65 -26.73 9.74
13.62 -4.88 -1.78
19.27 -6.9 -1.79
33.58 -12.02 -1.87
6.03 -2.18 -1.72
7.02 -2.54 -1.72
8.39 -3.04 -1.73
75.65 -27.39 7.04
10.37 -3.75 -1.75
74.46 -26.96 9.72
13.61 -4.93 -1.78
19.09 -6.91 -1.78
6.02 -2.2 -1.72
7.02 -2.57 -1.73
8.39 -3.07 -1.74
75.48 -27.61 7.03
10.37 -3.79 -1.75
74.37 -27.2 9.72
13.62 -4.98 -1.78
18.91 -6.92 -1.76
30.81 -11.27 -1.72
6.01 -2.22 -1.72
7.01 -2.59 -1.73
8.38 -3.1 -1.74
75.35 -27.86 7.03
10.36 -3.83 -1.75
13.62 -5.03 -1.78
18.73 -6.92 -1.75
29.68 -10.97 -1.66
6.01 -2.25 -1.72
7 -2.62 -1.73
8.39 -3.13 -1.74
75.23 -28.11 7.03
10.35 -3.87 -1.75
74.09 -27.69 9.71
13.62 -5.09 -1.79
18.56 -6.94 -1.73
29.42 -11 -1.65
6.01 -2.27 -1.72
7 -2.64 -1.73
8.39 -3.17 -1.74
75.13 -28.37 7.03
10.35 -3.91 -1.75
73.99 -27.94 9.71
13.6 -5.14 -1.78
18.39 -6.95 -1.72
29.41 -11.11 -1.65
5.99 -2.29 -1.72
7 -2.67 -1.73
8.37 -3.2 -1.74
10.35 -3.95 -1.75
73.89 -28.2 9.71
13.62 -5.2 -1.79
18.23 -6.96 -1.71
27.86 -10.63 -1.56
5.98 -2.3 -1.72
7 -2.7 -1.73
8.37 -3.23 -1.74
10.34 -3.99 -1.76
73.71 -28.43 9.7
13.64 -5.26 -1.79
18.09 -6.98 -1.7
26.82 -10.35 -1.51
5.98 -2.33 -1.72
6.99 -2.72 -1.73
8.37 -3.26 -1.75
10.33 -4.02 -1.76
73.61 -28.67 9.7
13.62 -5.31 -1.79
18.05 -7.03 -1.69
26.79 -10.43 -1.51
5.97 -2.35 -1.72
6.98 -2.75 -1.73
8.37 -3.29 -1.75
74.54 -29.33 7.01
10.33 -4.06 -1.76
13.61 -5.36 -1.8
18.02 -7.09 -1.69
26.71 -10.51 -1.5
5.97 -2.37 -1.72
6.97 -2.77 -1.73
8.37 -3.33 -1.75
74.4 -29.58 7.01
10.32 -4.1 -1.76
73.32 -29.15 9.69
13.6 -5.41 -1.8
17.91 -7.12 -1.69
26.55 -10.56 -1.5
5.96 -2.39 -1.72
42 -16.87 0.79
6.98 -2.8 -1.74
8.35 -3.35 -1.75
10.32 -4.15 -1.76
73.14 -29.37 9.68
13.6 -5.46 -1.8
17.9 -7.19 -1.69
26.31 -10.57 -1.49
42.02 -16.88 -0.79
5.95 -2.41 -1.72
6.97 -2.83 -1.74
8.34 -3.39 -1.75
10.32 -4.18 -1.76
73.01 -29.62 9.67
13.6 -5.52 -1.8
18.55 -7.52 -1.75
26.21 -10.63 -1.48
5.94 -2.43 -1.72
6.96 -2.85 -1.74
8.34 -3.42 -1.75
10.3 -4.22 -1.76
72.85 -29.85 9.67
13.6 -5.57 -1.81
17.81 -7.3 -1.68
26.04 -10.67 -1.47
5.94 -2.46 -1.72
6.95 -2.87 -1.74
8.35 -3.45 -1.76
10.3 -4.26 -1.76
72.76 -30.09 9.67
13.6 -5.63 -1.81
18.04 -7.46 -1.71
25.94 -10.73 -1.47
5.93 -2.48 -1.72
6.95 -2.9 -1.74
8.34 -3.48 -1.76
10.3 -4.3 -1.77
72.6 -30.32 9.66
13.59 -5.67 -1.81
18.06 -7.54 -1.71
25.7 -10.73 -1.46
5.93 -2.5 -1.72
31.26 -13.18 0.59
6.94 -2.93 -1.74
8.32 -3.51 -1.76
10.31 -4.35 -1.77
72.49 -30.56 9.66
13.59 -5.73 -1.81
18.05 -7.61 -1.71
25.09 -10.58 -1.43
5.91 -2.51 -1.72
6.95 -2.96 -1.74
8.32 -3.54 -1.76
10.29 -4.38 -1.77
72.42 -30.82 9.66
13.62 -5.8 -1.82
18.42 -7.84 -1.75
25.08 -10.67 -1.43
5.9 -2.54 -1.72
6.95 -2.99 -1.75
8.32 -3.57 -1.76
10.29 -4.42 -1.77
13.62 -5.86 -1.82
18.48 -7.94 -1.76
24.94 -10.72 -1.42
5.9 -2.56 -1.72
6.93 -3.01 -1.74
8.32 -3.61 -1.76
10.28 -4.46 -1.78
13.61 -5.91 -1.82
19.74 -8.57 -1.88
24.76 -10.74 -1.41
5.9 -2.59 -1.73
6.92 -3.03 -1.74
8.31 -3.64 -1.76
10.28 -4.5 -1.78
13.61 -5.96 -1.82
70.67 -30.95 12.22
19.66 -8.61 -1.88
24.76 -10.84 -1.42
5.9 -2.61 -1.73
42.89 -18.96 0.82
6.93 -3.06 -1.75
8.29 -3.67 -1.76
10.28 -4.54 -1.78
13.6 -6.01 -1.83
19.67 -8.7 -1.88
24.62 -10.88 -1.41
42.91 -18.96 -0.82
5.89 -2.63 -1.73
6.93 -3.09 -1.75
8.3 -3.7 -1.77
10.27 -4.59 -1.78
13.59 -6.07 -1.83
19.63 -8.76 -1.88
24.61 -10.98 -1.41
5.88 -2.65 -1.73
6.93 -3.12 -1.75
8.3 -3.74 -1.77
10.25 -4.62 -1.78
13.59 -6.12 -1.83
19.91 -8.97 -1.91
24.47 -11.02 -1.41
5.87 -2.67 -1.73
6.91 -3.14 -1.75
8.29 -3.77 -1.77
10.25 -4.66 -1.78
13.58 -6.18 -1.83
19.91 -9.06 -1.91
23.78 -10.82 -1.37
5.87 -2.69 -1.73
6.92 -3.17 -1.76
8.28 -3.8 -1.77
10.25 -4.71 -1.79
13.58 -6.23 -1.83
19.89 -9.13 -1.91
23.73 -10.89 -1.37
5.86 -2.72 -1.73
6.91 -3.2 -1.76
8.27 -3.83 -1.77
10.25 -4.75 -1.79
13.59 -6.29 -1.84
19.99 -9.26 -1.93
23.57 -10.92 -1.36
5.86 -2.74 -1.73
6.91 -3.23 -1.76
8.27 -3.86 -1.77
10.24 -4.79 -1.79
13.57 -6.34 -1.84
19.84 -9.27 -1.92
23.51 -10.98 -1.36
5.85 -2.76 -1.73
6.91 -3.26 -1.76
8.27 -3.9 -1.78
10.22 -4.82 -1.79
13.57 -6.4 -1.84
19.79 -9.33 -1.91
23.32 -10.99 -1.35
5.85 -2.78 -1.73
6.89 -3.28 -1.76
8.26 -3.93 -1.78
10.23 -4.86 -1.79
13.57 -6.45 -1.84
16.57 -7.88 -1.61
23.07 -10.97 -1.34
5.85 -2.81 -1.74
6.89 -3.3 -1.76
8.25 -3.96 -1.78
10.23 -4.91 -1.8
13.55 -6.51 -1.85
19.8 -9.5 -1.92
22.94 -11.01 -1.33
5.84 -2.83 -1.74
6.88 -3.33 -1.76
8.23 -3.98 -1.78
10.22 -4.95 -1.8
13.54 -6.56 -1.85
20.06 -9.71 -1.95
22.85 -11.06 -1.33
5.83 -2.85 -1.74
6.87 -3.36 -1.77
8.23 -4.02 -1.78
10.22 -4.99 -1.8
13.53 -6.61 -1.85
20 -9.77 -1.95
22.7 -11.09 -1.32
5.82 -2.87 -1.74
43.29 -21.34 0.84
6.87 -3.38 -1.77
8.23 -4.05 -1.78
10.2 -5.03 -1.8
13.54 -6.67 -1.85
19.94 -9.82 -1.94
22.69 -11.18 -1.33
5.82 -2.9 -1.74
6.85 -3.41 -1.77
8.22 -4.09 -1.79
10.2 -5.07 -1.8
13.52 -6.72 -1.85
19.98 -9.94 -1.95
22.66 -11.27 -1.33
5.82 -2.92 -1.74
6.84 -3.43 -1.77
8.21 -4.12 -1.79
10.19 -5.11 -1.81
13.51 -6.77 -1.86
19.94 -10 -1.95
22.55 -11.31 -1.32
5.81 -2.94 -1.74
6.84 -3.46 -1.77
73.6 -37.22 4.32
8.2 -4.15 -1.79
10.19 -5.15 -1.81
13.5 -6.83 -1.86
19.94 -10.09 -1.96
22.5 -11.38 -1.32
5.79 -2.96 -1.74
6.84 -3.49 -1.77
8.19 -4.18 -1.79
10.17 -5.19 -1.81
13.61 -6.94 -1.88
19.84 -10.12 -1.95
22.39 -11.42 -1.32
5.8 -2.98 -1.75
6.83 -3.51 -1.77
8.18 -4.21 -1.79
10.17 -5.23 -1.81
13.63 -7.01 -1.88
19.58 -10.08 -1.93
22.3 -11.47 -1.31
5.79 -3 -1.75
6.81 -3.53 -1.77
73.38 -38.09 4.33
8.17 -4.24 -1.79
10.16 -5.27 -1.81
13.61 -7.06 -1.88
19.87 -10.32 -1.96
21.69 -11.26 -1.28
54 -28.03 -1.06
5.79 -3.03 -1.75
6.81 -3.56 -1.77
73.25 -38.34 4.33
8.17 -4.28 -1.79
10.15 -5.31 -1.81
13.62 -7.13 -1.89
20.15 -10.55 -1.99
22.08 -11.56 -1.31
53.92 -28.23 -1.06
5.78 -3.05 -1.75
6.8 -3.59 -1.77
8.15 -4.3 -1.79
10.14 -5.35 -1.82
13.6 -7.18 -1.89
20.08 -10.6 -1.99
21.78 -11.5 -1.29
5.77 -3.07 -1.75
6.79 -3.62 -1.78
8.14 -4.33 -1.79
10.13 -5.39 -1.82
13.58 -7.23 -1.89
20.01 -10.65 -1.98
5.76 -3.09 -1.75
6.78 -3.64 -1.78
8.13 -4.37 -1.79
10.12 -5.43 -1.82
13.48 -7.24 -1.88
19.89 -10.68 -1.97
20.76 -11.14 -1.23
5.76 -3.11 -1.75
6.77 -3.66 -1.78
8.13 -4.4 -1.8
10.11 -5.47 -1.82
13.39 -7.24 -1.87
19.5 -10.55 -1.94
21.19 -11.46 -1.26
5.76 -3.14 -1.76
6.76 -3.68 -1.78
8.12 -4.43 -1.8
10.11 -5.51 -1.82
13.26 -7.23 -1.85
19.46 -10.61 -1.94
20.42 -11.14 -1.22
5.74 -3.16 -1.76
6.76 -3.72 -1.78
8.11 -4.46 -1.8
10.1 -5.55 -1.83
13.18 -7.25 -1.85
19.23 -10.58 -1.92
21.2 -11.66 -1.27
5.73 -3.18 -1.75
6.76 -3.75 -1.78
8.1 -4.49 -1.8
10.09 -5.6 -1.83
13.09 -7.26 -1.84
19.09 -10.58 -1.91
21.05 -11.67 -1.26
5.72 -3.2 -1.76
6.74 -3.77 -1.78
8.09 -4.52 -1.8
10.08 -5.63 -1.83
12.99 -7.27 -1.83
19.15 -10.71 -1.92
21.03 -11.76 -1.26
5.73 -3.23 -1.76
6.72 -3.79 -1.78
8.08 -4.56 -1.8
10.07 -5.67 -1.83
12.91 -7.28 -1.82
19.09 -10.76 -1.92
20.99 -11.83 -1.26
5.72 -3.25 -1.76
6.72 -3.82 -1.78
8.08 -4.59 -1.81
10.06 -5.72 -1.83
12.8 -7.27 -1.81
18.98 -10.79 -1.91
21.07 -11.98 -1.27
5.71 -3.27 -1.76
6.71 -3.85 -1.79
8.06 -4.62 -1.81
10.05 -5.76 -1.84
12.71 -7.28 -1.8
18.98 -10.88 -1.91
21.24 -12.17 -1.28
5.7 -3.29 -1.76
6.71 -3.87 -1.79
8.05 -4.65 -1.81
10.04 -5.8 -1.84
12.61 -7.28 -1.79
18.87 -10.89 -1.91
5.69 -3.31 -1.76
6.7 -3.9 -1.79
8.05 -4.68 -1.81
10.02 -5.83 -1.84
12.52 -7.29 -1.78
18.89 -11 -1.91
5.69 -3.34 -1.77
6.68 -3.92 -1.79
8.04 -4.72 -1.81
10.01 -5.88 -1.84
12.45 -7.31 -1.77
18.78 -11.02 -1.91
5.68 -3.36 -1.77
6.67 -3.95 -1.79
8.03 -4.75 -1.81
10.01 -5.92 -1.84
12.39 -7.33 -1.77
16.18 -9.57 -1.64
5.68 -3.38 -1.77
6.67 -3.97 -1.79
8.01 -4.77 -1.81
10.01 -5.97 -1.85
12.39 -7.38 -1.77
16.15 -9.63 -1.64
5.66 -3.4 -1.77
6.67 -4.01 -1.8
8.01 -4.81 -1.82
10.01 -6.01 -1.85
12.32 -7.4 -1.77
16.07 -9.66 -1.64
5.66 -3.43 -1.77
6.65 -4.03 -1.8
8 -4.84 -1.82
9.98 -6.05 -1.85
12.29 -7.44 -1.76
15.93 -9.65 -1.63
17.59 -10.66 -1.08
5.65 -3.45 -1.77
6.63 -4.05 -1.79
7.99 -4.88 -1.82
9.98 -6.09 -1.85
12.82 -7.83 -1.84
15.69 -9.58 -1.61
5.64 -3.47 -1.78
6.63 -4.08 -1.8
7.98 -4.91 -1.82
9.97 -6.14 -1.85
12.14 -7.47 -1.75
15.67 -9.64 -1.61
5.64 -3.49 -1.78
6.62 -4.11 -1.8
7.96 -4.94 -1.82
9.96 -6.18 -1.86
12.12 -7.51 -1.75
15.67 -9.72 -1.61
5.62 -3.51 -1.77
6.62 -4.13 -1.8
7.95 -4.96 -1.82
9.95 -6.21 -1.86
11.99 -7.49 -1.74
15.43 -9.64 -1.59
17.45 -10.9 -1.08
5.61 -3.53 -1.78
6.6 -4.16 -1.8
7.94 -5 -1.82
9.93 -6.25 -1.86
11.9 -7.49 -1.73
15.33 -9.65 -1.58
5.61 -3.56 -1.78
6.58 -4.18 -1.8
7.93 -5.03 -1.83
9.92 -6.3 -1.86
11.8 -7.49 -1.72
15.22 -9.66 -1.58
18.55 -11.77 -1.15
5.6 -3.58 -1.78
6.58 -4.21 -1.8
7.92 -5.06 -1.83
9.91 -6.33 -1.86
11.73 -7.5 -1.71
15.25 -9.75 -1.58
18.46 -11.8 -1.15
5.59 -3.6 -1.78
6.57 -4.23 -1.8
7.9 -5.09 -1.83
9.89 -6.37 -1.86
11.66 -7.51 -1.7
14.81 -9.54 -1.54
18.27 -11.77 -1.14
5.57 -3.61 -1.78
6.57 -4.26 -1.81
7.89 -5.12 -1.83
9.88 -6.41 -1.87
11.7 -7.59 -1.71
14.68 -9.53 -1.53
17.42 -11.31 -1.09
5.57 -3.64 -1.78
6.56 -4.29 -1.81
7.88 -5.15 -1.83
9.87 -6.46 -1.87
13.49 -8.82 -1.98
14.57 -9.53 -1.52
5.56 -3.66 -1.78
6.53 -4.31 -1.81
7.87 -5.19 -1.83
9.86 -6.5 -1.87
11.54 -7.61 -1.7
14.47 -9.54 -1.52
5.55 -3.68 -1.78
6.53 -4.34 -1.81
7.86 -5.22 -1.83
9.85 -6.54 -1.87
11.38 -7.56 -1.68
14.36 -9.53 -1.51
5.53 -3.7 -1.78
6.52 -4.36 -1.81
7.84 -5.25 -1.83
9.84 -6.58 -1.87
11.38 -7.62 -1.68
14.37 -9.62 -1.51
5.52 -3.72 -1.78
6.51 -4.39 -1.81
7.82 -5.27 -1.83
9.82 -6.62 -1.88
11.42 -7.7 -1.69
14.32 -9.65 -1.51
17.95 -12.1 -1.13
5.51 -3.74 -1.79
6.5 -4.41 -1.81
7.82 -5.31 -1.84
9.8 -6.66 -1.88
13.38 -9.08 -1.99
14.23 -9.66 -1.51
5.51 -3.77 -1.79
6.48 -4.43 -1.81
7.82 -5.35 -1.84
9.78 -6.69 -1.88
13.33 -9.12 -1.98
14.25 -9.75 -1.51
5.5 -3.79 -1.79
6.47 -4.46 -1.81
7.8 -5.38 -1.84
9.77 -6.73 -1.88
13.3 -9.17 -1.98
14.15 -9.75 -1.5
16.3 -11.24 -1.04
5.49 -3.81 -1.79
67.84 -47.11 1.44
6.46 -4.48 -1.81
7.78 -5.4 -1.84
9.76 -6.78 -1.88
13.23 -9.19 -1.98
14.15 -9.83 -1.51
5.47 -3.83 -1.79
67.76 -47.41 1.44
6.45 -4.51 -1.82
7.77 -5.44 -1.84
9.74 -6.82 -1.88
13.18 -9.22 -1.97
14.04 -9.83 -1.5
5.46 -3.85 -1.79
67.65 -47.67 1.44
6.43 -4.53 -1.82
7.76 -5.47 -1.85
9.71 -6.84 -1.88
13.13 -9.25 -1.97
13.92 -9.81 -1.49
5.46 -3.87 -1.79
67.52 -47.93 1.45
6.41 -4.55 -1.81
7.75 -5.5 -1.85
9.7 -6.88 -1.88
13.09 -9.29 -1.97
13.89 -9.86 -1.49
5.46 -3.9 -1.8
6.4 -4.58 -1.82
7.74 -5.53 -1.85
9.69 -6.93 -1.89
13.1 -9.36 -1.98
13.86 -9.91 -1.49
5.45 -3.92 -1.8
67.32 -48.48 1.45
6.39 -4.6 -1.82
7.71 -5.56 -1.85
9.68 -6.97 -1.89
13.08 -9.42 -1.98
13.78 -9.93 -1.49
5.42 -3.93 -1.79
6.38 -4.63 -1.82
7.71 -5.6 -1.85
9.65 -7.01 -1.89
13.03 -9.46 -1.98
13.75 -9.98 -1.49
5.41 -3.96 -1.8
6.37 -4.66 -1.82
7.7 -5.63 -1.85
9.64 -7.05 -1.89
13.01 -9.51 -1.98
13.74 -10.05 -1.49
5.4 -3.98 -1.8
6.35 -4.68 -1.82
7.69 -5.66 -1.86
9.61 -7.07 -1.89
12.97 -9.55 -1.98
13.65 -10.05 -1.48
16.72 -12.31 -1.09
5.4 -4 -1.8
66.95 -49.65 1.45
6.34 -4.7 -1.82
7.67 -5.69 -1.86
9.6 -7.12 -1.89
12.97 -9.62 -1.98
13.5 -10.01 -1.47
16.52 -12.25 -1.08
5.39 -4.03 -1.8
6.34 -4.73 -1.83
7.65 -5.72 -1.86
9.58 -7.16 -1.89
12.99 -9.7 -1.99
13.62 -10.18 -1.49
5.37 -4.04 -1.8
6.33 -4.76 -1.83
7.64 -5.75 -1.86
9.57 -7.2 -1.9
12.9 -9.7 -1.98
13.45 -10.12 -1.47
16.52 -12.43 -1.08
5.36 -4.06 -1.8
6.31 -4.78 -1.83
7.63 -5.78 -1.86
9.54 -7.23 -1.9
12.86 -9.74 -1.98
13.37 -10.13 -1.47
5.36 -4.09 -1.81
6.29 -4.8 -1.83
7.62 -5.81 -1.86
9.53 -7.27 -1.9
12.81 -9.77 -1.98
13.25 -10.11 -1.46
5.35 -4.11 -1.81
6.28 -4.83 -1.83
7.6 -5.85 -1.86
9.51 -7.31 -1.9
12.71 -9.77 -1.97
13.23 -10.17 -1.46
5.33 -4.13 -1.81
6.28 -4.86 -1.83
7.58 -5.87 -1.86
9.51 -7.37 -1.91
12.65 -9.8 -1.96
13.2 -10.22 -1.46
5.31 -4.14 -1.81
6.27 -4.89 -1.84
7.57 -5.91 -1.87
9.49 -7.4 -1.91
12.63 -9.85 -1.97
13.12 -10.24 -1.46
5.3 -4.17 -1.81
6.26 -4.92 -1.84
7.55 -5.93 -1.87
9.45 -7.42 -1.9
12.6 -9.9 -1.97
13.18 -10.36 -1.47
5.29 -4.19 -1.81
6.23 -4.93 -1.84
7.54 -5.97 -1.87
9.39 -7.43 -1.9
12.56 -9.94 -1.97
13.02 -10.31 -1.45
5.29 -4.22 -1.81
6.22 -4.96 -1.84
7.52 -5.99 -1.87
9.35 -7.45 -1.89
12.51 -9.97 -1.96
13.01 -10.36 -1.45
5.27 -4.23 -1.81
6.21 -4.99 -1.84
7.5 -6.02 -1.87
9.32 -7.48 -1.89
12.48 -10.02 -1.96
12.95 -10.39 -1.45
23.47 -18.84 -1.58
5.25 -4.24 -1.81
6.21 -5.02 -1.84
7.49 -6.05 -1.87
9.25 -7.47 -1.88
12.41 -10.03 -1.96
13.01 -10.52 -1.46
23.24 -18.79 -1.57
5.24 -4.27 -1.81
6.19 -5.04 -1.84
7.47 -6.08 -1.87
9.22 -7.51 -1.88
12.4 -10.1 -1.96
12.83 -10.45 -1.45
23.06 -18.77 -1.56
5.23 -4.29 -1.81
27.89 -22.86 0.63
6.17 -5.06 -1.84
7.46 -6.12 -1.88
9.2 -7.54 -1.88
12.41 -10.17 -1.97
12.79 -10.48 -1.45
22.88 -18.76 -1.55
27.6 -22.63 -0.62
5.23 -4.32 -1.82
27.74 -22.91 0.63
6.15 -5.08 -1.84
7.44 -6.15 -1.88
9.13 -7.54 -1.88
12.38 -10.22 -1.97
12.82 -10.59 -1.45
22.71 -18.75 -1.54
5.21 -4.33 -1.81
27.69 -23.02 0.63
6.14 -5.11 -1.84
7.41 -6.16 -1.87
9.08 -7.55 -1.87
12.31 -10.23 -1.97
12.79 -10.63 -1.46
22.54 -18.74 -1.54
5.19 -4.34 -1.81
27.56 -23.08 0.63
6.13 -5.14 -1.85
7.4 -6.2 -1.88
9.03 -7.56 -1.87
12.25 -10.26 -1.96
12.72 -10.65 -1.45
22.38 -18.74 -1.53
25.66 -21.48 -0.58
5.18 -4.37 -1.82
27.45 -23.14 0.63
6.12 -5.16 -1.85
7.39 -6.23 -1.88
8.99 -7.58 -1.86
12.19 -10.27 -1.96
12.65 -10.66 -1.45
22.22 -18.73 -1.52
5.17 -4.39 -1.82
27.34 -23.23 0.63
6.1 -5.18 -1.85
7.37 -6.26 -1.88
8.98 -7.63 -1.87
12.13 -10.31 -1.96
12.6 -10.71 -1.45
22.07 -18.75 -1.52
25.04 -21.28 -0.57
5.16 -4.41 -1.82
27.29 -23.34 0.63
6.08 -5.2 -1.85
7.35 -6.29 -1.88
8.95 -7.65 -1.86
12.07 -10.32 -1.95
12.57 -10.75 -1.45
21.92 -18.75 -1.51
24.7 -21.12 -0.57
5.14 -4.43 -1.82
27.28 -23.5 0.63
6.07 -5.23 -1.85
7.33 -6.31 -1.88
8.96 -7.71 -1.87
12.13 -10.45 -1.97
12.52 -10.79 -1.45
13.98 -12.04 -0.97
24.41 -21.03 -0.56
5.13 -4.45 -1.82
21.85 -18.94 0.5
6.06 -5.26 -1.85
7.32 -6.35 -1.88
8.94 -7.75 -1.87
12.09 -10.49 -1.97
12.45 -10.8 -1.44
13.94 -12.09 -0.97
24.31 -21.08 -0.56
5.11 -4.47 -1.82
21.7 -18.95 0.5
6.05 -5.28 -1.85
7.31 -6.39 -1.89
8.9 -7.77 -1.87
12.06 -10.54 -1.97
12.31 -10.75 -1.43
21.49 -18.77 -1.5
24.28 -21.21 -0.56
5.1 -4.49 -1.82
21.57 -18.97 0.5
6.02 -5.29 -1.85
7.3 -6.42 -1.89
8.9 -7.83 -1.88
11.96 -10.51 -1.95
12.22 -10.74 -1.42
21.35 -18.77 -1.49
24.24 -21.31 -0.56
5.09 -4.51 -1.82
21.62 -19.15 0.5
6.01 -5.32 -1.85
7.28 -6.45 -1.89
8.99 -7.96 -1.9
11.84 -10.48 -1.94
12.14 -10.75 -1.42
21.22 -18.79 -1.49
24.19 -21.43 -0.56
5.08 -4.53 -1.83
21.62 -19.28 0.51
6 -5.35 -1.86
7.26 -6.48 -1.89
8.91 -7.94 -1.89
11.81 -10.54 -1.94
12.07 -10.76 -1.41
21.09 -18.81 -1.48
24.14 -21.53 -0.56
5.06 -4.54 -1.82
21.63 -19.43 0.51
5.99 -5.38 -1.86
7.25 -6.51 -1.89
8.89 -7.99 -1.89
11.82 -10.62 -1.95
12.05 -10.82 -1.42
20.97 -18.84 -1.48
24.1 -21.65 -0.57
5.05 -4.56 -1.82
21.64 -19.57 0.51
5.97 -5.4 -1.86
7.23 -6.54 -1.9
8.9 -8.05 -1.9
11.8 -10.68 -1.95
11.96 -10.81 -1.41
20.9 -18.91 -1.48
24.07 -21.78 -0.57
5.04 -4.59 -1.83
21.66 -19.72 0.51
5.94 -5.41 -1.86
7.22 -6.57 -1.9
8.87 -8.07 -1.9
11.8 -10.74 -1.96
11.78 -10.73 -1.39
20.78 -18.92 -1.47
24.03 -21.88 -0.57
5.03 -4.61 -1.83
21.66 -19.86 0.51
5.93 -5.44 -1.86
7.2 -6.6 -1.9
8.84 -8.11 -1.9
11.83 -10.85 -1.97
11.75 -10.78 -1.39
20.7 -18.98 -1.47
23.97 -21.98 -0.57
5.01 -4.62 -1.83
21.67 -20.01 0.51
5.92 -5.47 -1.86
7.17 -6.62 -1.9
8.84 -8.16 -1.91
11.8 -10.9 -1.97
11.78 -10.88 -1.4
20.54 -18.96 -1.46
23.93 -22.1 -0.57
4.98 -4.63 -1.82
21.67 -20.15 0.52
5.91 -5.5 -1.86
7.16 -6.65 -1.9
8.86 -8.24 -1.92
11.71 -10.89 -1.96
11.64 -10.83 -1.39
20.41 -18.98 -1.46
23.89 -22.22 -0.57
4.97 -4.66 -1.83
21.68 -20.3 0.52
5.89 -5.52 -1.86
7.14 -6.68 -1.9
8.77 -8.21 -1.9
11.68 -10.93 -1.96
11.59 -10.85 -1.39
20.28 -18.99 -1.46
21.75 -20.37 -0.52
4.96 -4.68 -1.83
21.68 -20.45 0.52
5.87 -5.53 -1.86
20.36 -19.2 1.47
7.12 -6.72 -1.9
8.68 -8.18 -1.89
11.63 -10.97 -1.96
11.65 -10.98 -1.4
20.14 -18.99 -1.45
21.7 -20.46 -0.52
4.95 -4.7 -1.83
21.57 -20.49 0.52
5.85 -5.56 -1.86
20.21 -19.19 1.46
7.1 -6.74 -1.9
8.64 -8.2 -1.89
11.57 -10.98 -1.96
11.57 -10.99 -1.4
20.03 -19.02 -1.45
21.52 -20.44 -0.52
4.94 -4.72 -1.83
21.42 -20.49 0.52
5.84 -5.59 -1.87
20.08 -19.2 1.46
7.08 -6.77 -1.9
8.6 -8.22 -1.88
11.56 -11.05 -1.96
11.53 -11.02 -1.4
19.94 -19.06 -1.45
21.37 -20.44 -0.52
4.92 -4.73 -1.83
21.27 -20.49 0.52
5.83 -5.61 -1.87
19.96 -19.22 1.45
7.06 -6.8 -1.9
8.56 -8.24 -1.88
11.56 -11.14 -1.97
11.45 -11.02 -1.39
21.25 -20.46 -0.51
4.9 -4.75 -1.83
21.14 -20.5 0.51
5.81 -5.64 -1.87
19.83 -19.23 1.45
7.04 -6.83 -1.91
8.46 -8.21 -1.87
11.43 -11.08 -1.95
11.39 -11.04 -1.39
21.1 -20.46 -0.51
4.9 -4.78 -1.83
21 -20.5 0.51
5.79 -5.65 -1.87
19.7 -19.23 1.44
7.03 -6.86 -1.91
8.45 -8.25 -1.87
11.43 -11.16 -1.96
11.32 -11.05 -1.38
20.98 -20.48 -0.51
4.88 -4.8 -1.83
20.87 -20.51 0.51
5.78 -5.68 -1.87
19.58 -19.24 1.44
7.01 -6.89 -1.91
8.52 -8.37 -1.89
11.47 -11.27 -1.97
11.28 -11.08 -1.38
20.81 -20.45 -0.51
4.87 -4.82 -1.84
20.72 -20.51 0.51
5.76 -5.71 -1.87
19.43 -19.23 1.43
6.98 -6.91 -1.91
8.45 -8.36 -1.88
11.38 -11.26 -1.97
11.25 -11.14 -1.39
19.86 -19.66 -1.46
20.67 -20.46 -0.51
4.86 -4.84 -1.84
20.59 -20.52 0.51
5.74 -5.72 -1.87
19.3 -19.24 1.43
6.96 -6.94 -1.91
8.4 -8.38 -1.88
11.2 -11.16 -1.94
11.18 -11.15 -1.38
20.54 -20.48 -0.51
4.84 -4.86 -1.84
20.44 -20.52 0.51
5.73 -5.75 -1.87
19.17 -19.24 1.42
6.95 -6.97 -1.91
8.37 -8.4 -1.88
11.16 -11.2 -1.94
11.03 -11.06 -1.37
19.87 -19.94 -1.48
20.42 -20.49 -0.5
4.83 -4.88 -1.84
20.31 -20.52 0.5
5.71 -5.77 -1.87
19.06 -19.26 1.42
6.93 -7 -1.92
8.31 -8.4 -1.87
11 -11.11 -1.92
10.97 -11.08 -1.36
19.76 -19.97 -1.47
20.28 -20.49 -0.5
4.82 -4.9 -1.84
20.17 -20.53 0.5
5.69 -5.79 -1.88
18.96 -19.3 1.42
6.91 -7.03 -1.92
8.24 -8.39 -1.86
10.94 -11.14 -1.92
10.94 -11.14 -1.37
19.73 -20.08 -1.48
20.16 -20.51 -0.5
4.8 -4.92 -1.84
20.04 -20.54 0.5
5.68 -5.82 -1.88
6.89 -7.06 -1.92
8.21 -8.41 -1.86
10.91 -11.18 -1.92
10.92 -11.19 -1.37
19.66 -20.15 -1.48
19.99 -20.48 -0.5
4.79 -4.94 -1.84
19.91 -20.54 0.5
5.67 -5.84 -1.88
6.87 -7.08 -1.92
8.2 -8.46 -1.87
10.95 -11.29 -1.93
10.91 -11.26 -1.37
19.64 -20.26 -1.48
19.87 -20.49 -0.5
4.77 -4.95 -1.84
19.77 -20.53 0.5
5.65 -5.87 -1.88
6.85 -7.12 -1.92
8.41 -8.74 -1.92
10.8 -11.22 -1.91
10.85 -11.27 -1.37
19.55 -20.3 -1.48
19.78 -20.54 -0.5
4.76 -4.98 -1.84
19.64 -20.55 0.5
5.63 -5.89 -1.88
6.83 -7.14 -1.92
8.56 -8.95 -1.96
10.73 -11.23 -1.91
10.73 -11.23 -1.36
19.51 -20.42 -1.48
19.63 -20.55 -0.5
4.75 -5 -1.85
18.12 -19.09 0.46
5.61 -5.91 -1.88
6.81 -7.18 -1.92
10.68 -11.25 -1.9
10.73 -11.3 -1.36
19.43 -20.47 -1.48
19.48 -20.53 -0.49
4.73 -5.02 -1.85
18.01 -19.1 0.46
5.6 -5.94 -1.88
6.78 -7.2 -1.92
8.59 -9.11 -1.98
10.55 -11.19 -1.89
10.78 -11.44 -1.38
19.32 -20.5 -1.48
19.35 -20.52 -0.49
4.71 -5.03 -1.85
17.89 -19.11 0.46
5.59 -5.97 -1.89
6.76 -7.22 -1.92
8.52 -9.09 -1.97
10.52 -11.24 -1.89
10.7 -11.43 -1.37
19.22 -20.53 -1.47
19.23 -20.54 -0.49
4.69 -5.05 -1.85
17.76 -19.11 0.46
5.57 -5.99 -1.89
6.74 -7.25 -1.93
8.41 -9.05 -1.96
10.46 -11.25 -1.89
10.67 -11.48 -1.37
19.09 -20.53 -1.47
19.1 -20.55 -0.49
4.69 -5.08 -1.85
17.65 -19.12 0.45
5.55 -6.01 -1.89
6.73 -7.29 -1.93
8.38 -9.08 -1.96
10.4 -11.27 -1.88
10.62 -11.5 -1.37
18.96 -20.53 -1.46
18.98 -20.56 -0.49
4.67 -5.1 -1.85
17.56 -19.15 0.45
5.53 -6.03 -1.89
6.71 -7.32 -1.93
8.34 -9.1 -1.95
10.41 -11.36 -1.89
10.55 -11.51 -1.37
18.83 -20.54 -1.46
18.85 -20.56 -0.49
4.66 -5.12 -1.85
17.55 -19.27 0.45
5.52 -6.06 -1.89
6.68 -7.34 -1.93
8.4 -9.23 -1.98
10.47 -11.5 -1.91
10.45 -11.48 -1.36
18.72 -20.56 -1.46
18.72 -20.56 -0.49
4.63 -5.13 -1.85
17.54 -19.41 0.46
5.5 -6.09 -1.89
6.66 -7.37 -1.93
8.38 -9.27 -1.98
10.4 -11.5 -1.9
10.45 -11.56 -1.36
18.58 -20.56 -1.45
18.6 -20.58 -0.48
4.62 -5.15 -1.85
17.35 -19.32 0.45
5.48 -6.11 -1.9
6.64 -7.39 -1.93
8.32 -9.27 -1.97
10.36 -11.54 -1.9
10.45 -11.64 -1.37
18.47 -20.58 -1.45
18.48 -20.58 -0.48
4.61 -5.17 -1.86
17.04 -19.12 0.45
5.46 -6.12 -1.89
6.62 -7.43 -1.93
8.26 -9.27 -1.97
10.29 -11.54 -1.9
10.45 -11.73 -1.37
18.33 -20.56 -1.44
18.36 -20.59 -0.48
4.6 -5.19 -1.86
16.93 -19.12 0.45
5.44 -6.15 -1.9
6.59 -7.45 -1.93
8.26 -9.33 -1.97
10.2 -11.52 -1.89
10.41 -11.75 -1.37
18.22 -20.58 -1.44
18.23 -20.58 -0.48
4.58 -5.21 -1.86
16.84 -19.16 0.45
5.43 -6.18 -1.9
6.57 -7.47 -1.93
8.27 -9.4 -1.98
10.14 -11.53 -1.89
10.44 -11.88 -1.38
18.1 -20.59 -1.44
18.12 -20.61 -0.48
4.56 -5.22 -1.86
16.87 -19.32 0.45
5.41 -6.2 -1.9
6.55 -7.5 -1.94
8.26 -9.47 -1.99
10.07 -11.54 -1.88
10.3 -11.79 -1.37
17.92 -20.52 -1.43
17.97 -20.59 -0.48
4.55 -5.25 -1.86
16.85 -19.44 0.45
5.39 -6.22 -1.9
6.53 -7.53 -1.94
8.23 -9.49 -1.99
9.97 -11.5 -1.87
10.1 -11.65 -1.35
17.85 -20.59 -1.43
17.88 -20.63 -0.48
4.54 -5.27 -1.86
16.87 -19.6 0.45
5.37 -6.24 -1.9
6.51 -7.56 -1.94
8.19 -9.51 -1.99
10 -11.62 -1.88
10.04 -11.66 -1.35
16.89 -19.62 -1.36
16.92 -19.65 -0.45
4.52 -5.29 -1.86
16.84 -19.7 0.45
5.35 -6.26 -1.9
6.49 -7.6 -1.94
8.17 -9.56 -1.99
9.8 -11.46 -1.85
10.05 -11.75 -1.35
16.81 -19.66 -1.36
16.84 -19.7 -0.45
4.5 -5.3 -1.86
16.73 -19.71 0.45
5.33 -6.28 -1.9
6.47 -7.62 -1.94
8.25 -9.72 -2.02
9.92 -11.68 -1.88
10.02 -11.8 -1.35
16.7 -19.67 -1.35
16.72 -19.7 -0.45
4.48 -5.31 -1.86
16.61 -19.7 0.45
5.32 -6.31 -1.91
6.45 -7.64 -1.94
8.33 -9.88 -2.05
9.84 -11.67 -1.87
9.81 -11.64 -1.33
16.59 -19.67 -1.35
16.61 -19.7 -0.45
4.46 -5.33 -1.86
16.5 -19.7 0.45
5.3 -6.33 -1.91
6.48 -7.74 -1.96
8.53 -10.19 -2.1
9.73 -11.62 -1.86
9.9 -11.82 -1.35
16.48 -19.68 -1.35
16.46 -19.65 -0.45
4.45 -5.36 -1.87
16.39 -19.71 0.45
5.28 -6.35 -1.91
6.48 -7.79 -1.97
7.98 -9.59 -1.98
9.77 -11.75 -1.88
9.91 -11.92 -1.36
16.36 -19.68 -1.34
16.35 -19.66 -0.45
4.44 -5.37 -1.87
16.27 -19.71 0.45
5.26 -6.37 -1.91
6.48 -7.85 -1.98
9.66 -11.7 -1.86
9.86 -11.94 -1.35
16.25 -19.68 -1.34
16.24 -19.67 -0.45
4.42 -5.39 -1.87
16.17 -19.72 0.45
5.25 -6.4 -1.91
6.48 -7.9 -1.99
8.43 -10.28 -2.11
9.66 -11.78 -1.87
9.76 -11.9 -1.35
16.14 -19.69 -1.33
16.12 -19.66 -0.44
4.4 -5.4 -1.87
16.06 -19.73 0.44
5.23 -6.42 -1.91
6.45 -7.93 -1.99
8.4 -10.31 -2.11
9.62 -11.81 -1.87
9.6 -11.79 -1.33
16.04 -19.7 -1.33
16.01 -19.67 -0.44
4.38 -5.42 -1.87
15.93 -19.72 0.44
5.21 -6.44 -1.91
6.42 -7.94 -1.99
8.38 -10.37 -2.11
9.58 -11.86 -1.87
9.7 -12 -1.35
15.91 -19.7 -1.33
15.9 -19.68 -0.44
4.36 -5.44 -1.87
15.83 -19.72 0.44
5.18 -6.46 -1.91
15.53 -19.35 1.3
6.36 -7.93 -1.98
9.51 -11.86 -1.87
9.55 -11.91 -1.34
15.8 -19.69 -1.32
15.78 -19.67 -0.44
4.35 -5.46 -1.87
15.71 -19.72 0.44
5.16 -6.48 -1.91
15.46 -19.4 1.3
6.33 -7.94 -1.97
8.36 -10.49 -2.12
9.45 -11.86 -1.86
9.56 -11.99 -1.34
15.67 -19.67 -1.32
15.67 -19.67 -0.44
4.34 -5.48 -1.87
15.6 -19.72 0.44
5.15 -6.5 -1.92
15.4 -19.45 1.3
6.3 -7.96 -1.97
8.29 -10.48 -2.12
9.38 -11.85 -1.86
9.55 -12.07 -1.35
15.58 -19.68 -1.32
15.56 -19.66 -0.44
4.31 -5.49 -1.87
15.49 -19.72 0.44
5.13 -6.53 -1.92
15.32 -19.51 1.3
6.28 -7.99 -1.98
8.23 -10.48 -2.11
9.3 -11.84 -1.85
9.38 -11.95 -1.33
15.47 -19.7 -1.31
15.44 -19.66 -0.44
4.3 -5.51 -1.87
15.38 -19.72 0.44
5.11 -6.55 -1.92
15.25 -19.56 1.3
6.22 -7.97 -1.97
8.18 -10.49 -2.11
9.3 -11.93 -1.86
9.4 -12.05 -1.34
15.37 -19.7 -1.31
15.33 -19.66 -0.44
4.28 -5.53 -1.87
15.27 -19.72 0.44
5.08 -6.57 -1.92
15.19 -19.61 1.3
6.19 -8 -1.97
8.13 -10.49 -2.1
9.41 -12.16 -1.89
9.33 -12.05 -1.33
15.25 -19.69 -1.31
15.22 -19.66 -0.43
4.27 -5.55 -1.87
15.17 -19.73 0.43
5.07 -6.59 -1.92
15.12 -19.66 1.3
6.15 -8 -1.96
8.08 -10.5 -2.1
9.18 -11.94 -1.85
9.33 -12.13 -1.34
15.14 -19.69 -1.3
15.12 -19.66 -0.43
4.25 -5.57 -1.88
15.07 -19.74 0.43
5.04 -6.61 -1.92
15.05 -19.71 1.3
6.12 -8.02 -1.96
8.06 -10.56 -2.1
8.91 -11.67 -1.8
9.33 -12.22 -1.35
15.04 -19.7 -1.3
15 -19.65 -0.43
4.23 -5.58 -1.88
14.96 -19.74 0.43
5.03 -6.64 -1.92
14.98 -19.76 1.3
6.1 -8.05 -1.96
8.16 -10.77 -2.14
8.85 -11.67 -1.8
9.24 -12.18 -1.34
14.94 -19.71 -1.3
14.91 -19.66 -0.43
4.21 -5.6 -1.88
14.85 -19.73 0.43
5.01 -6.66 -1.92
14.85 -19.74 1.29
6.09 -8.09 -1.97
8.12 -10.79 -2.14
8.97 -11.93 -1.83
9.2 -12.23 -1.34
14.84 -19.72 -1.29
14.81 -19.68 -0.43
4.2 -5.62 -1.88
14.75 -19.74 0.43
4.98 -6.67 -1.92
14.74 -19.73 1.29
6.06 -8.1 -1.97
8.05 -10.77 -2.13
8.97 -12 -1.84
9.19 -12.3 -1.34
14.74 -19.72 -1.29
14.7 -19.68 -0.43
4.18 -5.64 -1.88
14.65 -19.75 0.43
4.96 -6.69 -1.92
14.58 -19.66 1.28
6.04 -8.14 -1.97
8.02 -10.81 -2.13
8.77 -11.82 -1.81
9.17 -12.37 -1.35
14.62 -19.72 -1.29
14.6 -19.69 -0.43
4.17 -5.66 -1.88
14.55 -19.76 0.43
4.95 -6.72 -1.93
14.38 -19.52 1.27
6.01 -8.16 -1.97
7.99 -10.85 -2.13
8.71 -11.82 -1.8
9.11 -12.37 -1.34
14.52 -19.72 -1.28
14.5 -19.68 -0.43
4.14 -5.67 -1.88
14.44 -19.76 0.43
4.92 -6.74 -1.93
14.26 -19.51 1.27
6 -8.21 -1.98
7.9 -10.81 -2.12
8.6 -11.77 -1.79
9.08 -12.43 -1.35
14.42 -19.74 -1.28
14.4 -19.7 -0.43
4.12 -5.68 -1.88
14.34 -19.76 0.43
4.9 -6.76 -1.93
6.06 -8.35 -2
7.94 -10.95 -2.14
8.54 -11.77 -1.79
9.04 -12.45 -1.35
14.31 -19.72 -1.28
14.3 -19.71 -0.43
4.1 -5.7 -1.88
14.24 -19.77 0.43
4.87 -6.77 -1.93
6.02 -8.36 -2
17.6 -24.44 2.64
7.93 -11.01 -2.15
17.57 -24.4 3.69
8.5 -11.8 -1.79
17.64 -24.5 4.78
8.9 -12.36 -1.33
14.23 -19.75 -1.28
14.2 -19.72 -0.42
4.09 -5.73 -1.89
14.14 -19.77 0.42
4.86 -6.79 -1.93
17.47 -24.42 1.57
5.94 -8.3 -1.98
17.48 -24.44 2.63
7.91 -11.06 -2.15
17.46 -24.42 3.69
8.5 -11.88 -1.79
17.49 -24.46 4.76
8.79 -12.29 -1.32
17.49 -24.45 5.84
14.13 -19.76 -1.27
17.5 -24.48 6.95
14.11 -19.73 -0.42
17.5 -24.48 8.06
4.08 -5.74 -1.89
14.05 -19.8 0.42
4.84 -6.82 -1.93
17.35 -24.44 1.57
5.89 -8.3 -1.98
17.36 -24.46 2.62
7.9 -11.12 -2.16
17.34 -24.43 3.68
8.45 -11.9 -1.79
17.36 -24.46 4.75
8.75 -12.33 -1.32
17.37 -24.47 5.83
14.03 -19.77 -1.27
17.38 -24.49 6.93
14.01 -19.74 -0.42
17.37 -24.47 8.04
4.06 -5.75 -1.89
13.97 -19.82 0.42
4.83 -6.85 -1.93
17.23 -24.44 1.57
5.87 -8.33 -1.98
17.23 -24.45 2.62
7.86 -11.16 -2.16
17.23 -24.44 3.67
8.42 -11.95 -1.79
17.25 -24.47 4.74
8.78 -12.46 -1.33
17.24 -24.46 5.82
13.94 -19.78 -1.27
17.27 -24.5 6.92
13.92 -19.75 -0.42
17.26 -24.48 8.03
4.04 -5.77 -1.89
13.85 -19.79 0.42
4.8 -6.87 -1.94
17.12 -24.47 1.57
5.85 -8.37 -1.99
17.11 -24.47 2.61
7.8 -11.15 -2.16
17.1 -24.44 3.66
8.4 -12.01 -1.8
17.12 -24.48 4.73
8.89 -12.72 -1.36
17.12 -24.47 5.8
13.83 -19.78 -1.26
17.15 -24.52 6.91
13.82 -19.76 -0.42
17.12 -24.48 8.01
4.02 -5.79 -1.89
13.77 -19.82 0.42
4.77 -6.87 -1.93
17 -24.48 1.56
5.82 -8.39 -1.98
17.02 -24.51 2.61
7.75 -11.16 -2.15
17.01 -24.5 3.66
8.48 -12.2 -1.82
17.03 -24.52 4.73
17.01 -24.49 5.79
13.73 -19.77 -1.26
17.03 -24.53 6.89
13.73 -19.77 -0.42
17.03 -24.52 8
4 -5.8 -1.89
13.62 -19.76 0.42
4.75 -6.9 -1.93
16.99 -24.66 1.57
5.78 -8.39 -1.98
17.04 -24.72 2.63
7.67 -11.14 -2.14
17.03 -24.71 3.68
8.49 -12.32 -1.84
17.03 -24.71 4.75
10.58 -15.35 -1.63
17.01 -24.69 5.83
13.63 -19.78 -1.26
17.03 -24.71 6.93
13.63 -19.78 -0.42
17.04 -24.73 8.05
3.99 -5.83 -1.89
13.55 -19.8 0.42
4.74 -6.93 -1.94
17.02 -24.87 1.58
5.76 -8.42 -1.98
17.05 -24.92 2.64
7.64 -11.16 -2.14
17.05 -24.92 3.71
8.42 -12.3 -1.83
17.04 -24.9 4.78
10.48 -15.32 -1.62
17.03 -24.89 5.86
13.54 -19.8 -1.26
17.05 -24.91 6.97
13.54 -19.79 -0.42
17.05 -24.93 8.09
3.96 -5.83 -1.89
13.46 -19.81 0.42
4.72 -6.95 -1.94
17.03 -25.07 1.59
5.74 -8.45 -1.99
17.06 -25.12 2.66
7.59 -11.17 -2.14
17.06 -25.12 3.73
8.17 -12.02 -1.78
17.05 -25.09 4.81
10.43 -15.35 -1.62
17.06 -25.11 5.9
13.44 -19.79 -1.25
17.07 -25.12 7.01
13.47 -19.82 -0.42
17.07 -25.12 8.14
3.94 -5.85 -1.89
12.99 -19.26 0.41
4.7 -6.97 -1.94
16.41 -24.34 1.54
5.7 -8.45 -1.98
17.07 -25.32 2.67
7.53 -11.17 -2.13
17.07 -25.32 3.75
8.09 -12 -1.78
17.06 -25.3 4.83
10.42 -15.45 -1.63
16.4 -24.32 5.7
13.35 -19.8 -1.25
16.41 -24.34 6.78
13.37 -19.83 -0.42
17.09 -25.34 8.19
3.93 -5.87 -1.89
12.89 -19.27 0.4
4.67 -6.98 -1.94
16.28 -24.33 1.53
5.66 -8.46 -1.98
17.08 -25.52 2.69
7.46 -11.15 -2.12
17.08 -25.53 3.77
7.89 -11.79 -1.74
17.08 -25.53 4.87
8.52 -12.74 -1.34
16.29 -24.34 5.69
13.25 -19.8 -1.25
16.31 -24.37 6.77
13.27 -19.83 -0.42
17.1 -25.55 8.24
3.92 -5.9 -1.9
12.8 -19.28 0.4
4.65 -7 -1.94
16.15 -24.32 1.53
5.64 -8.5 -1.98
17.09 -25.73 2.7
7.41 -11.15 -2.12
17.08 -25.72 3.79
7.84 -11.8 -1.74
17.08 -25.72 4.89
10.26 -15.44 -1.62
16.17 -24.35 5.68
13.1 -19.72 -1.24
16.18 -24.37 6.75
13.15 -19.8 -0.41
17.12 -25.78 8.29
3.89 -5.9 -1.89
13.06 -19.82 0.41
4.63 -7.03 -1.94
16.05 -24.35 1.53
5.58 -8.47 -1.97
16.16 -24.52 2.57
7.42 -11.25 -2.13
16.14 -24.49 3.6
7.84 -11.89 -1.75
16.15 -24.51 4.65
10.2 -15.48 -1.62
16.05 -24.35 5.67
13.06 -19.81 -1.24
16.07 -24.37 6.74
13.07 -19.83 -0.41
17.13 -25.99 8.34
3.87 -5.92 -1.89
12.94 -19.78 0.41
4.61 -7.05 -1.95
16.03 -24.5 1.53
5.72 -8.74 -2.03
16.16 -24.71 2.58
7.37 -11.26 -2.13
16.12 -24.64 3.61
7.78 -11.9 -1.75
16.11 -24.63 4.66
8.25 -12.62 -1.32
15.93 -24.36 5.66
13.08 -19.99 -1.25
15.95 -24.39 6.73
13.07 -19.98 -0.42
17.13 -26.19 8.39
3.85 -5.93 -1.89
12.78 -19.69 0.41
4.59 -7.07 -1.95
16.52 -25.44 1.59
5.64 -8.69 -2.01
17.12 -26.38 2.75
7.28 -11.22 -2.12
17.13 -26.39 3.86
7.77 -11.97 -1.75
17.13 -26.39 4.98
8.15 -12.56 -1.31
15.82 -24.38 5.65
13.1 -20.17 -1.26
15.84 -24.4 6.72
13.1 -20.19 -0.42
17.15 -26.42 8.44
3.84 -5.95 -1.9
12.76 -19.81 0.41
4.56 -7.08 -1.94
5.56 -8.64 -2
17.14 -26.61 2.77
7.25 -11.25 -2.12
17.13 -26.6 3.88
7.71 -11.97 -1.75
16.21 -25.17 4.74
8.15 -12.65 -1.32
15.7 -24.37 5.63
13.1 -20.33 -1.27
15.72 -24.4 6.7
13.11 -20.35 -0.42
17.16 -26.64 8.49
3.82 -5.98 -1.9
12.77 -19.97 0.41
4.55 -7.11 -1.95
5.58 -8.73 -2.01
17.15 -26.82 2.79
7.25 -11.33 -2.13
17.15 -26.82 3.91
7.62 -11.92 -1.74
16.09 -25.16 4.73
8.13 -12.71 -1.32
15.59 -24.37 5.62
13.1 -20.49 -1.27
15.61 -24.41 6.69
13.12 -20.51 -0.43
17.19 -26.87 8.55
3.8 -5.99 -1.9
12.76 -20.11 0.42
4.53 -7.13 -1.95
16.53 -26.05 1.62
5.55 -8.74 -2.01
17.17 -27.06 2.8
7.21 -11.36 -2.13
17.17 -27.05 3.93
7.6 -11.98 -1.74
17.18 -27.07 5.08
7.98 -12.57 -1.3
15.48 -24.39 5.61
13.12 -20.67 -1.28
15.49 -24.41 6.67
13.13 -20.69 -0.43
17.2 -27.11 8.6
3.78 -6 -1.9
12.74 -20.22 0.42
4.5 -7.15 -1.95
5.56 -8.83 -2.03
17.18 -27.28 2.82
7.16 -11.37 -2.13
17.18 -27.28 3.96
7.44 -11.82 -1.72
17.18 -27.29 5.11
8.02 -12.73 -1.32
15.37 -24.4 5.61
13.12 -20.84 -1.29
15.38 -24.42 6.66
13.13 -20.85 -0.43
17.21 -27.32 8.65
3.76 -6.02 -1.9
12.78 -20.46 0.42
4.48 -7.17 -1.95
5.53 -8.84 -2.03
16.16 -25.86 2.67
7.13 -11.41 -2.13
17.19 -27.51 3.98
7.37 -11.79 -1.71
17.19 -27.51 5.14
7.7 -12.33 -1.27
15.24 -24.39 5.59
13.13 -21.01 -1.3
15.27 -24.44 6.65
13.09 -20.95 -0.43
17.22 -27.55 8.71
3.75 -6.04 -1.91
12.79 -20.64 0.42
4.46 -7.19 -1.95
5.47 -8.82 -2.02
16.48 -26.58 2.74
7.09 -11.43 -2.13
16.47 -26.57 3.84
7.41 -11.95 -1.73
16.5 -26.61 4.96
7.84 -12.64 -1.3
15.13 -24.41 5.58
13.12 -21.16 -1.3
15.16 -24.45 6.64
13.15 -21.2 -0.44
17.23 -27.79 8.76
3.73 -6.06 -1.91
12.81 -20.82 0.43
4.43 -7.21 -1.95
5.48 -8.91 -2.03
17.29 -28.1 2.89
7.07 -11.48 -2.14
17.24 -28.02 4.04
7.39 -12.01 -1.73
16.59 -26.97 5.02
7.57 -12.31 -1.26
15.03 -24.43 5.58
13.14 -21.36 -1.31
15.04 -24.45 6.63
13.9 -22.59 -0.46
17.25 -28.04 8.82
3.71 -6.07 -1.91
12.81 -20.98 0.43
4.41 -7.23 -1.96
5.44 -8.92 -2.03
17.24 -28.24 2.89
7.04 -11.53 -2.14
17.23 -28.24 4.06
7.32 -12 -1.73
15.81 -25.9 4.81
7.6 -12.45 -1.28
14.92 -24.44 5.57
13.15 -21.54 -1.32
14.92 -24.45 6.61
13.12 -21.5 -0.44
17.27 -28.3 8.88
3.69 -6.09 -1.91
12.82 -21.16 0.43
4.39 -7.25 -1.96
16.6 -27.41 1.68
5.34 -8.82 -2
17.25 -28.48 2.91
7.07 -11.67 -2.16
17.26 -28.5 4.09
7.21 -11.91 -1.71
15.74 -25.99 4.81
7.24 -11.96 -1.22
14.79 -24.43 5.55
13.15 -21.72 -1.33
14.82 -24.47 6.6
13.16 -21.73 -0.44
17.28 -28.53 8.94
3.67 -6.11 -1.91
12.83 -21.35 0.43
4.37 -7.27 -1.96
5.32 -8.86 -2.01
14.95 -24.88 2.54
6.95 -11.56 -2.14
17.27 -28.74 4.12
7.16 -11.91 -1.71
15.67 -26.08 4.82
7.1 -11.81 -1.21
14.68 -24.43 5.54
13.16 -21.89 -1.34
14.71 -24.48 6.59
13.16 -21.91 -0.45
17.29 -28.78 9
3.65 -6.13 -1.91
12.83 -21.53 0.44
4.34 -7.28 -1.96
14.59 -24.48 1.49
5.32 -8.92 -2.02
17.3 -29.02 2.96
6.88 -11.55 -2.13
17.28 -28.99 4.14
7.12 -11.94 -1.71
7.54 -12.66 -1.29
14.58 -24.45 5.53
13.16 -22.07 -1.35
14.6 -24.49 6.58
13.18 -22.1 -0.45
17.3 -29.03 9.06
3.64 -6.15 -1.91
12.85 -21.71 0.44
4.32 -7.3 -1.96
5.32 -8.99 -2.03
17.31 -29.26 2.97
6.95 -11.75 -2.16
17.3 -29.25 4.17
7.03 -11.89 -1.7
7.18 -12.13 -1.23
14.47 -24.46 5.53
13.17 -22.26 -1.36
14.48 -24.47 6.56
13.19 -22.29 -0.45
17.33 -29.29 9.12
3.62 -6.16 -1.91
12.86 -21.91 0.44
4.3 -7.33 -1.96
5.32 -9.07 -2.04
15.22 -25.92 2.63
6.94 -11.83 -2.17
17.31 -29.5 4.2
6.93 -11.81 -1.68
15.73 -26.8 4.92
7.21 -12.29 -1.25
14.36 -24.47 5.52
13.19 -22.47 -1.37
14.38 -24.5 6.56
13.18 -22.46 -0.45
17.34 -29.55 9.18
3.59 -6.17 -1.91
12.87 -22.1 0.45
4.28 -7.34 -1.96
15.02 -25.8 1.56
5.42 -9.32 -2.1
15.01 -25.79 2.61
6.88 -11.82 -2.17
17.34 -29.78 4.23
6.84 -11.75 -1.67
16.66 -28.61 5.24
7.21 -12.38 -1.25
14.25 -24.47 5.5
13.14 -22.57 -1.37
14.27 -24.51 6.55
13.16 -22.61 -0.46
17.35 -29.8 9.24
3.57 -6.18 -1.91
12.88 -22.3 0.45
4.25 -7.37 -1.96
5.37 -9.29 -2.09
17.35 -30.04 3.03
6.83 -11.82 -2.16
17.36 -30.06 4.26
6.78 -11.74 -1.66
16.68 -28.88 5.28
7.17 -12.41 -1.25
14.14 -24.48 5.5
14.01 -24.26 -1.47
14.16 -24.51 6.54
14.34 -24.82 -0.5
17.38 -30.08 9.31
3.55 -6.2 -1.91
12.9 -22.51 0.45
4.22 -7.37 -1.96
5.25 -9.16 -2.05
17.37 -30.32 3.06
6.78 -11.84 -2.16
17.37 -30.32 4.29
6.75 -11.77 -1.67
16.7 -29.16 5.32
7.04 -12.29 -1.24
14.03 -24.48 5.48
13.91 -24.28 -1.47
14.05 -24.52 6.52
14.24 -24.86 -0.5
17.39 -30.36 9.38
3.53 -6.22 -1.92
12.88 -22.67 0.46
4.2 -7.39 -1.96
16.73 -29.43 1.77
5.21 -9.16 -2.05
17.39 -30.6 3.08
6.74 -11.85 -2.16
17.38 -30.58 4.32
6.69 -11.77 -1.66
16.71 -29.41 5.36
6.96 -12.25 -1.23
13.92 -24.49 5.48
13.81 -24.3 -1.46
13.94 -24.52 6.51
14.12 -24.84 -0.5
17.4 -30.62 9.44
3.51 -6.24 -1.92
13.81 -24.49 0.49
4.18 -7.42 -1.97
13.8 -24.48 1.47
5.13 -9.1 -2.03
16.68 -29.58 2.97
6.72 -11.92 -2.17
16.68 -29.59 4.17
6.65 -11.79 -1.66
16.69 -29.61 5.38
6.84 -12.13 -1.22
13.81 -24.5 5.47
13.74 -24.38 -1.47
13.83 -24.53 6.5
11.95 -21.19 -0.42
3.49 -6.24 -1.92
11.93 -21.34 0.43
4.15 -7.43 -1.97
5.18 -9.27 -2.06
17.43 -31.18 3.13
6.67 -11.94 -2.17
17.44 -31.19 4.39
6.58 -11.77 -1.66
16.73 -29.92 5.43
6.68 -11.94 -1.2
13.71 -24.52 5.46
11.43 -20.44 -1.23
13.72 -24.53 6.49
12.01 -21.49 -0.43
3.47 -6.26 -1.92
13.59 -24.5 0.49
4.13 -7.45 -1.97
5.15 -9.29 -2.07
17.43 -31.44 3.15
6.61 -11.93 -2.16
17.44 -31.45 4.42
6.54 -11.79 -1.65
16.77 -30.24 5.48
7.04 -12.7 -1.27
13.6 -24.52 5.45
13.54 -24.41 -1.46
13.61 -24.55 6.48
3.45 -6.28 -1.92
13.5 -24.55 0.49
4.1 -7.46 -1.97
5.1 -9.27 -2.06
15.36 -27.92 2.79
6.55 -11.92 -2.15
17.47 -31.76 4.45
6.48 -11.78 -1.65
16.78 -30.52 5.52
7.11 -12.92 -1.29
13.48 -24.52 5.44
13.46 -24.48 -1.46
13.51 -24.56 6.47
11.47 -20.85 -0.42
3.44 -6.3 -1.92
11.6 -21.26 0.42
4.08 -7.48 -1.97
5.16 -9.45 -2.09
17.48 -32.03 3.19
6.5 -11.91 -2.15
17.49 -32.05 4.48
6.44 -11.81 -1.65
16.19 -29.67 5.35
7.14 -13.08 -1.3
13.38 -24.53 5.43
13.38 -24.51 -1.46
13.4 -24.56 6.46
3.41 -6.31 -1.92
11.48 -21.21 0.42
4.06 -7.5 -1.97
5.07 -9.38 -2.07
17.51 -32.35 3.22
6.47 -11.95 -2.15
17.5 -32.34 4.52
6.44 -11.9 -1.66
16.83 -31.1 5.6
13.28 -24.54 5.42
13.28 -24.54 -1.46
13.3 -24.57 6.45
13.26 -24.51 -0.49
3.39 -6.32 -1.92
11.41 -21.27 0.42
4.04 -7.52 -1.97
5.04 -9.38 -2.07
17.51 -32.63 3.24
6.41 -11.95 -2.15
17.52 -32.65 4.55
6.36 -11.85 -1.65
16.82 -31.34 5.63
6.82 -12.72 -1.26
13.18 -24.56 5.42
13.17 -24.54 -1.46
13.19 -24.57 6.44
11.64 -21.69 -0.43
3.37 -6.33 -1.92
13.03 -24.48 0.48
4.01 -7.54 -1.97
13.05 -24.51 1.46
5.07 -9.52 -2.1
17.54 -32.96 3.27
6.37 -11.97 -2.15
17.55 -32.97 4.59
6.24 -11.73 -1.63
16.88 -31.72 5.69
6.69 -12.57 -1.25
13.06 -24.55 5.41
13.02 -24.47 -1.45
13.08 -24.59 6.43
11.56 -21.73 -0.43
3.35 -6.35 -1.92
12.94 -24.53 0.48
3.98 -7.55 -1.97
12.96 -24.57 1.46
5.03 -9.53 -2.09
17.56 -33.27 3.29
6.29 -11.92 -2.14
17.55 -33.26 4.62
6.24 -11.83 -1.64
16.89 -32 5.73
6.68 -12.67 -1.25
12.96 -24.55 5.4
12.91 -24.47 -1.45
12.98 -24.6 6.42
12.94 -24.52 -0.48
3.33 -6.36 -1.92
12.83 -24.51 0.48
3.96 -7.56 -1.97
12.84 -24.55 1.45
4.98 -9.52 -2.09
6.25 -11.94 -2.13
6.18 -11.81 -1.64
16.9 -32.29 5.77
6.75 -12.89 -1.27
12.86 -24.57 5.39
11.57 -22.11 -1.31
12.87 -24.6 6.41
12.89 -24.63 -0.49
3.31 -6.38 -1.93
12.73 -24.54 0.48
3.94 -7.6 -1.98
12.85 -24.76 1.46
16.89 -32.56 3.21
6.19 -11.94 -2.13
16.89 -32.55 4.5
6.11 -11.77 -1.63
16.9 -32.58 5.81
6.67 -12.85 -1.27
12.75 -24.58 5.38
12.72 -24.52 -1.45
12.77 -24.61 6.4
12.83 -24.72 -0.49
3.28 -6.38 -1.92
12.63 -24.56 0.48
3.92 -7.62 -1.98
12.74 -24.76 1.46
4.92 -9.57 -2.09
16.83 -32.72 3.22
6.14 -11.94 -2.13
16.86 -32.77 4.53
6.04 -11.74 -1.62
6.58 -12.79 -1.26
12.65 -24.6 5.38
12.61 -24.51 -1.44
12.66 -24.61 6.39
12.71 -24.72 -0.49
3.26 -6.4 -1.92
3.89 -7.63 -1.98
12.64 -24.79 1.46
4.86 -9.53 -2.08
6.1 -11.95 -2.13
12.33 -24.17 3.33
6.02 -11.8 -1.63
12.37 -24.25 4.31
6.54 -12.82 -1.26
12.54 -24.58 5.36
12.47 -24.46 -1.44
12.56 -24.63 6.38
12.58 -24.66 -0.48
3.25 -6.42 -1.93
12.21 -24.16 0.47
3.86 -7.64 -1.98
12.22 -24.17 1.42
4.49 -8.88 -1.93
12.23 -24.19 2.37
6.04 -11.94 -2.12
12.22 -24.17 3.33
6.01 -11.89 -1.64
12.24 -24.2 4.3
6.53 -12.92 -1.27
12.44 -24.6 5.36
12.19 -24.11 -1.42
12.46 -24.64 6.37
12.23 -24.18 -0.47
3.23 -6.44 -1.93
12.33 -24.6 0.48
3.84 -7.65 -1.98
12.42 -24.76 1.45
4.78 -9.54 -2.07
12.16 -24.26 2.37
6.01 -11.98 -2.12
12.12 -24.18 3.32
6 -11.97 -1.64
12.17 -24.27 4.3
6.45 -12.87 -1.26
12.34 -24.61 5.35
12.3 -24.52 -1.44
12.35 -24.63 6.36
12.43 -24.78 -0.48
3.2 -6.44 -1.93
12.03 -24.2 0.47
3.82 -7.68 -1.98
12.03 -24.2 1.42
4.73 -9.51 -2.06
12.04 -24.22 2.37
5.96 -12 -2.12
12.03 -24.2 3.32
5.98 -12.03 -1.65
12.04 -24.23 4.29
6.24 -12.55 -1.23
12.23 -24.61 5.34
12.19 -24.52 -1.44
12.24 -24.63 6.35
12.29 -24.73 -0.48
3.18 -6.45 -1.93
11.92 -24.2 0.47
3.79 -7.7 -1.98
11.93 -24.2 1.41
4.71 -9.55 -2.07
11.92 -24.2 2.36
5.72 -11.61 -2.05
11.92 -24.2 3.31
5.86 -11.9 -1.63
11.95 -24.24 4.28
6.19 -12.56 -1.22
12.13 -24.63 5.34
12.09 -24.53 -1.43
12.15 -24.65 6.34
12.11 -24.58 -0.48
3.16 -6.47 -1.93
11.81 -24.19 0.47
3.77 -7.71 -1.98
11.82 -24.2 1.41
4.75 -9.73 -2.1
11.82 -24.21 2.36
5.73 -11.73 -2.07
11.82 -24.21 3.31
5.79 -11.86 -1.62
11.85 -24.25 4.28
6.14 -12.57 -1.22
12.03 -24.63 5.33
10.42 -21.34 -1.24
12.05 -24.66 6.34
12.03 -24.63 -0.48
3.14 -6.49 -1.93
11.71 -24.19 0.47
3.74 -7.72 -1.98
11.72 -24.2 1.41
4.72 -9.76 -2.11
11.72 -24.21 2.35
5.73 -11.83 -2.08
11.72 -24.21 3.3
5.8 -11.97 -1.63
11.74 -24.26 4.27
6.02 -12.44 -1.21
11.92 -24.62 5.32
10.32 -21.33 -1.24
11.94 -24.67 6.33
11.95 -24.69 -0.48
3.12 -6.51 -1.94
11.61 -24.2 0.47
3.72 -7.75 -1.98
11.61 -24.19 1.41
4.69 -9.78 -2.11
11.62 -24.22 2.35
5.64 -11.75 -2.06
11.61 -24.21 3.3
5.73 -11.95 -1.63
11.63 -24.25 4.26
5.94 -12.38 -1.2
11.82 -24.64 5.31
10.25 -21.36 -1.24
11.84 -24.68 6.32
11.87 -24.73 -0.48
3.1 -6.51 -1.93
11.51 -24.2 0.47
3.69 -7.76 -1.98
11.51 -24.2 1.4
4.64 -9.77 -2.1
11.53 -24.24 2.35
5.52 -11.61 -2.04
11.52 -24.22 3.29
5.7 -11.99 -1.63
11.53 -24.24 4.25
7.79 -16.39 -1.59
11.72 -24.66 5.31
10.17 -21.4 -1.24
11.73 -24.67 6.31
11.75 -24.72 -0.48
3.07 -6.52 -1.93
11.41 -24.21 0.47
3.67 -7.78 -1.99
11.41 -24.21 1.4
4.61 -9.79 -2.1
11.41 -24.22 2.34
5.65 -11.99 -2.1
11.41 -24.22 3.29
5.68 -12.05 -1.64
11.43 -24.26 4.25
5.75 -12.2 -1.18
11.62 -24.67 5.3
10.09 -21.41 -1.24
11.63 -24.69 6.3
11.64 -24.7 -0.48
3.06 -6.54 -1.93
11.31 -24.2 0.47
3.64 -7.8 -1.99
11.31 -24.21 1.4
4.58 -9.81 -2.1
11.32 -24.22 2.34
5.55 -11.87 -2.07
11.32 -24.22 3.28
5.69 -12.18 -1.65
11.34 -24.27 4.24
7.69 -16.45 -1.59
11.52 -24.65 5.29
11.49 -24.59 -1.42
11.54 -24.69 6.29
11.59 -24.79 -0.48
3.03 -6.55 -1.93
11.21 -24.2 0.47
3.62 -7.81 -1.99
11.21 -24.21 1.4
4.53 -9.78 -2.09
11.21 -24.21 2.33
5.49 -11.85 -2.07
11.21 -24.21 3.28
5.65 -12.2 -1.65
11.24 -24.28 4.24
5.66 -12.21 -1.18
11.42 -24.66 5.28
11.37 -24.56 -1.42
11.45 -24.71 6.29
11.41 -24.63 -0.47
3.01 -6.56 -1.93
11.1 -24.21 0.46
3.59 -7.83 -1.99
11.1 -24.2 1.4
4.47 -9.75 -2.09
11.11 -24.24 2.33
5.45 -11.88 -2.07
11.1 -24.21 3.27
5.53 -12.05 -1.63
11.13 -24.28 4.23
5.66 -12.35 -1.19
11.31 -24.67 5.28
11.26 -24.56 -1.42
11.33 -24.71 6.28
11.33 -24.71 -0.47
2.99 -6.58 -1.94
11 -24.22 0.46
3.57 -7.85 -1.99
11 -24.21 1.39
4.43 -9.75 -2.08
11.02 -24.25 2.33
5.41 -11.9 -2.07
11.01 -24.22 3.27
5.52 -12.14 -1.64
11.02 -24.26 4.22
7.5 -16.5 -1.59
11.22 -24.69 5.27
11.16 -24.57 -1.41
11.23 -24.72 6.27
11.26 -24.79 -0.48
2.97 -6.59 -1.94
10.91 -24.23 0.46
3.55 -7.87 -1.99
10.91 -24.22 1.39
4.38 -9.74 -2.08
10.91 -24.23 2.32
5.4 -12 -2.08
10.91 -24.23 3.26
5.33 -11.84 -1.59
10.93 -24.28 4.22
7.43 -16.51 -1.58
11.12 -24.7 5.27
11.05 -24.54 -1.41
11.13 -24.72 6.26
11.1 -24.66 -0.47
2.94 -6.6 -1.94
10.81 -24.22 0.46
3.52 -7.89 -1.99
10.81 -24.23 1.39
4.35 -9.74 -2.07
10.81 -24.23 2.32
5.33 -11.95 -2.07
10.81 -24.23 3.26
5.27 -11.81 -1.59
10.84 -24.3 4.21
7.38 -16.53 -1.58
11.02 -24.69 5.26
10.87 -24.37 -1.4
11.03 -24.72 6.25
11 -24.65 -0.47
2.93 -6.62 -1.94
10.71 -24.22 0.46
3.49 -7.89 -1.99
10.71 -24.22 1.39
4.32 -9.77 -2.08
10.72 -24.23 2.32
5.29 -11.96 -2.07
10.71 -24.22 3.25
5.29 -11.96 -1.61
10.75 -24.3 4.21
7.32 -16.55 -1.58
10.92 -24.69 5.25
10.88 -24.59 -1.41
10.94 -24.73 6.24
10.91 -24.66 -0.47
2.91 -6.63 -1.94
10.62 -24.23 0.46
3.47 -7.92 -2
10.61 -24.21 1.39
4.3 -9.82 -2.08
10.62 -24.24 2.32
5.26 -12 -2.07
10.62 -24.23 3.25
5.23 -11.94 -1.6
10.65 -24.3 4.2
5.51 -12.57 -1.2
