# .PCD v0.7 - Point Cloud Data file format
VERSION 0.7
FIELDS x y z
SIZE 4 4 4
TYPE F F F
COUNT 1 1 1
WIDTH 2760
HEIGHT 1
VIEWPOINT 0 0 0 1 0 0 0
POINTS 2760
DATA ascii
-1.15 0.05 -0.31
-64.51 2.69 1.13
-1.41 0.06 -0.33
-1.07 0.04 -0.21
-11.74 0.49 -1.86
-1.57 0.07 -0.19
-23.76 0.99 -2.08
-1.13 0.05 -0.3
-1.41 0.06 -0.33
-1.06 0.05 -0.21
-11.75 0.53 -1.86
-1.58 0.07 -0.19
-23.82 1.08 -2.09
-1.12 0.05 -0.3
-1.4 0.07 -0.32
-1.07 0.05 -0.21
-11.75 0.57 -1.86
-1.58 0.08 -0.19
-23.85 1.16 -2.09
-1.12 0.06 -0.3
-1.42 0.07 -0.33
-1.07 0.06 -0.21
-11.73 0.61 -1.86
-1.59 0.08 -0.2
-23.87 1.25 -2.09
-1.13 0.06 -0.3
-1.4 0.08 -0.32
-1.07 0.06 -0.21
-11.74 0.65 -1.86
-1.58 0.09 -0.19
-23.95 1.33 -2.1
-1.15 0.07 -0.31
-1.4 0.08 -0.32
-1.07 0.06 -0.21
-11.74 0.7 -1.86
-1.57 0.09 -0.19
-24 1.42 -2.1
-1.12 0.07 -0.3
-1.4 0.09 -0.32
-1.06 0.07 -0.21
-11.74 0.74 -1.86
-1.58 0.1 -0.19
-24.01 1.51 -2.1
-52.87 3.32 -0.92
-1.14 0.08 -0.31
-52.67 3.49 0.92
-1.41 0.09 -0.33
-52.7 3.49 2.77
-1.07 0.07 -0.21
-11.74 0.78 -1.86
-44.26 2.93 5.45
-1.6 0.11 -0.2
-24.07 1.59 -2.11
-1.15 0.08 -0.31
-1.41 0.1 -0.33
-1.07 0.07 -0.21
-42.51 2.97 3.73
-11.72 0.82 -1.86
-1.6 0.11 -0.2
-24.12 1.68 -2.11
-1.14 0.08 -0.31
-1.41 0.1 -0.33
-1.07 0.08 -0.21
-11.72 0.86 -1.86
-1.6 0.12 -0.2
-24.19 1.77 -2.12
-1.15 0.09 -0.31
-1.41 0.11 -0.33
-1.07 0.08 -0.21
-43.29 3.32 3.8
-11.73 0.9 -1.86
-1.58 0.12 -0.19
-24.24 1.86 -2.13
-1.14 0.09 -0.31
-1.42 0.11 -0.33
-1.06 0.08 -0.21
-11.73 0.94 -1.86
-1.59 0.13 -0.2
-24.26 1.95 -2.13
-1.13 0.09 -0.3
-1.42 0.12 -0.33
-1.06 0.09 -0.21
-43.92 3.68 3.86
-11.71 0.98 -1.86
-1.6 0.13 -0.2
-24.33 2.04 -2.14
-75.24 6.3 -1.32
-1.12 0.1 -0.3
-1.42 0.12 -0.33
-1.07 0.09 -0.21
-11.71 1.02 -1.86
-1.6 0.14 -0.2
-24.4 2.13 -2.14
-1.14 0.1 -0.31
-1.41 0.13 -0.33
-43.83 3.97 2.31
-1.07 0.1 -0.21
-43.64 3.95 3.83
-11.74 1.06 -1.87
-43.61 3.95 5.38
-1.59 0.14 -0.2
-24.44 2.21 -2.15
-36.67 3.32 -1.93
-1.15 0.11 -0.31
-43.59 4.11 0.76
-1.42 0.13 -0.33
-1.08 0.1 -0.21
-11.74 1.11 -1.87
-43.7 4.12 5.39
-1.59 0.15 -0.2
-24.49 2.31 -2.15
-36.56 3.44 -1.92
-43.49 4.1 -0.76
-1.15 0.11 -0.31
-1.41 0.14 -0.33
-1.07 0.1 -0.21
-11.78 1.15 -1.87
-1.59 0.15 -0.2
-24.53 2.39 -2.16
-36.55 3.57 -1.92
-1.13 0.11 -0.3
-1.42 0.14 -0.33
-1.06 0.11 -0.21
-43.82 4.44 3.85
-11.78 1.19 -1.88
-1.59 0.16 -0.2
-24.56 2.49 -2.16
-1.14 0.12 -0.31
-1.41 0.15 -0.33
-1.08 0.11 -0.21
-11.78 1.23 -1.88
-1.6 0.17 -0.2
-27.66 2.9 4.4
-24.59 2.58 -2.16
-1.15 0.12 -0.31
-1.41 0.15 -0.33
-1.08 0.12 -0.21
-11.79 1.28 -1.88
-1.6 0.17 -0.2
-24.66 2.67 -2.17
-1.13 0.13 -0.31
-1.4 0.16 -0.32
-1.08 0.12 -0.21
-11.79 1.32 -1.88
-42.48 4.75 5.25
-1.59 0.18 -0.2
-24.71 2.76 -2.18
-1.14 0.13 -0.31
-1.4 0.16 -0.33
-1.07 0.12 -0.21
-11.81 1.36 -1.88
-1.59 0.18 -0.2
-24.73 2.85 -2.18
-1.13 0.13 -0.3
-1.41 0.17 -0.33
-1.07 0.13 -0.21
-11.82 1.4 -1.88
-1.59 0.19 -0.2
-24.74 2.94 -2.18
-30.91 3.67 -1.63
-1.13 0.14 -0.3
-1.42 0.17 -0.33
-1.07 0.13 -0.21
-11.82 1.45 -1.89
-1.6 0.2 -0.2
-27.5 3.37 4.39
-24.81 3.04 -2.19
-1.13 0.14 -0.3
-1.4 0.18 -0.33
-1.08 0.14 -0.21
-11.83 1.49 -1.89
-1.6 0.2 -0.2
-27.1 3.41 4.33
-24.88 3.13 -2.19
-1.13 0.15 -0.31
-1.43 0.19 -0.33
-1.07 0.14 -0.21
-28.89 3.74 2.55
-11.84 1.53 -1.89
-1.59 0.21 -0.2
-24.89 3.22 -2.2
-1.13 0.15 -0.31
-1.43 0.19 -0.33
-1.06 0.14 -0.21
-28.93 3.85 2.55
-11.86 1.58 -1.89
-1.59 0.21 -0.2
-24.89 3.31 -2.2
-1.13 0.15 -0.31
-1.42 0.19 -0.33
-1.07 0.15 -0.21
-11.86 1.62 -1.9
-1.6 0.22 -0.2
-24.88 3.4 -2.2
-30.84 4.21 -1.63
-1.13 0.16 -0.31
-1.42 0.2 -0.33
-1.07 0.15 -0.21
-28.47 3.99 2.52
-11.86 1.66 -1.9
-1.6 0.22 -0.2
-25.07 3.51 -2.21
-30.87 4.32 -1.63
-1.13 0.16 -0.31
-1.43 0.21 -0.33
-1.07 0.15 -0.21
-28.41 4.08 2.51
-11.87 1.71 -1.9
-1.61 0.23 -0.2
-25.09 3.61 -2.22
-27.86 4 5.47
-30.84 4.43 -1.63
-1.16 0.17 -0.31
-1.42 0.21 -0.33
-1.08 0.16 -0.21
-11.88 1.75 -1.9
-1.6 0.24 -0.2
-28.89 4.25 4.63
-24.93 3.67 -2.2
-28.1 4.14 5.52
-30.86 4.54 -1.63
-1.14 0.17 -0.31
-1.43 0.22 -0.33
-1.07 0.16 -0.21
-28.49 4.3 2.52
-11.88 1.79 -1.9
-1.6 0.24 -0.2
-24.88 3.75 -2.2
-27.72 4.18 5.45
-30.87 4.66 -1.64
-1.14 0.18 -0.31
-1.41 0.22 -0.33
-1.06 0.16 -0.21
-11.89 1.84 -1.91
-1.6 0.25 -0.2
-24.83 3.83 -2.2
-27.62 4.26 5.43
-1.14 0.18 -0.31
-1.42 0.23 -0.33
-1.08 0.17 -0.21
-11.89 1.88 -1.91
-26.15 4.13 3.25
-1.61 0.25 -0.2
-24.78 3.92 -2.19
-27.45 4.34 5.4
-30.95 4.89 -1.64
-1.13 0.18 -0.31
-1.41 0.23 -0.33
-1.08 0.17 -0.21
-11.9 1.92 -1.91
-26.2 4.23 3.26
-1.61 0.26 -0.2
-24.71 3.99 -2.19
-1.14 0.19 -0.31
-1.42 0.23 -0.33
-1.09 0.18 -0.21
-11.9 1.96 -1.91
-26.21 4.32 3.26
-1.6 0.26 -0.2
-24.66 4.07 -2.19
-26.23 4.33 5.17
-1.14 0.19 -0.31
-82.39 13.89 1.46
-1.41 0.24 -0.33
-1.06 0.18 -0.21
-11.92 2.01 -1.91
-27.16 4.58 3.38
-1.6 0.27 -0.2
-26.64 4.49 4.28
-24.59 4.15 -2.18
-1.12 0.19 -0.3
-1.42 0.24 -0.33
-1.07 0.18 -0.21
-11.92 2.05 -1.92
-28.79 4.96 3.59
-1.6 0.28 -0.2
-26.5 4.56 4.26
-24.5 4.22 -2.17
-25.93 4.47 5.11
-1.13 0.2 -0.31
-1.43 0.25 -0.34
-1.08 0.19 -0.21
-11.91 2.09 -1.92
-27.06 4.76 3.37
-1.6 0.28 -0.2
-24.45 4.3 -2.17
-27.23 4.79 5.37
-27.33 4.8 6.41
-1.12 0.2 -0.3
-1.42 0.25 -0.33
-1.07 0.19 -0.21
-11.92 2.14 -1.92
-28.17 5.05 3.51
-1.61 0.29 -0.2
-24.4 4.38 -2.17
-1.15 0.21 -0.31
-1.42 0.26 -0.33
-1.07 0.2 -0.21
-11.94 2.18 -1.92
-28.11 5.14 3.51
-1.6 0.29 -0.2
-27.09 4.96 4.36
-24.35 4.46 -2.17
-25.82 4.72 5.1
-27.2 4.98 6.38
-1.14 0.21 -0.31
-1.41 0.26 -0.33
-1.06 0.2 -0.21
-27.15 5.07 2.42
-11.94 2.23 -1.92
-26.28 4.9 3.28
-1.6 0.3 -0.2
-24.3 4.54 -2.16
-27.15 5.07 5.37
-27.01 5.04 6.34
-1.13 0.22 -0.31
-1.42 0.27 -0.33
-1.08 0.21 -0.21
-11.95 2.27 -1.93
-26.39 5.02 3.3
-1.6 0.3 -0.2
-25.54 4.86 4.12
-24.24 4.61 -2.16
-26.99 5.13 5.34
-26.97 5.13 -1.44
-26.98 5.13 -0.48
-26.88 5.11 7.33
-1.12 0.22 -0.3
-26.91 5.22 0.48
-1.41 0.27 -0.33
-26.95 5.22 1.44
-1.07 0.21 -0.21
-27.16 5.26 2.42
-11.95 2.32 -1.93
-27.11 5.25 3.39
-1.61 0.31 -0.2
-27.04 5.24 4.36
-24.2 4.69 -2.16
-26.97 5.23 5.34
-26.96 5.23 -1.44
-26.93 5.22 6.33
-26.94 5.22 -0.48
-26.66 5.17 7.28
-1.13 0.22 -0.31
-1.41 0.28 -0.33
-26.94 5.32 1.44
-1.08 0.21 -0.21
-27.12 5.36 2.42
-11.96 2.36 -1.93
-27.03 5.34 3.38
-1.61 0.32 -0.2
-24.8 4.9 4
-24.18 4.77 -2.16
-26.85 5.3 5.32
-1.13 0.23 -0.31
-1.43 0.29 -0.34
-1.08 0.22 -0.21
-26.82 5.39 2.39
-11.96 2.4 -1.93
-1.6 0.32 -0.2
-25.22 5.07 4.07
-24.15 4.85 -2.16
-27.08 5.44 5.37
-27.19 5.46 6.4
-1.14 0.23 -0.31
-1.42 0.29 -0.34
-1.07 0.22 -0.21
-26.77 5.48 2.39
-11.96 2.45 -1.93
-26.11 5.34 3.27
-1.59 0.33 -0.2
-26.59 5.44 4.3
-24.11 4.93 -2.15
-26.15 5.35 5.19
-26.96 5.52 6.35
-1.13 0.24 -0.31
-1.43 0.3 -0.34
-1.07 0.22 -0.21
-26.75 5.57 2.39
-11.97 2.49 -1.94
-1.61 0.33 -0.2
-25.3 5.27 4.09
-24.04 5.01 -2.15
-26.08 5.43 5.18
-1.13 0.24 -0.31
-28.57 6.06 0.51
-1.43 0.3 -0.34
-1.08 0.23 -0.21
-11.96 2.54 -1.94
-25.08 5.32 3.15
-1.61 0.34 -0.2
-23.99 5.09 -2.15
-1.14 0.25 -0.31
-1.42 0.31 -0.34
-1.08 0.23 -0.21
-11.97 2.58 -1.94
-25.02 5.4 3.14
-1.61 0.35 -0.2
-23.97 5.17 -2.14
-26.04 5.62 5.18
-1.15 0.25 -0.31
-1.44 0.31 -0.34
-1.09 0.24 -0.22
-11.97 2.63 -1.94
-25.15 5.52 3.16
-1.6 0.35 -0.2
-23.93 5.25 -2.14
-25.93 5.69 5.16
-1.13 0.25 -0.31
-1.48 0.33 -0.35
-1.07 0.24 -0.21
-11.98 2.67 -1.94
-26.77 5.97 3.37
-1.6 0.36 -0.2
-25.68 5.73 4.17
-23.87 5.32 -2.14
-26 5.8 5.18
-1.12 0.25 -0.31
-1.44 0.33 -0.34
-1.08 0.24 -0.21
-26.58 6.02 2.38
-11.98 2.72 -1.95
-1.6 0.36 -0.2
-25.26 5.73 4.1
-23.82 5.4 -2.14
-25.98 5.89 5.18
-1.14 0.26 -0.31
-1.44 0.33 -0.34
-1.08 0.25 -0.21
-53.23 12.26 4.78
-11.97 2.76 -1.95
-1.61 0.37 -0.2
-77.68 17.89 12.63
-23.77 5.47 -2.13
-26.07 6 6.18
-1.12 0.26 -0.31
-1.42 0.33 -0.34
-1.08 0.25 -0.22
-11.99 2.81 -1.95
-25.07 5.87 3.16
-1.61 0.38 -0.2
-23.72 5.55 -2.13
-25.39 5.94 5.07
-1.14 0.27 -0.31
-1.42 0.34 -0.34
-1.08 0.26 -0.21
-1.79 0.42 -0.29
-1.6 0.38 -0.2
-26.09 6.2 4.25
-23.68 5.63 -2.13
-25.6 6.09 5.12
-25.2 5.99 -1.36
-1.14 0.28 -0.31
-1.43 0.35 -0.34
-1.08 0.26 -0.22
-52.72 12.72 4.74
-11.99 2.89 -1.95
-25.1 6.06 3.17
-1.61 0.39 -0.2
-26.2 6.32 4.27
-23.64 5.71 -2.13
-25.22 6.09 -1.36
-1.12 0.28 -0.31
-1.45 0.35 -0.34
-1.08 0.26 -0.22
-12 2.94 -1.96
-1.61 0.39 -0.2
-26.26 6.43 4.28
-23.58 5.77 -2.12
-1.13 0.28 -0.31
-1.43 0.36 -0.34
-1.09 0.27 -0.22
-12 2.98 -1.96
-1.61 0.4 -0.2
-23.53 5.85 -2.12
-1.14 0.29 -0.32
-1.44 0.36 -0.34
-1.09 0.28 -0.22
-11.99 3.02 -1.96
-1.62 0.41 -0.2
-23.47 5.92 -2.12
-25.55 6.44 5.12
-1.15 0.29 -0.32
-1.45 0.37 -0.34
-52.93 13.54 2.86
-1.08 0.28 -0.22
-12.01 3.07 -1.96
-1.61 0.41 -0.2
-26.73 6.84 4.37
-23.41 5.99 -2.11
-1.15 0.3 -0.32
-1.46 0.38 -0.35
-1.08 0.28 -0.22
-12.01 3.12 -1.97
-1.61 0.42 -0.2
-23.36 6.06 -2.11
-1.15 0.3 -0.32
-1.47 0.39 -0.35
-1.09 0.29 -0.22
-12.01 3.16 -1.97
-1.64 0.43 -0.21
-23.31 6.14 -2.11
-1.12 0.3 -0.31
-1.47 0.39 -0.35
-1.1 0.29 -0.22
-12 3.21 -1.97
-1.63 0.44 -0.21
-23.27 6.21 -2.11
-1.13 0.31 -0.31
-1.46 0.39 -0.35
-1.09 0.3 -0.22
-12 3.25 -1.97
-75.63 20.48 9.62
-1.62 0.44 -0.21
-23.22 6.29 -2.1
-1.14 0.31 -0.32
-1.45 0.4 -0.35
-1.09 0.3 -0.22
-12 3.29 -1.97
-1.6 0.44 -0.2
-23.18 6.36 -2.1
-16.34 4.48 4.54
-1.13 0.31 -0.31
-1.45 0.4 -0.35
-1.09 0.3 -0.22
-12.01 3.34 -1.98
-1.61 0.45 -0.2
-23.17 6.45 -2.1
-16.02 4.46 3.84
-16.29 4.53 4.53
-1.12 0.32 -0.31
-1.46 0.41 -0.35
-1.09 0.31 -0.22
-12.02 3.39 -1.98
-1.62 0.46 -0.21
-1.67 0.47 -0.15
-1.12 0.32 -0.31
-1.44 0.41 -0.35
-1.09 0.31 -0.22
-12.01 3.43 -1.98
-1.62 0.46 -0.21
-54.82 15.67 9.03
-1.66 0.47 -0.15
-1.13 0.33 -0.31
-1.42 0.41 -0.34
-1.09 0.32 -0.22
-12.02 3.48 -1.98
-1.62 0.47 -0.21
-1.64 0.47 -0.15
-16.18 4.69 4.51
-1.14 0.34 -0.32
-1.42 0.42 -0.34
-1.1 0.32 -0.22
-12.03 3.53 -1.99
-53.37 15.66 6.83
-1.61 0.47 -0.21
-1.64 0.48 -0.15
-15.16 4.45 4.23
-1.14 0.34 -0.32
-1.42 0.42 -0.34
-1.08 0.32 -0.22
-12.03 3.58 -1.99
-53.19 15.82 6.81
-15.88 4.72 -2.03
-22.99 6.84 -2.1
-61.4 18.26 -3.36
-15.67 4.66 3.78
-15.18 4.52 4.24
-1.12 0.34 -0.31
-1.41 0.43 -0.34
-1.09 0.33 -0.22
-12.04 3.63 -1.99
-15.82 4.76 -2.03
-22.93 6.9 -2.09
-15.64 4.71 3.77
-17.23 5.19 4.82
-1.12 0.34 -0.31
-1.4 0.43 -0.34
-1.08 0.33 -0.22
-12.03 3.67 -1.99
-15.8 4.82 -2.03
-22.88 6.98 -2.09
-18.45 5.63 3.75
-59.75 18.22 -3.27
-15.44 4.71 4.33
-1.13 0.35 -0.32
-1.38 0.43 -0.33
-1.09 0.34 -0.22
-12.03 3.71 -1.99
-15.75 4.86 -2.02
-22.85 7.05 -2.09
-18.37 5.67 3.74
-59.68 18.43 -3.27
-15.89 4.91 3.84
-15.29 4.72 4.29
-1.13 0.35 -0.32
-1.36 0.43 -0.33
-1.09 0.34 -0.22
-52.26 16.33 4.79
-12.03 3.76 -2
-52.02 16.25 6.69
-1.58 0.49 -0.2
-22.83 7.13 -2.09
-17.47 5.46 3.56
-15.57 4.86 3.77
-15.65 4.89 4.39
-1.13 0.36 -0.32
-54.71 17.3 1
-1.36 0.43 -0.33
-1.08 0.34 -0.22
-52.16 16.5 4.79
-12.03 3.81 -2
-1.6 0.5 -0.21
-22.81 7.21 -2.09
-17.46 5.52 3.56
-15.67 4.96 3.79
-16.53 5.23 4.65
-1.12 0.36 -0.32
-1.34 0.43 -0.33
-1.08 0.35 -0.22
-12.02 3.85 -2
-73.43 23.52 9.47
-1.58 0.51 -0.2
-22.77 7.29 -2.09
-17.41 5.58 3.55
-16.18 5.18 4.55
-1.12 0.36 -0.32
-1.33 0.43 -0.32
-1.09 0.35 -0.22
-12.02 3.9 -2
-73.35 23.78 9.47
-1.59 0.51 -0.2
-22.76 7.38 -2.09
-17.41 5.64 3.56
-57.28 18.57 -3.16
-73.18 23.72 -1.34
-16.17 5.24 4.56
-1.13 0.37 -0.32
-73.19 24.01 1.34
-1.32 0.43 -0.32
-1.1 0.36 -0.22
-12.02 3.94 -2
-15.59 5.11 -2.01
-22.75 7.46 -2.1
-17.38 5.7 3.56
-57.11 18.73 -3.15
-73.17 24 -1.34
-1.14 0.38 -0.32
-1.32 0.44 -0.32
-1.09 0.36 -0.22
-12.02 3.99 -2.01
-73.37 24.35 9.49
-15.55 5.16 -2.01
-73.45 24.38 12.26
-22.74 7.55 -2.1
-17.38 5.77 3.56
-57.06 18.94 -3.15
-73.14 24.27 -1.35
-1.12 0.38 -0.32
-1.31 0.44 -0.32
-73.27 24.57 4.05
-1.09 0.37 -0.22
-73.35 24.6 6.77
-12.03 4.03 -2.01
-1.61 0.54 -0.21
-22.7 7.61 -2.09
-17.36 5.82 3.56
-57.03 19.13 -3.15
-15.65 5.25 3.81
-73.15 24.53 -1.35
-1.14 0.39 -0.32
-73.25 24.85 1.35
-1.32 0.45 -0.32
-1.08 0.37 -0.22
-12.02 4.08 -2.01
-1.55 0.53 -0.2
-73.44 24.92 12.28
-22.66 7.69 -2.09
-16.25 5.51 3.34
-15.63 5.3 3.81
-73.17 24.82 -1.35
-1.12 0.38 -0.32
-56.63 19.43 1.05
-1.31 0.45 -0.32
-1.09 0.38 -0.22
-12.02 4.12 -2.01
-1.52 0.52 -0.2
-73.5 25.22 12.31
-22.63 7.77 -2.09
-16.2 5.56 3.33
-55.4 19.01 -3.07
-15.61 5.36 3.81
-56.58 19.42 -1.04
-1.13 0.39 -0.32
-1.31 0.45 -0.32
-1.1 0.38 -0.23
-12.02 4.17 -2.01
-1.53 0.53 -0.2
-73.48 25.5 12.32
-22.59 7.84 -2.09
-16.12 5.59 3.32
-73.22 25.41 -1.35
-1.14 0.4 -0.32
-1.33 0.47 -0.33
-73.26 25.71 4.07
-1.1 0.39 -0.23
-12.01 4.22 -2.02
-52.92 18.57 6.89
-1.51 0.53 -0.2
-73.44 25.77 12.33
-22.55 7.91 -2.09
-16.11 5.65 3.32
-16.37 5.75 4.01
-73.19 25.69 -1.35
-1.14 0.41 -0.32
-7.85 2.79 -1.92
-73.23 25.99 4.07
-1.09 0.39 -0.22
-16.98 6.03 1.58
-12.01 4.26 -2.02
-73.42 26.06 9.57
-1.49 0.53 -0.19
-73.49 26.08 12.35
-16.83 5.97 -1.56
-73.17 25.97 -1.36
-1.11 0.4 -0.32
-73.18 26.27 1.36
-7.83 2.81 -1.92
-1.11 0.4 -0.23
-12 4.31 -2.02
-1.49 0.54 -0.19
-17.25 6.19 2.9
-16.76 6.02 -1.56
-16.83 6.04 -0.94
-16.86 6.05 -0.31
-16.79 6.03 4.78
-1.13 0.41 -0.32
-73.17 26.56 1.36
-73.26 26.59 4.08
-1.12 0.41 -0.23
-16.95 6.15 1.58
-11.99 4.35 -2.02
-1.49 0.54 -0.19
-17.19 6.24 2.9
-16.79 6.09 -1.56
-17.47 6.34 3.61
-16.8 6.1 -0.94
-16.65 6.04 4.09
-16.82 6.11 -0.31
-16.74 6.08 4.77
-1.13 0.41 -0.32
-16.74 6.14 0.31
-73.24 26.88 4.09
-1.13 0.41 -0.23
-12 4.4 -2.02
-42.09 15.44 5.51
-1.48 0.54 -0.19
-39.64 14.54 6.69
-22.42 8.23 -2.09
-17.42 6.39 3.61
-14.96 5.49 3.68
-16.82 6.17 -0.31
-16.66 6.11 4.76
-1.14 0.42 -0.32
-16.72 6.2 0.31
-1.3 0.48 -0.32
-16.71 6.2 0.93
-1.12 0.41 -0.23
-16.68 6.19 1.56
-12.01 4.45 -2.03
-16.62 6.16 2.18
-1.47 0.54 -0.19
-22.43 8.32 -2.09
-52.2 19.36 -2.92
-15.29 5.67 3.77
-16.49 6.12 4.71
-1.14 0.43 -0.33
-1.19 0.44 -0.29
-16.69 6.25 0.93
-1.1 0.41 -0.23
-16.66 6.24 1.56
-12.08 4.53 -2.04
-16.56 6.21 2.17
-1.45 0.54 -0.19
-16.54 6.2 2.8
-22.37 8.38 -2.09
-15.31 5.73 3.77
-73.23 27.44 -1.37
-15.92 5.96 4.56
-1.13 0.43 -0.32
-1.18 0.45 -0.29
-1.1 0.42 -0.23
-12.07 4.57 -2.04
-16.58 6.28 2.18
-1.45 0.55 -0.19
-16.47 6.24 2.79
-22.32 8.45 -2.09
-16.39 6.21 3.41
-14.91 5.64 3.68
-1.13 0.43 -0.33
-1.16 0.44 -0.29
-53.26 20.38 2.99
-1.1 0.42 -0.23
-12.06 4.61 -2.04
-1.45 0.55 -0.19
-16.46 6.3 2.79
-22.21 8.5 -2.08
-16.49 6.31 3.43
-16.28 6.23 4.03
-73.18 28 -1.37
-1.13 0.44 -0.33
-1.14 0.44 -0.28
-1.1 0.43 -0.23
-37.12 14.35 3.48
-12.05 4.66 -2.05
-1.44 0.56 -0.19
-22.15 8.56 -2.08
-16.11 6.23 3.36
-16.32 6.31 4.04
-15.86 6.13 4.56
-1.13 0.44 -0.33
-52.73 20.61 0.99
-1.13 0.44 -0.28
-52.65 20.58 2.96
-1.09 0.43 -0.23
-52.27 20.43 4.91
-12.01 4.69 -2.04
-1.42 0.56 -0.19
-22.15 8.66 -2.08
-16.07 6.28 3.35
-52.94 20.69 -2.98
-17.73 6.93 4.39
-52.75 20.62 -0.99
-1.12 0.44 -0.32
-52.68 20.81 0.99
-1.13 0.45 -0.28
-37.36 14.75 2.11
-1.1 0.43 -0.23
-11.96 4.72 -2.04
-44.6 17.61 5.89
-1.41 0.56 -0.19
-16.06 6.34 2.73
-22.14 8.74 -2.08
-15.17 5.99 3.17
-52.73 20.83 -2.97
-15.57 6.15 3.87
-52.75 20.83 -0.99
-1.11 0.44 -0.32
-1.13 0.45 -0.28
-37.2 14.83 2.1
-1.1 0.44 -0.23
-11.94 4.76 -2.04
-1.4 0.56 -0.19
-16.04 6.4 2.74
-22.11 8.82 -2.08
-16.99 6.78 4.22
-62.64 24.98 -1.18
-1.09 0.44 -0.32
-1.11 0.45 -0.28
-1.11 0.45 -0.23
-11.94 4.81 -2.04
-38.32 15.44 5.07
-1.4 0.56 -0.19
-46.12 18.58 7.87
-22.08 8.89 -2.08
-17.6 7.09 4.38
-1.1 0.45 -0.32
-1.09 0.45 -0.27
-1.11 0.45 -0.23
-11.89 4.84 -2.03
-1.38 0.56 -0.18
-22.03 8.96 -2.08
-17.41 7.08 4.34
-16.48 6.7 4.77
-1.09 0.45 -0.32
-41.06 16.87 0.77
-1.09 0.45 -0.27
-1.11 0.46 -0.23
-11.84 4.87 -2.03
-1.35 0.56 -0.18
-42.29 17.38 7.24
-21.99 9.04 -2.08
-15.03 6.18 3.16
-15.4 6.33 3.84
-60.36 24.81 -1.14
-1.08 0.45 -0.31
-60.36 25.04 1.14
-1.08 0.45 -0.27
-45.54 18.89 2.58
-1.11 0.46 -0.23
-49.79 20.66 4.72
-11.8 4.89 -2.02
-60.56 25.12 8.05
-1.35 0.56 -0.18
-42.2 17.51 7.24
-21.95 9.11 -2.08
-15.01 6.22 3.16
-1.07 0.45 -0.31
-1.08 0.45 -0.27
-1.11 0.47 -0.23
-44.7 18.73 4.24
-11.78 4.94 -2.02
-1.34 0.56 -0.18
-42.33 17.73 7.27
-21.9 9.17 -2.08
-15.01 6.29 3.16
-16.93 7.09 4.24
-1.07 0.45 -0.31
-1.09 0.46 -0.27
-37.18 15.73 2.12
-1.12 0.47 -0.24
-44.76 18.94 4.25
-11.75 4.97 -2.02
-1.32 0.56 -0.18
-42.16 17.84 7.25
-21.87 9.25 -2.08
-15.36 6.5 3.24
-17.33 7.33 5.04
-1.07 0.46 -0.31
-1.08 0.46 -0.27
-9.39 4.01 -1.98
-11.72 5.01 -2.02
-1.31 0.56 -0.17
-38.9 16.62 6.7
-21.85 9.33 -2.08
-16.15 6.9 4.05
-17.36 7.42 5.06
-1.06 0.46 -0.31
-1.08 0.47 -0.27
-37.25 16.07 2.13
-9.37 4.04 -1.98
-11.72 5.06 -2.02
-1.29 0.55 -0.17
-37.61 16.22 6.49
-21.8 9.4 -2.08
-43.96 18.96 -2.51
-16.15 6.97 4.06
-14.85 6.4 4.33
-1.06 0.46 -0.31
-40.04 17.43 0.76
-1.08 0.47 -0.27
-37.26 16.23 2.13
-9.35 4.07 -1.98
-11.71 5.1 -2.02
-45.35 19.75 6.07
-1.28 0.56 -0.17
-37.08 16.15 6.41
-21.77 9.48 -2.08
-37.59 16.37 7.97
-43.92 19.13 -2.51
-14.66 6.38 3.69
-14.8 6.45 4.33
-1.03 0.45 -0.3
-39.98 17.57 0.76
-1.09 0.48 -0.27
-37.3 16.4 2.14
-9.34 4.11 -1.98
-50.55 22.22 4.83
-11.7 5.14 -2.02
-45.21 19.87 6.06
-1.28 0.56 -0.17
-45.15 19.85 7.81
-21.73 9.55 -2.08
-43.82 19.26 -2.51
-35.54 15.62 8.96
-15.15 6.66 4.43
-1.04 0.46 -0.3
-39.94 17.72 0.76
-1.09 0.48 -0.28
-36.71 16.29 2.11
-9.34 4.15 -1.99
-1.2 0.53 -0.21
-44.9 19.93 6.03
-1.27 0.56 -0.17
-21.71 9.63 -2.08
-15 6.66 3.79
-15.16 6.73 4.45
-1.04 0.47 -0.3
-39.9 17.87 0.76
-7.67 3.43 -1.94
-37.4 16.75 2.15
-9.34 4.18 -1.99
-40.59 18.18 3.89
-1.19 0.53 -0.21
-34.9 15.63 4.7
-1.25 0.56 -0.17
-41.64 18.65 7.23
-21.68 9.71 -2.08
-42.68 19.12 -2.45
-1.03 0.47 -0.3
-7.65 3.46 -1.94
-37.47 16.94 2.15
-9.33 4.22 -1.99
-40.52 18.32 3.89
-1.21 0.55 -0.21
-1.24 0.56 -0.17
-21.66 9.79 -2.08
-38.57 17.44 8.23
-42.63 19.27 -2.45
-14.55 6.58 3.69
-1.02 0.47 -0.3
-44.62 20.36 0.86
-7.65 3.49 -1.94
-37.52 17.12 2.16
-9.32 4.25 -1.99
-1.21 0.55 -0.21
-1.24 0.56 -0.17
-21.63 9.87 -2.08
-14.46 6.6 3.67
-1.03 0.47 -0.3
-7.65 3.52 -1.94
-37.57 17.3 2.17
-9.31 4.29 -1.99
-1.21 0.56 -0.21
-45.49 20.95 6.15
-1.23 0.56 -0.17
-21.56 9.93 -2.08
-15.71 7.24 3.36
-14.55 6.7 3.7
-15.04 6.93 4.44
-1.02 0.47 -0.3
-7.63 3.55 -1.94
-45.07 20.95 2.6
-9.31 4.33 -2
-35.64 16.56 3.44
-1.19 0.55 -0.21
-1.22 0.57 -0.17
-42.04 19.54 7.34
-21.52 10 -2.08
-15.57 7.24 3.34
-44.38 20.63 -0.85
-14.95 6.95 4.42
-1.02 0.48 -0.3
-44.83 21.03 0.86
-7.62 3.57 -1.94
-9.3 4.36 -2
-1.19 0.56 -0.21
-40.04 18.78 5.43
-1.22 0.57 -0.17
-37.27 17.48 6.52
-21.48 10.08 -2.08
-15.52 7.28 3.33
-45.47 21.33 -2.63
-44.32 20.79 -0.85
-13.81 6.48 4.09
-1.01 0.48 -0.3
-7.61 3.6 -1.94
-9.28 4.39 -2
-38.59 18.27 3.74
-1.2 0.57 -0.21
-1.2 0.57 -0.16
-38.58 18.26 6.76
-21.42 10.14 -2.07
-45.28 21.43 -2.63
-64.1 30.34 16.37
-15.7 7.43 4.65
-6.44 3.08 -1.91
-7.61 3.63 -1.95
-9.28 4.43 -2
-38.81 18.54 3.76
-1.19 0.57 -0.21
-1.2 0.57 -0.16
-38.14 18.22 6.7
-21.36 10.2 -2.07
-45.12 21.55 -2.62
-18.08 8.63 4.63
-15.72 7.51 4.67
-6.4 3.08 -1.9
-37.83 18.23 0.73
-7.6 3.66 -1.95
-9.26 4.46 -2
-1.17 0.56 -0.21
-1.21 0.58 -0.16
-38.1 18.36 6.7
-21.32 10.27 -2.07
-15.59 7.51 3.36
-44.01 21.21 -2.56
-18.04 8.69 4.62
-44.12 21.26 -0.85
-6.39 3.11 -1.9
-37.93 18.44 0.74
-7.59 3.69 -1.95
-40.64 19.76 2.37
-9.26 4.5 -2
-1.15 0.56 -0.2
-37.81 18.38 5.16
-1.2 0.59 -0.16
-33.4 16.24 5.88
-21.29 10.35 -2.07
-43.86 21.32 -2.56
-18.02 8.76 4.63
-44.07 21.43 -0.86
-13.83 6.73 4.12
-6.38 3.13 -1.91
-7.58 3.72 -1.95
-9.25 4.54 -2
-41.72 20.46 4.07
-1.15 0.56 -0.2
-37.97 18.63 5.19
-1.2 0.59 -0.16
-37.24 18.27 6.57
-21.3 10.45 -2.08
-41.61 20.41 9.01
-41.49 20.35 -2.42
-13.95 6.84 4.16
-6.39 3.16 -1.91
-7.57 3.75 -1.95
-9.25 4.58 -2.01
-36.47 18.05 3.56
-1.13 0.56 -0.2
-1.19 0.59 -0.16
-21.29 10.54 -2.08
-41.61 20.59 -2.43
-14.36 7.11 3.7
-13.98 6.92 4.18
-6.37 3.18 -1.91
-7.57 3.78 -1.95
-9.22 4.6 -2
-38.56 19.24 3.77
-1.13 0.56 -0.2
-40.97 20.44 5.62
-1.17 0.59 -0.16
-41.6 20.76 7.36
-21.29 10.63 -2.08
-14.42 7.19 3.72
-14.12 7.05 4.23
-6.36 3.2 -1.91
-7.56 3.81 -1.95
-37.91 19.09 2.22
-9.22 4.64 -2.01
-1.12 0.56 -0.2
-41.12 20.7 5.65
-1.16 0.58 -0.16
-41.42 20.85 7.35
-21.27 10.71 -2.08
-41.49 20.88 9.03
-42.63 21.46 -2.5
-34.29 17.26 8.86
-6.35 3.22 -1.91
-37.52 19.06 0.73
-7.55 3.84 -1.96
-41.22 20.94 2.42
-9.21 4.68 -2.01
-37.79 19.2 3.71
-1.11 0.56 -0.2
-36.07 18.32 4.97
-1.14 0.58 -0.16
-41.34 21 7.34
-21.28 10.81 -2.09
-18.13 9.21 4.69
-17.86 9.07 5.37
-6.34 3.25 -1.91
-37.07 18.99 0.73
-7.54 3.86 -1.96
-9.2 4.72 -2.01
-37.41 19.17 3.68
-1.1 0.56 -0.2
-36.81 18.86 5.08
-1.14 0.58 -0.16
-17.91 9.18 3.19
-21.25 10.89 -2.09
-54.17 27.76 -3.19
-36.29 18.59 9.41
-38.68 19.82 -0.76
-6.34 3.27 -1.91
-38.01 19.64 0.75
-7.53 3.89 -1.96
-9.21 4.76 -2.01
-39.84 20.59 3.92
-1.1 0.57 -0.2
-1.12 0.58 -0.16
-17.82 9.21 3.18
-21.26 10.99 -2.09
-15.08 7.79 3.3
-40.37 20.87 10.49
-38.31 19.8 -0.75
-6.33 3.3 -1.91
-38.05 19.83 0.75
-7.52 3.92 -1.96
-9.21 4.8 -2.02
-39.89 20.79 3.94
-1.1 0.57 -0.2
-38.79 20.22 5.37
-1.13 0.59 -0.16
-17.81 9.28 3.18
-21.25 11.08 -2.1
-15.16 7.9 3.32
-38.65 20.15 -2.28
-17.87 9.31 4.65
-38.24 19.93 -0.75
-6.31 3.32 -1.91
-40.92 21.49 0.81
-7.51 3.95 -1.96
-9.21 4.84 -2.02
-37.61 19.76 3.72
-1.08 0.57 -0.19
-38.71 20.33 5.37
-14.2 7.46 -1.97
-17.7 9.3 3.17
-21.25 11.16 -2.1
-15.17 7.97 3.33
-38.52 20.23 -2.28
-41.78 21.95 10.9
-40.85 21.46 -0.81
-16.82 8.83 5.09
-6.3 3.34 -1.91
-7.51 3.98 -1.96
-9.18 4.87 -2.02
-34.29 18.16 3.39
-1.07 0.57 -0.19
-38.77 20.54 5.39
-14.17 7.51 -1.97
-17.66 9.35 3.17
-21.28 11.27 -2.11
-38.56 20.42 -2.29
-16.77 8.89 5.09
-6.3 3.37 -1.92
-7.49 4 -1.96
-9.18 4.9 -2.02
-38.7 20.68 3.84
-1.06 0.57 -0.19
-38.72 20.69 5.39
-14.14 7.56 -1.97
-17.83 9.53 3.2
-21.27 11.37 -2.11
-17.79 9.51 3.92
-57.2 30.57 -3.4
-6.3 3.39 -1.92
-37.67 20.3 0.75
-7.48 4.03 -1.96
-38.7 20.85 2.3
-9.16 4.93 -2.02
-38.33 20.66 3.81
-1.06 0.57 -0.19
-38.79 20.91 5.41
-14.07 7.58 -1.96
-17.74 9.56 3.19
-21.26 11.46 -2.11
-17.56 9.46 3.88
-57.22 30.83 -3.41
-6.29 3.42 -1.92
-7.47 4.06 -1.96
-9.12 4.96 -2.02
-39.36 21.39 3.92
-1.05 0.57 -0.19
-39.22 21.31 5.48
-1.12 0.61 -0.16
-17.58 9.55 3.17
-21.27 11.56 -2.12
-38.4 20.87 8.5
-17.29 9.39 4.54
-6.27 3.43 -1.91
-7.47 4.09 -1.97
-38.99 21.36 2.33
-9.07 4.97 -2.01
-39.35 21.56 3.93
-1.04 0.57 -0.19
-39.18 21.46 5.49
-1.11 0.61 -0.16
-39.14 21.44 7.07
-21.26 11.64 -2.12
-55.57 30.44 -3.32
-17.2 9.42 4.53
-6.26 3.46 -1.92
-7.46 4.12 -1.97
-9.05 5 -2.01
-38.19 21.09 3.82
-1.03 0.57 -0.19
-1.1 0.61 -0.15
-17.44 9.63 3.15
-21.26 11.74 -2.13
-39.61 21.88 10.45
-17.22 9.51 5.27
-6.26 3.48 -1.92
-7.44 4.14 -1.97
-40.19 22.37 2.41
-9.03 5.03 -2.01
-1.02 0.57 -0.19
-39.43 21.95 5.54
-1.08 0.6 -0.15
-37.75 21.01 6.84
-21.28 11.85 -2.13
-17.57 9.78 3.91
-16.94 9.43 5.2
-6.25 3.51 -1.92
-33.48 18.8 0.67
-7.44 4.18 -1.97
-9.02 5.06 -2.01
-1.02 0.57 -0.18
-39.48 22.17 5.56
-1.06 0.59 -0.15
-39.29 22.07 7.14
-21.27 11.95 -2.13
-6.24 3.53 -1.92
-38.8 21.97 0.78
-7.43 4.21 -1.97
-30.29 17.15 1.82
-8.99 5.09 -2.01
-38.86 22 3.91
-1.03 0.58 -0.19
-1.06 0.6 -0.15
-17.51 9.91 3.19
-19.42 10.99 -1.95
-17.47 9.89 3.9
-19.42 10.99 -1.17
-19.42 11 -0.39
-17.15 9.71 5.28
-6.22 3.55 -1.92
-29.27 16.71 0.59
-7.42 4.24 -1.97
-38.82 22.16 2.34
-8.97 5.12 -2.01
-38.7 22.09 3.9
-1.02 0.58 -0.19
-38.77 22.13 5.48
-1.06 0.6 -0.15
-17.45 9.96 3.18
-21.26 12.14 -2.14
-38.58 22.03 -2.33
-36.76 20.98 9.77
-19.39 11.07 -0.39
-16.61 9.48 5.12
-6.21 3.58 -1.92
-29.21 16.81 0.59
-7.41 4.26 -1.97
-8.93 5.14 -2
-39.65 22.81 4
-1 0.58 -0.18
-39.41 22.67 5.58
-14.01 8.06 -1.99
-17.68 10.17 3.23
-21.28 12.24 -2.15
-16.72 9.62 3.75
-17.08 9.83 4.55
-6.21 3.6 -1.92
-29.31 17 0.59
-7.39 4.29 -1.97
-8.9 5.16 -2
-57.07 33.1 5.77
-1 0.58 -0.18
-34.25 19.86 4.86
-13.96 8.09 -1.98
-17.37 10.08 3.18
-21.28 12.34 -2.15
-16.69 9.68 3.75
-17.02 9.87 4.54
-56.76 32.92 -1.15
-16.52 9.58 5.12
-6.2 3.62 -1.92
-7.38 4.31 -1.97
-39.89 23.31 2.42
-8.87 5.19 -2
-39.39 23.02 3.99
-0.99 0.58 -0.18
-33.06 19.32 4.7
-13.91 8.13 -1.98
-17.33 10.13 3.18
-21.28 12.44 -2.16
-16.71 9.77 3.76
-38.66 22.59 -2.35
-16.99 9.93 4.54
-56.3 32.91 -1.14
-16.92 9.89 5.25
-6.19 3.65 -1.93
-56.01 33.02 1.13
-7.38 4.35 -1.98
-31.22 18.4 1.9
-8.85 5.21 -2
-40.06 23.62 4.07
-0.98 0.58 -0.18
-34.1 20.1 4.86
-13.86 8.17 -1.98
-17.03 10.04 3.13
-21.25 12.53 -2.16
-32.19 18.97 -1.96
-16.68 9.83 4.47
-55.88 32.94 -1.13
-18.79 11.08 5.85
-6.17 3.67 -1.92
-55.83 33.17 1.13
-7.38 4.38 -1.98
-18.88 11.21 1.15
-8.83 5.25 -2
-31.65 18.8 3.22
-0.96 0.57 -0.18
-34.06 20.24 4.87
-13.83 8.22 -1.98
-17.78 10.57 3.28
-21.24 12.62 -2.16
-33.32 19.8 7.53
-32.03 19.03 -1.95
-16.87 10.02 4.53
-37.13 22.06 11.57
-6.16 3.69 -1.93
-39.15 23.45 0.8
-7.36 4.41 -1.98
-39.17 23.46 2.39
-8.82 5.29 -2
-38.19 22.87 3.89
-0.95 0.57 -0.18
-33.98 20.35 4.86
-13.8 8.26 -1.97
-37.41 22.41 6.91
-21.22 12.71 -2.16
-17.85 10.69 4.04
-31.92 19.12 -1.95
-14.2 8.5 3.82
-14.11 8.45 4.41
-6.16 3.72 -1.93
-7.34 4.43 -1.98
-38.97 23.52 2.39
-8.82 5.32 -2
-38.08 22.98 3.89
-0.95 0.57 -0.18
-33.88 20.45 4.86
-13.77 8.31 -1.98
-17.77 10.73 -1.82
-17.67 10.66 4.01
-31.84 19.22 -1.95
-14.15 8.54 3.82
-14.56 8.79 4.56
-6.15 3.74 -1.93
-7.32 4.46 -1.98
-27.15 16.52 1.67
-8.77 5.34 -2
-32.69 19.89 3.35
-0.95 0.58 -0.18
-33.82 20.58 4.86
-13.73 8.35 -1.97
-36.66 22.31 6.8
-21.25 12.93 -2.18
-17.44 10.61 3.97
-31.28 19.03 -1.92
-14.12 8.59 3.82
-18.05 10.98 -0.37
-14.61 8.89 4.58
-6.14 3.76 -1.93
-18.3 11.22 0.37
-7.33 4.49 -1.98
-18.88 11.58 1.16
-8.74 5.36 -1.99
-33.19 20.35 3.41
-0.95 0.59 -0.18
-36.93 22.64 5.32
-13.69 8.4 -1.97
-31.57 19.36 5.87
-17.77 10.9 -1.82
-17.41 10.67 3.97
-17.74 10.88 -1.09
-14.11 8.65 3.82
-17.97 11.02 -0.37
-13.58 8.32 4.27
-6.12 3.78 -1.93
-18.25 11.27 0.37
-7.32 4.52 -1.99
-18.46 11.4 1.14
-8.73 5.39 -2
-18.63 11.5 1.92
-0.94 0.58 -0.18
-17.54 10.83 2.53
-13.66 8.44 -1.97
-35.92 22.19 6.69
-17.72 10.95 -1.82
-17.54 10.83 4.01
-17.73 10.95 -1.09
-16.68 10.3 4.53
-17.91 11.06 -0.37
-14.08 8.7 4.44
-6.11 3.81 -1.93
-18.25 11.36 0.38
-7.31 4.55 -1.99
-17.52 10.9 1.08
-8.71 5.42 -1.99
-38.3 23.84 3.95
-0.94 0.58 -0.17
-13.64 8.49 -1.97
-32.83 20.43 6.12
-17.68 11 -1.82
-13.81 8.59 3.16
-17.6 10.95 -1.09
-17.91 11.15 4.87
-17.8 11.08 -0.37
-18.19 11.32 5.74
-6.1 3.83 -1.93
-18.35 11.52 0.38
-7.29 4.57 -1.99
-17.54 11.01 1.09
-8.7 5.46 -2
-38.22 24 3.95
-0.92 0.58 -0.17
-13.59 8.53 -1.97
-27.23 17.1 5.09
-17.69 11.1 -1.83
-17.11 10.74 3.93
-17.57 11.03 -1.09
-17.04 10.7 4.65
-17.74 11.14 -0.37
-18.11 11.37 5.73
-6.1 3.86 -1.93
-17.67 11.18 0.36
-7.27 4.6 -1.99
-17.47 11.05 1.08
-8.7 5.5 -2
-17.43 11.02 1.8
-0.91 0.58 -0.17
-17.3 10.94 2.51
-13.55 8.57 -1.97
-14.13 8.94 2.65
-17.84 11.28 -1.85
-17.08 10.81 3.93
-17.5 11.07 -1.09
-15.78 9.98 4.31
-17.78 11.24 -0.37
-18.01 11.39 5.71
-6.09 3.88 -1.94
-17.66 11.26 0.37
-7.27 4.63 -1.99
-17.24 10.99 1.07
-8.65 5.52 -1.99
-17.25 11 1.79
-0.92 0.58 -0.17
-35.03 22.33 5.1
-13.52 8.62 -1.97
-14.1 8.99 2.65
-17.78 11.33 -1.84
-13.95 8.89 3.22
-17.43 11.11 -1.08
-13.96 8.9 3.82
-17.88 11.4 -0.37
-17.9 11.41 5.69
-6.07 3.9 -1.93
-18.07 11.61 0.37
-7.25 4.66 -1.99
-17.36 11.15 1.08
-8.65 5.56 -2
-17.22 11.06 1.79
-0.91 0.59 -0.17
-26.27 16.88 3.83
-13.48 8.66 -1.97
-16.99 10.92 -1.77
-18.21 11.7 4.21
-17.54 11.27 -1.09
-13.92 8.94 3.82
-17 10.92 -0.35
-17.84 11.46 5.68
-6.06 3.93 -1.94
-17 11 0.35
-7.24 4.69 -1.99
-17.31 11.21 1.08
-8.64 5.59 -2
-17.21 11.14 1.79
-0.89 0.58 -0.17
-16.96 10.98 2.48
-13.45 8.71 -1.97
-17.55 11.36 -1.83
-18.15 11.75 4.2
-17.79 11.52 -1.11
-13.89 8.99 3.82
-17.82 11.54 -0.37
-14.8 9.58 4.72
-6.05 3.95 -1.94
-16.84 10.98 0.35
-7.22 4.71 -1.99
-17.42 11.36 1.09
-8.6 5.61 -2
-17.27 11.27 1.8
-0.89 0.58 -0.17
-50.71 33.08 7.43
-13.41 8.75 -1.97
-17.69 11.54 -1.85
-15.74 10.27 3.65
-17.05 11.12 -1.07
-13.87 9.04 3.82
-17.02 11.1 -0.35
-14.83 9.68 4.75
-6.05 3.97 -1.94
-16.91 11.11 0.35
-7.21 4.74 -1.99
-17.06 11.21 1.07
-8.58 5.64 -1.99
-17.27 11.35 1.81
-0.88 0.58 -0.17
-31.29 20.56 4.6
-13.36 8.78 -1.96
-33.14 21.78 6.28
-16.97 11.15 -1.78
-29.8 19.58 6.93
-16.95 11.14 -1.06
-13.83 9.09 3.82
-16.65 10.94 -0.35
-13.24 8.7 4.25
-6.04 4 -1.94
-7.2 4.77 -1.99
-8.55 5.66 -1.99
-17 11.26 1.78
-0.88 0.58 -0.17
-31.86 21.09 4.69
-13.33 8.82 -1.96
-28.86 19.11 5.48
-16.75 11.09 -1.76
-19.27 12.76 4.49
-16.41 10.87 -1.03
-18.54 12.28 5.13
-16.68 11.04 -0.35
-50.33 33.33 16.18
-6.01 4.01 -1.94
-7.18 4.79 -1.99
-8.53 5.69 -1.99
-16.99 11.34 1.79
-0.87 0.58 -0.17
-16.37 10.92 2.42
-13.29 8.87 -1.96
-47.02 31.37 8.95
-16.72 11.15 -1.76
-13.74 9.17 3.21
-16.38 10.93 -1.03
-13.62 9.09 3.78
-16.55 11.04 -0.35
-18.02 12.02 5.8
-6 4.03 -1.94
-11.39 7.65 0.24
-7.17 4.82 -1.99
-8.51 5.72 -1.99
-16.61 11.17 1.75
-0.86 0.58 -0.16
-19.11 12.85 2.83
-11.16 7.5 -1.65
-32.57 21.89 6.22
-11.23 7.55 -1.18
-18.83 12.66 4.41
-16.36 11 -1.03
-13.62 9.16 3.79
-16.36 11 -0.34
-15.29 10.28 4.94
-5.99 4.06 -1.94
-7.15 4.84 -1.99
-11.42 7.74 0.72
-8.52 5.77 -2
-18.82 12.74 1.99
-0.86 0.58 -0.16
-18.98 12.85 2.81
-11.14 7.54 -1.65
-16.17 10.95 3.09
-11.19 7.58 -1.18
-13.65 9.25 3.21
-11.24 7.61 -0.71
-13.8 9.34 3.85
-11.31 7.66 -0.24
-15.14 10.25 4.9
-5.98 4.08 -1.94
-11.27 7.69 0.24
-7.13 4.86 -1.99
-11.32 7.73 0.72
-0.85 0.58 -0.2
-0.86 0.59 -0.16
-29.78 20.32 4.43
-13.18 9 -1.96
-28.06 19.15 5.38
-15.81 10.79 -1.67
-13.42 9.16 3.16
-15.95 10.88 -1.01
-16.5 11.26 4.61
-19.25 13.14 6.25
-5.98 4.11 -1.94
-11.2 7.7 0.24
-7.12 4.9 -2
-11.26 7.74 0.72
-0.84 0.58 -0.2
-18.55 12.75 1.97
-0.85 0.58 -0.16
-29.45 20.25 4.39
-13.15 9.04 -1.96
-46.58 32.02 8.95
-15.84 10.89 -1.68
-16.46 11.32 3.88
-16 11 -1.02
-16.47 11.32 4.61
-16.39 11.27 -0.35
-16.51 11.35 5.37
-5.95 4.12 -1.94
-7.11 4.92 -2
-0.84 0.58 -0.2
-18.5 12.82 1.97
-0.84 0.58 -0.16
-28.04 19.42 4.19
-13.11 9.08 -1.96
-15.47 10.72 2.98
-15.81 10.95 -1.68
-13.62 9.44 3.22
-16.07 11.13 -1.02
-17.53 12.15 4.92
-16.34 11.32 -0.35
-16.75 11.6 5.46
-5.94 4.15 -1.94
-7.1 4.95 -2
-0.83 0.58 -0.2
-18.46 12.89 1.97
-0.84 0.58 -0.16
-16.88 11.78 2.53
-13.08 9.13 -1.96
-18.63 13 3.6
-17.16 11.98 -1.83
-18.31 12.78 4.34
-16.05 11.2 -1.03
-15.69 10.95 4.42
-15.71 10.96 -0.33
-14.92 10.41 4.88
-5.94 4.17 -1.94
-7.08 4.98 -2
-15.4 10.83 0.99
-0.83 0.58 -0.2
-32.23 22.66 3.45
-0.82 0.58 -0.16
-16.26 11.43 2.44
-13.04 9.17 -1.96
-24.75 17.4 4.79
-15.59 10.96 -1.67
-17.58 12.36 4.18
-15.32 10.77 -0.98
-14.65 10.3 4.13
-15.53 10.92 -0.33
-15.32 10.77 5.02
-5.93 4.2 -1.95
-15.38 10.89 0.33
-7.06 5 -2
-18.56 13.14 1.19
-0.82 0.58 -0.2
-15.58 11.03 1.67
-0.83 0.58 -0.16
-15.35 10.87 2.31
-13.03 9.22 -1.96
-15.53 10.99 3.01
-16.08 11.38 -1.72
-14.2 10.05 3.38
-15.92 11.27 -1.02
-18.9 13.38 5.35
-15.23 10.78 -0.33
-15.04 10.64 4.94
-5.92 4.22 -1.95
-15.35 10.95 0.33
-7.06 5.03 -2
-15.32 10.92 0.99
-0.81 0.57 -0.19
-15.28 10.89 1.64
-0.83 0.59 -0.16
-15.32 10.92 2.31
-13 9.27 -1.96
-15.52 11.07 3.02
-15.47 11.03 -1.66
-17.21 12.27 4.11
-15.45 11.02 -0.99
-14.89 10.62 4.22
-15.36 10.95 -0.33
-12.54 8.94 4.13
-5.9 4.24 -1.95
-15.43 11.08 0.33
-7.05 5.06 -2
-18.13 13.03 1.17
-0.81 0.58 -0.19
-15.24 10.95 1.64
-0.82 0.59 -0.16
-25.78 18.53 3.9
-12.96 9.31 -1.96
-15.51 11.15 3.03
-15.17 10.9 -1.63
-17.12 12.31 4.1
-15.79 11.35 -1.02
-18.81 13.52 5.35
-15.08 10.84 -0.32
-13.12 9.43 4.33
-5.89 4.26 -1.95
-15.42 11.16 0.33
-7.04 5.1 -2.01
-18.93 13.71 1.22
-0.8 0.58 -0.19
-15.2 11 1.64
-0.83 0.6 -0.16
-16.21 11.73 2.46
-12.92 9.35 -1.96
-30.25 21.9 5.92
-15.86 11.48 -1.71
-17.13 12.4 4.11
-15.36 11.12 -0.99
-12.53 9.07 3.57
-15.48 11.21 -0.33
-16.46 11.91 5.44
-5.88 4.28 -1.95
-17.5 12.75 0.38
-7.01 5.11 -2
-17.06 12.44 1.11
-0.8 0.58 -0.19
-15.13 11.03 1.64
-0.8 0.59 -0.16
-16.17 11.79 2.46
-12.88 9.39 -1.96
-18.37 13.39 3.6
-14.84 10.82 -1.61
-13.4 9.77 3.22
-15.16 11.05 -0.98
-18.38 13.4 5.25
-15.31 11.16 -0.33
-11.57 8.43 3.84
-5.87 4.31 -1.95
-15.13 11.11 0.33
-7 5.14 -2
-15.02 11.03 0.98
-0.8 0.58 -0.19
-24.7 18.13 2.68
-0.83 0.61 -0.16
-14.92 10.96 2.27
-12.85 9.43 -1.96
-44.1 32.38 8.67
-14.86 10.91 -1.61
-15.61 11.47 -1.02
-16.37 12.02 4.69
-15.31 11.24 -0.33
-15.99 11.74 5.32
-5.85 4.33 -1.95
-15.13 11.2 0.33
-6.97 5.16 -2
-15.03 11.12 0.98
-0.8 0.59 -0.19
-17.88 13.23 1.95
-0.82 0.61 -0.16
-16.37 12.11 2.5
-12.82 9.49 -1.96
-44.1 32.64 8.69
-14.84 10.98 -1.62
-26.98 19.96 6.52
-15.54 11.5 -1.01
-12.91 9.55 3.71
-15.03 11.13 -0.33
-14.47 10.71 4.82
-5.84 4.35 -1.95
-16.94 12.63 0.37
-6.95 5.18 -2
-27.42 20.44 1.79
-14.96 11.15 1.63
-0.82 0.61 -0.16
-17.1 12.75 2.62
-12.79 9.53 -1.96
-29.42 21.93 5.81
-15.07 11.23 -1.64
-18.13 13.52 4.4
-15.11 11.27 -0.99
-14.62 10.9 4.21
-14.98 11.17 -0.33
-28.59 21.31 9.56
-5.82 4.37 -1.95
-17 12.76 0.37
-6.91 5.19 -1.99
-15.63 11.74 1.02
-15.03 11.29 1.64
-0.8 0.6 -0.16
-29.2 21.92 4.48
-12.76 9.58 -1.96
-30.15 22.63 5.97
-14.63 10.98 -1.6
-16.17 12.14 3.93
-14.9 11.19 -0.98
-17.71 13.3 5.11
-15.01 11.27 -0.33
-14.15 10.62 4.74
-5.82 4.4 -1.95
-16.85 12.75 0.37
-6.88 5.2 -1.99
-18.35 13.88 1.21
-25.22 19.07 2.77
-0.8 0.61 -0.16
-23.13 17.49 3.56
-12.73 9.63 -1.96
-16.09 12.17 3.2
-14.58 11.02 -1.6
-10.82 8.18 2.64
-14.82 11.21 -0.97
-17.6 13.31 5.09
-16.6 12.55 -0.36
-10.43 7.89 3.5
-5.8 4.42 -1.95
-17.22 13.12 0.38
-6.86 5.22 -1.99
-18.35 13.97 1.21
-25.28 19.25 2.78
-0.8 0.61 -0.16
-15.31 11.66 2.36
-12.69 9.67 -1.96
-16.03 12.21 3.19
-14.75 11.23 -1.62
-27.32 20.8 6.67
-14.83 11.29 -0.98
-25.21 19.2 7.32
-15.86 12.08 -0.35
-11.86 9.03 3.99
-5.8 4.45 -1.96
-18.66 14.32 0.41
-6.84 5.25 -1.99
-14.77 11.33 0.98
-15.95 12.24 1.76
-0.79 0.61 -0.16
-15.29 11.73 2.37
-12.66 9.71 -1.96
-14.52 11.13 -1.6
-10.75 8.25 2.63
-14.48 11.11 -0.96
-29.57 22.68 8.6
-14.7 11.27 -0.32
-11.84 9.08 4
-5.77 4.46 -1.96
-14.45 11.16 0.32
-6.82 5.27 -1.99
-15.88 12.27 1.05
-0.79 0.61 -0.16
-15.34 11.86 2.38
-12.63 9.76 -1.96
-27.58 21.31 5.52
-14.59 11.27 -1.61
-10.7 8.27 2.63
-14.51 11.21 -0.96
-28.22 21.8 8.23
-14.83 11.46 -0.33
-10.68 8.25 3.62
-5.76 4.48 -1.96
-14.57 11.34 0.32
-6.8 5.29 -1.99
-14.85 11.56 0.99
-15.85 12.33 1.76
-17.27 13.44 2.69
-12.6 9.81 -1.96
-27.78 21.62 5.58
-14.63 11.38 -1.62
-10.76 8.37 2.65
-14.38 11.19 -0.95
-29.31 22.81 8.57
-14.32 11.14 -0.32
-10.67 8.3 3.62
-5.75 4.51 -1.96
-14.48 11.34 0.32
-6.78 5.31 -1.99
-14.61 11.45 0.97
-25.18 19.73 2.8
-0.78 0.61 -0.16
-17.22 13.49 2.69
-12.56 9.84 -1.96
-29.2 22.88 5.87
-14.22 11.14 -1.58
-29.25 22.92 7.22
-14.39 11.28 -0.96
-28.79 22.56 8.44
-14.33 11.23 -0.32
-11.89 9.31 4.05
-5.74 4.53 -1.96
-14.83 11.71 0.33
-6.77 5.34 -1.99
-14.84 11.71 0.99
-18.42 14.54 2.05
-9.41 7.43 -1.9
-15.84 12.5 2.48
-12.52 9.88 -1.96
-30.15 23.8 6.08
-14.08 11.11 -1.57
-10.41 8.22 2.58
-14.26 11.25 -0.95
-17.7 13.97 5.2
-14.3 11.29 -0.32
-11.86 9.36 4.05
-5.72 4.55 -1.96
-15.58 12.38 0.35
-6.75 5.37 -1.99
-15.52 12.34 1.04
-25.18 20.02 2.81
-9.38 7.46 -1.9
-15.79 12.56 2.48
-12.49 9.93 -1.96
-28.14 22.38 5.69
-14.52 11.55 -1.62
-10.71 8.52 2.66
-14.62 11.63 -0.98
-12.92 10.27 3.81
-14.24 11.32 -0.32
-11.83 9.41 4.05
-5.7 4.57 -1.96
-14.09 11.29 0.32
-6.72 5.38 -1.99
-16.72 13.4 1.12
-18.32 14.68 2.05
-9.36 7.5 -1.9
-44.08 35.31 6.93
-12.45 9.97 -1.96
-16.99 13.61 3.45
-14.4 11.54 -1.61
-17.05 13.66 4.25
-15.65 12.53 -1.05
-17.08 13.68 5.05
-14.22 11.39 -0.32
-13.66 10.94 4.69
-5.69 4.59 -1.96
-15.13 12.2 0.34
-6.68 5.39 -1.98
-18.15 14.64 1.22
-15.83 12.77 1.78
-9.32 7.52 -1.9
-16.86 13.6 2.66
-12.43 10.03 -1.96
-16.93 13.65 3.44
-14.19 11.44 -1.59
-10.67 8.61 2.67
-13.84 11.17 -0.93
-17.04 13.75 5.06
-13.86 11.18 -0.31
-23.89 19.27 8.22
-5.68 4.62 -1.96
-14.63 11.89 0.33
-6.65 5.41 -1.98
-16.7 13.57 1.13
-15.8 12.84 1.78
-9.29 7.55 -1.9
-16.83 13.67 2.66
-12.38 10.06 -1.96
-14.08 11.44 -1.59
-10.61 8.62 2.66
-14.02 11.39 -0.95
-13.76 11.18 4.09
-16.64 13.52 -0.37
-10.47 8.51 3.61
-5.67 4.64 -1.96
-16.55 13.54 0.37
-6.64 5.43 -1.98
-15.78 12.91 1.78
-9.26 7.58 -1.9
-28.8 23.57 4.57
-12.34 10.1 -1.96
-18.02 14.74 3.69
-13.77 11.26 -1.56
-10.56 8.64 2.65
-13.73 11.23 -0.93
-12.91 10.56 3.85
-15.83 12.95 -0.36
-10.52 8.6 3.64
-5.65 4.66 -1.96
-15.78 13.01 0.36
-6.62 5.46 -1.98
-15.84 13.05 1.08
-13.72 11.31 1.56
-9.23 7.6 -1.89
-16.71 13.77 2.66
-12.31 10.15 -1.96
-14.22 11.72 2.92
-13.75 11.33 -1.56
-13.15 10.84 3.31
-13.58 11.19 -0.92
-12.94 10.66 3.87
-13.66 11.26 -0.31
-14.18 11.68 4.92
-5.63 4.67 -1.96
-13.57 11.26 0.31
-6.6 5.48 -1.98
-14.97 12.42 1.02
-13.71 11.37 1.56
-9.22 7.65 -1.9
-27.49 22.81 4.39
-12.28 10.19 -1.96
-23.9 19.83 4.92
-13.6 11.29 -1.55
-27.7 22.98 7
-13.65 11.33 -0.93
-12.93 10.73 3.88
-18.47 15.32 -0.42
-28.11 23.32 9.79
-5.62 4.7 -1.96
-13.42 11.22 0.31
-6.58 5.5 -1.98
-15.75 13.16 1.08
-13.57 11.34 1.55
-9.15 7.65 -1.89
-13.48 11.26 2.16
-12.26 10.24 -1.96
-13.4 11.2 2.77
-16.38 13.69 -1.87
-13.09 10.94 3.32
-13.91 11.62 -0.95
-12.67 10.59 3.81
-16.51 13.79 -0.38
-17.44 14.58 6.09
-5.61 4.72 -1.96
-15.72 13.23 0.36
-6.57 5.53 -1.98
-15.55 13.08 1.06
-13.62 11.46 1.56
-9.08 7.64 -1.88
-13.4 11.28 2.15
-12.21 10.28 -1.96
-15.47 13.02 -1.77
-13.09 11.02 3.33
-13.75 11.57 -0.94
-12.62 10.62 3.81
-13.6 11.44 -0.31
-12.52 10.54 4.38
-5.6 4.74 -1.97
-15.79 13.38 0.36
-6.53 5.54 -1.98
-25.24 21.4 1.73
-13.49 11.43 1.55
-9.11 7.72 -1.89
-25.99 22.03 4.18
-12.17 10.32 -1.96
-22.2 18.82 4.61
-15.81 13.4 -1.81
-10.26 8.7 2.62
-13.43 11.39 -0.92
-17.3 14.67 -0.4
-12.51 10.61 4.4
-5.59 4.77 -1.97
-16.49 14.08 0.38
-6.52 5.57 -1.98
-16.12 13.76 1.11
-13.23 11.29 1.52
-9.09 7.76 -1.89
-13.22 11.28 2.13
-12.13 10.35 -1.96
-12.92 11.03 2.69
-14.22 12.13 -1.64
-10.34 8.82 2.64
-13.27 11.33 -0.91
-27.53 23.5 8.36
-13.42 11.46 -0.31
-12.54 10.7 4.42
-5.56 4.78 -1.97
-16.38 14.08 0.38
-6.49 5.58 -1.98
-13.67 11.76 0.95
-13.2 11.35 1.52
-9.06 7.79 -1.89
-13.16 11.32 2.13
-12.1 10.4 -1.96
-40.08 34.45 8.37
-13.4 11.52 -1.55
-11.09 9.53 2.84
-13.87 11.92 -0.96
-13.02 11.19 3.96
-16.22 13.94 -0.37
-9.77 8.4 3.45
-5.55 4.8 -1.97
-12.99 11.25 0.3
-6.49 5.61 -1.98
-16.22 14.04 1.12
-13.24 11.46 1.53
-9.01 7.8 -1.89
-13.12 11.35 2.13
-12.07 10.44 -1.96
-12.91 11.17 2.7
-13.39 11.59 -1.55
-28.31 24.51 7.28
-16.12 13.96 -1.12
-14.63 12.67 4.47
-13.13 11.36 -0.3
-8.23 7.12 2.92
-5.54 4.83 -1.97
-12.89 11.24 0.3
-6.52 5.68 -2
-15.58 13.58 1.08
-13.12 11.44 1.52
-8.99 7.84 -1.89
-13.21 11.52 2.15
-12.02 10.48 -1.96
-13.21 11.51 2.77
-13.14 11.45 -1.52
-10.47 9.13 2.7
-13.11 11.43 -0.91
-12.78 11.14 3.91
-17.4 15.17 -0.4
-9.64 8.41 3.43
-5.52 4.85 -1.97
-13.06 11.46 0.3
-6.47 5.68 -1.99
-12.79 11.23 0.89
-13.1 11.5 1.53
-8.96 7.87 -1.89
-13.29 11.67 2.17
-11.97 10.51 -1.96
-12.73 11.18 2.68
-17.11 15.02 -1.99
-13.18 11.57 3.41
-13.1 11.5 -0.91
-12.79 11.23 3.93
-13.68 12.01 -0.32
-10.41 9.14 3.71
-5.51 4.87 -1.97
-13.11 11.59 0.31
-6.43 5.69 -1.98
-12.75 11.27 0.89
-13.15 11.62 1.54
-8.91 7.88 -1.88
-13.25 11.71 2.17
-11.94 10.55 -1.96
-12.72 11.25 2.69
-13.16 11.64 -1.54
-12.88 11.39 3.34
-13.81 12.21 -0.97
-10.81 9.56 3.33
-15.81 13.98 -0.37
-10.36 9.16 3.71
-5.49 4.88 -1.97
-12.98 11.55 0.3
-6.42 5.71 -1.98
-12.69 11.29 0.89
-13.19 11.74 1.54
-8.86 7.88 -1.88
-13 11.57 2.14
-11.91 10.59 -1.96
-12.38 11.02 2.62
-12.96 11.53 -1.52
-12.84 11.43 3.34
-16.58 14.75 -1.16
-14.63 13.01 -0.34
-10.32 9.18 3.7
-5.47 4.9 -1.97
-13.01 11.66 0.3
-6.39 5.72 -1.98
-12.91 11.57 0.91
-12.69 11.37 1.49
-8.84 7.93 -1.88
-12.81 11.48 2.11
-11.87 10.63 -1.96
-12.35 11.06 2.63
-14.28 12.8 -1.68
-10.45 9.36 2.73
-13.04 11.68 -0.92
-10.44 9.36 3.24
-12.57 11.27 -0.29
-10.31 9.24 3.71
-5.46 4.93 -1.97
-12.7 11.46 0.3
-6.36 5.74 -1.98
-17.57 15.86 1.24
-12.72 11.47 1.5
-8.83 7.97 -1.88
-12.95 11.68 2.14
-11.82 10.67 -1.96
-12.37 11.16 2.64
-12.41 11.2 -1.46
-12.61 11.38 3.3
-12.96 11.69 -0.91
-12.35 11.14 3.84
-12.49 11.27 -0.29
-9.97 9 3.6
-5.44 4.95 -1.97
-12.43 11.3 0.29
-12.41 11.28 0.88
-12.54 11.39 1.48
-8.78 7.98 -1.88
-13.27 12.06 2.2
-11.77 10.7 -1.95
-12.28 11.16 2.63
-12.38 11.25 -1.46
-12.71 11.55 3.34
-12.46 11.33 -0.88
-10.32 9.38 3.22
-12.56 11.41 -0.3
-37.95 34.49 13.74
-5.43 4.97 -1.97
-12.59 11.52 0.3
-12.33 11.29 0.88
-12.58 11.51 1.49
-8.76 8.01 -1.88
-22.91 20.97 3.81
-11.73 10.73 -1.95
-12.78 11.69 2.74
-12.36 11.31 -1.47
-12.31 11.27 -0.87
-10.27 9.4 3.21
-12.56 11.5 -0.3
-10.43 9.55 3.79
-5.41 4.98 -1.97
-12.82 11.81 0.3
-12.22 11.26 0.87
-12.6 11.61 1.5
-8.73 8.05 -1.88
-12.61 11.62 2.1
-11.7 10.78 -1.95
-12.36 11.39 2.66
-26.92 24.81 7.12
-15.61 14.39 -1.11
-12.26 11.3 -0.29
-9.57 8.82 3.49
-5.39 5 -1.97
-12.48 11.58 0.3
-17.09 15.87 1.22
-12.13 11.26 1.45
-8.74 8.11 -1.89
-12.64 11.74 2.12
-11.65 10.81 -1.95
-12.32 11.44 2.66
-15.46 14.35 -1.85
-26.37 24.48 6.99
-13.51 12.54 -0.97
-8.32 7.72 2.62
-12.74 11.83 -0.3
-10.07 9.34 3.68
-5.38 5.03 -1.97
-17.07 15.95 0.41
-12.12 11.33 0.87
-12.11 11.32 1.45
-8.72 8.15 -1.89
-12.76 11.93 2.14
-11.6 10.85 -1.95
-12.31 11.51 2.67
-12.06 11.27 -1.44
-15.35 14.35 -1.1
-24.22 22.64 7.65
-12.7 11.87 -0.3
-10.06 9.41 3.69
-5.37 5.05 -1.97
-16.91 15.91 0.41
-12.05 11.34 0.87
-12.06 11.36 1.45
-8.69 8.18 -1.89
-12.63 11.89 2.13
-11.53 10.86 -1.94
-12.32 11.59 2.68
-11.98 11.27 -1.44
-11.92 11.22 -0.86
-8.3 7.81 2.63
-12.15 11.44 -0.29
-10.02 9.43 3.69
-5.35 5.07 -1.97
-12.26 11.62 0.29
-12.07 11.44 0.87
-12.04 11.41 1.45
-8.67 8.22 -1.89
-20.49 19.43 3.47
-11.47 10.87 -1.94
-12.24 11.61 2.67
-11.94 11.32 -1.44
-12.03 11.41 3.22
-11.84 11.22 -0.85
-17.65 16.73 5.62
-12.02 11.39 -0.29
-10.06 9.54 3.71
-5.33 5.08 -1.97
-12.43 11.86 0.3
-12.06 11.5 0.87
-8.62 8.23 -1.89
-12.23 11.67 2.08
-11.4 10.88 -1.94
-11.77 11.23 2.58
-12 11.45 -1.45
-12.04 11.49 3.24
-13.56 12.93 -0.98
-17.05 16.26 5.44
-13.51 12.89 -0.33
-10.21 9.74 3.78
-5.32 5.11 -1.98
-12.21 11.73 0.3
-12.23 11.75 0.89
-12.38 11.89 1.5
-8.59 8.25 -1.89
-12.27 11.79 2.09
-11.34 10.9 -1.93
-12.04 11.57 2.64
-11.87 11.41 -1.44
-12.5 12.01 3.37
-11.76 11.3 -0.85
-22.52 21.64 7.21
-11.95 11.48 -0.29
-10.19 9.79 3.79
-5.3 5.13 -1.98
-12.5 12.09 0.3
-11.9 11.51 0.87
-12.3 11.89 1.5
-8.57 8.29 -1.89
-22.11 21.38 3.78
-11.32 10.95 -1.93
-11.89 11.5 2.62
-11.6 11.22 -1.41
-12.58 12.17 -0.92
-12.54 12.13 4.03
-12.56 12.15 -0.3
-10.1 9.77 3.77
-5.31 5.17 -1.99
-11.78 11.48 1.44
-8.54 8.32 -1.89
-19.72 19.21 3.38
-11.25 10.96 -1.93
-11.91 11.6 -1.45
-12.42 12.1 3.37
-11.61 11.31 -0.85
-25.28 24.62 8.15
-12.51 12.19 -0.3
-10.06 9.8 3.76
-5.29 5.19 -1.99
-11.9 11.67 0.29
-12.32 12.09 0.9
-11.75 11.52 1.44
-8.51 8.35 -1.89
-19.59 19.22 3.37
-11.21 10.99 -1.93
-12 11.77 -1.47
-12.37 12.14 3.37
-12.94 12.69 -0.95
-12.43 12.2 4.02
-10.02 9.83 3.76
-5.27 5.21 -1.99
-11.74 11.6 0.29
-11.67 11.53 1.44
-8.45 8.35 -1.88
-11.85 11.7 2.04
-11.16 11.03 -1.93
-11.85 11.71 2.64
-11.93 11.79 -1.47
-12.34 12.19 3.37
-12.85 12.7 -0.95
-7.8 7.71 2.53
-12.62 12.47 -0.31
-9.99 9.87 3.76
-5.25 5.22 -1.98
-11.61 11.55 0.29
-12.31 12.25 0.91
-12 11.93 1.48
-8.43 8.39 -1.88
-11.03 10.97 1.91
-11.1 11.04 -1.92
-12.58 12.52 2.81
-12.63 12.56 -1.56
-11.13 11.08 3.05
-13.27 13.2 -0.98
-17.04 16.96 -0.42
-7.29 7.25 2.76
-5.24 5.24 -1.99
-11.47 11.49 0.28
-14.35 14.37 1.06
-11.6 11.62 1.44
-8.39 8.41 -1.88
-10.99 11.01 1.91
-11.03 11.05 -1.92
-16.59 16.62 3.72
-11.8 11.82 -1.46
-12.23 12.25 3.37
-11.78 11.8 -0.87
-12.44 12.46 4.06
-14.07 14.1 -0.35
-9.94 9.96 3.77
-5.21 5.26 -1.98
-11.39 11.49 0.28
-11.76 11.87 0.88
-16.18 16.32 2.01
-8.39 8.46 -1.89
-11.04 11.14 1.93
-10.98 11.08 -1.92
-11.06 11.16 2.49
-11.78 11.89 -1.46
-12.2 12.31 3.37
-13.97 14.1 -1.04
-11.6 11.71 -0.29
-9.9 9.99 3.77
-5.2 5.28 -1.99
-11.56 11.75 0.29
-12.18 12.38 0.91
-8.36 8.49 -1.89
-12.01 12.21 2.1
-10.96 11.14 -1.92
-11.43 11.62 2.58
-12.16 12.35 3.37
-11.66 11.85 -0.87
-19.62 19.94 6.46
-15.56 15.81 -0.39
-9.86 10.02 3.77
-5.18 5.3 -1.99
-11.17 11.43 0.28
-16.03 16.4 1.2
-10.94 11.19 1.37
-8.32 8.51 -1.89
-11.76 12.03 2.07
-10.89 11.14 -1.91
-11.49 11.75 -1.44
-12.12 12.39 3.37
-11.76 12.03 -0.88
-17.07 17.46 5.64
-11.67 11.94 -0.29
-7.68 7.85 2.94
-5.17 5.32 -1.99
-11.13 11.46 0.28
-11.7 12.05 0.88
-10.94 11.27 1.37
-8.29 8.54 -1.88
-11.81 12.16 2.08
-10.84 11.17 -1.91
-11.08 11.42 -1.39
-12.09 12.45 3.37
-15 15.45 -1.13
-11.15 11.49 3.7
-14.91 15.35 -0.37
-7.71 7.94 2.96
-5.15 5.34 -1.99
-11.36 11.79 0.86
-13.31 13.8 1.68
-8.26 8.56 -1.88
-15.97 16.57 2.83
-10.77 11.17 -1.9
-16.17 16.77 3.69
-11.64 12.07 -1.47
-12.05 12.5 3.38
-11.5 11.93 -0.87
-25.91 26.88 8.62
-11.22 11.63 -0.28
-7.14 7.4 2.76
-5.13 5.36 -1.99
-15.39 16.08 0.39
-11.08 11.58 0.84
-15.76 16.46 1.99
-8.22 8.59 -1.88
-11.7 12.22 2.08
-10.66 11.14 -1.89
-11.52 12.04 2.64
-11.21 11.72 -1.42
-12.02 12.55 3.38
-15.09 15.76 -1.14
-16.3 17.03 5.44
-14.7 15.35 -0.37
-7.49 7.82 2.9
-5.1 5.37 -1.99
-10.76 11.32 0.27
-10.76 11.32 0.82
-11.69 12.3 1.48
-8.19 8.62 -1.88
-11.8 12.42 2.1
-10.62 11.17 -1.89
-11.55 12.15 2.65
-10.65 11.2 -1.35
-10.9 11.47 -0.83
-12.06 12.69 4.04
-10.95 11.52 -0.28
-5.07 5.38 -1.98
-10.72 11.36 0.27
-10.69 11.33 1.36
-8.16 8.65 -1.88
-11.86 12.57 2.12
-10.55 11.17 -1.89
-10.34 10.96 2.39
-11.42 12.1 -1.46
-11.93 12.65 3.38
-12.76 13.52 -0.97
-12.01 12.72 4.04
-10.91 11.56 -0.28
-12.11 12.83 4.73
-10.68 11.39 0.27
-11.62 12.39 0.89
-11.81 12.6 1.51
-8.13 8.67 -1.88
-10.48 11.18 -1.88
-12.81 13.66 2.97
-12.28 13.1 -1.57
-11.89 12.68 3.38
-11.49 12.26 -0.88
-11.97 12.77 4.04
-10.85 11.57 -0.28
-12.05 12.86 4.72
-10.65 11.45 0.27
-11.5 12.35 0.88
-10.61 11.4 1.36
-5.34 5.73 -1.24
-19.91 21.39 3.59
-10.43 11.2 -1.88
-10.62 11.41 -1.36
-11.84 12.72 3.38
-10.84 11.65 -0.83
-11.94 12.82 4.05
-10.71 11.51 -0.27
-10.65 11.52 0.27
-10.6 11.46 0.82
-11.67 12.63 1.5
-5.31 5.74 -1.24
-19.77 21.39 3.58
-10.42 11.27 -1.88
-12.71 13.75 2.97
-10.62 11.49 -1.37
-11.8 12.77 3.38
-10.67 11.54 -0.82
-12.69 13.72 4.32
-10.61 11.48 -0.27
-9.74 10.54 3.85
-4.95 5.39 -1.96
-11.55 12.58 0.9
-11.75 12.8 1.52
-8.04 8.76 -1.88
-12.61 13.73 2.29
-10.44 11.38 -1.9
-12.82 13.97 3
-10.61 11.56 -1.37
-11.78 12.84 3.39
-10.6 11.55 -0.82
-19.41 21.15 6.63
-10.48 11.42 -0.27
-9.77 10.65 3.87
-4.91 5.39 -1.95
-11.46 12.58 0.3
-12.49 13.71 0.97
-12.54 13.76 1.63
-8.01 8.79 -1.88
-12.59 13.82 2.3
-10.48 11.51 -1.91
-12.62 13.85 2.97
-10.68 11.72 -1.39
-10.34 11.35 2.99
-10.85 11.9 -0.84
-19.12 20.98 6.55
-16.12 17.69 -0.42
-7.38 8.1 2.94
-4.88 5.39 -1.95
-11.42 12.62 0.3
-10.14 11.2 0.79
-7.98 8.81 -1.88
-10.29 11.36 -1.88
-10.12 11.18 2.39
-10.65 11.76 -1.39
-11.75 12.98 3.4
-10.35 11.44 -0.81
-16.25 17.95 5.59
-10.34 11.42 -0.27
-9.69 10.71 3.87
-4.85 5.39 -1.94
-12.41 13.8 0.32
-10.4 11.57 1.36
-7.95 8.84 -1.88
-10.25 11.4 -1.88
-21.11 23.48 5
-10.55 11.73 -1.38
-12.28 13.66 3.57
-10.26 11.42 -0.8
-18.45 20.52 6.37
-10.31 11.46 -0.27
-9.63 10.71 3.86
-4.82 5.4 -1.94
-10.14 11.35 0.27
-11.33 12.68 0.89
-11.58 12.97 1.52
-7.92 8.86 -1.88
-10.31 11.55 -1.9
-10.24 11.47 2.44
-10.57 11.83 -1.39
-12.27 13.74 3.58
-10.22 11.44 -0.8
-11.72 13.12 4.06
-10.71 12 -0.28
-12.06 13.51 4.85
-4.79 5.4 -1.93
-11.2 12.63 0.29
-16.69 18.82 1.32
-17.95 20.25 2.37
-7.89 8.89 -1.88
-10.26 11.57 -1.9
-13.17 14.86 -1.04
-11.69 13.18 4.07
-11.97 13.5 4.83
-4.76 5.4 -1.93
-11.17 12.68 0.29
-17.25 19.59 1.37
-10.29 11.68 1.36
-7.86 8.93 -1.88
-19.71 22.38 3.66
-12.27 13.93 -2.28
-11.05 12.55 -1.46
-12.48 14.18 -0.99
-11.9 13.52 4.16
-12.3 13.97 -0.32
-11.92 13.54 4.83
-4.73 5.41 -1.93
-10.43 11.93 0.28
-17.19 19.66 1.37
-7.82 8.94 -1.88
-10.72 12.26 -2
-22.09 25.27 5.32
-12.45 14.24 -1.65
-11.6 13.27 3.43
-10.15 11.61 -0.81
-11.82 13.52 4.15
-9.85 11.27 -0.26
-11.9 13.62 4.85
-4.7 5.41 -1.92
-9.86 11.35 0.26
-9.89 11.39 0.79
-7.79 8.97 -1.88
-11.97 13.78 -2.24
-22.18 25.55 5.36
-11.52 13.27 3.42
-13.11 15.1 -1.05
-11.79 13.58 4.15
-9.86 11.35 -0.26
-5.75 6.62 2.35
-4.67 5.42 -1.92
-9.85 11.42 0.26
-17.11 19.85 1.37
-7.75 9 -1.88
-10.5 12.18 1.97
-11.97 13.88 -2.25
-12.57 14.58 3.05
-9.81 11.39 -1.32
-9.36 10.86 2.79
-13.11 15.21 -1.05
-9.84 11.42 -0.26
-5.72 6.63 2.35
-4.64 5.42 -1.91
-12.18 14.23 0.33
-9.76 11.4 0.79
-12.73 14.87 1.71
-7.72 9.02 -1.88
-17.32 20.23 3.27
-13.17 15.38 -2.49
-11.41 13.33 2.78
-15.55 18.16 -2.09
-9.34 10.91 2.79
-13.11 15.31 -1.06
-21.22 24.78 7.53
-9.93 11.59 -0.27
-6.33 7.39 2.61
-4.62 5.43 -1.91
-17.21 20.24 0.46
-12.11 14.24 0.98
-16.95 19.94 2.29
-7.69 9.05 -1.88
-17.27 20.31 3.27
-11.01 12.96 -2.09
-11.34 13.34 2.77
-9.88 11.62 -1.33
-11.46 13.48 3.44
-9.77 11.5 -0.79
-10.15 11.93 3.62
-10.05 11.82 -0.27
-6.55 7.7 2.71
-4.59 5.43 -1.9
-9.89 11.72 0.27
-17.03 20.16 1.38
-7.65 9.06 -1.88
-11.28 13.35 2.15
-11.73 13.89 -2.23
-9.73 11.52 2.39
-9.85 11.67 -1.34
-9.67 11.45 2.91
-9.54 11.3 3.41
-9.98 11.82 -0.27
-9.73 11.52 4.04
-4.55 5.43 -1.9
-11.78 14.06 0.32
-11.82 14.1 0.96
-11.23 13.41 1.53
-7.62 9.09 -1.88
-11.18 13.35 2.14
-9.74 11.63 -1.86
-11.23 13.41 2.77
-9.72 11.6 -1.32
-9.86 11.77 2.99
-9.63 11.49 -0.79
-5.65 6.74 2.03
-11.78 14.06 -0.32
-6.17 7.36 2.57
-4.53 5.44 -1.9
-9.59 11.52 0.26
-9.67 11.61 0.79
-11.14 13.38 1.52
-7.58 9.11 -1.88
-11.13 13.38 2.14
