# .PCD v0.7 - Point Cloud Data file format
VERSION 0.7
FIELDS x y z
SIZE 4 4 4
TYPE F F F
COUNT 1 1 1
WIDTH 2941
HEIGHT 1
VIEWPOINT 0 0 0 1 0 0 0
POINTS 2941
DATA ascii
3.12 34.75 -3.05
1.18 13.11 2.56
4.29 47.81 -2.52
4.29 47.86 -0.84
1.1 12.27 3.3
0.59 6.31 -1.7
0.61 6.49 -1.5
0.76 8.18 -1.6
0.97 10.35 -1.65
5.86 62.83 7.75
1.44 15.45 -1.91
1.22 13.06 2.08
3.25 34.8 -3.06
1.23 13.16 2.57
4.44 47.6 -2.51
1.16 12.41 2.88
4.45 47.68 -0.84
1.15 12.29 3.31
0.59 6.14 -1.65
0.63 6.48 -1.5
3.04 31.44 1.66
0.79 8.2 -1.6
1 10.32 -1.64
6.12 63.28 7.81
1.49 15.44 -1.91
1.41 14.61 2.32
4.58 47.39 -4.17
4.58 47.4 -2.5
4.59 47.47 -0.83
1.19 12.26 3.3
0.63 6.31 -1.7
3.25 32.34 0.57
0.65 6.47 -1.5
0.79 7.88 -1.54
5.94 59.23 5.21
1.04 10.35 -1.65
1.57 15.64 -1.93
1.41 14 2.23
4.74 47.2 -4.15
1.33 13.23 2.58
4.74 47.23 -2.49
4.76 47.4 -0.83
1.23 12.26 3.3
0.65 6.28 -1.69
3.34 32.16 0.56
0.67 6.5 -1.51
4.89 47.11 2.48
0.81 7.79 -1.52
6.11 58.84 5.18
1.08 10.36 -1.65
6.63 63.87 7.88
1.62 15.61 -1.93
4.87 46.9 -4.13
1.37 13.23 2.59
4.87 46.97 -2.47
1.36 13.06 3.03
4.89 47.09 -0.83
1.28 12.29 3.31
0.67 6.25 -1.68
3.59 33.39 0.59
0.7 6.5 -1.51
5.05 47.01 2.48
0.88 8.21 -1.61
6.31 58.74 5.17
1.12 10.44 -1.66
6.89 64.15 7.92
1.67 15.53 -1.92
1.59 14.77 2.35
5.03 46.84 -4.12
1.42 13.24 2.59
5.04 46.89 -2.47
1.4 13.05 3.03
5.04 46.95 -0.82
0.69 6.26 -1.69
3.51 31.65 0.56
0.72 6.48 -1.51
5.23 47.16 2.49
0.88 7.94 -1.55
6.48 58.49 5.15
1.16 10.51 -1.67
7.14 64.42 7.96
1.72 15.56 -1.92
2.4 21.66 -1.91
1.47 13.26 2.59
5.2 46.93 -2.47
1.46 13.15 3.06
5.22 47.07 -0.83
1.49 13.41 3.61
0.72 6.34 -1.71
5.39 47.22 0.83
0.74 6.53 -1.52
5.4 47.3 2.5
0.95 8.37 -1.64
6.65 58.29 5.13
1.2 10.56 -1.68
1.79 15.72 -1.94
1.68 14.76 2.35
2.48 21.7 -1.91
5.37 47.09 -2.48
1.51 13.21 3.07
5.39 47.22 -0.83
1.4 12.26 3.31
0.75 6.37 -1.72
4.05 34.48 0.61
0.77 6.53 -1.52
5.56 47.3 2.5
0.91 7.7 -1.51
6.83 58.07 5.12
1.22 10.38 -1.66
7.1 60.43 7.47
1.83 15.56 -1.92
1.74 14.8 2.36
5.54 47.13 -4.15
5.55 47.21 -2.49
1.56 13.23 3.08
5.57 47.38 -0.83
1.45 12.3 3.32
0.78 6.41 -1.73
0.81 6.7 -1.56
4.02 33.08 1.75
0.95 7.8 -1.53
7.02 57.85 5.1
1.26 10.41 -1.66
1.86 15.31 -1.89
5.74 47.26 -4.16
1.75 14.44 2.83
5.75 47.36 -2.5
5.77 47.5 -0.84
1.47 12.15 3.28
0.79 6.36 -1.72
0.83 6.67 -1.55
5.94 47.58 2.51
0.96 7.72 -1.51
7.19 57.59 5.08
1.29 10.36 -1.65
1.92 15.38 -1.9
5.92 47.41 -4.18
5.93 47.51 -2.51
5.95 47.63 -0.84
0.81 6.34 -1.71
4.09 31.84 0.56
0.85 6.6 -1.54
6.12 47.63 2.52
7.37 57.38 5.06
1.32 10.27 -1.64
1.99 15.46 -1.91
5.04 39.21 -3.46
6.12 47.65 -2.52
6.14 47.8 -0.84
1.72 13.41 3.62
0.84 6.35 -1.72
0.93 7.02 -1.64
6.3 47.77 2.53
1 7.6 -1.49
7.54 57.16 5.04
1.37 10.37 -1.66
2.04 15.48 -1.92
2.33 17.69 -1.56
6.3 47.79 -2.53
6.32 47.93 -0.84
1.77 13.41 3.62
0.86 6.36 -1.72
0.97 7.14 -1.66
6.5 47.96 2.54
1.17 8.63 -1.69
7.71 56.9 5.02
1.42 10.47 -1.67
2.37 17.5 -1.54
6.5 47.92 -2.53
6.52 48.1 -0.85
0.88 6.34 -1.72
0.99 7.11 -1.66
6.69 48.08 2.54
1.2 8.66 -1.7
7.89 56.74 5.01
1.42 10.23 -1.64
2.15 15.45 -1.92
2.45 17.65 -1.56
6.69 48.09 -2.54
6.7 48.23 -0.85
0.89 6.25 -1.69
1.01 7.07 -1.65
6.89 48.26 2.55
0.99 6.92 -1.36
8.06 56.51 4.99
1.45 10.19 -1.63
2.19 15.38 -1.91
2.52 17.63 -1.56
6.9 48.39 -0.85
0.92 6.29 -1.7
7.14 48.87 0.86
1.03 7.03 -1.64
7.08 48.43 2.57
1 6.87 -1.35
8.23 56.3 4.98
1.52 10.38 -1.66
8.57 58.64 7.28
2.25 15.36 -1.91
2.57 17.59 -1.56
7.1 48.55 -0.86
0.94 6.29 -1.7
1.07 7.13 -1.66
7.26 48.55 2.57
1.03 6.9 -1.36
8.39 56.09 4.96
1.54 10.3 -1.65
8.79 58.73 7.29
2.29 15.32 -1.9
2.59 17.31 -1.53
7.26 48.55 -2.57
7.29 48.71 -0.86
0.97 6.31 -1.71
1.1 7.16 -1.67
7.46 48.73 2.58
1.06 6.95 -1.37
8.57 55.95 4.95
1.57 10.26 -1.64
9.02 58.89 7.32
2.34 15.26 -1.9
2.66 17.39 -1.54
7.48 48.86 -0.86
0.99 6.33 -1.72
1.07 6.83 -1.6
7.65 48.88 2.59
1.09 6.96 -1.37
1.61 10.28 -1.65
2.39 15.24 -1.89
2.72 17.4 -1.54
7.67 48.99 -0.87
1.02 6.34 -1.72
1.11 6.96 -1.63
1.11 6.96 -1.37
1.64 10.22 -1.64
9.5 59.3 7.37
2.44 15.23 -1.89
2.8 17.5 -1.55
7.87 49.15 -0.87
1.04 6.36 -1.73
1.12 6.81 -1.59
1.14 6.97 -1.37
1.67 10.22 -1.64
9.72 59.33 7.38
2.5 15.26 -1.9
2.87 17.52 -1.55
8.08 49.33 -0.87
1.06 6.35 -1.73
1.19 7.09 -1.66
1.18 7.04 -1.39
1.73 10.31 -1.66
9.86 58.89 7.33
2.55 15.25 -1.9
8.23 49.21 -4.37
8.28 49.51 -0.88
1.08 6.35 -1.72
1.18 6.92 -1.62
1.81 10.6 -1.7
9.99 58.48 7.28
2.41 14.12 -1.76
8.43 49.39 -4.38
8.48 49.64 -0.88
1.11 6.35 -1.73
1.23 7.06 -1.66
1.84 10.58 -1.7
10.14 58.18 7.25
2.47 14.15 -1.76
8.64 49.53 -4.4
8.68 49.8 -0.88
1.13 6.33 -1.72
8.96 50.3 0.89
1.18 6.63 -1.55
1.89 10.63 -1.71
2.55 14.32 -1.79
8.86 49.72 -4.42
8.9 49.96 -0.89
1.15 6.32 -1.72
9.11 50.15 0.89
1.29 7.08 -1.66
1.24 6.85 -1.35
1.97 10.86 -1.75
10.32 56.78 7.09
2.76 15.17 -1.89
9.06 49.84 -4.43
9.11 50.14 -0.89
1.17 6.31 -1.72
9.31 50.25 0.89
1.22 6.57 -1.54
9.29 50.13 2.67
1.25 6.73 -1.33
2 10.81 -1.74
10.49 56.61 7.07
2.81 15.19 -1.9
9.27 50 -4.45
9.32 50.3 -0.89
1.18 6.25 -1.71
1.24 6.54 -1.54
1.3 6.89 -1.36
1.43 7.57 -1.22
2.87 15.18 -1.9
9.48 50.18 -4.47
9.53 50.46 -0.9
1.21 6.3 -1.72
1.26 6.53 -1.54
1.32 6.88 -1.36
1.45 7.54 -1.22
2.92 15.17 -1.9
9.69 50.34 -4.49
9.73 50.59 -0.9
1.23 6.29 -1.72
1.29 6.59 -1.55
1.46 7.44 -1.47
1.5 7.66 -1.24
10.98 56.01 7.01
2.74 13.99 -1.75
9.9 50.5 -4.5
9.92 50.61 -2.7
9.96 50.8 -0.9
1.25 6.29 -1.72
1.31 6.58 -1.55
1.49 7.45 -1.48
2.14 10.72 -1.73
11.1 55.62 6.96
2.75 13.78 -1.73
10.12 50.68 -4.52
10.14 50.78 -2.71
10.18 50.97 -0.91
1.28 6.28 -1.72
1.32 6.5 -1.53
10.41 51.23 2.74
1.5 7.38 -1.46
10.78 53.04 4.74
1.54 7.56 -1.22
11.24 55.31 6.93
2.6 12.79 -1.6
12.85 63.22 10.22
7.6 37.39 -3.34
10.36 50.98 -2.73
10.4 51.14 -0.91
1.3 6.27 -1.72
8.23 39.76 0.71
1.35 6.51 -1.53
8.2 39.65 2.12
1.62 7.84 -1.56
10.94 52.86 4.72
1.53 7.41 -1.2
11.39 55.05 6.9
1.57 7.58 -0.95
10.56 51.02 -4.56
1.61 7.76 -0.42
8.24 39.8 -0.71
1.31 6.24 -1.71
8.37 39.74 0.71
8.35 39.65 2.12
1.65 7.82 -1.55
11.09 52.68 4.71
1.58 7.48 -1.21
11.51 54.65 6.86
2.94 13.97 -1.75
1.63 7.76 -0.69
8.37 39.77 -0.71
1.34 6.27 -1.72
8.53 39.81 0.71
1.66 7.76 -1.83
8.52 39.76 2.13
1.67 7.81 -1.55
11.24 52.49 4.7
1.57 7.32 -1.19
11.64 54.35 6.82
1.65 7.71 -0.97
13.31 62.12 10.06
1.64 7.65 -0.68
11.02 51.47 -2.76
8.52 39.77 -0.71
1.37 6.31 -1.73
8.66 39.76 0.71
1.45 6.64 -1.57
8.67 39.78 2.13
1.69 7.76 -1.54
11.39 52.3 4.68
1.59 7.3 -1.18
11.79 54.12 6.8
8.12 37.26 -3.34
11.25 51.66 -2.77
8.65 39.71 -0.71
1.39 6.3 -1.73
8.79 39.72 0.71
1.47 6.66 -1.57
8.81 39.8 2.14
1.73 7.8 -1.55
8.78 39.68 3.56
1.65 7.44 -1.21
1.69 7.65 -0.96
13.52 61.07 9.91
1.66 7.51 -0.67
8.21 37.09 -1.99
8.77 39.62 -0.71
1.41 6.29 -1.73
8.94 39.74 0.71
1.74 7.72 -1.83
8.96 39.81 2.14
1.65 7.33 -1.46
8.94 39.74 3.56
1.69 7.52 -1.22
11.91 52.92 6.66
1.72 7.64 -0.96
13.66 60.73 9.86
11.7 52.01 -2.79
8.91 39.6 -0.71
1.44 6.29 -1.73
9.09 39.74 0.71
1.76 7.71 -1.82
9.1 39.79 2.14
1.83 8.01 -1.6
7.57 33.12 2.97
1.71 7.5 -1.22
7.58 33.13 4.17
1.74 7.62 -0.96
13.81 60.39 9.81
1.76 7.68 -0.69
1.76 7.68 -0.41
9.06 39.63 -0.71
1.46 6.29 -1.73
7.65 32.94 0.59
1.74 7.5 -1.78
7.67 33 1.78
1.73 7.43 -1.48
9.25 39.83 3.58
1.66 7.13 -1.16
12.31 52.96 6.68
1.71 7.34 -0.93
13.93 59.96 9.75
5.55 23.89 -2.15
7.64 32.88 -0.59
1.49 6.33 -1.74
9.38 39.76 0.71
1.75 7.41 -1.76
9.39 39.8 2.14
1.79 7.61 -1.52
9.41 39.89 3.59
1.72 7.31 -1.19
12.46 52.85 6.67
1.72 7.28 -0.92
1.81 7.66 -0.69
9.35 39.66 -0.71
1.52 6.34 -1.75
9.52 39.75 0.71
1.76 7.37 -1.75
9.54 39.85 2.15
1.75 7.3 -1.46
9.55 39.88 3.59
1.78 7.43 -1.21
1.73 7.22 -0.91
14.2 59.29 9.66
1.76 7.34 -0.66
1.75 7.32 -0.39
1.75 7.31 -0.13
1.53 6.31 -1.74
9.66 39.71 0.71
1.81 7.44 -1.77
12.94 53.22 2.87
1.77 7.28 -1.46
13 53.44 4.81
1.69 6.97 -1.14
13.03 53.56 6.77
1.83 7.54 -0.95
14.31 58.86 9.59
1.77 7.28 -0.66
1.76 7.22 -0.39
9.65 39.69 -0.71
1.56 6.3 -1.74
13.14 53.26 0.96
1.79 7.27 -1.73
13.18 53.41 2.88
1.83 7.4 -1.48
13.23 53.61 4.83
2.71 10.99 -1.79
13.27 53.75 6.8
1.86 7.53 -0.95
14.44 58.52 9.55
1.84 7.46 -0.4
1.87 7.57 -0.14
1.58 6.29 -1.74
8.31 33.18 0.6
1.8 7.21 -1.72
13.42 53.58 2.89
1.84 7.35 -1.47
13.48 53.81 4.85
2.74 10.94 -1.79
13.51 53.95 6.83
3.85 15.37 -1.95
1.79 7.15 -0.65
1.86 7.42 -0.4
1.82 7.28 -0.13
1.6 6.29 -1.74
1.84 7.24 -1.72
13.66 53.79 2.91
1.83 7.21 -1.45
13.72 53.98 4.87
2.77 10.89 -1.78
13.75 54.14 6.86
3.84 15.11 -1.91
14.67 57.75 9.44
1.82 7.16 -0.65
13.65 53.72 -0.97
1.61 6.26 -1.73
8.24 31.96 0.58
1.87 7.27 -1.73
13.92 53.98 2.92
1.87 7.25 -1.46
13.97 54.19 4.9
2.82 10.95 -1.79
14.01 54.34 6.89
14.8 57.41 9.39
1.84 7.13 -0.64
1.89 7.34 -0.4
1.93 7.49 -0.13
1.63 6.22 -1.72
8.35 31.92 0.58
1.89 7.22 -1.72
14.17 54.19 2.94
1.88 7.18 -1.44
14.23 54.41 4.92
2.86 10.92 -1.79
14.26 54.54 6.92
1.84 7.05 -0.9
14.92 57.07 9.34
1.93 7.39 -0.4
1.66 6.24 -1.73
8.77 33.04 0.6
1.91 7.21 -1.72
14.43 54.35 2.95
2.07 7.8 -1.57
8.46 31.87 2.88
1.89 7.11 -1.16
14.54 54.75 6.96
1.93 7.26 -0.92
15.06 56.72 9.29
14.41 54.27 -0.98
1.69 6.28 -1.74
8.59 31.91 0.58
1.94 7.21 -1.72
14.69 54.57 2.96
2.18 8.08 -1.63
8.5 31.58 2.86
1.96 7.27 -1.19
14.79 54.96 6.99
4.09 15.2 -1.93
15.19 56.45 9.26
2.07 7.7 -0.42
14.67 54.49 -0.98
1.71 6.26 -1.74
8.69 31.82 0.58
1.93 7.08 -1.69
14.96 54.78 2.98
2.2 8.06 -1.62
8.6 31.49 2.86
1.93 7.06 -1.16
15.06 55.17 7.02
1.93 7.06 -0.9
15.33 56.16 9.22
14.98 54.87 -2.98
1.73 6.26 -1.74
8.8 31.81 0.58
2.08 7.51 -1.8
8.55 30.91 1.68
2 7.22 -1.46
8.81 31.85 2.89
2.39 8.64 -1.42
15.31 55.35 7.05
1.97 7.13 -0.91
15.48 55.96 9.2
2.11 7.62 -0.69
15.13 54.7 -2.97
15.19 54.91 -0.99
1.74 6.2 -1.72
8.92 31.79 0.58
2.11 7.53 -1.81
15.48 55.2 3
2.29 8.16 -1.65
2.08 7.43 -1.22
15.59 55.57 7.09
1.96 6.98 -0.89
15.4 54.91 -2.99
15.46 55.1 -1
1.76 6.2 -1.73
9.05 31.83 0.58
2.13 7.49 -1.8
15.76 55.45 3.02
2.06 7.26 -1.47
8.89 31.29 2.85
2.16 7.59 -1.25
15.85 55.78 7.12
2.02 7.12 -0.91
15.9 55.93 9.21
15.66 55.09 -3
15.7 55.24 -1
1.78 6.18 -1.72
2.1 7.29 -1.75
16.02 55.6 3.03
2.11 7.32 -1.48
9.5 32.98 3
2.05 7.13 -1.18
16.13 56 7.16
2.07 7.17 -0.92
16.07 55.78 9.19
2.24 7.77 -0.71
9.36 32.5 -0.59
1.81 6.21 -1.73
9.37 32.11 0.58
2.16 7.39 -1.78
9.08 31.12 1.7
2.15 7.37 -1.49
9.26 31.74 2.89
3.21 10.99 -1.81
16.4 56.22 7.19
2.21 7.59 -0.97
16.47 56.44 9.31
2.05 7.02 -0.64
9.42 32.3 -1.76
9.43 32.31 -0.59
1.84 6.21 -1.74
9.37 31.73 0.58
2.17 7.35 -1.77
9.33 31.58 1.73
2.16 7.3 -1.48
16.64 56.31 5.14
3.27 11.08 -1.83
16.66 56.4 7.22
2.4 8.13 -1.04
16.72 56.6 9.35
9.54 32.28 -1.76
9.49 32.13 -0.58
1.86 6.22 -1.74
9.12 30.47 0.56
2.21 7.4 -1.78
9.51 31.77 1.74
2.22 7.42 -1.51
9.33 31.2 2.85
2.27 7.6 -1.26
2.43 8.11 -1.04
17 56.82 9.39
2.3 7.69 -0.7
1.89 6.25 -1.75
9.57 31.57 0.58
2.21 7.28 -1.76
9.76 32.21 1.76
2.27 7.48 -1.52
9.44 31.16 2.85
3.28 10.82 -1.79
17.28 57.02 9.44
2.4 7.9 -0.72
9.82 32.4 -0.59
1.91 6.24 -1.75
9.83 32.05 0.59
2.22 7.24 -1.75
9.72 31.67 1.74
2.42 7.88 -1.6
17.49 57 5.22
2.16 7.03 -1.16
2.34 7.61 -0.98
17.57 57.26 9.49
2.41 7.84 -0.43
1.94 6.24 -1.75
9.95 32.06 0.59
2.26 7.29 -1.76
9.68 31.19 1.71
2.19 7.05 -1.43
17.74 57.16 5.24
2.27 7.33 -1.21
2.41 7.76 -1
17.84 57.5 9.54
2.39 7.69 -0.7
1.95 6.2 -1.74
2.29 7.3 -1.77
17.95 57.17 3.14
2.24 7.15 -1.46
10.09 32.11 2.94
2.47 7.85 -1.01
18.13 57.72 9.58
2.33 7.42 -0.68
2.41 7.69 -0.42
17.92 57.07 -1.04
1.97 6.21 -1.75
10.15 31.93 0.58
2.32 7.3 -1.77
18.24 57.37 3.16
2.28 7.18 -1.47
10.43 32.79 3.01
2.35 7.39 -1.23
18.43 57.96 9.63
2.51 7.9 -0.73
2.48 7.8 -0.43
2 6.23 -1.75
2.37 7.35 -1.78
10.33 32.09 1.77
2.46 7.64 -1.56
18.63 57.9 5.32
2.27 7.07 -1.18
2.36 7.34 -0.95
18.72 58.18 9.68
2.38 7.38 -0.68
2.39 7.42 -0.41
18.51 57.52 -1.05
2.03 6.23 -1.76
2.38 7.32 -1.78
10.38 31.87 1.76
2.34 7.18 -1.47
18.91 58.08 5.34
2.5 7.66 -1.28
2.54 7.8 -1.01
19.02 58.41 9.73
2.05 6.22 -1.76
2.37 7.2 -1.75
10.45 31.73 1.75
10.13 30.75 2.83
2.31 7 -1.17
2.45 7.42 -0.96
19.33 58.68 9.78
2.41 7.32 -0.67
2.42 7.35 -0.41
2.06 6.17 -1.74
11.13 33.39 0.61
2.44 7.32 -1.78
10.65 31.94 1.76
2.43 7.3 -1.5
19.53 58.58 5.4
2.34 7.01 -1.17
2.51 7.51 -0.97
19.6 58.77 9.81
2.47 7.41 -0.68
2.39 7.16 -0.4
2.07 6.15 -1.74
11.29 33.48 0.62
2.45 7.27 -1.77
2.41 7.14 -1.46
19.83 58.81 5.43
2.58 7.66 -1.28
19.89 58.99 7.64
2.54 7.54 -0.98
2.09 6.13 -1.74
2.45 7.2 -1.76
10.67 31.29 1.73
2.53 7.42 -1.52
20.14 59.07 5.46
2.61 7.65 -1.28
20.19 59.21 7.68
2.52 7.38 -0.96
2.5 7.33 -0.68
2.1 6.1 -1.73
11.26 32.65 0.6
2.46 7.14 -1.74
20.35 59.02 3.27
2.69 7.8 -1.6
20.44 59.29 5.49
2.6 7.53 -1.26
20.51 59.47 7.72
2.58 7.49 -0.69
2.54 7.38 -0.41
2.13 6.09 -1.73
11.21 32.11 0.59
2.48 7.11 -1.74
20.69 59.28 3.29
2.63 7.55 -1.55
20.78 59.55 5.52
2.63 7.54 -1.26
20.84 59.72 7.77
6.16 17.64 -2.29
2.59 7.42 -0.69
2.15 6.1 -1.73
20.96 59.41 1.1
2.5 7.09 -1.74
21.01 59.54 3.31
2.71 7.67 -1.58
21.1 59.8 5.55
2.66 7.53 -1.27
21.16 59.97 7.81
6.11 17.32 -2.25
2.7 7.65 -0.71
2.19 6.13 -1.74
11.34 31.78 0.59
2.52 7.08 -1.73
21.31 59.74 3.32
2.65 7.44 -1.54
21.42 60.05 5.58
2.7 7.56 -1.27
21.48 60.22 7.85
6.17 17.31 -2.26
2.74 7.68 -0.71
2.22 6.15 -1.75
11.51 31.92 0.59
2.55 7.08 -1.74
21.64 60.03 3.34
2.64 7.32 -1.51
21.74 60.29 5.61
2.7 7.49 -1.26
21.81 60.51 7.9
6.31 17.49 -2.28
2.68 7.44 -0.69
2.27 6.22 -1.77
11.65 31.95 0.59
2.59 7.1 -1.75
21.98 60.3 3.36
2.84 7.79 -1.61
22.07 60.54 5.64
2.78 7.63 -1.29
22.12 60.68 7.93
2.74 7.53 -0.98
2.77 7.6 -0.71
2.29 6.22 -1.78
11.76 31.93 0.59
2.61 7.08 -1.74
22.31 60.56 3.38
2.72 7.38 -1.53
22.41 60.83 5.67
4.01 10.89 -1.84
2.78 7.54 -0.99
2.76 7.5 -0.7
11.98 32.52 -0.6
2.3 6.19 -1.77
2.61 7.01 -1.73
22.63 60.82 3.4
2.77 7.45 -1.54
22.74 61.1 5.7
4.04 10.85 -1.83
2.85 7.67 -1.01
2.74 7.36 -0.69
2.32 6.16 -1.76
2.62 6.98 -1.72
22.96 61.08 3.42
2.79 7.43 -1.54
23.07 61.37 5.74
2.9 7.71 -1.3
6.46 17.19 -2.26
2.77 7.36 -0.69
2.35 6.17 -1.77
2.65 6.96 -1.72
23.32 61.35 3.44
3.04 8.01 -1.67
23.41 61.6 5.77
2.94 7.74 -1.31
6.54 17.21 -2.26
2.37 6.16 -1.77
2.67 6.95 -1.72
23.66 61.63 3.46
3.08 8.02 -1.67
23.76 61.89 5.8
2.95 7.69 -1.3
6.81 17.73 -2.33
2.39 6.16 -1.77
2.69 6.94 -1.72
24.04 61.94 3.48
3.16 8.13 -1.7
24.13 62.19 5.84
2.88 7.43 -1.26
6.88 17.74 -2.34
2.43 6.19 -1.78
2.71 6.9 -1.71
24.38 62.2 3.5
3.09 7.89 -1.65
24.49 62.47 5.87
4.28 10.91 -1.86
2.99 7.63 -1.01
8.11 20.7 -1.95
24.42 62.31 -3.51
2.48 6.25 -1.8
24.78 62.57 1.17
2.73 6.88 -1.71
24.75 62.48 3.52
2.88 7.27 -1.52
24.85 62.72 5.9
4.31 10.88 -1.85
6.99 17.65 -2.33
8.2 20.7 -1.95
24.61 62.12 -3.5
2.49 6.23 -1.8
25.02 62.54 1.18
2.77 6.91 -1.72
25.11 62.76 3.54
4.34 10.84 -1.85
7.05 17.63 -2.33
8.28 20.7 -1.95
2.5 6.2 -1.79
25.4 62.87 1.18
2.79 6.9 -1.72
2.97 7.36 -1.54
4.37 10.81 -1.85
7.1 17.57 -2.33
8.37 20.72 -1.95
25.3 62.63 -3.54
25.4 62.87 -1.18
2.5 6.12 -1.77
25.78 63.19 1.19
2.81 6.88 -1.72
3.32 8.13 -1.71
2.99 7.34 -1.26
7.15 17.53 -2.33
25.64 62.85 -3.56
25.77 63.16 -1.19
2.52 6.11 -1.77
26.16 63.46 1.2
2.82 6.84 -1.71
3.21 7.8 -1.64
4.43 10.74 -1.84
7.21 17.48 -2.32
26.02 63.13 -3.58
26.13 63.4 -1.2
2.54 6.11 -1.77
26.53 63.76 1.21
2.86 6.86 -1.72
3.31 7.95 -1.67
4.46 10.72 -1.84
7.25 17.41 -2.32
26.38 63.4 -3.6
26.52 63.71 -1.2
2.58 6.14 -1.79
26.93 64.07 1.21
2.88 6.85 -1.71
3.4 8.09 -1.71
4.51 10.73 -1.84
7.3 17.38 -2.31
26.77 63.69 -3.62
26.9 63.99 -1.21
2.62 6.17 -1.8
27.31 64.36 1.22
2.88 6.79 -1.7
3.38 7.96 -1.68
4.54 10.71 -1.84
7.35 17.31 -2.31
27.18 64.06 -3.65
27.27 64.26 -1.22
2.62 6.12 -1.78
2.89 6.75 -1.7
3.65 8.51 -1.8
4.59 10.71 -1.84
7.37 17.2 -2.3
27.57 64.32 -3.67
27.66 64.53 -1.23
2.64 6.1 -1.78
2.99 6.91 -1.74
3.23 7.47 -1.58
4.69 10.83 -1.87
7.45 17.23 -2.3
9.3 21.48 -2.05
27.98 64.65 -3.69
28.12 64.99 -1.24
2.66 6.08 -1.78
3.06 6.99 -1.76
3.27 7.49 -1.59
4.64 10.62 -1.84
7.48 17.12 -2.29
15.75 36.04 -3.44
28.37 64.94 -3.71
28.51 65.26 -1.24
2.68 6.08 -1.78
2.95 6.68 -1.69
3.32 7.52 -1.6
4.68 10.6 -1.84
7.53 17.07 -2.29
15.87 35.99 -3.44
2.7 6.06 -1.78
3.1 6.96 -1.76
3.36 7.55 -1.61
4.73 10.63 -1.84
7.59 17.04 -2.29
2.72 6.06 -1.78
3.12 6.95 -1.76
3.37 7.5 -1.6
4.79 10.65 -1.85
7.62 16.95 -2.28
16.08 35.78 -3.43
2.75 6.07 -1.79
3.14 6.93 -1.76
3.99 8.79 -1.88
4.83 10.65 -1.85
7.68 16.94 -2.28
16.18 35.67 -3.43
2.8 6.11 -1.8
3.13 6.84 -1.74
3.98 8.69 -1.86
4.9 10.71 -1.87
7.72 16.86 -2.28
16.31 35.63 -3.43
2.81 6.09 -1.8
3.17 6.87 -1.75
3.99 8.65 -1.85
4.94 10.69 -1.87
7.77 16.82 -2.28
16.41 35.52 -3.42
2.8 6.01 -1.78
3.18 6.82 -1.74
4.05 8.69 -1.86
5 10.74 -1.88
7.78 16.7 -2.26
16.5 35.4 -3.42
2.82 6 -1.78
3.21 6.82 -1.74
4.1 8.71 -1.87
4.98 10.59 -1.85
7.83 16.64 -2.26
16.59 35.28 -3.41
2.85 5.99 -1.78
3.22 6.79 -1.73
4.14 8.72 -1.88
4.97 10.47 -1.84
7.87 16.58 -2.25
16.72 35.23 -3.41
2.87 6 -1.78
3.25 6.8 -1.74
4.17 8.7 -1.88
5 10.44 -1.83
7.9 16.49 -2.25
16.82 35.11 -3.41
2.89 5.98 -1.78
3.3 6.83 -1.75
4.19 8.67 -1.87
5.08 10.52 -1.85
7.94 16.43 -2.24
16.94 35.05 -3.41
2.91 5.96 -1.78
3.41 7 -1.8
4.22 8.66 -1.87
5.14 10.56 -1.86
7.99 16.4 -2.24
17.15 35.2 -3.43
2.94 5.97 -1.78
3.5 7.12 -1.83
4.31 8.76 -1.9
5.22 10.61 -1.87
8.02 16.31 -2.23
17.38 35.35 -3.45
52.12 106.01 -6.19
2.97 5.98 -1.79
3.54 7.15 -1.84
4.34 8.76 -1.9
5.26 10.6 -1.87
8.08 16.3 -2.23
17.65 35.59 -3.48
23.31 46.99 -2.75
3 6 -1.8
3.58 7.15 -1.85
4.37 8.74 -1.9
5.3 10.6 -1.88
8.1 16.2 -2.22
17.87 35.71 -3.49
3.02 5.98 -1.8
3.61 7.16 -1.85
4.36 8.64 -1.88
5.32 10.54 -1.87
8.16 16.17 -2.22
18.03 35.73 -3.5
3.04 5.97 -1.8
3.65 7.16 -1.86
4.38 8.61 -1.88
5.39 10.58 -1.88
8.22 16.14 -2.22
18.15 35.66 -3.5
3.07 5.98 -1.8
3.66 7.12 -1.85
4.41 8.6 -1.88
5.4 10.52 -1.87
8.24 16.04 -2.21
3.13 6.04 -1.82
3.65 7.05 -1.83
4.46 8.61 -1.88
5.43 10.49 -1.87
8.27 15.96 -2.21
3.13 6 -1.81
13.38 25.62 0.5
3.71 7.11 -1.85
4.47 8.55 -1.87
5.42 10.37 -1.85
8.32 15.92 -2.21
13.32 25.49 -2.52
13.34 25.53 -1.51
13.37 25.6 -0.5
3.15 5.98 -1.81
3.74 7.11 -1.85
4.51 8.56 -1.88
5.47 10.39 -1.86
8.34 15.83 -2.2
3.15 5.94 -1.8
3.77 7.09 -1.85
4.57 8.6 -1.89
5.56 10.47 -1.88
8.36 15.74 -2.19
3.16 5.89 -1.79
3.8 7.1 -1.86
4.6 8.58 -1.89
5.59 10.44 -1.88
8.45 15.77 -2.2
3.18 5.89 -1.79
3.83 7.09 -1.86
4.62 8.55 -1.89
5.6 10.37 -1.87
8.52 15.77 -2.2
15.57 28.83 -2.87
3.2 5.87 -1.79
3.86 7.09 -1.86
4.61 8.46 -1.87
5.66 10.39 -1.87
8.56 15.72 -2.2
15.67 28.77 -2.87
3.21 5.84 -1.79
3.86 7.03 -1.85
4.66 8.48 -1.88
5.69 10.37 -1.87
8.6 15.67 -2.19
3.24 5.86 -1.8
3.87 6.99 -1.84
4.71 8.51 -1.89
5.73 10.36 -1.88
8.6 15.55 -2.18
3.23 5.79 -1.78
3.89 6.97 -1.84
4.73 8.48 -1.89
5.78 10.36 -1.88
8.62 15.44 -2.17
3.26 5.78 -1.78
3.91 6.94 -1.84
4.8 8.53 -1.9
5.83 10.35 -1.88
8.7 15.45 -2.18
15.91 28.28 -2.84
3.28 5.78 -1.78
3.91 6.89 -1.83
4.82 8.49 -1.9
5.83 10.27 -1.87
8.7 15.33 -2.16
15.97 28.15 -2.83
3.31 5.78 -1.79
3.93 6.88 -1.83
4.83 8.44 -1.89
5.89 10.31 -1.88
8.76 15.31 -2.17
16.11 28.16 -2.84
3.34 5.79 -1.79
3.96 6.87 -1.83
4.86 8.42 -1.89
5.95 10.32 -1.89
8.8 15.27 -2.16
16.03 27.8 -2.81
3.37 5.8 -1.8
4.01 6.9 -1.84
4.89 8.42 -1.89
5.91 10.17 -1.86
8.78 15.1 -2.14
16.11 27.72 -2.81
34.66 59.62 -3.61
3.41 5.82 -1.81
4.05 6.91 -1.85
4.95 8.45 -1.9
5.93 10.12 -1.86
8.79 15 -2.13
16.05 27.39 -2.78
34.86 59.48 -3.61
3.44 5.82 -1.81
4.03 6.82 -1.83
4.98 8.44 -1.91
6 10.16 -1.87
8.8 14.9 -2.12
16.09 27.23 -2.77
3.41 5.73 -1.79
4.04 6.79 -1.82
5 8.4 -1.9
6.02 10.12 -1.86
8.82 14.83 -2.12
16.08 27.01 -2.75
3.42 5.7 -1.78
4.11 6.86 -1.85
5.01 8.34 -1.89
6.06 10.11 -1.87
8.86 14.77 -2.12
16.14 26.9 -2.74
3.43 5.67 -1.78
4.14 6.85 -1.85
5.03 8.33 -1.89
6.1 10.1 -1.87
8.9 14.72 -2.11
16.11 26.65 -2.72
3.45 5.66 -1.78
55.21 90.63 1.85
4.16 6.82 -1.84
5.04 8.28 -1.88
6.17 10.13 -1.88
8.97 14.72 -2.12
16.22 26.63 -2.73
3.47 5.66 -1.78
55.44 90.26 1.85
4.2 6.83 -1.85
5.09 8.29 -1.89
6.18 10.06 -1.87
9.72 15.83 -2.28
16.35 26.62 -2.73
3.5 5.65 -1.78
4.22 6.82 -1.85
5.11 8.26 -1.89
6.23 10.06 -1.87
8.95 14.45 -2.09
16.45 26.58 -2.73
3.55 5.69 -1.8
4.23 6.78 -1.84
5.14 8.23 -1.89
6.29 10.08 -1.88
8.97 14.38 -2.08
16.57 26.56 -2.74
3.58 5.69 -1.8
56.17 89.33 1.84
4.25 6.76 -1.84
5.19 8.25 -1.89
6.36 10.12 -1.89
8.99 14.29 -2.07
16.67 26.51 -2.74
3.6 5.69 -1.81
4.26 6.73 -1.84
5.21 8.23 -1.89
6.42 10.15 -1.9
8.99 14.2 -2.06
16.9 26.7 -2.76
3.63 5.69 -1.81
56.65 88.79 1.84
4.28 6.71 -1.84
5.23 8.19 -1.89
6.46 10.12 -1.9
8.97 14.07 -2.05
17.14 26.86 -2.79
3.64 5.66 -1.8
4.28 6.65 -1.83
5.24 8.15 -1.88
6.53 10.15 -1.91
9 13.99 -2.04
17.33 26.94 -2.8
3.64 5.61 -1.79
4.38 6.76 -1.86
5.24 8.09 -1.87
6.49 10.02 -1.89
10.01 15.44 -2.26
3.64 5.58 -1.78
4.42 6.77 -1.87
5.26 8.06 -1.87
6.57 10.06 -1.9
6.35 9.73 -1.43
3.66 5.57 -1.79
22.25 33.83 0.71
4.44 6.75 -1.87
5.26 8 -1.86
6.38 9.69 -1.84
6.37 9.69 -1.42
3.67 5.54 -1.78
4.46 6.73 -1.86
5.28 7.97 -1.86
6.41 9.67 -1.84
10.12 15.27 -2.25
3.68 5.52 -1.78
4.47 6.69 -1.86
5.3 7.93 -1.85
6.7 10.03 -1.91
10.15 15.2 -2.24
6.54 9.8 -1.03
3.7 5.5 -1.78
58.34 86.72 1.82
4.47 6.65 -1.85
5.35 7.95 -1.86
6.72 9.99 -1.91
10.19 15.14 -2.24
3.73 5.5 -1.78
22.03 32.51 0.69
4.51 6.66 -1.86
22.14 32.67 2.07
5.42 8 -1.88
6.63 9.79 -1.87
10.22 15.09 -2.24
6.61 9.75 -0.62
3.77 5.52 -1.79
22.31 32.67 0.69
4.52 6.63 -1.85
5.44 7.97 -1.88
6.68 9.77 -1.87
10.26 15.03 -2.23
6.63 9.71 -1.03
6.65 9.74 -0.62
3.82 5.55 -1.8
22.46 32.64 0.69
4.52 6.57 -1.84
5.45 7.93 -1.87
6.78 9.86 -1.89
10.32 15 -2.24
19.28 28.03 -2.98
22.47 32.66 -2.08
22.48 32.68 -0.69
3.84 5.53 -1.8
22.62 32.62 0.69
4.54 6.55 -1.84
5.44 7.85 -1.86
6.73 9.71 -1.87
10.36 14.95 -2.23
19.4 27.99 -2.98
3.84 5.51 -1.8
4.55 6.52 -1.83
5.42 7.77 -1.84
6.77 9.69 -1.87
10.4 14.89 -2.23
19.51 27.95 -2.98
3.87 5.51 -1.8
4.58 6.5 -1.84
5.47 7.77 -1.85
6.81 9.68 -1.88
10.44 14.84 -2.23
19.6 27.85 -2.98
3.9 5.5 -1.81
4.58 6.47 -1.83
5.5 7.76 -1.85
6.84 9.65 -1.87
10.47 14.77 -2.22
3.91 5.48 -1.81
23.24 32.55 0.7
4.67 6.55 -1.86
5.58 7.82 -1.87
6.87 9.62 -1.87
10.5 14.72 -2.22
3.9 5.42 -1.79
4.67 6.5 -1.85
5.65 7.86 -1.88
6.89 9.59 -1.87
10.55 14.67 -2.22
3.85 5.31 -1.76
4.68 6.46 -1.84
5.63 7.77 -1.86
6.82 9.42 -1.84
10.6 14.63 -2.22
3.87 5.3 -1.76
4.71 6.46 -1.85
5.67 7.77 -1.87
6.9 9.46 -1.85
10.63 14.57 -2.22
3.92 5.33 -1.77
4.72 6.42 -1.84
5.73 7.79 -1.88
6.97 9.47 -1.86
8.98 12.22 -1.86
3.99 5.39 -1.8
4.72 6.38 -1.83
5.78 7.81 -1.89
7.01 9.47 -1.87
10.7 14.45 -2.21
4.03 5.4 -1.81
4.73 6.34 -1.82
5.81 7.78 -1.89
7.18 9.63 -1.9
10.74 14.4 -2.21
4.04 5.38 -1.8
4.76 6.33 -1.83
5.83 7.76 -1.89
7.23 9.62 -1.91
10.76 14.33 -2.2
4.05 5.35 -1.8
4.78 6.31 -1.83
5.83 7.7 -1.88
7.26 9.59 -1.9
10.79 14.26 -2.2
20.49 27.08 -2.97
4.02 5.27 -1.78
4.85 6.36 -1.85
5.89 7.72 -1.89
7.26 9.53 -1.9
10.83 14.21 -2.19
20.59 27.01 -2.97
4 5.21 -1.76
4.84 6.3 -1.83
5.89 7.68 -1.88
7.28 9.48 -1.89
10.84 14.13 -2.19
20.64 26.9 -2.97
4.04 5.22 -1.77
4.89 6.33 -1.85
5.89 7.62 -1.87
7.27 9.4 -1.88
10.89 14.09 -2.19
20.71 26.79 -2.96
4.06 5.22 -1.77
4.9 6.29 -1.84
5.9 7.58 -1.87
7.33 9.41 -1.89
10.92 14.03 -2.18
4.08 5.2 -1.77
4.91 6.26 -1.84
5.93 7.56 -1.87
7.31 9.32 -1.88
10.97 13.98 -2.18
4.1 5.19 -1.77
4.95 6.26 -1.84
5.95 7.54 -1.87
7.31 9.25 -1.87
11 13.92 -2.18
4.15 5.21 -1.78
4.93 6.2 -1.83
5.99 7.52 -1.87
7.36 9.25 -1.87
11.04 13.87 -2.18
4.16 5.19 -1.78
4.99 6.22 -1.84
6.03 7.52 -1.87
7.41 9.25 -1.88
11.07 13.81 -2.17
4.16 5.16 -1.78
5.01 6.21 -1.84
6.03 7.47 -1.87
7.42 9.19 -1.87
11.11 13.77 -2.17
4.17 5.13 -1.77
4.97 6.12 -1.82
6.12 7.53 -1.89
7.45 9.16 -1.87
11.13 13.69 -2.17
4.19 5.12 -1.77
4.99 6.09 -1.82
6.09 7.44 -1.87
17.32 21.16 2.39
7.46 9.1 -1.86
11.18 13.66 -2.17
4.21 5.11 -1.77
5.01 6.08 -1.82
6.11 7.41 -1.87
17.6 21.35 2.42
7.48 9.07 -1.86
11.2 13.58 -2.16
4.2 5.06 -1.76
5.05 6.08 -1.82
6.17 7.43 -1.88
17.02 20.5 2.33
7.49 9.02 -1.86
11.23 13.53 -2.16
4.21 5.04 -1.76
5.12 6.12 -1.84
6.15 7.35 -1.86
7.55 9.02 -1.86
11.28 13.49 -2.16
4.23 5.02 -1.76
5.07 6.02 -1.82
6.12 7.27 -1.85
17.49 20.77 2.38
7.6 9.03 -1.87
11.31 13.42 -2.15
21.75 25.82 -2.95
4.25 5.02 -1.76
5.09 6 -1.82
6.16 7.27 -1.85
18.49 21.81 2.5
7.66 9.03 -1.88
11.34 13.38 -2.15
21.78 25.7 -2.95
4.28 5.02 -1.77
5.05 5.92 -1.8
17.86 20.91 1.44
6.19 7.24 -1.85
18.59 21.77 2.5
7.63 8.94 -1.86
11.35 13.29 -2.15
21.84 25.58 -2.94
4.31 5.02 -1.77
5.06 5.88 -1.79
6.19 7.19 -1.84
18.38 21.38 2.47
7.71 8.97 -1.87
18.41 21.41 3.47
11.39 13.25 -2.15
4.32 4.99 -1.77
5.07 5.85 -1.79
17.41 20.11 1.39
6.25 7.22 -1.86
18.13 20.93 2.42
7.74 8.93 -1.87
11.42 13.18 -2.14
4.29 4.93 -1.75
18.83 21.6 0.5
5.08 5.83 -1.78
6.27 7.2 -1.86
7.68 8.81 -1.85
11.47 13.15 -2.14
4.3 4.9 -1.75
18.89 21.51 0.5
5.1 5.81 -1.78
6.25 7.12 -1.84
18.65 21.24 2.47
7.77 8.85 -1.86
11.49 13.08 -2.14
22.01 25.07 -2.92
4.32 4.88 -1.75
18.94 21.42 0.5
5.12 5.8 -1.79
18.43 20.84 1.46
6.27 7.09 -1.84
7.73 8.74 -1.85
11.52 13.03 -2.14
21.89 24.75 -2.89
4.34 4.87 -1.75
19.03 21.37 0.5
5.1 5.73 -1.77
6.28 7.05 -1.84
7.75 8.71 -1.85
19 21.33 3.51
11.54 12.96 -2.13
21.8 24.49 -2.87
4.36 4.87 -1.75
5.11 5.7 -1.77
18.71 20.86 1.47
6.31 7.03 -1.84
7.8 8.7 -1.85
11.58 12.92 -2.13
21.73 24.23 -2.85
4.38 4.85 -1.75
5.16 5.71 -1.78
18.76 20.78 1.47
19.04 21.09 2.49
7.75 8.58 -1.83
11.62 12.87 -2.13
21.66 23.99 -2.83
4.39 4.82 -1.75
18.64 20.5 0.48
5.19 5.71 -1.78
17.83 19.6 1.39
5.75 6.32 -1.66
19 20.89 2.47
7.76 8.54 -1.83
18.85 20.74 3.44
11.65 12.81 -2.13
21.66 23.82 -2.82
4.4 4.8 -1.75
5.17 5.64 -1.77
17.86 19.5 1.39
6.36 6.95 -1.83
7.79 8.5 -1.83
11.67 12.74 -2.12
18.7 20.42 4.39
21.64 23.64 -2.8
4.39 4.76 -1.74
5.16 5.59 -1.76
18.11 19.64 1.4
6.41 6.96 -1.84
18.86 20.46 2.43
7.79 8.45 -1.82
18.71 20.29 3.39
11.71 12.69 -2.12
18.59 20.16 4.34
21.62 23.45 -2.79
4.4 4.73 -1.73
18.88 20.33 0.48
5.18 5.58 -1.76
18.92 20.37 1.46
6.35 6.84 -1.81
18.95 20.41 2.44
7.81 8.41 -1.82
19.21 20.69 3.47
11.72 12.62 -2.12
18.76 20.21 4.37
21.64 23.31 -2.78
4.42 4.73 -1.74
18.9 20.21 0.48
5.2 5.56 -1.76
17.82 19.07 1.37
6.39 6.84 -1.82
7.8 8.35 -1.81
18.7 20.01 3.36
11.76 12.58 -2.11
18.67 19.97 4.33
21.63 23.13 -2.77
18.96 20.28 -0.48
4.45 4.73 -1.74
18.85 20.02 0.48
5.22 5.55 -1.76
19.65 20.88 1.5
6.43 6.83 -1.82
7.85 8.34 -1.81
18.73 19.9 3.36
11.79 12.53 -2.11
19.43 20.64 4.49
18.92 20.1 -2.42
18.97 20.15 -1.45
19.03 20.21 -0.48
4.45 4.69 -1.73
18.9 19.94 0.48
18.33 19.34 1.4
6.44 6.79 -1.82
7.88 8.31 -1.81
18.9 19.94 3.37
11.8 12.45 -2.11
18.96 20.01 4.37
18.94 19.99 -2.41
19.03 20.08 -1.45
4.47 4.68 -1.74
18.9 19.81 0.48
5.21 5.45 -1.74
19.02 19.93 1.44
6.42 6.73 -1.81
18.72 19.62 2.37
7.89 8.27 -1.81
18.82 19.72 3.35
11.84 12.41 -2.11
19.04 19.95 -2.41
4.47 4.65 -1.73
5.24 5.45 -1.75
19.47 20.26 1.47
6.41 6.67 -1.8
7.94 8.26 -1.81
11.87 12.35 -2.1
21.77 22.66 -2.75
4.48 4.63 -1.73
19.49 20.14 0.49
5.28 5.45 -1.75
6.42 6.64 -1.8
7.99 8.26 -1.82
11.9 12.29 -2.1
21.71 22.44 -2.73
4.5 4.62 -1.73
5.29 5.43 -1.75
6.48 6.65 -1.81
8.45 8.67 -1.92
11.91 12.23 -2.1
4.52 4.61 -1.73
5.32 5.43 -1.75
6.48 6.61 -1.8
20.06 20.45 2.51
8.47 8.63 -1.92
11.95 12.18 -2.1
27.11 27.64 -2.03
4.53 4.58 -1.73
5.34 5.4 -1.75
19.24 19.47 1.43
6.47 6.55 -1.79
8.48 8.59 -1.91
11.94 12.08 -2.09
4.53 4.55 -1.72
5.37 5.39 -1.76
18.76 18.86 1.39
6.43 6.46 -1.77
19.12 19.22 2.37
8.52 8.56 -1.91
11.99 12.06 -2.09
10.89 10.95 -1.35
4.54 4.54 -1.72
5.38 5.37 -1.76
18.97 18.93 1.4
6.48 6.47 -1.78
8.53 8.51 -1.91
10.86 10.85 -1.88
10.96 10.95 -1.36
34.71 34.65 -0.86
4.55 4.51 -1.72
5.38 5.34 -1.75
6.48 6.43 -1.77
19.14 18.98 2.36
8.56 8.48 -1.91
10.85 10.76 -1.88
11.03 10.93 -1.36
4.57 4.5 -1.72
5.4 5.31 -1.75
6.49 6.39 -1.77
8.58 8.45 -1.91
10.87 10.7 -1.87
10.88 10.71 -1.34
27.47 27.04 -2.02
34.95 34.4 -0.86
4.58 4.48 -1.72
19.74 19.3 0.48
5.42 5.29 -1.75
6.49 6.34 -1.76
19.48 19.04 2.38
8.61 8.42 -1.91
10.84 10.6 -1.86
10.88 10.64 -1.33
35.03 34.25 -0.86
4.56 4.43 -1.7
5.4 5.24 -1.74
6.46 6.28 -1.75
8.63 8.38 -1.9
10.86 10.55 -1.86
10.85 10.54 -1.32
25.32 24.58 -1.85
42.58 41.33 -1.04
4.59 4.42 -1.71
5.41 5.22 -1.73
20.93 20.17 1.52
6.45 6.22 -1.74
8.65 8.34 -1.9
10.96 10.57 -1.87
10.88 10.49 -1.32
25.43 24.52 -1.85
42.71 41.17 -1.04
4.61 4.41 -1.71
5.43 5.2 -1.73
6.45 6.17 -1.73
8.67 8.31 -1.9
10.85 10.39 -1.85
10.89 10.43 -1.32
18.82 18.02 5.06
26.95 25.81 -1.96
42.8 40.99 -1.03
4.62 4.39 -1.71
5.45 5.18 -1.74
20.72 19.71 1.5
6.5 6.18 -1.74
8.69 8.27 -1.9
18.81 17.89 3.19
10.85 10.32 -1.84
18.85 17.93 4.12
10.96 10.42 -1.32
36.61 34.81 -2.65
42.94 40.83 -1.03
4.64 4.38 -1.71
5.47 5.16 -1.74
18.84 17.79 1.36
6.56 6.2 -1.75
18.87 17.82 2.27
8.72 8.23 -1.9
10.89 10.28 -1.84
11 10.39 -1.32
4.63 4.34 -1.7
18.86 17.69 0.45
5.45 5.11 -1.73
18.89 17.71 1.36
6.6 6.19 -1.76
8.74 8.2 -1.9
10.95 10.27 -1.84
10.98 10.29 -1.32
18.83 17.65 -1.35
4.64 4.32 -1.7
5.48 5.1 -1.73
20.49 19.08 1.47
6.65 6.19 -1.77
8.76 8.15 -1.9
11.03 10.26 -1.85
18.89 17.58 -1.35
4.66 4.3 -1.7
5.47 5.05 -1.72
6.67 6.17 -1.77
8.78 8.12 -1.89
12.28 11.35 -2.05
10.96 10.13 -1.31
4.67 4.29 -1.7
5.48 5.03 -1.72
6.91 6.34 -1.82
8.8 8.08 -1.89
12.3 11.3 -2.05
24.62 22.61 -1.75
71.98 66.1 -1.71
4.68 4.27 -1.7
5.5 5.02 -1.72
7.01 6.39 -1.84
8.83 8.06 -1.89
12.31 11.23 -2.05
25.99 23.7 -1.84
72.17 65.82 -1.7
4.73 4.28 -1.71
5.52 5 -1.72
7.03 6.37 -1.84
8.85 8.02 -1.89
12.31 11.15 -2.04
4.86 4.38 -1.75
5.54 4.98 -1.72
7.05 6.34 -1.84
8.87 7.98 -1.89
12.35 11.11 -2.04
4.93 4.41 -1.77
5.76 5.14 -1.78
7.08 6.32 -1.84
8.9 7.95 -1.89
12.38 11.06 -2.04
4.95 4.39 -1.77
5.83 5.17 -1.8
7.1 6.3 -1.84
8.92 7.91 -1.89
12.39 10.99 -2.03
4.97 4.38 -1.77
5.86 5.16 -1.8
7.11 6.26 -1.84
8.93 7.87 -1.89
12.41 10.93 -2.03
4.98 4.35 -1.77
5.88 5.15 -1.8
7.13 6.24 -1.84
8.96 7.84 -1.89
12.43 10.87 -2.03
11.04 9.66 -0.77
5 4.34 -1.78
5.89 5.12 -1.8
7.15 6.21 -1.84
8.98 7.8 -1.88
12.45 10.81 -2.02
5.02 4.33 -1.78
5.9 5.09 -1.8
7.16 6.17 -1.84
8.99 7.76 -1.88
12.47 10.75 -2.02
5.03 4.31 -1.77
5.92 5.07 -1.8
7.18 6.15 -1.84
9.02 7.73 -1.88
12.48 10.69 -2.02
5.05 4.29 -1.78
5.94 5.05 -1.8
7.19 6.11 -1.83
9.04 7.69 -1.88
12.51 10.63 -2.02
11.01 9.36 -1.26
5.05 4.26 -1.77
5.97 5.04 -1.8
7.2 6.08 -1.83
9.07 7.66 -1.88
12.54 10.59 -2.02
5.07 4.25 -1.77
5.99 5.02 -1.8
7.24 6.07 -1.84
9.08 7.61 -1.88
12.55 10.52 -2.01
5.08 4.23 -1.77
5.99 4.99 -1.8
7.25 6.04 -1.83
9.11 7.58 -1.88
12.58 10.47 -2.01
5.1 4.22 -1.77
6 4.96 -1.8
7.25 6 -1.83
9.13 7.54 -1.88
12.59 10.41 -2.01
5.11 4.19 -1.77
6.02 4.94 -1.8
7.28 5.98 -1.83
9.15 7.51 -1.88
12.6 10.34 -2
5.12 4.17 -1.77
6.04 4.92 -1.8
7.32 5.97 -1.84
9.17 7.48 -1.87
12.61 10.27 -2
5.12 4.15 -1.77
6.06 4.9 -1.8
7.32 5.93 -1.83
9.19 7.44 -1.87
12.61 10.21 -1.99
5.15 4.14 -1.77
6.07 4.88 -1.8
7.34 5.9 -1.83
25.9 20.82 2.91
9.22 7.41 -1.87
12.65 10.17 -1.99
5.16 4.12 -1.77
6.06 4.84 -1.79
7.34 5.86 -1.82
9.24 7.37 -1.87
12.66 10.1 -1.99
10.99 8.77 -1.23
5.17 4.1 -1.77
6.09 4.82 -1.79
7.33 5.81 -1.82
9.27 7.35 -1.87
12.69 10.06 -1.99
11.02 8.73 -1.23
5.18 4.07 -1.76
26.26 20.65 0.58
6.12 4.81 -1.8
7.35 5.78 -1.82
9.3 7.31 -1.87
12.71 10 -1.99
11.05 8.69 -1.23
11.14 8.76 -0.74
5.19 4.05 -1.76
6.12 4.78 -1.79
7.37 5.75 -1.82
9.32 7.28 -1.87
12.73 9.94 -1.98
11.08 8.65 -1.23
5.22 4.04 -1.77
6.13 4.76 -1.79
7.38 5.72 -1.82
9.33 7.23 -1.87
12.75 9.88 -1.98
11.11 8.61 -1.23
5.22 4.02 -1.77
6.16 4.74 -1.79
7.39 5.69 -1.81
26.09 20.09 2.88
9.35 7.2 -1.87
12.75 9.82 -1.98
11.14 8.57 -1.23
5.23 4 -1.76
6.17 4.72 -1.79
25.73 19.67 1.7
7.4 5.66 -1.81
9.38 7.17 -1.87
12.76 9.75 -1.97
5.23 3.97 -1.76
6.18 4.69 -1.79
25.96 19.7 1.71
7.42 5.63 -1.81
16.08 12.2 1.77
9.4 7.13 -1.87
12.78 9.7 -1.97
5.25 3.96 -1.76
26.01 19.6 0.57
6.19 4.67 -1.79
26.03 19.61 1.71
7.45 5.62 -1.81
16.09 12.13 1.76
9.42 7.1 -1.87
12.8 9.65 -1.97
5.27 3.94 -1.76
25.89 19.37 0.56
6.19 4.63 -1.78
7.47 5.59 -1.81
16.07 12.02 1.76
9.44 7.07 -1.87
12.82 9.59 -1.97
5.27 3.92 -1.76
6.2 4.6 -1.78
25.68 19.07 1.68
7.47 5.55 -1.81
16.13 11.98 1.76
9.46 7.02 -1.87
12.84 9.53 -1.96
5.29 3.9 -1.76
6.21 4.58 -1.78
7.48 5.51 -1.81
9.48 6.99 -1.87
12.85 9.47 -1.96
5.29 3.87 -1.76
6.22 4.55 -1.78
15.98 11.69 1.04
7.5 5.49 -1.81
26.56 19.44 2.88
9.5 6.95 -1.86
12.87 9.42 -1.96
5.31 3.86 -1.76
6.23 4.53 -1.78
26.44 19.21 1.71
7.52 5.46 -1.81
16.17 11.75 1.75
9.51 6.91 -1.86
11.16 8.11 -1.69
11.07 8.04 -1.2
5.33 3.84 -1.76
6.24 4.5 -1.78
16.23 11.71 1.05
7.53 5.43 -1.81
16.18 11.67 1.75
9.53 6.87 -1.86
11.19 8.07 -1.69
11.11 8.01 -1.2
5.35 3.83 -1.76
28.08 20.1 0.6
6.27 4.49 -1.78
7.55 5.41 -1.81
16.26 11.64 1.75
9.55 6.84 -1.86
16.39 11.73 2.47
11.06 7.92 -1.67
11.21 8.02 -1.21
5.35 3.81 -1.76
6.28 4.46 -1.78
7.55 5.37 -1.8
9.57 6.8 -1.86
16.43 11.68 2.48
11.04 7.85 -1.66
11.28 8.02 -1.21
5.36 3.78 -1.76
6.29 4.44 -1.78
7.57 5.35 -1.8
16.91 11.94 1.81
9.59 6.77 -1.86
16.07 11.34 2.42
11.07 7.81 -1.66
11.31 7.98 -1.21
5.36 3.76 -1.75
6.3 4.42 -1.78
7.59 5.31 -1.8
16.96 11.88 1.81
9.6 6.73 -1.86
16.27 11.4 2.44
11.2 7.84 -1.68
11.13 7.8 -1.19
5.38 3.74 -1.76
6.31 4.39 -1.78
7.61 5.29 -1.8
16.98 11.8 1.81
9.62 6.69 -1.86
17.91 12.45 2.68
11.06 7.69 -1.65
11.1 7.72 -1.18
5.4 3.73 -1.76
6.32 4.36 -1.77
17.35 11.97 1.1
7.62 5.26 -1.8
16.99 11.73 1.81
9.64 6.65 -1.85
17.05 11.77 2.54
11.08 7.65 -1.65
11.09 7.66 -1.18
5.41 3.71 -1.76
6.34 4.34 -1.77
17.37 11.9 1.1
7.63 5.22 -1.8
16.99 11.64 1.8
9.66 6.61 -1.85
16.63 11.39 2.48
16.69 11.43 3.2
11.11 7.61 -1.18
16.02 10.98 4.48
5.41 3.68 -1.75
6.35 4.32 -1.77
17.38 11.81 1.1
7.64 5.19 -1.8
16.63 11.31 1.76
9.67 6.58 -1.85
11.08 7.53 -1.65
16.84 11.45 3.23
11.11 7.55 -1.18
16.12 10.96 4.5
5.42 3.66 -1.75
6.37 4.3 -1.77
7.66 5.17 -1.8
17.01 11.48 1.8
9.68 6.53 -1.85
11.08 7.48 -1.64
16.95 11.44 3.24
11.15 7.53 -1.18
16.86 11.38 3.95
16.21 10.94 4.51
5.44 3.64 -1.75
6.37 4.27 -1.77
7.67 5.14 -1.8
17.05 11.42 1.8
9.69 6.49 -1.85
17.95 12.02 2.65
11.08 7.42 -1.64
16.99 11.38 3.24
11.23 7.52 -1.18
16.99 11.38 3.97
16.37 10.97 4.55
5.45 3.62 -1.75
6.38 4.24 -1.77
7.69 5.11 -1.8
16.75 11.13 1.76
9.7 6.45 -1.85
11.1 7.38 -1.64
11.39 7.57 -1.2
16.99 11.29 3.97
5.46 3.6 -1.75
6.4 4.22 -1.77
16.74 11.04 1.05
7.7 5.08 -1.79
9.72 6.41 -1.84
17.9 11.81 2.63
11.11 7.33 -1.63
16.95 11.18 3.22
11.13 7.34 -1.17
16.9 11.15 3.94
5.47 3.58 -1.75
6.42 4.2 -1.77
16.76 10.97 1.05
7.71 5.05 -1.79
18.11 11.86 1.89
9.74 6.37 -1.84
18.03 11.8 2.65
11.14 7.29 -1.63
17.08 11.18 3.23
11.13 7.29 -1.16
16.91 11.07 3.93
5.47 3.56 -1.75
6.43 4.18 -1.77
16.82 10.93 1.05
7.73 5.02 -1.79
16.15 10.5 1.69
9.74 6.33 -1.84
11.24 7.31 -1.65
18.07 11.74 3.41
11.14 7.24 -1.16
16.53 10.74 3.83
16.98 11.03 4.67
5.49 3.54 -1.75
6.43 4.15 -1.77
7.75 5 -1.79
9.76 6.3 -1.84
13.11 8.45 -1.92
11.14 7.19 -1.16
16.91 10.91 4.65
16.82 10.85 5.36
5.5 3.52 -1.75
6.45 4.13 -1.77
7.77 4.97 -1.79
16.89 10.81 1.75
9.77 6.26 -1.84
13.13 8.4 -1.91
11.15 7.14 -1.16
16.86 10.79 4.62
5.52 3.51 -1.75
6.47 4.11 -1.77
17.02 10.81 1.06
7.77 4.94 -1.79
17.95 11.4 1.86
9.79 6.22 -1.84
18.22 11.57 2.65
13.13 8.34 -1.91
11.15 7.09 -1.16
16.54 10.51 4.52
5.52 3.48 -1.75
6.48 4.08 -1.77
17.37 10.95 1.08
7.8 4.92 -1.79
17.33 10.92 1.79
9.8 6.18 -1.83
18.21 11.47 2.64
13.14 8.28 -1.91
11.14 7.02 -1.15
11.23 7.08 -0.7
17.11 10.78 5.42
5.53 3.46 -1.75
6.5 4.06 -1.77
17.41 10.89 1.08
7.81 4.88 -1.79
17.2 10.76 1.77
9.81 6.13 -1.83
18.24 11.41 2.64
13.1 8.19 -1.9
11.16 6.98 -1.15
11.23 7.02 -0.69
16.97 10.62 4.62
17.08 10.68 5.4
5.54 3.44 -1.75
6.49 4.03 -1.76
17.58 10.91 1.08
7.82 4.85 -1.79
17.94 11.13 1.85
9.82 6.09 -1.83
18.34 11.38 2.65
12.75 7.91 -1.84
18.33 11.37 3.42
11.18 6.94 -1.15
11.25 6.98 -0.69
16.15 10.02 5.09
5.56 3.42 -1.75
6.51 4.01 -1.76
17.16 10.57 1.06
7.82 4.81 -1.78
9.84 6.06 -1.83
15.74 9.69 2.27
12.73 7.84 -1.84
17.88 11.01 3.33
11.2 6.9 -1.15
16.78 10.33 3.83
11.27 6.94 -0.69
16.48 10.15 4.47
16.28 10.02 5.12
5.57 3.4 -1.75
6.53 3.99 -1.77
18.02 11.01 1.11
7.83 4.78 -1.78
9.84 6.01 -1.83
12.75 7.79 -1.83
18.19 11.11 3.38
11.23 6.86 -1.15
17.26 10.54 3.93
11.29 6.9 -0.69
16.78 10.25 4.54
16.3 9.96 5.12
5.57 3.38 -1.75
6.55 3.97 -1.77
18 10.91 1.1
7.84 4.75 -1.78
17.66 10.7 1.81
9.88 5.99 -1.83
18.16 11.01 2.61
12.75 7.73 -1.83
16.02 9.71 2.97
11.23 6.81 -1.15
17.03 10.32 3.87
11.35 6.88 -0.7
16.84 10.21 4.55
16.33 9.9 5.12
5.59 3.36 -1.75
6.57 3.95 -1.77
24.02 14.44 1.47
7.85 4.72 -1.78
17.76 10.68 1.81
9.88 5.94 -1.83
18.19 10.94 2.61
12.77 7.68 -1.83
16.47 9.91 3.04
15.95 9.59 3.62
5.6 3.34 -1.75
6.57 3.92 -1.77
24.21 14.45 1.48
7.87 4.7 -1.78
17.91 10.69 1.82
9.91 5.91 -1.83
17.73 10.58 2.53
12.78 7.63 -1.83
16.3 9.73 3.01
16.03 9.57 3.63
11.49 6.85 -0.7
16.87 10.07 4.54
5.61 3.32 -1.75
6.57 3.89 -1.76
24.24 14.35 1.48
7.88 4.67 -1.78
18.06 10.69 1.84
9.9 5.86 -1.82
17.75 10.51 2.53
12.79 7.57 -1.82
16.29 9.64 3
16.06 9.51 3.63
16.89 10 4.53
5.62 3.3 -1.75
23.12 13.58 0.47
6.59 3.87 -1.77
7.88 4.63 -1.78
9.93 5.84 -1.82
17.44 10.24 2.48
12.86 7.55 -1.83
17.73 10.42 3.26
17.35 10.19 3.91
16.42 9.65 4.4
17.04 10.01 5.3
5.63 3.28 -1.74
17.42 10.15 0.35
6.61 3.86 -1.77
7.9 4.6 -1.78
16.45 9.59 1.67
9.95 5.8 -1.82
17.44 10.17 2.48
13.28 7.74 -1.89
17.68 10.31 3.24
11.73 6.84 -0.71
17.3 10.09 5.37
5.64 3.26 -1.74
17.37 10.05 0.35
6.61 3.83 -1.76
17.43 10.08 1.06
7.91 4.58 -1.78
16.48 9.53 1.67
9.95 5.76 -1.82
17.47 10.11 2.48
13.28 7.68 -1.88
17.49 10.12 3.2
17.31 10.01 3.89
11.75 6.8 -0.71
17.12 9.9 4.57
16.33 9.45 5.06
5.65 3.24 -1.74
17.42 9.99 0.35
6.63 3.8 -1.76
17.47 10.02 1.06
7.92 4.54 -1.78
16.53 9.48 1.67
9.96 5.71 -1.82
17.65 10.12 2.5
13.31 7.63 -1.88
18.65 10.69 3.4
11.82 6.78 -0.71
17.16 9.84 4.57
17.42 9.99 -0.35
16.99 9.74 5.25
5.67 3.23 -1.75
23.79 13.53 0.48
6.63 3.77 -1.76
17.12 9.74 1.03
7.94 4.52 -1.77
16.09 9.15 1.62
9.95 5.66 -1.81
17.92 10.2 2.53
13.3 7.57 -1.88
16.71 9.51 3.05
11.87 6.75 -1.19
11.91 6.77 -0.72
17.38 9.89 4.62
17.49 9.95 -0.35
17.06 9.7 5.26
5.66 3.2 -1.74
6.65 3.75 -1.76
7.94 4.48 -1.77
19.23 10.86 1.93
9.99 5.64 -1.82
16.75 9.46 2.36
13.31 7.52 -1.88
16.69 9.43 3.04
12.02 6.78 -1.21
12.01 6.78 -0.72
24.28 13.71 -0.49
5.67 3.18 -1.74
6.67 3.73 -1.76
16.8 9.41 1.01
7.95 4.46 -1.77
16.57 9.28 1.66
9.99 5.6 -1.81
17.17 9.62 2.42
13.32 7.46 -1.88
16.78 9.4 3.05
12.12 6.79 -1.22
12.07 6.76 -0.72
5.69 3.16 -1.74
6.68 3.71 -1.76
17.62 9.78 1.06
7.97 4.42 -1.77
16.54 9.18 1.65
9.97 5.54 -1.81
17.36 9.63 2.44
13.34 7.4 -1.87
12.24 6.79 -1.22
16.44 9.12 3.65
12.21 6.78 -0.73
16.95 9.41 4.48
23.79 13.21 -0.48
5.7 3.14 -1.74
6.68 3.68 -1.76
7.97 4.39 -1.77
10 5.5 -1.81
13.36 7.35 -1.87
12.28 6.76 -1.23
12.36 6.8 -0.74
23.86 13.14 -0.48
5.72 3.12 -1.74
24.23 13.23 0.48
6.69 3.65 -1.76
18.75 10.24 1.12
7.99 4.36 -1.77
18.99 10.37 1.89
9.97 5.45 -1.8
16.36 8.93 2.29
13.37 7.3 -1.87
16.55 9.03 2.99
12.35 6.74 -1.23
12.5 6.82 -0.75
17.28 9.43 4.54
23.81 13 -0.47
5.72 3.1 -1.74
24.15 13.08 0.48
6.71 3.63 -1.76
7.99 4.33 -1.77
17.72 9.59 1.76
9.98 5.41 -1.8
13.37 7.24 -1.87
16.54 8.95 2.98
12.41 6.72 -1.23
12.78 6.92 -0.76
5.73 3.08 -1.74
6.72 3.61 -1.76
8.01 4.3 -1.77
19.61 10.53 1.95
9.98 5.36 -1.79
13.39 7.19 -1.87
17.98 9.66 3.23
12.52 6.73 -1.24
17.23 9.26 3.8
5.74 3.06 -1.74
6.72 3.58 -1.76
8.03 4.28 -1.77
18.52 9.87 1.84
9.99 5.32 -1.79
13.4 7.14 -1.86
17.23 9.18 3.09
21.08 11.23 -2.09
16.3 8.69 3.59
5.76 3.04 -1.74
6.73 3.55 -1.76
8.03 4.24 -1.77
18.45 9.74 1.83
10 5.28 -1.79
16.32 8.62 2.27
13.41 7.08 -1.86
16.56 8.75 2.97
21.08 11.13 -2.09
16.38 8.65 3.6
17.7 9.35 4.62
5.76 3.02 -1.74
6.73 3.53 -1.75
8.04 4.21 -1.76
10 5.24 -1.79
16.3 8.54 2.26
13.38 7.01 -1.86
16.47 8.63 2.95
21.05 11.02 -2.08
5.78 3 -1.74
6.75 3.5 -1.76
18.94 9.83 1.12
8.05 4.18 -1.76
19.11 9.92 1.88
10.01 5.2 -1.79
16.34 8.48 2.26
13.41 6.96 -1.85
16.66 8.65 2.97
21.04 10.92 -2.07
5.78 2.98 -1.74
6.76 3.48 -1.76
8.05 4.15 -1.76
17.73 9.13 1.74
10.01 5.16 -1.78
17.95 9.24 2.48
13.41 6.91 -1.85
16.42 8.45 2.92
21 10.82 -2.07
5.79 2.96 -1.74
6.77 3.46 -1.76
17.73 9.05 1.04
8.07 4.12 -1.76
17.88 9.13 1.76
10.01 5.11 -1.78
17.93 9.15 2.47
13.43 6.86 -1.85
16.86 8.61 3
20.98 10.71 -2.06
5.8 2.94 -1.74
6.78 3.43 -1.75
8.08 4.09 -1.76
17.75 8.99 1.74
10.01 5.07 -1.78
18.23 9.23 2.51
13.42 6.79 -1.85
17.35 8.79 3.08
20.98 10.62 -2.06
5.81 2.91 -1.74
41.79 20.97 0.82
6.78 3.4 -1.75
17.89 8.98 1.05
8.09 4.06 -1.76
16.91 8.48 1.65
10.02 5.03 -1.77
18.23 9.15 2.5
13.42 6.73 -1.84
17.33 8.7 3.07
20.96 10.52 -2.05
41.83 20.99 -0.82
5.82 2.9 -1.74
6.8 3.38 -1.75
8.08 4.02 -1.75
16.94 8.43 1.66
10.03 4.99 -1.77
18.61 9.26 2.55
13.45 6.69 -1.84
17.34 8.63 3.07
20.92 10.41 -2.04
17.39 8.65 3.77
41.98 20.89 -2.46
5.83 2.87 -1.74
6.8 3.36 -1.75
8.11 4 -1.76
18.69 9.22 1.82
10.04 4.95 -1.77
18.59 9.17 2.54
13.46 6.64 -1.84
20.91 10.31 -2.04
17.4 8.58 3.77
5.84 2.86 -1.74
6.81 3.33 -1.75
8.12 3.97 -1.76
17.26 8.44 1.68
10.04 4.91 -1.77
13.47 6.59 -1.84
17.4 8.51 3.07
20.87 10.21 -2.03
17.47 8.54 3.78
24.2 11.84 -1.41
5.85 2.83 -1.74
6.83 3.31 -1.75
8.12 3.94 -1.75
18.85 9.14 1.83
10.05 4.87 -1.77
17.95 8.7 2.45
13.47 6.53 -1.84
20.86 10.11 -2.03
5.86 2.82 -1.74
39.08 18.78 0.76
6.83 3.28 -1.75
8.14 3.91 -1.76
17.94 8.62 1.74
10.06 4.83 -1.77
17.9 8.6 2.44
13.48 6.48 -1.84
20.83 10.01 -2.02
39.21 18.84 -2.28
39.12 18.8 -0.76
5.87 2.79 -1.74
38.56 18.36 0.75
6.84 3.26 -1.75
8.13 3.87 -1.75
16.77 7.98 1.62
10.07 4.8 -1.77
13.47 6.42 -1.83
20.82 9.91 -2.02
39.06 18.6 -2.27
5.86 2.77 -1.74
38.01 17.94 0.73
6.85 3.23 -1.75
8.15 3.84 -1.75
18.05 8.52 1.75
10.07 4.75 -1.76
13.48 6.36 -1.83
20.8 9.81 -2.01
38.53 18.19 -2.23
5.87 2.75 -1.74
37.51 17.55 0.72
6.86 3.21 -1.75
8.18 3.83 -1.76
18.09 8.46 1.75
10.07 4.71 -1.76
52.48 24.55 7.11
13.52 6.32 -1.83
20.77 9.72 -2.01
38.01 17.78 -2.2
37.64 17.61 -0.73
5.89 2.73 -1.74
36.99 17.15 0.71
6.86 3.18 -1.75
8.18 3.79 -1.75
10.08 4.67 -1.76
13.52 6.27 -1.83
18.23 8.45 3.18
20.78 9.63 -2
37.54 17.4 -2.17
37.57 17.42 -0.72
5.9 2.71 -1.74
36.5 16.76 0.7
6.87 3.16 -1.75
8.19 3.76 -1.75
10.09 4.64 -1.76
13.5 6.2 -1.82
18.21 8.36 3.17
20.76 9.54 -2
37.61 17.28 -2.17
37.66 17.3 -0.72
5.91 2.69 -1.74
36.05 16.41 0.69
6.88 3.13 -1.75
45.28 20.61 2.61
8.18 3.72 -1.75
50.98 23.21 4.9
10.11 4.6 -1.76
50.6 23.03 6.83
13.51 6.15 -1.82
18.24 8.3 3.17
20.74 9.44 -1.99
37.7 17.16 -2.17
37.74 17.18 -0.72
5.9 2.66 -1.73
35.59 16.04 0.68
6.9 3.11 -1.75
8.19 3.69 -1.75
10.1 4.55 -1.76
49.93 22.5 6.72
13.52 6.09 -1.82
49.65 22.37 8.62
20.71 9.34 -1.99
48.79 21.99 10.4
37.81 17.04 -2.17
37.87 17.07 -0.73
5.91 2.64 -1.73
35.12 15.69 0.67
6.9 3.08 -1.75
8.22 3.67 -1.75
10.1 4.51 -1.75
49.29 22.01 6.63
13.57 6.06 -1.82
49 21.88 8.5
20.71 9.25 -1.98
48.68 21.74 10.36
37.9 16.93 -2.18
37.94 16.94 -0.73
5.93 2.62 -1.74
34.68 15.34 0.66
6.9 3.05 -1.74
8.24 3.65 -1.75
49.05 21.69 4.69
10.12 4.48 -1.75
49.15 21.74 6.6
13.55 5.99 -1.82
48.45 21.43 8.39
20.69 9.15 -1.98
35.1 15.52 -2.01
34.8 15.39 -0.66
5.94 2.6 -1.74
34.28 15.02 0.65
6.91 3.03 -1.74
8.23 3.61 -1.75
10.12 4.43 -1.75
48.04 21.05 6.44
13.55 5.94 -1.82
47.84 20.96 8.27
20.66 9.05 -1.97
34.65 15.19 -1.98
34.42 15.08 -0.66
5.93 2.58 -1.73
33.84 14.69 0.64
6.92 3.01 -1.74
33.63 14.6 1.92
8.23 3.57 -1.74
47.91 20.8 4.57
10.13 4.4 -1.75
47.54 20.64 6.36
13.57 5.89 -1.82
47.29 20.53 8.17
20.66 8.97 -1.97
34.26 14.87 -1.96
34 14.76 -0.65
5.94 2.55 -1.73
33.47 14.4 0.64
6.94 2.99 -1.74
33.25 14.3 1.9
8.22 3.54 -1.74
47.37 20.37 4.51
10.14 4.36 -1.75
47.03 20.23 6.29
13.58 5.84 -1.81
46.71 20.09 8.05
20.63 8.87 -1.96
33.84 14.55 -1.93
33.59 14.45 -0.64
5.95 2.53 -1.73
33.06 14.08 0.63
6.94 2.96 -1.74
32.86 13.99 1.87
8.26 3.52 -1.75
46.82 19.94 4.45
10.14 4.32 -1.75
46.43 19.78 6.2
13.58 5.79 -1.81
46.2 19.68 7.95
20.6 8.77 -1.96
33.46 14.25 -1.91
33.22 14.15 -0.63
5.96 2.51 -1.73
32.69 13.79 0.62
6.94 2.93 -1.74
32.5 13.71 1.85
8.27 3.49 -1.74
46.34 19.55 4.4
10.14 4.28 -1.74
46.2 19.49 6.16
13.6 5.74 -1.81
46.19 19.49 7.94
20.59 8.69 -1.95
23.91 10.09 -1.36
32.84 13.86 -0.62
5.97 2.49 -1.73
32.29 13.5 0.61
6.95 2.9 -1.74
32.16 13.44 1.83
8.27 3.46 -1.74
45.81 19.14 4.34
10.15 4.24 -1.74
13.61 5.69 -1.81
20.56 8.59 -1.95
23.88 9.98 -1.36
32.46 13.57 -0.61
5.97 2.47 -1.73
24.38 10.09 0.46
6.96 2.88 -1.74
32.21 13.33 1.83
8.28 3.43 -1.74
45.32 18.76 4.29
10.15 4.2 -1.74
44.95 18.61 5.97
13.58 5.62 -1.8
44.25 18.32 7.59
20.54 8.5 -1.95
32.31 13.37 -1.83
24.45 10.12 -0.46
5.97 2.45 -1.73
32.27 13.22 0.61
6.98 2.86 -1.74
32.29 13.23 1.83
8.27 3.39 -1.74
44.81 18.36 4.24
10.17 4.17 -1.74
44.46 18.21 5.9
13.61 5.58 -1.81
44.32 18.16 7.59
20.48 8.39 -1.94
24.42 10 -1.38
32.3 13.24 -0.61
5.99 2.43 -1.73
32.34 13.12 0.61
6.98 2.83 -1.74
32.37 13.13 1.83
8.28 3.36 -1.74
44.35 17.99 4.19
10.16 4.12 -1.74
43.95 17.83 5.82
13.61 5.52 -1.8
44.43 18.03 7.59
20.49 8.31 -1.93
32.32 13.11 -1.83
32.35 13.13 -0.61
6 2.41 -1.73
32.41 13.02 0.61
6.99 2.81 -1.74
32.44 13.03 1.83
8.28 3.33 -1.73
43.9 17.63 4.14
10.17 4.08 -1.74
43.48 17.46 5.75
13.61 5.47 -1.8
44.55 17.89 7.6
20.47 8.22 -1.93
32.39 13.01 -1.83
32.44 13.03 -0.61
6.01 2.39 -1.73
32.49 12.92 0.61
6.99 2.78 -1.74
32.51 12.93 1.83
8.29 3.3 -1.73
43.43 17.27 4.09
10.18 4.05 -1.74
43.03 17.11 5.69
13.59 5.4 -1.8
44.67 17.76 7.61
20.44 8.13 -1.92
48.27 19.19 10.1
32.48 12.91 -1.83
32.51 12.93 -0.61
6.01 2.36 -1.73
32.57 12.82 0.61
7.01 2.76 -1.74
32.6 12.83 1.84
8.29 3.26 -1.73
42.97 16.91 4.04
10.19 4.01 -1.73
13.6 5.35 -1.79
44.77 17.62 7.62
20.41 8.03 -1.92
32.56 12.81 -1.83
32.58 12.82 -0.61
6.02 2.34 -1.73
32.65 12.72 0.61
7.01 2.73 -1.74
32.67 12.73 1.84
8.31 3.24 -1.73
42.54 16.57 3.99
10.2 3.97 -1.73
13.61 5.3 -1.79
44.88 17.48 7.63
20.4 7.95 -1.92
32.63 12.71 -1.84
32.66 12.72 -0.61
6.02 2.32 -1.73
32.73 12.61 0.61
7.02 2.71 -1.74
32.75 12.62 1.84
8.32 3.21 -1.73
42.55 16.4 3.99
10.2 3.93 -1.73
13.65 5.26 -1.8
44.98 17.34 7.64
20.38 7.85 -1.91
32.71 12.61 -1.84
32.76 12.63 -0.61
6.03 2.3 -1.73
32.8 12.52 0.61
7.02 2.68 -1.74
32.83 12.52 1.84
8.32 3.17 -1.73
42.67 16.28 4
10.21 3.9 -1.73
13.63 5.2 -1.79
45.1 17.21 7.64
20.34 7.76 -1.9
32.78 12.51 -1.84
32.82 12.52 -0.61
6.04 2.28 -1.73
32.88 12.41 0.61
7.02 2.65 -1.73
32.89 12.42 1.84
8.32 3.14 -1.73
42.78 16.15 4
10.23 3.86 -1.73
13.63 5.14 -1.79
45.24 17.08 7.66
20.33 7.67 -1.9
32.86 12.4 -1.84
32.9 12.42 -0.61
6.04 2.26 -1.73
32.96 12.31 0.61
7.04 2.63 -1.73
32.98 12.32 1.85
8.32 3.11 -1.73
42.87 16.02 4
10.23 3.82 -1.73
13.64 5.09 -1.79
45.32 16.93 7.66
20.3 7.58 -1.9
32.95 12.31 -1.84
32.97 12.32 -0.61
6.05 2.23 -1.73
33.04 12.21 0.61
7.06 2.61 -1.74
33.07 12.22 1.85
8.33 3.08 -1.73
42.96 15.88 4.01
10.24 3.78 -1.73
13.64 5.04 -1.79
45.43 16.79 7.67
20.27 7.49 -1.89
33.13 12.24 -1.85
6.05 2.21 -1.73
33.11 12.11 0.62
7.06 2.58 -1.74
33.14 12.12 1.85
8.35 3.05 -1.73
43.07 15.75 4.01
10.23 3.74 -1.73
13.63 4.98 -1.78
45.56 16.66 7.68
20.25 7.4 -1.89
6.06 2.19 -1.73
33.18 12.01 0.62
7.06 2.56 -1.73
33.21 12.02 1.85
8.35 3.02 -1.73
43.17 15.63 4.02
10.24 3.71 -1.72
13.64 4.94 -1.78
45.64 16.52 7.69
20.23 7.32 -1.88
39.88 14.44 -2.22
6.07 2.17 -1.73
33.26 11.91 0.62
7.06 2.53 -1.73
33.28 11.92 1.85
8.35 2.99 -1.72
43.27 15.5 4.02
10.25 3.67 -1.72
13.63 4.88 -1.78
45.74 16.38 7.69
20.2 7.24 -1.88
40.02 14.33 -2.23
6.08 2.15 -1.73
33.34 11.79 0.62
7.08 2.51 -1.73
33.37 11.8 1.86
8.35 2.95 -1.72
43.38 15.35 4.03
10.27 3.63 -1.72
13.63 4.82 -1.77
45.85 16.22 7.7
20.2 7.15 -1.87
40.08 14.18 -2.23
6.08 2.13 -1.73
33.42 11.69 0.62
7.09 2.48 -1.73
33.46 11.71 1.86
8.36 2.92 -1.72
43.46 15.21 4.03
10.26 3.59 -1.72
13.63 4.77 -1.77
45.97 16.08 7.71
20.15 7.05 -1.87
40.12 14.04 -2.23
6.09 2.11 -1.73
33.5 11.59 0.62
7.1 2.46 -1.73
33.53 11.6 1.86
8.36 2.89 -1.72
43.58 15.08 4.03
10.26 3.55 -1.72
13.64 4.72 -1.77
46.07 15.94 7.72
20.13 6.97 -1.86
6.1 2.09 -1.73
33.58 11.49 0.62
7.09 2.43 -1.73
33.61 11.5 1.86
8.37 2.86 -1.72
43.69 14.95 4.04
10.29 3.52 -1.72
13.65 4.67 -1.77
46.16 15.8 7.73
20.11 6.88 -1.86
23.49 8.04 -1.3
6.11 2.07 -1.73
33.67 11.39 0.62
7.12 2.41 -1.74
33.68 11.39 1.86
8.38 2.83 -1.72
43.77 14.81 4.04
10.29 3.48 -1.72
13.64 4.61 -1.77
46.3 15.66 7.74
20.07 6.79 -1.85
6.12 2.05 -1.73
33.75 11.29 0.62
7.12 2.38 -1.73
33.77 11.29 1.87
8.37 2.8 -1.72
43.88 14.67 4.05
10.31 3.45 -1.72
13.63 4.56 -1.76
46.4 15.52 7.75
20.05 6.7 -1.85
6.13 2.03 -1.73
33.82 11.18 0.62
7.11 2.35 -1.73
33.85 11.19 1.87
8.38 2.77 -1.72
44 14.54 4.05
10.31 3.41 -1.72
13.65 4.51 -1.77
46.49 15.36 7.75
20.01 6.62 -1.84
50.25 16.61 10.29
6.13 2 -1.73
33.89 11.07 0.62
7.13 2.33 -1.73
33.92 11.08 1.87
8.39 2.74 -1.72
44.09 14.4 4.06
10.31 3.37 -1.72
13.66 4.46 -1.76
46.61 15.23 7.77
20.01 6.54 -1.84
50.37 16.46 10.3
6.13 1.98 -1.73
33.97 10.97 0.62
7.12 2.3 -1.73
34 10.98 1.87
8.39 2.71 -1.71
10.31 3.33 -1.72
13.63 4.4 -1.76
46.75 15.1 7.78
19.98 6.45 -1.84
50.55 16.33 10.33
6.14 1.96 -1.73
34.06 10.87 0.62
7.12 2.27 -1.73
34.08 10.88 1.87
8.4 2.68 -1.71
10.31 3.29 -1.71
13.63 4.35 -1.76
46.85 14.95 7.79
19.96 6.37 -1.83
50.61 16.15 10.33
6.15 1.94 -1.73
34.15 10.77 0.62
7.13 2.25 -1.73
34.16 10.77 1.88
8.39 2.65 -1.71
10.33 3.26 -1.72
13.64 4.3 -1.76
