# .PCD v0.7 - Point Cloud Data file format
VERSION 0.7
FIELDS x y z
SIZE 4 4 4
TYPE F F F
COUNT 1 1 1
WIDTH 2949
HEIGHT 1
VIEWPOINT 0 0 0 1 0 0 0
POINTS 2949
DATA ascii
-3.82 18.57 2.33
-3.33 16.2 -2.03
-3.83 18.62 3.01
-3.81 18.52 -1.65
-3.83 18.62 3.7
-3.81 18.51 -0.99
-3.84 18.66 4.4
-3.81 18.55 -0.33
-3.83 18.62 5.09
-3.73 18.49 0.33
-1.72 8.55 -2.01
-3.74 18.51 0.99
-1.99 9.84 -1.95
-3.74 18.54 1.65
-2.47 12.25 -1.98
-3.74 18.52 2.32
-3.27 16.21 -2.03
-3.75 18.59 3
-3.73 18.47 -1.65
-3.74 18.55 3.68
-3.73 18.48 -0.99
-3.76 18.62 4.39
-3.73 18.5 -0.33
-3.75 18.59 5.08
-3.66 18.44 0.33
-1.69 8.53 -2.01
-3.66 18.47 0.99
-1.93 9.75 -1.93
-3.67 18.5 1.65
-2.43 12.26 -1.98
-3.67 18.49 2.31
-3.22 16.22 -2.03
-3.67 18.53 2.99
-3.65 18.42 -1.64
-3.67 18.53 3.67
-3.65 18.42 -0.98
-3.68 18.57 4.37
-3.66 18.46 -0.33
-3.68 18.56 5.07
-3.58 18.4 0.33
-1.66 8.52 -2
-3.58 18.42 0.98
-1.9 9.76 -1.93
-3.59 18.47 1.65
-2.39 12.26 -1.98
-3.59 18.44 2.31
-3.15 16.21 -2.03
-3.6 18.49 2.98
-3.58 18.39 -1.64
-3.6 18.5 3.66
-3.58 18.38 -0.98
-3.61 18.54 4.36
-3.59 18.43 -0.33
-3.61 18.53 5.06
-3.51 18.37 0.33
-1.63 8.53 -2
-3.51 18.4 0.98
-1.86 9.76 -1.93
-3.52 18.42 1.64
-2.34 12.27 -1.98
-3.52 18.41 2.3
-3.1 16.22 -2.03
-3.53 18.46 2.98
-3.51 18.36 -1.64
-3.53 18.46 3.65
-3.51 18.36 -0.98
-3.54 18.51 4.35
-3.51 18.39 -0.33
-3.54 18.51 5.05
-3.44 18.35 0.33
-1.59 8.48 -1.99
-3.44 18.37 0.98
-1.84 9.8 -1.94
-3.44 18.38 1.64
-2.3 12.28 -1.98
-3.45 18.4 2.3
-3.04 16.23 -2.03
-3.45 18.43 2.97
-3.43 18.33 -1.63
-3.45 18.43 3.65
-3.43 18.34 -0.98
-3.47 18.5 4.34
-3.44 18.37 -0.33
-3.46 18.46 5.03
-3.37 18.31 0.32
-1.56 8.47 -1.99
-3.37 18.35 0.98
-1.81 9.87 -1.95
-3.38 18.37 1.63
-2.26 12.28 -1.98
-3.38 18.37 2.29
-2.98 16.24 -2.03
-3.38 18.4 2.96
-3.37 18.31 -1.63
-3.38 18.41 3.64
-3.37 18.31 -0.98
-3.39 18.47 4.34
-3.37 18.34 -0.33
-3.39 18.46 5.03
-3.29 18.29 0.32
-1.52 8.46 -1.98
-3.3 18.33 0.98
-1.78 9.89 -1.95
-3.31 18.37 1.63
-2.21 12.28 -1.98
-3.3 18.35 2.29
-2.93 16.24 -2.03
-3.31 18.39 2.96
-3.29 18.29 -1.63
-3.31 18.4 3.63
-3.29 18.29 -0.97
-3.32 18.45 4.33
-3.3 18.32 -0.32
-3.32 18.46 5.02
-3.23 18.28 0.32
-1.51 8.53 -2
-3.23 18.3 0.97
-1.75 9.93 -1.96
-3.24 18.34 1.63
-2.17 12.28 -1.98
-3.24 18.34 2.29
-2.87 16.24 -2.03
-3.24 18.37 2.95
-3.23 18.28 -1.62
-3.25 18.38 3.63
-3.22 18.26 -0.97
-3.25 18.42 4.32
-3.23 18.3 -0.32
-3.26 18.45 5.02
-3.16 18.27 0.32
-1.48 8.57 -2.01
-3.16 18.29 0.97
-1.72 9.96 -1.97
-3.17 18.34 1.63
-2.13 12.3 -1.98
-3.17 18.33 2.28
-2.81 16.25 -2.02
-3.17 18.36 2.95
-3.16 18.26 -1.62
-3.18 18.38 3.63
-3.16 18.25 -0.97
-3.18 18.42 4.32
-3.16 18.28 -0.32
-3.19 18.43 5.01
-3.09 18.26 0.32
-1.45 8.55 -2
-3.1 18.29 0.97
-1.69 9.95 -1.96
-3.1 18.31 1.62
-2.08 12.3 -1.98
-3.1 18.32 2.28
-2.75 16.26 -2.02
-3.11 18.35 2.95
-3.09 18.25 -1.62
-3.11 18.37 3.62
-3.09 18.24 -0.97
-3.12 18.41 4.31
-3.1 18.27 -0.32
-3.12 18.41 5
-3.03 18.24 0.32
-1.42 8.55 -2
-3.03 18.27 0.97
-1.66 9.98 -1.97
-3.04 18.31 1.62
-2.04 12.29 -1.97
-3.04 18.31 2.28
-2.7 16.26 -2.02
-3.04 18.35 2.95
-3.03 18.24 -1.62
-3.05 18.35 3.62
-3.03 18.24 -0.97
-3.06 18.42 4.31
-3.03 18.28 -0.32
-3.05 18.41 5
-2.96 18.25 0.32
-1.39 8.54 -2
-2.97 18.27 0.97
-1.63 10.02 -1.97
-2.97 18.31 1.62
-2 12.3 -1.97
-2.97 18.3 2.28
-2.64 16.26 -2.02
-2.98 18.35 2.94
-2.96 18.23 -1.62
-2.98 18.35 3.61
-2.96 18.23 -0.97
-2.99 18.41 4.31
-2.97 18.27 -0.32
-2.99 18.42 5
-2.9 18.25 0.32
-1.36 8.55 -2
-2.9 18.26 0.97
-1.6 10.05 -1.98
-2.91 18.31 1.62
-1.95 12.31 -1.97
-2.9 18.3 2.28
-2.58 16.26 -2.02
-2.91 18.35 2.94
-2.89 18.24 -1.62
-2.91 18.34 3.61
-2.89 18.22 -0.97
-2.92 18.42 4.31
-2.9 18.26 -0.32
-2.92 18.41 5
-2.83 18.26 0.32
-1.33 8.57 -2
-2.84 18.27 0.97
-1.56 10.02 -1.97
-2.84 18.31 1.62
-1.91 12.31 -1.97
-2.84 18.3 2.27
-2.53 16.27 -2.02
-2.85 18.34 2.94
-2.83 18.23 -1.61
-2.85 18.35 3.61
-2.83 18.23 -0.97
-2.86 18.42 4.3
-2.83 18.25 -0.32
-2.86 18.42 4.99
-2.77 18.25 0.32
-1.3 8.57 -2
-2.77 18.27 0.97
-1.51 9.96 -1.96
-2.77 18.3 1.62
-1.87 12.32 -1.97
-2.78 18.31 2.27
-2.47 16.28 -2.02
-2.78 18.35 2.94
-2.76 18.22 -1.61
-2.78 18.36 3.61
-2.77 18.24 -0.97
-2.79 18.43 4.3
-2.77 18.25 -0.32
-2.79 18.41 4.99
-2.7 18.24 0.32
-1.27 8.57 -2
-2.71 18.28 0.97
-1.48 9.99 -1.96
-2.71 18.32 1.62
-1.82 12.32 -1.97
-2.71 18.32 2.27
-2.41 16.29 -2.02
-2.72 18.35 2.94
-2.7 18.23 -1.61
-2.72 18.35 3.61
-2.7 18.26 -0.97
-2.73 18.44 4.3
-2.7 18.26 -0.32
-2.73 18.43 4.99
-2.64 18.26 0.32
-1.24 8.58 -2
-2.64 18.29 0.97
-1.44 9.97 -1.96
-2.65 18.33 1.62
-1.78 12.32 -1.97
-2.65 18.32 2.27
-2.35 16.29 -2.02
-2.65 18.38 2.94
-2.63 18.24 -1.61
-2.65 18.36 3.61
-2.64 18.26 -0.97
-2.67 18.46 4.31
-2.64 18.27 -0.32
-2.67 18.46 5
-2.58 18.28 0.32
-1.21 8.59 -2
-2.58 18.29 0.97
-1.4 9.94 -1.95
-2.59 18.34 1.62
-1.74 12.33 -1.97
-2.58 18.33 2.27
-2.3 16.29 -2.02
-2.59 18.38 2.94
-2.57 18.25 -1.61
-2.59 18.39 3.61
-2.58 18.27 -0.97
-2.6 18.45 4.3
-2.58 18.28 -0.32
-2.6 18.47 5
-2.51 18.29 0.32
-1.18 8.59 -2
-2.51 18.3 0.97
-1.35 9.85 -1.93
-2.52 18.35 1.62
-1.7 12.34 -1.97
-2.52 18.35 2.27
-2.24 16.29 -2.02
-2.53 18.39 2.94
-2.51 18.27 -1.61
-2.53 18.42 3.61
-2.51 18.28 -0.97
-2.54 18.47 4.31
-2.51 18.29 -0.32
-2.54 18.5 5
-2.45 18.3 0.32
-1.15 8.58 -2
-2.45 18.32 0.97
-1.31 9.81 -1.92
-2.46 18.36 1.62
-1.65 12.35 -1.97
-2.46 18.37 2.28
-2.18 16.3 -2.02
-2.46 18.41 2.94
-2.44 18.27 -1.61
-2.47 18.43 3.61
-2.45 18.29 -0.97
-2.47 18.5 4.31
-2.45 18.31 -0.32
-2.48 18.51 5
-2.39 18.32 0.32
-1.12 8.57 -2
-2.39 18.34 0.97
-1.28 9.81 -1.92
-2.39 18.38 1.62
-1.61 12.34 -1.97
-2.39 18.39 2.28
-2.12 16.3 -2.02
-2.4 18.44 2.95
-2.38 18.3 -1.61
-2.4 18.44 3.62
-2.39 18.32 -0.97
-2.41 18.52 4.31
-2.39 18.35 -0.32
-2.41 18.54 5.01
-2.32 18.34 0.32
-1.08 8.56 -1.99
-2.33 18.37 0.97
-1.24 9.8 -1.92
-2.33 18.41 1.62
-1.56 12.35 -1.97
-2.33 18.4 2.28
-2.07 16.31 -2.02
-2.34 18.46 2.95
-2.32 18.32 -1.62
-2.34 18.48 3.62
-2.32 18.31 -0.97
-2.35 18.54 4.31
-2.33 18.37 -0.32
-2.35 18.57 5.01
-2.27 18.37 0.32
-1.06 8.57 -1.99
-2.27 18.38 0.97
-1.21 9.8 -1.92
-2.28 18.44 1.63
-1.53 12.35 -1.97
-2.28 18.43 2.28
-2.01 16.29 -2.02
-2.28 18.49 2.95
-2.27 18.36 -1.62
-2.29 18.51 3.63
-2.27 18.35 -0.97
-2.29 18.55 4.32
-2.27 18.4 -0.32
-2.3 18.6 5.02
-2.21 18.4 0.32
-1.03 8.59 -2
-2.21 18.4 0.97
-1.18 9.82 -1.92
-2.21 18.46 1.63
-1.48 12.36 -1.97
-2.22 18.47 2.28
-1.96 16.3 -2.02
-2.22 18.51 2.95
-2.21 18.38 -1.62
-2.22 18.54 3.63
-2.2 18.37 -0.97
-2.23 18.59 4.32
-2.21 18.42 -0.32
-2.23 18.63 5.03
-2.14 18.43 0.32
-1 8.6 -2
-2.14 18.45 0.97
-1.14 9.84 -1.93
-2.15 18.48 1.63
-1.44 12.36 -1.97
-2.15 18.51 2.29
-1.9 16.31 -2.02
-2.15 18.53 2.95
-2.14 18.4 -1.62
-2.16 18.57 3.63
-2.14 18.41 -0.97
-2.17 18.64 4.33
-2.14 18.44 -0.32
-2.17 18.65 5.03
-2.08 18.45 0.32
-0.98 8.66 -2.01
-2.08 18.48 0.97
-1.12 9.9 -1.94
-2.09 18.52 1.63
-1.39 12.35 -1.97
-2.09 18.54 2.29
-1.84 16.32 -2.02
-2.09 18.57 2.96
-2.08 18.44 -1.62
-2.1 18.6 3.64
-2.08 18.46 -0.97
-2.1 18.68 4.34
-2.08 18.48 -0.32
-2.11 18.69 5.04
-2.02 18.49 0.32
-0.94 8.62 -2
-2.02 18.51 0.98
-1.08 9.89 -1.93
-2.03 18.57 1.63
-1.35 12.36 -1.97
-2.03 18.57 2.29
-1.78 16.31 -2.01
-2.04 18.63 2.97
-2.02 18.47 -1.63
-2.04 18.63 3.64
-2.02 18.48 -0.97
-2.05 18.73 4.35
-2.02 18.52 -0.33
-2.05 18.76 5.06
-1.96 18.54 0.33
-0.91 8.62 -2
-1.96 18.54 0.98
-1.04 9.84 -1.92
-1.97 18.62 1.64
-1.31 12.36 -1.97
-1.97 18.61 2.3
-1.73 16.31 -2.01
-1.97 18.66 2.97
-1.96 18.52 -1.63
-1.98 18.69 3.65
-1.96 18.53 -0.98
-1.99 18.76 4.36
-1.97 18.58 -0.33
-1.99 18.8 5.07
-1.9 18.59 0.33
-0.88 8.65 -2.01
-1.9 18.59 0.98
-1.01 9.86 -1.93
-1.9 18.65 1.64
-1.26 12.36 -1.97
-1.9 18.65 2.3
-1.67 16.31 -2.01
-1.91 18.7 2.98
-1.9 18.57 -1.63
-1.91 18.75 3.66
-1.9 18.57 -0.98
-1.92 18.81 4.37
-1.9 18.61 -0.33
-1.93 18.86 5.08
-1.84 18.63 0.33
-0.85 8.65 -2.01
-1.84 18.64 0.98
-0.97 9.85 -1.92
-1.84 18.7 1.64
-1.22 12.37 -1.97
-1.84 18.71 2.31
-1.61 16.31 -2.01
-1.85 18.75 2.98
-1.83 18.61 -1.64
-1.85 18.8 3.67
-1.83 18.61 -0.98
-1.86 18.88 4.38
-1.84 18.66 -0.33
-1.86 18.88 5.08
-1.78 18.68 0.33
-0.83 8.68 -2.01
-1.78 18.69 0.98
-0.94 9.89 -1.93
-1.78 18.74 1.65
-1.18 12.36 -1.97
-1.79 18.77 2.32
-1.55 16.32 -2.01
-1.79 18.82 2.99
-1.78 18.65 -1.64
-1.79 18.83 3.68
-1.78 18.69 -0.98
-1.8 18.94 4.39
-1.78 18.71 -0.33
-1.81 18.98 5.11
-1.72 18.73 0.33
-0.79 8.66 -2.01
-1.72 18.76 0.99
-0.9 9.85 -1.92
-1.73 18.81 1.65
-1.13 12.36 -1.97
-1.73 18.82 2.32
-1.5 16.33 -2.01
-1.73 18.88 3
-1.66 18.13 -1.59
-1.74 18.92 3.69
-1.72 18.72 -0.98
-1.74 19 4.41
-1.72 18.79 -0.33
-1.75 19.06 5.13
-1.66 18.81 0.33
-0.76 8.66 -2.01
-1.66 18.81 0.99
-0.87 9.87 -1.93
-1.66 18.89 1.66
-1.09 12.37 -1.97
-1.66 18.89 2.33
-1.44 16.31 -2.01
-1.67 18.95 3.01
-1.57 17.88 -1.57
-1.67 19 3.71
-1.63 18.49 -0.97
-1.68 19.08 4.42
-1.66 18.86 -0.33
-1.68 19.13 5.15
-1.59 18.87 0.33
-0.73 8.66 -2.01
-1.6 18.88 0.99
-0.83 9.82 -1.92
-1.6 18.98 1.67
-1.05 12.37 -1.97
-1.61 19 2.34
-1.38 16.31 -2.01
-1.61 19.03 3.02
-1.51 17.89 -1.57
-1.61 19.08 3.72
-1.57 18.61 -0.98
-1.62 19.17 4.44
-1.6 18.9 -0.33
-1.63 19.24 5.17
-1.54 18.96 0.33
-0.7 8.62 -2
-1.54 18.98 1
-0.8 9.86 -1.92
-1.55 19.05 1.67
-1.01 12.37 -1.97
-1.55 19.07 2.35
-1.33 16.34 -2.01
-1.56 19.13 3.04
-1.45 17.87 -1.57
-1.56 19.17 3.74
-1.54 18.91 -0.99
-1.57 19.28 4.47
-1.54 18.99 -0.33
-1.57 19.32 5.2
-1.48 19.03 0.33
-0.67 8.64 -2
-1.48 19.07 1
-0.76 9.83 -1.92
-1.49 19.16 1.68
-0.96 12.36 -1.96
-1.49 19.19 2.36
-1.13 14.58 -1.8
-1.5 19.23 3.05
-1.13 14.58 -1.28
-1.5 19.29 3.76
-1.41 18.11 -0.95
-1.51 19.4 4.49
-1.49 19.11 -0.33
-1.51 19.46 5.23
-1.42 19.16 0.34
-0.64 8.63 -2
-1.42 19.19 1.01
-0.72 9.66 -1.88
-1.43 19.27 1.69
-0.92 12.37 -1.96
-1.43 19.31 2.38
-1.08 14.58 -1.8
-1.44 19.37 3.08
-1.08 14.6 -1.28
-1.44 19.41 3.78
-1.36 18.36 -0.96
-1.45 19.54 4.52
-1.43 19.23 -0.34
-1.46 19.65 5.28
-1.36 19.29 0.34
-0.61 8.64 -2
-1.36 19.3 1.01
-0.7 9.85 -1.92
-1.37 19.43 1.7
-0.87 12.37 -1.96
-1.38 19.48 2.4
-1.15 16.34 -2.01
-1.38 19.55 3.1
-1.28 18.06 -1.58
-1.39 19.61 3.82
-1.27 17.92 -0.94
-1.39 19.72 4.56
-1.37 19.37 -0.34
-1.4 19.87 5.34
-1.31 19.48 0.34
-0.58 8.62 -1.99
-1.31 19.5 1.02
-0.66 9.82 -1.91
-1.32 19.65 1.72
-0.83 12.37 -1.96
-1.33 19.75 2.43
-1.1 16.33 -2.01
-1.33 19.82 3.15
-1.22 18.16 -1.59
-1.33 19.89 3.87
-1.2 17.83 -0.94
-1.34 20.03 4.64
-1.31 19.54 -0.34
-1.51 22.51 6.04
-0.49 7.72 -2.07
-1.42 22.33 0.39
-0.55 8.65 -2
-1.42 22.35 1.17
-0.63 9.87 -1.92
-1.43 22.4 1.96
-0.79 12.38 -1.96
-1.42 22.39 2.75
-1.04 16.32 -2.01
-1.43 22.41 3.56
-1.16 18.18 -1.59
-1.43 22.45 4.37
-1.15 18.03 -0.95
-1.43 22.51 5.21
-1.42 22.3 -0.39
-1.43 22.54 6.05
-0.46 7.69 -2.06
-1.35 22.32 0.39
-0.52 8.64 -2
-1.35 22.36 1.17
-0.6 9.92 -1.93
-1.35 22.39 1.96
-0.75 12.37 -1.96
-1.57 26.06 3.21
-0.98 16.32 -2.01
-1.57 26.06 4.14
-1.09 18.12 -1.59
-1.36 22.51 4.38
-1.11 18.37 -0.96
-1.35 22.32 -0.39
-1.57 25.97 6.97
-0.44 7.69 -2.06
-1.27 22.38 0.39
-0.49 8.65 -2
-1.27 22.42 1.18
-0.56 9.93 -1.93
-1.27 22.41 1.96
-0.7 12.38 -1.96
-1.48 26.01 3.2
-0.93 16.33 -2.01
-1.03 18.12 -1.59
-1.36 23.89 4.65
-1.04 18.29 -0.96
-1.47 25.95 -0.45
-1.48 26.01 6.98
-0.41 7.7 -2.07
-1.36 25.53 0.45
-0.46 8.66 -2
-1.35 25.26 1.33
-0.51 9.63 -1.87
-1.2 22.42 1.96
-0.66 12.39 -1.96
-1.39 26.04 3.2
-0.87 16.32 -2.01
-1.39 26.07 4.13
-0.96 17.88 -1.57
-1.28 23.94 4.66
-0.96 17.93 -0.94
-1.38 25.88 -0.45
-1.39 25.98 6.97
-0.38 7.71 -2.07
-1.27 25.54 0.45
-0.43 8.67 -2
-1.26 25.28 1.33
-0.5 9.97 -1.94
-1.12 22.43 1.96
-0.62 12.4 -1.97
-1.3 25.99 3.2
-0.81 16.32 -2.01
-1.3 26.04 4.13
-0.89 17.83 -1.56
-1.19 23.95 4.66
-0.89 17.79 -0.93
-1.28 25.7 5.94
-1.28 25.71 6.9
-0.36 7.7 -2.06
-1.18 25.54 0.45
-0.4 8.67 -2
-1.17 25.35 1.33
-0.46 9.97 -1.94
-1.04 22.42 1.96
-0.57 12.41 -1.97
-1.19 25.63 3.15
-0.76 16.32 -2.01
-1.19 25.65 4.07
-0.83 17.9 -1.57
-1.11 23.96 4.66
-0.83 17.85 -0.94
-1.19 25.71 5.94
-1.2 25.88 -0.45
-1.19 25.71 6.9
-0.33 7.71 -2.07
-1.09 25.53 0.45
-0.37 8.67 -2
-1.08 25.4 1.33
-0.42 9.93 -1.93
-0.96 22.43 1.96
-0.53 12.4 -1.97
-1.09 25.63 3.15
-0.7 16.32 -2.01
-1.1 25.66 4.07
-0.76 17.79 -1.56
-1.02 23.97 4.66
-0.77 17.97 -0.94
-1.1 25.71 5.94
-1.1 25.72 6.9
-0.3 7.71 -2.07
-1 25.54 0.45
-0.34 8.67 -2
-1 25.43 1.33
-0.39 9.95 -1.94
-0.88 22.44 1.97
-0.49 12.4 -1.97
-1.01 25.63 3.15
-0.64 16.32 -2.01
-1.01 25.66 4.07
-0.69 17.68 -1.55
-0.94 23.95 4.66
-0.7 17.73 -0.93
-1.01 25.72 5.94
-1 25.55 -0.45
-0.89 22.59 6.06
-0.28 7.71 -2.07
-0.91 25.55 0.45
-0.31 8.68 -2
-0.91 25.45 1.33
-0.35 9.8 -1.91
-0.8 22.45 1.97
-0.44 12.41 -1.97
-0.91 25.62 3.15
-0.58 16.32 -2
-0.8 22.54 3.57
-0.63 17.73 -1.55
-0.8 22.52 4.38
-0.63 17.67 -0.93
-0.81 22.55 5.21
-0.91 25.55 -0.45
-0.81 22.55 6.05
-0.25 7.71 -2.07
-0.73 22.42 0.39
-0.28 8.67 -2
-0.73 22.43 1.18
-0.31 9.48 -1.84
-0.73 22.45 1.97
-0.4 12.41 -1.97
-0.73 22.39 2.75
-0.53 16.32 -2
-0.73 22.41 3.55
-0.58 17.95 -1.57
-0.73 22.45 4.37
-0.59 18.17 -0.95
-0.72 22.28 5.15
-0.73 22.39 -0.39
-0.72 22.21 5.95
-0.22 7.7 -2.06
-0.65 22.38 0.39
-0.25 8.67 -2
-0.65 22.4 1.17
-0.27 9.42 -1.83
-0.64 22.11 1.94
-0.36 12.4 -1.97
-0.64 22.12 2.72
-0.47 16.31 -2
-0.64 22.13 3.51
-0.52 17.99 -1.57
-0.64 22.16 4.31
-0.53 18.33 -0.96
-0.64 22.2 5.13
-0.65 22.37 -0.39
-0.64 22.2 5.95
-0.19 7.7 -2.06
-0.57 22.42 0.39
-0.22 8.66 -2
-0.57 22.45 1.18
-0.24 9.41 -1.83
-0.56 22.1 1.93
-0.24 9.65 -1.53
-0.56 22.12 2.72
-0.41 16.32 -2
-0.56 22.15 3.51
-0.45 17.92 -1.57
-0.56 22.16 4.31
-0.45 17.97 -0.94
-0.56 22.2 5.13
-0.57 22.42 -0.39
-0.56 22.21 5.95
-0.17 7.71 -2.07
-0.49 22.42 0.39
-0.19 8.64 -2
-0.49 22.46 1.18
-0.2 9.4 -1.83
-0.48 22.11 1.93
-0.21 9.61 -1.52
-0.48 22.13 2.72
-0.35 16.31 -2
-0.48 22.16 3.51
-0.39 17.92 -1.57
-0.48 22.19 4.31
-0.39 18.08 -0.95
-0.49 22.32 5.15
-0.49 22.43 -0.39
-0.49 22.54 6.04
-0.14 7.72 -2.07
-0.41 22.44 0.39
-0.16 8.64 -1.99
-0.41 22.46 1.18
-0.17 9.38 -1.82
-0.18 9.72 -1.54
-0.41 22.45 2.76
-0.3 16.29 -2
-0.41 22.51 3.57
-0.33 18.1 -1.58
-0.41 22.51 4.38
-0.33 18.05 -0.95
-0.41 22.53 5.2
-0.41 22.43 -0.39
-0.41 22.57 6.05
-0.11 7.71 -2.07
-0.33 22.45 0.39
-0.13 8.63 -1.99
-0.33 22.52 1.18
-0.14 9.34 -1.82
-0.27 18.47 1.62
-0.14 9.71 -1.54
-0.33 22.49 2.76
-0.24 16.29 -2
-0.27 18.08 -1.58
-0.26 17.9 -0.94
-0.33 22.55 5.21
-0.33 22.41 -0.39
-0.33 22.56 6.05
-0.09 7.7 -2.06
-0.1 8.64 -1.99
-0.23 19.66 1.03
-0.11 9.34 -1.82
-0.21 18.46 1.61
-0.11 9.8 -1.55
-0.26 22.49 2.76
-0.19 16.3 -2
-0.21 18.05 -1.58
-0.21 17.81 -0.93
-0.26 22.56 5.21
-0.36 31.22 -0.54
-0.26 22.56 6.04
-0.06 7.7 -2.06
-0.28 34.63 0.6
-0.07 8.67 -2
-0.16 19.67 1.03
-0.07 9.01 -1.75
-0.15 18.46 1.62
-0.08 9.61 -1.52
-0.18 22.51 2.76
-0.13 16.29 -2
-0.14 18.09 -1.58
-0.15 18.29 -0.96
-0.18 22.56 5.21
-0.25 31.23 -0.55
-0.18 22.57 6.05
-0.03 7.7 -2.06
-0.16 34.63 0.6
-0.04 8.68 -2
-0.09 19.66 1.03
-0.04 8.92 -1.73
-0.08 18.49 1.62
-0.06 12.36 -1.96
-0.1 22.5 2.76
-0.07 16.29 -2
-0.08 18.2 -1.59
-0.08 18.28 -0.96
-0.1 22.57 5.21
-0.14 31.24 -0.55
-0.1 22.58 6.05
-0.01 7.7 -2.06
-0.03 34.64 0.6
-0.01 8.67 -2
-0.02 19.66 1.03
-0.01 8.87 -1.72
-0.02 18.51 1.62
-0.01 9.8 -1.55
-0.02 22.51 2.76
-0.02 16.28 -2
-0.02 18.17 -1.59
-0.02 18.22 -0.95
-0.02 22.56 5.21
-0.03 31.24 -0.55
-0.02 22.58 6.05
0.02 7.69 -2.06
0.08 34.63 0.6
0.02 8.68 -2
0.04 19.66 1.03
0.02 8.82 -1.71
0.04 18.47 1.62
0.03 12.35 -1.96
0.05 22.52 2.76
0.04 16.27 -2
0.04 18.05 -1.58
0.04 18.19 -0.95
0.05 22.57 5.21
0.07 31.24 -0.55
0.05 22.59 6.05
0.04 7.69 -2.06
0.2 34.6 0.6
0.05 8.69 -2.01
0.11 19.66 1.03
0.05 8.99 -1.75
0.11 18.48 1.62
0.06 9.68 -1.53
0.13 22.53 2.77
0.1 16.28 -2
0.11 18.27 -1.6
0.11 18.48 -0.97
0.13 22.58 5.21
0.18 31.24 -0.55
0.13 22.58 6.05
0.07 7.69 -2.06
0.21 22.47 0.39
0.08 8.68 -2
0.19 19.67 1.03
0.08 8.91 -1.73
0.17 18.49 1.62
0.12 12.33 -1.95
0.21 22.52 2.77
0.15 16.27 -2
0.21 22.21 -1.94
0.17 18.42 -0.97
0.21 22.58 5.21
0.21 22.48 -0.39
0.21 22.58 6.05
0.1 7.69 -2.06
0.11 8.67 -2
0.26 19.69 1.03
0.12 8.93 -1.74
0.24 18.5 1.62
0.16 12.35 -1.96
0.29 22.53 2.77
0.21 16.26 -2
0.29 22.44 -1.96
0.29 22.44 -1.18
0.29 22.59 5.22
0.29 22.47 -0.39
0.29 22.6 6.06
0.12 7.69 -2.06
0.14 8.66 -2
0.32 19.67 1.03
0.15 8.99 -1.75
0.3 18.51 1.62
0.2 12.34 -1.95
0.37 22.53 2.77
0.26 16.25 -2
0.37 22.58 5.21
0.37 22.61 6.06
0.15 7.69 -2.06
0.43 21.51 0.38
0.17 8.66 -2
0.39 19.69 1.03
0.18 9 -1.75
0.37 18.51 1.62
0.24 12.34 -1.95
0.45 22.54 2.77
0.29 14.66 -1.8
0.29 14.68 -1.28
0.41 20.52 -1.08
0.45 22.59 5.22
0.42 21.38 -0.37
0.45 22.61 6.06
0.18 7.68 -2.06
0.5 21.46 0.37
0.2 8.65 -2
0.46 19.69 1.03
0.21 8.96 -1.74
0.43 18.5 1.62
0.29 12.34 -1.95
0.52 22.54 2.77
0.34 14.65 -1.8
0.34 14.67 -1.28
0.48 20.54 -1.08
0.52 22.6 5.22
0.5 21.46 -0.37
0.52 22.6 6.06
0.21 7.68 -2.06
0.57 21.44 0.37
0.23 8.66 -2
0.53 19.7 1.03
0.24 8.95 -1.74
0.5 18.5 1.62
0.33 12.32 -1.95
0.6 22.54 2.77
0.44 16.25 -2
0.55 20.41 -1.79
0.55 20.53 -1.08
0.61 22.61 5.22
0.84 31.29 -0.55
0.61 22.6 6.06
0.23 7.68 -2.06
0.64 21.4 0.37
0.26 8.65 -2
0.59 19.71 1.03
0.27 8.97 -1.74
0.56 18.51 1.62
0.37 12.31 -1.95
0.68 22.53 2.77
0.49 16.23 -1.99
0.61 20.36 -1.78
0.62 20.58 -1.08
0.68 22.61 5.22
0.94 31.3 -0.55
0.68 22.62 6.06
0.26 7.68 -2.06
0.72 21.43 0.37
0.29 8.66 -2
0.66 19.71 1.03
0.3 8.91 -1.73
0.62 18.52 1.62
0.41 12.31 -1.95
0.76 22.55 2.77
0.54 16.22 -1.99
0.68 20.41 -1.79
0.76 22.6 5.22
1.05 31.3 -0.55
0.76 22.62 6.06
0.28 7.67 -2.06
0.79 21.44 0.37
0.32 8.66 -2
0.73 19.72 1.03
0.33 8.94 -1.74
0.69 18.53 1.62
0.46 12.31 -1.95
0.83 22.55 2.77
0.6 16.22 -1.99
0.79 21.45 -1.88
1.02 27.44 -1.44
0.84 22.6 5.22
1.16 31.29 -0.55
0.84 22.62 6.07
0.31 7.65 -2.05
0.87 21.41 0.37
0.35 8.67 -2
0.8 19.72 1.03
0.36 8.97 -1.74
0.75 18.51 1.62
0.5 12.31 -1.95
0.91 22.55 2.77
0.66 16.21 -1.99
0.91 22.57 3.58
0.87 21.44 -1.88
0.91 22.58 4.39
1.11 27.48 -1.44
0.92 22.6 5.22
1.27 31.31 -0.55
0.92 22.61 6.06
0.33 7.66 -2.06
0.93 21.41 0.37
0.38 8.67 -2
0.86 19.73 1.04
0.39 8.96 -1.74
0.81 18.52 1.62
0.54 12.29 -1.95
0.98 22.54 2.77
0.71 16.2 -1.99
0.99 22.57 3.58
0.94 21.43 -1.88
0.99 22.58 4.39
1.2 27.52 -1.44
0.99 22.61 5.22
1.37 31.29 -0.55
0.99 22.62 6.07
0.36 7.66 -2.06
1.01 21.41 0.37
0.41 8.65 -2
0.93 19.73 1.04
0.42 8.88 -1.73
0.87 18.53 1.62
0.58 12.29 -1.95
1.06 22.55 2.77
0.76 16.2 -1.99
1.07 22.6 3.58
1.01 21.46 -1.88
1.07 22.59 4.4
1.01 21.46 -1.13
1.07 22.63 5.23
1.01 21.49 -0.38
1.07 22.63 6.07
0.39 7.66 -2.06
1.09 21.4 0.37
0.44 8.66 -2
1.01 19.73 1.04
0.46 9.02 -1.76
0.95 18.53 1.62
0.63 12.3 -1.95
1.15 22.56 2.77
0.83 16.19 -1.99
1.1 21.51 -1.88
1.41 27.59 -1.45
1.15 22.63 5.23
1.6 31.29 -0.55
1.15 22.64 6.07
0.42 7.66 -2.06
1.17 21.43 0.37
0.47 8.65 -2
1.08 19.74 1.04
0.49 9.06 -1.76
1.01 18.53 1.62
0.67 12.3 -1.95
1.23 22.57 2.77
0.88 16.17 -1.99
1.17 21.52 -1.89
1.51 27.62 -1.45
1.23 22.63 5.23
1.71 31.28 -0.55
1.23 22.65 6.08
0.44 7.65 -2.05
1.23 21.41 0.37
0.5 8.61 -1.99
1.14 19.76 1.04
0.52 9.04 -1.76
1.07 18.53 1.62
0.71 12.29 -1.95
1.3 22.57 2.78
0.93 16.18 -1.99
1.24 21.51 -1.89
1.6 27.69 -1.45
1.31 22.64 5.23
1.8 31.29 -0.55
1.31 22.64 6.08
0.47 7.64 -2.05
1.31 21.43 0.37
0.53 8.61 -1.99
1.21 19.77 1.04
0.57 9.28 -1.81
1.13 18.55 1.63
0.75 12.28 -1.95
1.38 22.58 2.78
0.99 16.18 -1.99
1.32 21.52 -1.89
1.7 27.73 -1.46
1.39 22.65 5.24
1.91 31.3 -0.55
1.38 22.64 6.08
0.5 7.64 -2.05
1.4 21.47 0.38
0.56 8.63 -2
1.29 19.77 1.04
0.61 9.46 -1.84
1.21 18.56 1.63
0.8 12.28 -1.95
1.47 22.58 2.78
1.05 16.16 -1.99
1.4 21.52 -1.89
1.8 27.76 -1.46
1.47 22.65 5.24
2.03 31.3 -0.55
1.47 22.65 6.08
0.52 7.64 -2.05
1.47 21.44 0.38
0.59 8.61 -1.99
1.36 19.8 1.04
0.65 9.43 -1.84
1.27 18.54 1.63
0.84 12.28 -1.95
1.55 22.59 2.78
1.11 16.15 -1.99
1.47 21.52 -1.89
1.91 27.82 -1.46
1.55 22.64 5.24
1.48 21.58 -0.38
1.55 22.67 6.09
0.55 7.65 -2.05
1.54 21.43 0.38
0.62 8.61 -1.99
1.42 19.8 1.04
0.67 9.39 -1.83
1.33 18.54 1.63
0.88 12.28 -1.95
1.62 22.59 2.78
1.16 16.14 -1.99
1.55 21.54 -1.89
1.55 21.55 -1.13
1.63 22.65 5.24
1.55 21.56 -0.38
1.63 22.67 6.09
0.57 7.62 -2.05
1.62 21.45 0.38
0.65 8.59 -1.99
1.5 19.85 1.04
0.71 9.39 -1.83
1.4 18.53 1.63
0.93 12.27 -1.95
1.7 22.6 2.78
1.22 16.15 -1.99
1.62 21.52 -1.89
2.11 27.93 -1.47
1.71 22.66 5.25
1.71 22.66 6.09
0.6 7.62 -2.05
1.69 21.45 0.38
0.68 8.61 -1.99
1.56 19.87 1.04
0.74 9.4 -1.83
1.46 18.54 1.63
0.75 9.56 -1.52
1.78 22.61 2.78
1.27 16.14 -1.99
1.69 21.52 -1.89
2.2 27.99 -1.47
1.78 22.66 5.25
1.78 22.67 6.09
0.63 7.64 -2.05
1.76 21.44 0.38
0.71 8.6 -1.99
1.64 19.93 1.05
0.77 9.39 -1.83
1.52 18.55 1.63
0.78 9.49 -1.51
1.86 22.6 2.78
1.33 16.13 -1.99
1.77 21.53 -1.89
2.31 28.08 -1.48
1.86 22.67 5.25
2.72 33.1 -0.58
1.86 22.67 6.1
0.65 7.62 -2.05
1.84 21.47 0.38
0.74 8.61 -1.99
1.71 19.94 1.05
0.8 9.36 -1.83
1.59 18.55 1.63
0.82 9.52 -1.51
1.94 22.62 2.79
1.38 16.11 -1.99
1.85 21.53 -1.89
1.95 22.73 4.43
2.42 28.11 -1.48
1.95 22.67 5.25
1.95 22.68 6.1
0.68 7.62 -2.05
1.92 21.47 0.38
0.77 8.61 -2
1.78 19.93 1.05
0.84 9.35 -1.82
1.66 18.56 1.63
1.1 12.26 -1.95
2.02 22.63 2.79
1.44 16.1 -1.98
2.02 22.64 3.6
1.93 21.54 -1.89
2.03 22.66 4.42
2.52 28.18 -1.48
2.03 22.66 5.25
2.03 22.68 6.1
0.71 7.61 -2.05
2 21.47 0.38
0.8 8.63 -2
1.85 19.93 1.05
0.87 9.34 -1.82
1.72 18.54 1.63
1.14 12.24 -1.95
2.1 22.62 2.79
1.5 16.1 -1.99
2.1 22.62 3.6
2 21.53 -1.89
2.1 22.65 4.42
2.63 28.26 -1.49
2.11 22.67 5.26
2.01 21.6 -0.38
2.11 22.69 6.11
0.73 7.61 -2.05
2.07 21.45 0.38
0.83 8.62 -2
0.9 9.34 -1.82
1.79 18.55 1.63
1.18 12.22 -1.95
2.18 22.62 2.79
1.55 16.08 -1.98
2.18 22.64 3.6
2.07 21.49 -1.89
2.18 22.64 4.42
2.08 21.53 -1.13
2.19 22.69 5.26
2.08 21.54 -0.38
2.19 22.69 6.11
0.76 7.61 -2.05
2.14 21.48 0.38
0.86 8.63 -2
0.93 9.34 -1.82
1.85 18.59 1.63
1.22 12.23 -1.95
2.26 22.64 2.79
1.6 16.07 -1.98
2.14 21.49 -1.89
2.83 28.42 -1.5
2.26 22.69 5.27
3.13 31.4 -0.55
2.26 22.7 6.11
0.79 7.61 -2.05
2.22 21.49 0.38
0.89 8.61 -2
0.97 9.38 -1.83
1.92 18.58 1.63
1.26 12.22 -1.95
2.34 22.64 2.79
1.66 16.06 -1.98
2.22 21.51 -1.89
2.94 28.49 -1.5
2.34 22.69 5.27
3.04 29.5 -0.52
2.34 22.71 6.12
0.81 7.61 -2.05
2.29 21.46 0.38
0.92 8.6 -2
1 9.35 -1.83
1.98 18.57 1.63
1.31 12.21 -1.95
2.42 22.65 2.8
1.72 16.05 -1.98
2.3 21.5 -1.89
2.52 23.56 -1.24
2.43 22.7 5.27
2.52 23.54 -0.41
2.43 22.71 6.12
0.84 7.59 -2.05
2.37 21.47 0.38
0.95 8.6 -2
1.04 9.41 -1.84
2.05 18.58 1.64
1.35 12.22 -1.95
2.5 22.66 2.8
1.77 16.04 -1.98
2.37 21.5 -1.89
2.55 23.11 -1.22
2.51 22.7 5.27
2.56 23.15 -0.41
2.51 22.71 6.12
0.86 7.59 -2.05
2.44 21.45 0.38
0.98 8.59 -2
1.08 9.47 -1.85
2.11 18.56 1.63
1.09 9.53 -1.52
2.58 22.66 2.8
1.83 16.03 -1.98
2.45 21.51 -1.89
2.58 22.63 -1.19
2.59 22.72 5.28
2.57 22.52 -0.4
2.59 22.72 6.13
0.89 7.59 -2.05
2.52 21.46 0.38
1.01 8.57 -1.99
1.17 9.92 -1.94
2.18 18.58 1.64
1.43 12.18 -1.94
2.66 22.65 2.8
1.73 14.75 -1.82
1.73 14.75 -1.3
2.6 22.11 -1.17
2.67 22.71 5.28
2.58 21.98 -0.39
2.67 22.72 6.13
0.92 7.59 -2.05
2.6 21.48 0.38
1.04 8.58 -2
2.74 22.65 1.2
1.2 9.94 -1.95
2.25 18.59 1.64
1.47 12.17 -1.94
2.74 22.66 2.8
1.78 14.73 -1.82
1.78 14.75 -1.3
2.6 21.54 -1.14
2.75 22.72 5.28
2.61 21.56 -0.38
2.75 22.73 6.14
0.94 7.58 -2.05
2.67 21.47 0.38
1.07 8.59 -2
1.24 9.94 -1.95
2.31 18.6 1.64
1.51 12.16 -1.94
2.82 22.67 2.8
1.84 14.77 -1.83
2.67 21.47 -1.89
2.67 21.46 -1.13
2.82 22.72 5.29
2.67 21.47 -0.38
2.83 22.74 6.14
0.97 7.57 -2.04
2.75 21.49 0.38
1.1 8.58 -2
1.27 9.91 -1.94
2.38 18.59 1.64
1.56 12.16 -1.94
2.9 22.68 2.81
2.04 15.97 -1.98
2.74 21.46 -1.89
2.75 21.47 -1.13
2.91 22.73 5.29
3.3 25.82 -0.45
2.91 22.73 6.14
0.99 7.56 -2.04
3.39 25.82 0.45
1.13 8.59 -2
1.31 9.96 -1.95
2.44 18.59 1.64
1.6 12.14 -1.94
2.98 22.69 2.81
2.1 15.96 -1.98
2.85 21.67 -1.91
3.39 25.77 -1.36
2.99 22.74 5.3
3.39 25.82 -0.45
2.99 22.73 6.14
1.02 7.57 -2.05
1.16 8.57 -2
1.34 9.94 -1.95
2.51 18.6 1.64
1.64 12.14 -1.94
3.06 22.68 2.81
2.15 15.94 -1.98
3.21 23.76 3.8
2.93 21.67 -1.91
3.19 23.65 4.64
3.12 23.14 -1.22
3.07 22.74 5.3
3.07 22.75 6.15
1.05 7.55 -2.04
1.19 8.56 -2
1.38 9.96 -1.96
2.58 18.61 1.64
1.68 12.13 -1.94
3.14 22.69 2.81
2.21 15.93 -1.97
3.24 23.38 3.74
3 21.68 -1.91
3.15 22.74 4.46
4.81 34.75 -1.84
3.15 22.74 5.3
3.15 22.75 6.15
1.07 7.54 -2.04
1.22 8.56 -2
1.42 9.97 -1.96
2.64 18.61 1.64
1.72 12.13 -1.94
3.22 22.68 2.81
2.26 15.91 -1.97
3.23 22.69 3.63
2.89 20.36 -1.8
3.23 22.72 4.46
4.94 34.76 -1.84
3.23 22.73 5.3
3.22 22.63 6.12
1.1 7.53 -2.04
3.3 22.66 0.4
1.25 8.56 -2
3.32 22.77 1.21
1.45 9.98 -1.96
2.71 18.6 1.64
1.77 12.13 -1.94
3.28 22.53 2.8
2.32 15.91 -1.97
3.28 22.56 3.61
2.96 20.3 -1.79
3.28 22.5 4.42
3.01 20.68 -1.09
3.26 22.39 5.22
3.3 22.65 -0.4
3.23 22.19 6.01
1.12 7.53 -2.04
3.37 22.6 0.4
1.28 8.55 -1.99
3.38 22.64 1.2
1.49 9.98 -1.96
2.78 18.61 1.65
1.81 12.11 -1.94
3.3 22.14 2.75
2.37 15.9 -1.97
3.3 22.13 3.54
3.03 20.3 -1.8
3.29 22.06 4.34
3.37 22.6 -1.2
3.28 21.95 5.12
3.37 22.61 -0.4
3.24 21.73 5.89
1.15 7.53 -2.04
3.45 22.61 0.4
1.3 8.53 -1.99
3.46 22.66 1.2
1.52 9.95 -1.96
2.85 18.63 1.65
1.85 12.11 -1.94
3.32 21.72 2.7
2.42 15.87 -1.97
3.31 21.7 3.48
3.11 20.35 -1.8
3.31 21.64 4.25
3.13 20.51 -1.09
3.3 21.59 5.04
3.45 22.61 -0.4
3.29 21.55 5.84
1.18 7.52 -2.04
3.53 22.62 0.4
1.33 8.53 -1.99
3.54 22.68 1.2
1.54 9.87 -1.94
2.91 18.64 1.65
1.89 12.1 -1.94
3.36 21.49 2.67
2.48 15.86 -1.97
3.36 21.51 3.45
3.36 21.52 -1.91
3.35 21.46 4.22
3.2 20.5 -1.09
3.34 21.36 4.99
3.53 22.6 -0.4
3.32 21.28 5.77
1.2 7.51 -2.04
3.61 22.63 0.4
1.36 8.52 -1.99
3.62 22.66 1.2
1.58 9.88 -1.94
2.97 18.62 1.65
1.93 12.1 -1.94
3.39 21.2 2.64
2.53 15.83 -1.97
3.39 21.2 3.4
3.09 19.31 -1.71
3.39 21.22 4.18
3.08 19.31 -1.02
3.39 21.23 4.96
3.61 22.59 -0.4
3.4 21.27 5.77
1.23 7.5 -2.04
3.7 22.65 0.4
1.39 8.52 -1.99
3.71 22.71 1.21
1.61 9.87 -1.94
3.04 18.62 1.65
1.98 12.09 -1.94
3.46 21.17 2.63
2.58 15.82 -1.97
3.46 21.19 3.4
3.24 19.83 -1.76
3.47 21.22 4.18
3.17 19.37 -1.03
3.47 21.25 4.97
3.7 22.62 -0.4
3.47 21.26 5.77
1.25 7.5 -2.04
1.42 8.51 -1.99
1.64 9.83 -1.94
3.11 18.63 1.65
2.02 12.08 -1.94
3.53 21.17 2.64
2.64 15.81 -1.97
3.58 21.44 -1.9
3.54 21.22 4.18
3.22 19.3 -1.03
3.55 21.26 4.98
3.78 22.67 -0.4
3.58 21.43 5.82
1.28 7.49 -2.04
3.94 23.12 0.41
1.45 8.49 -1.99
3.46 20.3 1.08
1.67 9.78 -1.93
3.18 18.64 1.65
2.06 12.07 -1.94
3.61 21.2 2.64
2.69 15.8 -1.97
3.62 21.27 3.42
3.65 21.4 -1.9
3.66 21.47 4.23
3.25 19.05 -1.01
3.67 21.52 5.04
3.94 23.12 -0.41
3.68 21.61 5.88
1.3 7.49 -2.04
4.02 23.13 0.41
1.48 8.48 -1.99
3.49 20.05 1.07
1.68 9.69 -1.91
3.24 18.64 1.66
2.1 12.07 -1.94
3.74 21.51 2.68
2.74 15.77 -1.97
3.75 21.56 3.47
3.72 21.38 -1.9
3.75 21.57 4.26
3.31 19.02 -1.01
3.74 21.52 5.04
4.03 23.16 -0.41
3.76 21.62 5.88
1.33 7.48 -2.04
4.11 23.14 0.41
1.51 8.48 -1.99
3.51 19.76 1.05
1.72 9.66 -1.91
3.31 18.65 1.66
2.15 12.07 -1.94
3.83 21.52 2.68
2.8 15.76 -1.97
3.83 21.55 3.47
3.79 21.34 -1.9
3.83 21.57 4.26
3.39 19.07 -1.01
3.83 21.53 5.05
4.12 23.17 -0.41
3.84 21.63 5.89
1.36 7.48 -2.04
4.2 23.16 0.41
1.54 8.49 -1.99
3.55 19.59 1.04
1.74 9.61 -1.9
3.38 18.64 1.66
2.18 12.05 -1.94
3.9 21.54 2.69
2.85 15.74 -1.96
3.91 21.55 3.47
3.4 18.73 -1.67
3.91 21.58 4.26
3.39 18.71 -1
3.91 21.55 5.06
4.2 23.17 -0.41
3.92 21.61 5.89
1.38 7.47 -2.03
4.27 23.14 0.41
1.57 8.49 -1.99
4.13 22.35 1.19
1.78 9.62 -1.9
3.44 18.63 1.66
2.22 12.04 -1.94
3.98 21.54 2.69
2.9 15.73 -1.96
3.98 21.56 3.47
3.42 18.51 -1.65
3.98 21.57 4.26
3.45 18.71 -1
3.98 21.55 5.06
4.23 22.93 -0.41
3.99 21.62 5.89
1.4 7.46 -2.03
4.35 23.14 0.41
1.59 8.47 -1.99
4.21 22.36 1.19
1.81 9.6 -1.9
3.51 18.65 1.66
2.26 12.03 -1.94
4.05 21.54 2.69
2.96 15.71 -1.96
4.06 21.58 3.48
3.49 18.57 -1.65
4.06 21.57 4.27
3.55 18.88 -1.01
4.06 21.57 5.07
4.27 22.68 -0.4
4.07 21.63 5.9
1.43 7.46 -2.04
6.71 34.93 0.62
1.63 8.47 -1.99
4.29 22.34 1.19
1.84 9.58 -1.9
3.58 18.65 1.66
2.31 12.03 -1.94
4.14 21.54 2.69
3.01 15.69 -1.96
4.14 21.57 3.48
3.56 18.55 -1.65
4.14 21.58 4.27
3.61 18.81 -1
4.14 21.57 5.07
4.35 22.66 -0.4
4.16 21.64 5.91
1.46 7.45 -2.03
6.81 34.81 0.62
1.66 8.48 -2
4.37 22.35 1.19
1.87 9.54 -1.89
3.65 18.67 1.66
2.35 12.02 -1.94
4.21 21.55 2.7
3.07 15.68 -1.96
4.22 21.56 3.48
4.15 21.21 -1.89
4.22 21.59 4.28
3.66 18.7 -1
4.22 21.57 5.07
4.23 21.65 5.91
1.48 7.44 -2.03
1.69 8.49 -2
4.45 22.35 1.19
1.9 9.53 -1.89
4.23 21.22 1.89
2.39 12.01 -1.94
4.29 21.55 2.7
3.12 15.67 -1.96
4.3 21.57 3.48
4.22 21.16 -1.89
4.3 21.6 4.28
3.74 18.75 -1
4.3 21.58 5.08
6.55 32.86 -0.58
4.31 21.64 5.91
1.51 7.44 -2.03
6.86 33.83 0.6
1.72 8.48 -2
4.53 22.36 1.2
1.93 9.52 -1.89
4.3 21.23 1.9
2.43 12 -1.94
4.37 21.55 2.7
3.17 15.66 -1.96
4.38 21.58 3.49
3.93 19.36 -1.73
4.38 21.59 4.28
3.8 18.72 -1
4.38 21.59 5.09
4.63 22.83 -0.41
4.39 21.65 5.92
1.53 7.43 -2.03
1.75 8.48 -2
4.61 22.36 1.2
1.95 9.47 -1.88
4.38 21.24 1.9
2.47 11.99 -1.94
4.44 21.54 2.7
3.22 15.64 -1.96
4.45 21.59 3.49
3.78 18.31 -1.64
4.45 21.6 4.29
3.87 18.78 -1
4.45 21.59 5.09
4.71 22.83 -0.41
4.47 21.66 5.93
1.56 7.42 -2.03
6.89 32.85 0.59
1.78 8.48 -2
4.69 22.37 1.2
1.99 9.47 -1.88
4.46 21.25 1.9
2.51 11.99 -1.94
4.52 21.55 2.7
3.27 15.61 -1.96
4.53 21.6 3.5
3.83 18.27 -1.63
4.53 21.61 4.29
3.93 18.73 -1
4.53 21.59 5.09
6.89 32.87 -0.59
4.54 21.66 5.93
1.58 7.42 -2.03
7.01 32.84 0.59
1.81 8.49 -2
4.78 22.37 1.2
2.01 9.42 -1.87
4.54 21.26 1.9
2.56 11.98 -1.94
4.6 21.56 2.71
3.33 15.59 -1.96
4.61 21.59 3.5
3.89 18.23 -1.63
4.61 21.62 4.3
4.02 18.84 -1.01
4.61 21.59 5.1
7.02 32.88 -0.59
4.62 21.66 5.94
1.61 7.41 -2.03
6.93 31.92 0.57
1.84 8.5 -2.01
4.86 22.4 1.2
2.06 9.47 -1.88
4.61 21.26 1.9
2.6 11.97 -1.94
4.68 21.58 2.71
3.38 15.58 -1.96
4.69 21.6 3.5
4 18.45 -1.65
4.69 21.62 4.3
4.06 18.72 -1
4.69 21.61 5.11
4.7 21.65 5.94
1.63 7.4 -2.03
7.05 31.91 0.57
1.88 8.49 -2.01
4.94 22.4 1.2
2.1 9.49 -1.89
4.69 21.26 1.9
2.64 11.96 -1.94
4.76 21.57 2.71
3.44 15.56 -1.96
4.77 21.6 3.5
4.19 18.98 -1.7
4.77 21.59 4.3
4.12 18.65 -1
4.77 21.61 5.11
4.78 21.65 5.94
1.66 7.39 -2.03
6.94 30.94 0.55
1.9 8.49 -2.01
5.02 22.4 1.2
2.14 9.53 -1.9
4.77 21.27 1.91
2.68 11.95 -1.94
4.83 21.55 2.71
3.49 15.54 -1.96
4.84 21.59 3.51
4.11 18.34 -1.64
4.84 21.6 4.3
4.23 18.84 -1.01
4.85 21.62 5.11
6.94 30.96 -0.55
4.86 21.67 5.95
1.69 7.39 -2.03
7.06 30.94 0.55
1.94 8.49 -2.01
5.11 22.38 1.2
2.18 9.56 -1.91
4.85 21.27 1.91
2.72 11.94 -1.94
4.92 21.57 2.72
3.54 15.51 -1.95
4.93 21.61 3.51
4.19 18.35 -1.65
4.93 21.62 4.31
4.3 18.85 -1.01
4.93 21.6 5.12
7.06 30.96 -0.55
4.95 21.69 5.96
1.71 7.39 -2.03
6.94 29.96 0.54
1.97 8.5 -2.01
5.19 22.4 1.21
2.14 9.24 -1.84
4.93 21.27 1.91
2.76 11.93 -1.94
5 21.58 2.72
3.59 15.49 -1.95
5.01 21.62 3.51
4.24 18.3 -1.64
4.39 18.96 -1.02
5.01 21.61 5.12
6.95 30.01 -0.54
5.02 21.69 5.96
1.73 7.36 -2.03
5.36 22.73 0.41
2 8.5 -2.02
5.28 22.41 1.21
2.23 9.45 -1.89
5.01 21.26 1.91
2.81 11.92 -1.94
5.09 21.59 2.72
3.65 15.48 -1.95
5.1 21.62 3.52
4.25 18.03 -1.62
4.43 18.81 -1.01
5.09 21.61 5.12
6.97 29.58 -0.53
5.11 21.69 5.97
1.76 7.36 -2.03
5.43 22.72 0.41
2.03 8.5 -2.02
5.36 22.4 1.21
2.28 9.52 -1.9
5.09 21.28 1.91
2.85 11.91 -1.94
5.16 21.59 2.73
3.7 15.47 -1.95
5.17 21.62 3.52
4.29 17.95 -1.61
4.51 18.84 -1.02
5.17 21.63 5.14
6.99 29.23 -0.52
5.19 21.69 5.97
1.79 7.35 -2.03
5.52 22.73 0.41
2.06 8.49 -2.02
5.44 22.4 1.21
2.29 9.43 -1.89
5.17 21.28 1.92
2.89 11.9 -1.94
5.25 21.58 2.73
3.75 15.44 -1.95
5.26 21.63 3.53
4.43 18.22 -1.64
4.62 19.02 -1.03
5.26 21.62 5.14
5.57 22.92 -0.41
5.27 21.69 5.98
1.81 7.35 -2.03
5.6 22.73 0.41
2.1 8.5 -2.02
5.53 22.42 1.21
2.35 9.53 -1.91
5.25 21.3 1.92
2.93 11.89 -1.94
5.32 21.59 2.73
3.8 15.4 -1.95
5.34 21.65 3.53
4.47 18.14 -1.63
4.68 18.97 -1.02
5.33 21.64 5.14
5.35 21.7 5.99
1.84 7.34 -2.03
2.13 8.5 -2.02
5.61 22.42 1.21
2.4 9.6 -1.92
5.33 21.29 1.92
2.97 11.88 -1.94
5.4 21.61 2.73
3.85 15.39 -1.95
5.41 21.65 3.53
4.56 18.25 -1.65
4.73 18.9 -1.02
5.41 21.64 5.15
7.05 28.19 -0.51
5.43 21.7 5.99
1.86 7.32 -2.02
7.06 27.85 0.5
2.16 8.51 -2.03
5.69 22.42 1.21
2.44 9.63 -1.93
5.4 21.29 1.92
3.01 11.87 -1.94
5.48 21.62 2.74
3.9 15.37 -1.95
5.49 21.66 3.54
4.63 18.27 -1.65
4.83 19.03 -1.03
5.49 21.65 5.16
7.08 27.9 -0.5
5.5 21.69 6
1.88 7.31 -2.02
7.08 27.49 0.5
2.19 8.51 -2.03
5.78 22.43 1.21
2.48 9.63 -1.93
5.49 21.29 1.92
3.05 11.85 -1.94
5.57 21.62 2.74
3.96 15.35 -1.95
5.61 21.77 3.56
4.67 18.13 -1.64
4.91 19.05 -1.03
5.58 21.65 5.16
7.1 27.56 -0.5
5.59 21.7 6
1.91 7.31 -2.02
7.09 27.15 0.49
2.22 8.5 -2.03
5.86 22.43 1.21
2.51 9.61 -1.93
5.57 21.3 1.93
3.09 11.83 -1.94
5.65 21.61 2.74
4.01 15.34 -1.95
4.73 18.12 -1.64
4.96 18.98 -1.03
5.65 21.64 5.16
7.09 27.15 -0.49
5.67 21.71 6.01
1.93 7.3 -2.02
7.1 26.81 0.48
2.25 8.51 -2.03
5.94 22.42 1.22
2.5 9.43 -1.9
5.65 21.31 1.93
3.13 11.83 -1.94
5.73 21.62 2.75
4.06 15.31 -1.94
4.77 18.01 -1.63
5.18 19.54 -1.06
5.74 21.66 5.17
7.13 26.93 -0.49
5.76 21.72 6.02
1.96 7.29 -2.02
7.12 26.53 0.48
2.29 8.51 -2.03
6.02 22.42 1.22
2.56 9.53 -1.92
5.72 21.32 1.93
3.17 11.81 -1.94
5.81 21.62 2.75
4.11 15.29 -1.94
4.84 18.04 -1.63
5.34 19.88 -1.08
5.81 21.65 5.18
7.13 26.56 -0.48
5.83 21.73 6.03
1.98 7.27 -2.02
7.14 26.19 0.47
2.32 8.52 -2.04
6.12 22.43 1.22
2.59 9.52 -1.92
5.81 21.3 1.93
3.22 11.8 -1.94
5.89 21.62 2.75
4.17 15.28 -1.95
4.96 18.19 -1.65
5.43 19.91 -1.08
5.9 21.66 5.18
7.12 26.12 -0.47
5.92 21.71 6.03
2 7.26 -2.02
7.15 25.88 0.47
2.35 8.52 -2.04
6.2 22.45 1.22
2.6 9.43 -1.9
5.89 21.31 1.93
3.26 11.79 -1.94
5.97 21.63 2.76
4.22 15.27 -1.95
5.99 21.67 3.56
5 18.1 -1.64
5.98 21.66 4.37
5.99 21.69 5.2
7.12 25.79 -0.47
6 21.71 6.04
2.03 7.26 -2.02
7.17 25.6 0.46
2.39 8.51 -2.04
6.29 22.46 1.22
2.74 9.79 -1.98
5.97 21.32 1.94
3.3 11.77 -1.94
6.05 21.61 2.76
4.27 15.26 -1.95
6.06 21.65 3.56
5.72 20.41 -1.85
6.06 21.64 4.37
6.68 23.83 -1.3
6.08 21.69 5.2
6.44 22.98 -0.42
6.08 21.71 6.04
2.06 7.26 -2.02
6.59 23.23 0.42
2.41 8.51 -2.04
6.37 22.45 1.22
2.78 9.81 -1.98
6.05 21.33 1.94
3.34 11.76 -1.94
6.13 21.61 2.76
4.32 15.24 -1.95
6.14 21.65 3.56
5.77 20.33 -1.85
6.14 21.65 4.38
6.58 23.19 -1.26
6.16 21.71 5.21
6.59 23.23 -0.42
6.17 21.73 6.05
2.08 7.24 -2.02
6.68 23.23 0.42
2.45 8.51 -2.05
6.46 22.46 1.22
2.81 9.79 -1.98
6.13 21.33 1.94
3.38 11.74 -1.94
6.22 21.64 2.76
4.38 15.22 -1.95
6.23 21.66 3.57
5.84 20.3 -1.85
6.23 21.68 4.39
5.88 20.45 -1.12
6.24 21.7 5.21
6.68 23.24 -0.42
6.25 21.74 6.06
2.1 7.22 -2.02
6.77 23.24 0.42
2.48 8.53 -2.05
6.54 22.47 1.23
2.86 9.83 -1.99
6.21 21.32 1.94
3.42 11.74 -1.94
6.31 21.65 2.77
4.43 15.22 -1.95
6.31 21.67 3.57
5.91 20.28 -1.85
6.32 21.68 4.39
5.96 20.47 -1.12
6.32 21.7 5.22
6.78 23.28 -0.42
6.33 21.74 6.07
2.13 7.21 -2.01
6.86 23.24 0.42
2.52 8.53 -2.05
6.63 22.46 1.23
2.9 9.81 -1.99
6.3 21.33 1.95
3.46 11.72 -1.93
6.39 21.65 2.77
4.48 15.18 -1.94
6.4 21.68 3.58
6.06 20.55 -1.87
6.4 21.68 4.39
6.05 20.5 -1.12
6.41 21.71 5.23
6.87 23.3 -0.42
6.42 21.74 6.07
2.15 7.2 -2.01
6.95 23.25 0.42
2.55 8.52 -2.05
6.72 22.48 1.23
2.93 9.81 -1.99
6.38 21.34 1.95
3.5 11.7 -1.93
6.47 21.64 2.77
4.54 15.18 -1.95
6.48 21.69 3.59
6.13 20.52 -1.87
6.48 21.68 4.4
5.99 20.05 -1.1
6.49 21.71 5.23
6.95 23.27 -0.42
6.5 21.75 6.08
2.18 7.2 -2.01
7.03 23.23 0.42
2.58 8.53 -2.06
6.8 22.47 1.23
2.97 9.8 -1.99
6.46 21.35 1.95
3.54 11.69 -1.93
6.55 21.65 2.78
4.57 15.12 -1.94
6.56 21.69 3.59
6.2 20.51 -1.87
6.56 21.7 4.41
6.07 20.06 -1.1
6.56 21.7 5.23
7.03 23.25 -0.42
6.58 21.76 6.09
2.2 7.19 -2.01
7.12 23.24 0.42
2.61 8.53 -2.06
6.89 22.48 1.23
2.99 9.77 -1.99
6.54 21.35 1.95
3.58 11.68 -1.93
6.63 21.66 2.78
4.6 15 -1.93
6.64 21.68 3.59
6.25 20.42 -1.87
6.65 21.71 4.41
6.12 19.97 -1.09
6.65 21.71 5.24
6.31 20.59 -0.38
6.67 21.77 6.1
2.22 7.17 -2.01
6.31 20.33 0.37
2.65 8.53 -2.06
6.98 22.48 1.23
3.03 9.77 -1.99
6.62 21.35 1.96
3.62 11.66 -1.93
6.72 21.67 2.79
4.63 14.93 -1.92
6.73 21.68 3.59
6.33 20.39 -1.87
6.74 21.71 4.42
6.14 19.79 -1.09
6.74 21.72 5.25
6.22 20.06 -0.37
6.75 21.76 6.1
2.25 7.16 -2.01
7.27 23.15 0.42
2.68 8.53 -2.06
7.07 22.49 1.24
3.07 9.76 -1.99
6.71 21.36 1.96
3.66 11.64 -1.93
6.81 21.67 2.79
4.69 14.92 -1.92
6.81 21.69 3.6
6.4 20.37 -1.87
6.82 21.7 4.42
6.2 19.74 -1.08
6.83 21.73 5.26
6.29 20.02 -0.37
6.84 21.76 6.11
2.27 7.16 -2.01
7.25 22.81 0.42
2.71 8.53 -2.07
7.15 22.49 1.24
3.1 9.76 -1.99
6.79 21.37 1.96
3.69 11.63 -1.93
6.88 21.66 2.79
4.74 14.9 -1.92
6.9 21.7 3.61
6.48 20.4 -1.87
6.9 21.7 4.43
6.25 19.66 -1.08
6.91 21.74 5.27
6.32 19.89 -0.36
6.92 21.77 6.12
2.3 7.15 -2.01
6.57 20.44 0.37
2.74 8.52 -2.07
7.23 22.48 1.24
3.14 9.75 -1.99
6.87 21.37 1.96
3.74 11.61 -1.93
6.97 21.67 2.8
4.78 14.86 -1.92
6.98 21.71 3.61
6.52 20.26 -1.86
6.98 21.72 4.43
6.35 19.74 -1.09
6.99 21.73 5.27
6.42 19.96 -0.37
7.01 21.78 6.13
2.32 7.13 -2.01
6.59 20.25 0.37
2.77 8.52 -2.07
7.32 22.49 1.24
3.17 9.72 -1.99
6.95 21.37 1.97
3.77 11.6 -1.93
7.05 21.67 2.8
4.84 14.86 -1.92
7.06 21.7 3.61
6.54 20.1 -1.85
7.07 21.72 4.44
6.45 19.8 -1.09
7.08 21.74 5.28
6.53 20.05 -0.37
7.09 21.78 6.14
2.34 7.12 -2.01
6.66 20.21 0.37
2.81 8.53 -2.07
7.41 22.5 1.24
3.2 9.72 -1.99
7.04 21.36 1.97
3.82 11.59 -1.93
7.14 21.68 2.8
4.89 14.85 -1.92
7.15 21.71 3.62
6.61 20.06 -1.85
7.16 21.73 4.45
6.51 19.75 -1.09
7.16 21.74 5.29
6.62 20.11 -0.37
7.17 21.78 6.15
2.37 7.1 -2.01
7.61 22.82 0.42
2.83 8.51 -2.07
7.5 22.51 1.24
3.24 9.72 -1.99
7.12 21.38 1.97
3.85 11.57 -1.93
7.23 21.69 2.81
4.95 14.85 -1.92
7.23 21.71 3.62
6.68 20.05 -1.85
7.24 21.72 4.45
6.61 19.83 -1.1
7.25 21.75 5.29
6.71 20.13 -0.37
7.25 21.76 6.15
2.39 7.09 -2.01
7.7 22.84 0.42
2.85 8.46 -2.06
7.59 22.51 1.24
3.27 9.71 -1.99
7.21 21.39 1.97
3.89 11.55 -1.93
7.3 21.66 2.81
5 14.83 -1.92
7.32 21.7 3.63
6.73 19.96 -1.84
7.31 21.69 4.45
6.7 19.87 -1.1
7.33 21.73 5.29
6.79 20.14 -0.37
7.29 21.64 6.12
2.42 7.09 -2.01
2.88 8.44 -2.06
7.68 22.51 1.25
3.31 9.7 -1.99
7.29 21.39 1.98
3.93 11.54 -1.93
7.36 21.58 2.8
5.05 14.8 -1.92
7.36 21.59 3.61
6.77 19.84 -1.83
7.35 21.55 4.43
6.75 19.79 -1.1
7.34 21.53 5.25
6.82 20 -0.37
7.32 21.47 6.08
2.44 7.07 -2
6.89 19.97 0.37
2.92 8.45 -2.06
7.77 22.52 1.25
3.34 9.68 -1.99
7.38 21.4 1.98
3.98 11.53 -1.93
7.38 21.4 2.78
5.1 14.78 -1.92
7.38 21.4 3.59
6.82 19.78 -1.83
7.38 21.4 4.4
6.8 19.71 -1.09
7.4 21.44 5.24
6.92 20.07 -0.37
7.4 21.46 6.08
2.46 7.05 -2
10.49 30.1 0.56
2.95 8.45 -2.07
7.86 22.54 1.25
3.37 9.67 -1.99
7.44 21.35 1.98
4.01 11.51 -1.93
7.45 21.36 2.78
5.15 14.77 -1.92
7.46 21.4 3.59
6.8 19.49 -1.81
7.46 21.41 4.41
6.95 19.93 -1.11
7.48 21.45 5.24
7.09 20.34 -0.38
7.48 21.46 6.09
2.48 7.04 -2
10.64 30.18 0.56
2.97 8.44 -2.07
7.94 22.53 1.25
3.41 9.67 -1.99
4.05 11.48 -1.93
7.53 21.37 2.78
5.2 14.76 -1.92
7.54 21.39 3.59
6.88 19.51 -1.81
7.55 21.4 4.41
7.12 20.18 -1.12
7.57 21.46 5.25
7.14 20.25 -0.37
7.69 21.8 6.19
2.51 7.03 -2
10.74 30.15 0.56
2.98 8.37 -2.05
8.03 22.55 1.25
3.44 9.66 -1.99
7.61 21.35 1.98
4.09 11.47 -1.93
7.65 21.48 2.8
5.25 14.72 -1.92
7.7 21.62 3.63
7.04 19.75 -1.83
7.75 21.75 4.49
7.08 19.86 -1.1
7.77 21.8 5.34
7.19 20.18 -0.37
7.78 21.83 6.21
2.53 7.03 -2
10.88 30.21 0.56
3.01 8.36 -2.05
8.12 22.54 1.26
3.48 9.66 -2
7.72 21.42 1.99
4.13 11.46 -1.93
7.82 21.72 2.83
5.29 14.69 -1.92
7.83 21.74 3.66
7.12 19.77 -1.84
7.84 21.76 4.5
7.33 20.34 -1.13
7.85 21.79 5.35
8.25 22.89 -0.42
7.86 21.82 6.21
2.55 7 -2
10.98 30.15 0.56
3.03 8.33 -2.05
8.21 22.54 1.26
3.51 9.64 -1.99
7.8 21.42 1.99
4.17 11.45 -1.93
7.91 21.73 2.84
5.34 14.67 -1.92
7.92 21.74 3.67
7.24 19.88 -1.85
7.93 21.77 4.5
7.38 20.26 -1.13
7.94 21.8 5.36
8.33 22.87 -0.42
7.95 21.82 6.22
2.57 6.99 -2
11 29.88 0.56
3.06 8.32 -2.05
8.3 22.54 1.26
3.54 9.63 -1.99
7.88 21.4 2
4.21 11.44 -1.93
8 21.74 2.84
5.39 14.65 -1.92
8.01 21.76 3.67
7.3 19.83 -1.85
8.01 21.77 4.51
7.44 20.2 -1.13
8.03 21.81 5.37
8.03 21.81 6.23
2.6 6.98 -2
11.11 29.85 0.56
3.09 8.3 -2.04
8.39 22.56 1.26
3.59 9.64 -2
7.97 21.42 2
4.25 11.42 -1.93
8.09 21.73 2.85
5.45 14.63 -1.92
8.1 21.77 3.68
7.35 19.74 -1.84
8.1 21.77 4.51
7.52 20.21 -1.13
8.12 21.82 5.37
8.12 21.82 6.24
2.62 6.97 -2
11.23 29.85 0.56
3.11 8.27 -2.04
8.49 22.56 1.26
3.62 9.63 -2
8.06 21.43 2
4.29 11.4 -1.93
8.17 21.72 2.85
5.49 14.6 -1.92
8.19 21.78 3.68
7.4 19.67 -1.84
8.19 21.77 4.52
7.91 21.03 -1.18
8.2 21.81 5.38
11.21 29.81 -0.56
8.21 21.83 6.25
2.64 6.96 -2
8.72 22.95 0.43
3.14 8.27 -2.04
8.57 22.56 1.26
3.66 9.62 -2
8.14 21.44 2.01
4.33 11.4 -1.93
8.26 21.73 2.85
5.54 14.58 -1.92
8.27 21.78 3.69
7.47 19.66 -1.84
8.27 21.78 4.53
7.98 21 -1.18
8.29 21.82 5.39
8.3 21.84 6.26
2.67 6.94 -1.99
8.81 22.96 0.43
3.17 8.26 -2.04
8.66 22.57 1.27
3.69 9.6 -2
8.23 21.44 2.01
4.37 11.38 -1.93
8.35 21.75 2.86
5.6 14.58 -1.92
8.35 21.76 3.69
7.53 19.61 -1.84
8.36 21.79 4.54
8.04 20.95 -1.18
8.38 21.83 5.4
8.38 21.84 6.27
2.69 6.93 -1.99
8.91 22.97 0.43
3.2 8.25 -2.04
8.75 22.57 1.27
3.72 9.59 -2
8.31 21.43 2.01
4.41 11.37 -1.93
8.44 21.76 2.87
5.65 14.56 -1.92
8.45 21.78 3.7
7.62 19.64 -1.84
8.45 21.79 4.54
8.13 20.95 -1.18
8.47 21.83 5.41
8.89 22.92 -0.43
8.47 21.83 6.27
2.71 6.92 -1.99
9 22.96 0.43
3.22 8.23 -2.04
8.85 22.57 1.27
3.76 9.59 -2
8.4 21.44 2.02
4.45 11.34 -1.93
8.53 21.76 2.87
5.7 14.54 -1.92
8.54 21.79 3.71
7.69 19.62 -1.84
8.54 21.79 4.55
8.22 20.97 -1.18
8.56 21.83 5.41
8.98 22.93 -0.43
8.56 21.83 6.28
2.73 6.91 -1.99
9.08 22.94 0.43
3.25 8.21 -2.04
8.94 22.58 1.27
3.8 9.59 -2
8.49 21.46 2.02
4.49 11.34 -1.93
8.61 21.75 2.87
5.75 14.51 -1.92
8.63 21.8 3.71
7.76 19.59 -1.84
8.63 21.79 4.55
8.32 21.02 -1.18
8.64 21.83 5.42
9.08 22.94 -0.43
8.65 21.85 6.3
2.76 6.89 -1.99
9.18 22.95 0.43
3.28 8.19 -2.04
9.03 22.58 1.27
3.83 9.57 -2
8.58 21.46 2.02
4.53 11.33 -1.93
8.7 21.75 2.88
5.79 14.47 -1.91
8.72 21.79 3.72
7.81 19.54 -1.84
8.72 21.8 4.56
8.41 21.03 -1.19
8.73 21.83 5.43
9.18 22.95 -0.43
8.74 21.86 6.31
2.78 6.88 -1.99
9.28 22.98 0.43
3.31 8.18 -2.04
9.12 22.58 1.28
3.86 9.55 -2
8.67 21.46 2.03
4.57 11.31 -1.93
8.79 21.75 2.88
5.84 14.46 -1.91
8.8 21.77 3.72
7.89 19.52 -1.84
8.8 21.78 4.57
8.5 21.03 -1.19
8.82 21.82 5.43
11.15 27.59 -0.52
8.83 21.86 6.32
2.8 6.86 -1.99
9.36 22.93 0.43
3.34 8.17 -2.04
9.22 22.59 1.28
3.89 9.54 -2
8.76 21.46 2.03
4.61 11.29 -1.93
8.88 21.75 2.88
5.89 14.44 -1.91
8.89 21.79 3.73
7.97 19.53 -1.85
8.9 21.8 4.58
8.56 20.99 -1.19
8.92 21.86 5.45
11.23 27.51 -0.52
8.92 21.86 6.33
2.82 6.85 -1.99
9.45 22.92 0.43
3.36 8.16 -2.04
9.31 22.59 1.28
3.93 9.53 -2
8.85 21.46 2.03
4.65 11.27 -1.93
8.98 21.79 2.89
5.94 14.41 -1.91
8.03 19.49 -1.84
8.64 20.97 -1.19
9.01 21.86 5.46
11.34 27.51 -0.52
9.02 21.88 6.34
2.85 6.85 -1.99
9.54 22.91 0.43
3.39 8.13 -2.03
9.41 22.6 1.28
3.96 9.52 -2
8.94 21.47 2.03
4.68 11.25 -1.93
9.06 21.77 2.9
5.98 14.38 -1.91
8.1 19.46 -1.84
8.75 21.01 -1.19
9.1 21.86 5.47
9.11 21.9 6.36
2.87 6.83 -1.99
9.65 22.97 0.43
3.41 8.12 -2.03
9.5 22.6 1.28
4 9.51 -2.01
9.03 21.48 2.04
4.72 11.24 -1.93
9.15 21.78 2.9
6.04 14.36 -1.91
8.16 19.41 -1.84
8.81 20.96 -1.19
9.19 21.86 5.47
9.21 21.9 6.37
2.89 6.82 -1.99
9.74 22.95 0.44
3.44 8.11 -2.03
9.6 22.61 1.29
4.02 9.48 -2
9.12 21.49 2.04
4.76 11.22 -1.93
9.25 21.79 2.91
6.08 14.31 -1.91
8.23 19.39 -1.84
8.92 21.01 -1.2
9.28 21.86 5.48
9.3 21.91 6.38
2.91 6.8 -1.98
9.83 22.94 0.44
3.47 8.1 -2.03
9.69 22.61 1.29
4.05 9.45 -2
9.21 21.48 2.04
4.8 11.2 -1.93
9.34 21.8 2.91
6.12 14.29 -1.91
8.29 19.35 -1.84
9.01 21.03 -1.2
9.38 21.88 5.49
9.39 21.9 6.38
2.94 6.79 -1.98
9.93 22.96 0.44
3.5 8.08 -2.03
9.79 22.62 1.29
4.09 9.45 -2
9.3 21.49 2.05
4.84 11.18 -1.93
9.43 21.8 2.92
6.17 14.25 -1.91
8.36 19.33 -1.84
9.09 21.02 -1.2
9.47 21.88 5.51
9.48 21.92 6.4
2.96 6.78 -1.98
10.03 22.96 0.44
3.52 8.06 -2.03
9.88 22.63 1.29
4.12 9.44 -2
9.39 21.5 2.05
4.87 11.16 -1.93
9.52 21.8 2.92
6.21 14.23 -1.91
8.41 19.26 -1.84
9.17 21.01 -1.2
9.56 21.89 5.51
11.23 25.71 -0.49
9.6 21.98 6.43
2.98 6.77 -1.98
10.13 22.98 0.44
3.54 8.04 -2.03
9.97 22.62 1.3
4.16 9.43 -2
9.48 21.49 2.06
4.91 11.14 -1.93
9.61 21.8 2.93
6.26 14.19 -1.9
8.49 19.25 -1.84
9.28 21.05 -1.21
9.65 21.88 5.52
11.29 25.62 -0.49
3 6.75 -1.98
10.22 22.97 0.44
3.57 8.03 -2.03
10.07 22.63 1.3
4.19 9.41 -2
9.57 21.5 2.06
4.95 11.13 -1.93
9.71 21.81 2.93
6.3 14.16 -1.9
8.54 19.19 -1.84
9.31 20.92 -1.2
9.74 21.89 5.53
11.39 25.6 -0.49
3.02 6.72 -1.97
10.32 22.97 0.44
3.6 8.02 -2.03
10.17 22.63 1.3
4.22 9.39 -2
9.66 21.51 2.06
4.99 11.11 -1.93
9.8 21.81 2.94
6.35 14.14 -1.9
8.59 19.13 -1.83
9.87 21.98 4.68
9.41 20.96 -1.2
9.84 21.9 5.54
3.04 6.7 -1.97
10.42 22.97 0.44
3.63 8 -2.03
10.26 22.64 1.3
4.26 9.39 -2
9.75 21.51 2.07
5.02 11.08 -1.93
9.9 21.83 2.94
6.4 14.12 -1.9
8.66 19.1 -1.83
9.91 21.85 4.66
9.52 20.99 -1.21
9.93 21.91 5.55
9.95 21.95 6.46
3.07 6.7 -1.97
10.53 23 0.44
3.65 7.97 -2.02
10.37 22.65 1.31
4.29 9.37 -2
9.85 21.52 2.07
5.07 11.07 -1.93
9.98 21.81 2.95
6.44 14.07 -1.9
10.01 21.87 3.81
8.72 19.04 -1.83
10 21.85 4.67
9.59 20.95 -1.21
10.02 21.9 5.56
10.03 21.91 6.46
3.09 6.69 -1.98
10.62 22.99 0.44
3.68 7.96 -2.02
10.46 22.65 1.31
4.32 9.36 -2
9.94 21.52 2.07
5.11 11.05 -1.93
10.07 21.81 2.95
6.47 14.01 -1.9
10.09 21.84 3.81
8.75 18.94 -1.83
10.08 21.83 4.67
9.69 20.98 -1.21
10.11 21.89 5.57
10.66 23.08 -0.44
10.13 21.94 6.48
3.11 6.67 -1.97
10.72 23 0.44
3.7 7.94 -2.02
10.56 22.65 1.31
4.35 9.34 -2
10.03 21.53 2.08
5.15 11.05 -1.93
10.17 21.82 2.96
6.52 13.98 -1.89
10.18 21.84 3.82
8.79 18.86 -1.82
10.2 21.87 4.69
9.82 21.08 -1.22
10.21 21.91 5.58
10.72 23 -0.44
10.23 21.94 6.49
3.13 6.66 -1.97
10.83 23.02 0.44
3.73 7.92 -2.02
10.66 22.66 1.31
4.39 9.32 -2
10.13 21.53 2.08
5.19 11.03 -1.93
10.28 21.85 2.96
6.59 14 -1.9
10.29 21.87 3.83
8.84 18.8 -1.82
10.29 21.88 4.7
9.93 21.11 -1.22
10.31 21.91 5.59
10.32 21.94 6.5
3.15 6.64 -1.97
10.92 23.01 0.44
3.75 7.9 -2.02
10.76 22.68 1.32
4.42 9.31 -2
10.22 21.53 2.08
5.22 11 -1.93
10.37 21.84 2.97
6.63 13.97 -1.9
10.38 21.88 3.84
8.91 18.77 -1.82
10.38 21.86 4.7
10 21.07 -1.22
10.41 21.93 5.6
10.42 21.95 6.51
3.17 6.63 -1.97
11.02 23.01 0.45
3.77 7.87 -2.01
10.86 22.68 1.32
4.45 9.3 -2
10.31 21.53 2.09
5.26 10.98 -1.93
10.46 21.83 2.97
6.67 13.93 -1.9
10.48 21.88 3.84
8.95 18.69 -1.81
10.48 21.88 4.72
10.09 21.07 -1.22
10.5 21.93 5.61
11.1 23.17 -0.45
10.52 21.96 6.52
3.2 6.62 -1.97
11.11 23 0.45
3.79 7.85 -2.01
10.95 22.67 1.32
4.48 9.27 -2
10.41 21.55 2.09
5.3 10.96 -1.93
10.56 21.85 2.98
6.7 13.88 -1.89
10.56 21.87 3.85
9.01 18.65 -1.81
10.58 21.89 4.73
10.22 21.15 -1.23
10.59 21.93 5.62
11.22 23.22 -0.45
10.61 21.96 6.54
3.22 6.6 -1.97
11.22 23.02 0.45
3.82 7.84 -2.01
11.05 22.67 1.32
4.51 9.25 -2
10.5 21.55 2.1
5.33 10.95 -1.93
10.65 21.86 2.99
6.76 13.87 -1.89
10.66 21.88 3.85
9.09 18.64 -1.81
10.67 21.9 4.74
10.3 21.13 -1.23
10.69 21.94 5.63
11.23 23.04 -0.45
10.71 21.98 6.55
3.23 6.58 -1.96
11.31 23 0.45
3.85 7.83 -2.01
11.15 22.69 1.32
4.54 9.24 -2
10.59 21.55 2.1
5.37 10.92 -1.93
10.75 21.87 2.99
6.79 13.82 -1.89
10.76 21.9 3.86
9.15 18.61 -1.81
10.76 21.89 4.74
10.4 21.15 -1.24
10.78 21.94 5.64
11.3 23 -0.45
10.8 21.97 6.56
3.26 6.56 -1.96
11.4 22.99 0.45
3.87 7.81 -2.01
11.26 22.69 1.33
4.58 9.22 -2
10.69 21.55 2.1
5.4 10.9 -1.93
10.84 21.87 3
6.85 13.8 -1.89
10.86 21.9 3.87
9.19 18.52 -1.81
10.85 21.87 4.75
10.48 21.12 -1.24
10.89 21.96 5.66
11.41 23.01 -0.45
10.9 21.97 6.57
3.28 6.55 -1.96
11.45 22.9 0.45
3.89 7.78 -2.01
11.36 22.7 1.33
4.61 9.21 -2
10.79 21.57 2.11
5.44 10.88 -1.93
10.94 21.86 3
6.89 13.77 -1.89
10.95 21.89 3.88
9.25 18.49 -1.81
10.94 21.88 4.76
10.53 21.06 -1.23
10.98 21.96 5.67
11.52 23.03 -0.45
11 21.98 6.59
3.31 6.55 -1.97
11.62 23.02 0.45
3.92 7.76 -2.01
11.45 22.69 1.33
4.64 9.2 -2
10.88 21.57 2.11
5.48 10.86 -1.93
11.04 21.87 3.01
6.95 13.76 -1.89
11.06 21.9 3.89
9.35 18.52 -1.81
11.05 21.89 4.77
10.63 21.06 -1.24
11.08 21.96 5.68
9.77 19.36 -0.38
11.1 21.99 6.6
3.32 6.53 -1.96
11.73 23.04 0.45
3.94 7.75 -2.01
11.55 22.7 1.33
4.67 9.17 -2
10.98 21.57 2.12
5.52 10.84 -1.93
11.14 21.88 3.01
6.99 13.73 -1.89
11.15 21.9 3.89
9.42 18.5 -1.82
11.15 21.9 4.78
10.11 19.86 -1.17
11.18 21.96 5.69
9.57 18.79 -0.37
11.19 21.98 6.61
3.34 6.51 -1.96
11.84 23.05 0.45
3.97 7.74 -2.01
11.66 22.72 1.34
4.7 9.16 -2
11.07 21.56 2.12
5.56 10.82 -1.93
11.24 21.89 3.02
7.04 13.7 -1.89
11.25 21.91 3.9
9.48 18.45 -1.81
11.25 21.9 4.79
9.74 18.97 -1.12
11.27 21.95 5.7
9.65 18.79 -0.37
11.26 21.93 6.61
3.36 6.49 -1.96
11.93 23.05 0.45
3.99 7.71 -2
11.76 22.72 1.34
4.73 9.14 -2
11.17 21.58 2.13
5.59 10.79 -1.92
11.32 21.86 3.02
7.08 13.68 -1.89
11.33 21.89 3.9
9.56 18.46 -1.82
11.32 21.87 4.79
10.23 19.75 -1.17
11.32 21.86 5.68
9.73 18.8 -0.37
11.27 21.77 6.57
3.39 6.49 -1.96
12.05 23.06 0.45
4.02 7.69 -2
11.87 22.72 1.34
4.77 9.13 -2
11.28 21.59 2.13
5.63 10.78 -1.93
11.35 21.72 3.01
7.14 13.68 -1.89
11.36 21.75 3.89
9.62 18.42 -1.82
11.34 21.7 4.76
11.05 21.15 -1.25
11.33 21.69 5.65
9.77 18.71 -0.37
11.31 21.66 6.55
3.41 6.48 -1.96
12.15 23.07 0.46
4.04 7.67 -2
