# .PCD v0.7 - Point Cloud Data file format
VERSION 0.7
FIELDS x y z
SIZE 4 4 4
TYPE F F F
COUNT 1 1 1
WIDTH 2823
HEIGHT 1
VIEWPOINT 0 0 0 1 0 0 0
POINTS 2823
DATA ascii
11.83 -15.32 3.07
7.66 -9.93 -1.1
19 -24.61 6.04
10.68 -13.83 -0.92
19.34 -25.06 7.31
11.76 -15.24 -0.34
19.49 -25.24 8.54
11.68 -15.24 0.34
11.67 -15.22 1
11.66 -15.2 1.68
1.85 -2.42 -0.48
11.64 -15.18 2.35
6.57 -8.57 -1.33
11.67 -15.23 3.04
7.62 -9.94 -1.1
18.98 -24.76 6.06
10.62 -13.86 -0.91
19.35 -25.24 7.34
11.65 -15.2 -0.33
19.37 -25.27 8.53
11.59 -15.22 0.33
11.56 -15.19 1
11.56 -15.19 1.67
1.86 -2.44 -0.49
11.54 -15.16 2.34
6.55 -8.61 -1.33
11.52 -15.14 3.01
7.59 -9.98 -1.1
18.9 -24.83 6.07
10.53 -13.84 -0.91
19.39 -25.48 7.39
11.58 -15.21 -0.33
19.44 -25.55 8.6
11.5 -15.22 0.33
11.77 -15.58 1.02
11.79 -15.61 1.71
1.83 -2.42 -0.48
11.78 -15.6 2.4
6.5 -8.61 -1.32
11.8 -15.61 3.1
7.57 -10.02 -1.1
18.87 -24.98 6.09
10.48 -13.87 -0.91
18.55 -24.55 7.1
11.54 -15.27 -0.33
19.17 -25.38 8.52
11.71 -15.61 0.34
11.72 -15.63 1.02
11.74 -15.66 1.71
1.81 -2.42 -0.48
11.74 -15.66 2.4
6.47 -8.62 -1.32
11.76 -15.68 3.1
7.54 -10.06 -1.1
18.81 -25.08 6.09
10.56 -14.08 -0.92
17.75 -23.66 6.83
11.51 -15.34 -0.33
19.14 -25.52 8.55
11.65 -15.64 0.34
11.67 -15.67 1.02
11.7 -15.71 1.71
1.8 -2.42 -0.48
11.71 -15.73 2.41
6.43 -8.63 -1.32
11.75 -15.79 3.12
7.5 -10.07 -1.1
19.07 -25.62 6.21
10.41 -13.98 -0.91
18.88 -25.36 7.3
11.53 -15.49 -0.34
19.12 -25.67 8.58
11.34 -15.34 0.33
11.6 -15.69 1.02
11.63 -15.74 1.71
1.8 -2.43 -0.48
11.65 -15.76 2.41
6.39 -8.65 -1.32
11.71 -15.84 3.12
7.46 -10.09 -1.1
18.92 -25.6 6.19
10.39 -14.06 -0.92
18.96 -25.65 7.36
11.46 -15.51 -0.34
19.15 -25.91 8.63
11.34 -15.45 0.33
11.5 -15.67 1.02
11.53 -15.71 1.71
1.78 -2.43 -0.48
11.55 -15.74 2.4
6.35 -8.66 -1.32
11.58 -15.78 3.1
7.4 -10.08 -1.09
18.78 -25.6 6.17
10.34 -14.09 -0.92
18.87 -25.72 7.36
11.42 -15.56 -0.34
18.93 -25.8 8.58
14.87 -20.42 0.44
11.41 -15.66 1.02
11.43 -15.69 1.7
1.77 -2.43 -0.48
11.44 -15.71 2.39
6.31 -8.66 -1.32
11.49 -15.77 3.09
7.4 -10.15 -1.1
18.64 -25.59 6.15
10.22 -14.03 -0.91
18.93 -25.99 7.42
11.38 -15.62 -0.34
14.58 -20.17 0.43
44.54 -61.6 6.65
1.75 -2.42 -0.47
21.9 -30.29 4.59
6.27 -8.67 -1.31
11.38 -15.73 3.08
7.35 -10.17 -1.1
18.88 -26.11 6.26
10.11 -13.99 -0.9
22.21 -30.71 8.75
13.43 -18.58 -0.4
17.13 -23.69 7.83
14.6 -20.33 0.44
1.74 -2.42 -0.47
21.7 -30.21 4.57
6.22 -8.67 -1.31
21.7 -30.21 5.89
7.32 -10.19 -1.1
21.97 -30.58 7.32
10.08 -14.04 -0.91
21.99 -30.61 8.7
13.38 -18.63 -0.4
9.72 -13.53 4.46
14.52 -20.37 0.44
44.42 -62.3 6.69
1.73 -2.43 -0.47
21.46 -30.09 4.54
6.19 -8.68 -1.31
21.59 -30.27 5.89
7.28 -10.21 -1.1
21.84 -30.63 7.31
10.04 -14.08 -0.91
21.96 -30.8 8.73
13.39 -18.77 -0.4
10.38 -14.56 4.79
14.48 -20.46 0.44
44.43 -62.79 6.73
1.72 -2.43 -0.47
21.44 -30.31 4.56
6.15 -8.69 -1.31
21.5 -30.39 5.9
7.23 -10.22 -1.1
21.75 -30.74 7.32
10 -14.13 -0.91
16.11 -22.77 6.44
13.29 -18.78 -0.4
14.19 -20.2 0.43
21.48 -30.59 3.27
1.72 -2.46 -0.48
21.26 -30.27 4.54
6.11 -8.7 -1.31
21.56 -30.7 5.94
7.18 -10.22 -1.09
21.64 -30.82 7.32
9.91 -14.11 -0.9
16.01 -22.8 6.43
13.21 -18.81 -0.4
16.22 -23.1 7.56
14.1 -20.23 0.43
21.32 -30.58 1.95
21.34 -30.62 3.27
1.71 -2.46 -0.47
21.4 -30.7 4.59
6.08 -8.73 -1.31
21.27 -30.52 5.89
7.13 -10.23 -1.09
17.81 -25.55 6.06
9.84 -14.12 -0.9
15.89 -22.8 6.42
13.19 -18.92 -0.4
14.05 -20.3 0.43
21.16 -30.58 1.95
21.28 -30.75 3.27
1.7 -2.45 -0.47
21.09 -30.49 4.55
6.05 -8.74 -1.31
21.22 -30.66 5.91
7.09 -10.25 -1.09
17.71 -25.59 6.05
9.77 -14.12 -0.9
15.97 -23.08 6.48
13.16 -19.02 -0.4
16.25 -23.48 7.65
16.22 -23.61 0.5
21.06 -30.67 1.95
21.36 -31.11 3.3
1.68 -2.44 -0.47
20.95 -30.51 4.54
6 -8.74 -1.3
21.19 -30.86 5.93
7.11 -10.36 -1.1
9.7 -14.12 -0.9
10.11 -14.71 4.12
13.1 -19.08 -0.4
15.46 -22.52 7.32
13.76 -20.19 0.43
15.77 -23.13 1.47
20.79 -30.5 3.23
1.67 -2.45 -0.47
20.92 -30.69 4.56
5.97 -8.76 -1.3
21.3 -31.25 5.99
7.08 -10.38 -1.1
9.58 -14.06 -0.89
10.09 -14.81 4.14
13.08 -19.19 -0.41
15.44 -22.65 7.34
13.92 -20.57 0.43
21.02 -31.07 1.97
20.68 -30.57 3.23
1.66 -2.45 -0.47
20.8 -30.74 4.56
5.94 -8.77 -1.3
20.55 -30.38 5.81
7.03 -10.39 -1.1
9.54 -14.1 -0.89
10.07 -14.89 4.15
13.22 -19.54 -0.41
15.44 -22.82 7.38
13.73 -20.45 0.43
20.49 -30.51 1.93
20.54 -30.59 3.22
1.65 -2.45 -0.47
20.43 -30.43 4.5
5.91 -8.8 -1.3
20.44 -30.44 5.81
6.98 -10.4 -1.1
9.42 -14.02 -0.89
13.26 -19.75 -0.42
10.18 -15.16 4.89
13.98 -20.97 0.44
20.36 -30.55 1.92
20.35 -30.54 3.21
1.64 -2.46 -0.47
20.22 -30.34 4.48
5.88 -8.82 -1.3
20.51 -30.78 5.86
6.96 -10.44 -1.1
20.43 -30.66 7.16
9.33 -14 -0.88
16.67 -25.02 6.94
13.3 -19.95 -0.42
9.92 -14.89 4.79
13.85 -20.95 0.44
20.25 -30.62 1.92
20.26 -30.63 3.21
1.62 -2.46 -0.47
20.27 -30.65 4.51
5.83 -8.81 -1.3
20.08 -30.37 5.77
6.89 -10.42 -1.09
20.4 -30.85 7.19
9.26 -13.99 -0.88
17.55 -26.54 7.35
13.23 -20 -0.42
9.8 -14.82 4.76
13.89 -21.15 0.44
20.31 -30.92 1.94
20.18 -30.73 3.22
1.63 -2.48 -0.47
20.11 -30.62 4.5
19.97 -30.39 5.76
6.86 -10.45 -1.09
20.15 -30.67 7.13
9.21 -14.03 -0.88
20.62 -31.39 8.67
13.18 -20.07 -0.42
9.79 -14.91 4.78
15.69 -24.07 0.5
19.9 -30.52 1.91
20.18 -30.95 3.23
1.62 -2.48 -0.47
20.05 -30.76 4.51
1.82 -2.79 -0.41
19.91 -30.54 5.77
6.83 -10.48 -1.09
15.61 -23.94 5.56
9.16 -14.06 -0.88
20.28 -31.1 8.57
13.18 -20.22 -0.42
15.26 -23.41 7.49
2.38 -3.68 -1.17
14.39 -22.27 0.46
19.77 -30.58 1.91
20.07 -31.05 3.23
19.99 -30.92 4.52
1.77 -2.73 -0.4
19.76 -30.57 5.77
6.77 -10.48 -1.09
19.79 -30.61 7.08
9.08 -14.05 -0.88
20.28 -31.37 8.62
13.37 -20.68 -0.43
9.86 -15.26 4.87
2.36 -3.67 -1.17
14.25 -22.21 0.46
14.15 -22.05 1.37
19.77 -30.82 4.5
1.74 -2.71 -0.39
19.86 -30.96 5.83
6.75 -10.52 -1.09
15.4 -24 5.54
9.01 -14.04 -0.87
20.12 -31.37 8.6
13.24 -20.64 -0.43
19.78 -30.83 9.81
2.38 -3.73 -1.19
14.27 -22.42 0.46
19.61 -30.81 3.2
19.58 -30.76 4.48
1.69 -2.66 -0.39
19.74 -31.02 5.82
6.7 -10.52 -1.09
15.35 -24.11 5.55
8.96 -14.07 -0.87
19.63 -30.84 8.44
13.3 -20.89 -0.43
9.54 -14.98 4.76
2.35 -3.71 -1.18
14.07 -22.26 0.46
19.42 -30.73 3.18
19.51 -30.88 4.48
1.69 -2.68 -0.39
19.53 -30.92 5.79
6.66 -10.55 -1.09
19.54 -30.93 7.11
8.91 -14.1 -0.87
19.46 -30.8 8.41
13.23 -20.94 -0.43
9.5 -15.03 4.76
2.32 -3.7 -1.17
13.84 -22.08 0.45
19.33 -30.83 3.18
19.37 -30.89 4.48
1.67 -2.66 -0.39
15.73 -25.08 4.69
6.64 -10.58 -1.09
15.74 -25.1 5.76
8.87 -14.15 -0.88
9.49 -15.14 4.12
13.35 -21.29 -0.44
19.38 -30.9 9.77
2.29 -3.69 -1.16
13.85 -22.25 0.46
2.23 -3.58 -0.97
19.28 -30.97 3.19
19.81 -31.83 4.6
1.66 -2.66 -0.39
15.67 -25.18 4.7
6.61 -10.63 -1.1
15.59 -25.06 5.74
8.84 -14.2 -0.88
9.63 -15.47 4.21
13.35 -21.44 -0.44
19.38 -31.15 9.83
2.29 -3.71 -1.17
13.82 -22.39 0.46
1.54 -2.5 -0.57
19.26 -31.21 3.21
19.14 -31.02 4.48
1.63 -2.65 -0.38
15.53 -25.16 4.68
6.57 -10.65 -1.1
8.78 -14.22 -0.88
15.26 -24.73 6.71
13.4 -21.71 -0.45
18.91 -30.65 9.65
13.63 -22.25 0.46
1.53 -2.51 -0.57
15.87 -25.92 3.73
1.63 -2.66 -0.38
15.62 -25.51 4.74
6.53 -10.67 -1.09
15.44 -25.2 5.74
8.73 -14.26 -0.88
14.72 -24.04 6.51
13.36 -21.82 -0.45
6.07 -9.92 3.12
13.52 -22.24 0.45
15.68 -25.8 1.58
1.58 -2.6 -0.59
15.74 -25.89 3.72
1.6 -2.64 -0.38
15.56 -25.6 4.75
6.49 -10.68 -1.09
15.41 -25.36 5.77
8.64 -14.21 -0.87
13.37 -22 -0.45
5.99 -9.86 3.09
1.53 -2.53 -0.79
13.56 -22.48 0.46
15.55 -25.79 1.58
15.58 -25.83 2.64
15.6 -25.87 3.71
1.6 -2.66 -0.38
15.3 -25.36 4.69
6.46 -10.71 -1.09
9.25 -15.33 3.48
8.63 -14.31 -0.88
9.22 -15.29 4.12
13.42 -22.25 -0.45
5.96 -9.88 3.09
1.52 -2.54 -0.79
13.48 -22.54 0.46
1.56 -2.61 -0.7
15.46 -25.83 1.58
15.41 -25.76 2.63
15.49 -25.9 3.71
1.59 -2.65 -0.38
15.43 -25.79 4.76
6.42 -10.74 -1.09
9.2 -15.37 3.48
8.6 -14.38 -0.88
13.35 -22.31 -0.45
5.93 -9.92 3.1
1.49 -2.52 -0.78
14.52 -24.46 0.5
1.55 -2.62 -0.7
15.36 -25.87 1.58
15.36 -25.87 2.63
15.4 -25.94 3.7
1.57 -2.64 -0.38
15.05 -25.35 4.67
6.36 -10.71 -1.09
15.03 -25.32 5.72
8.57 -14.44 -0.88
15.38 -25.91 6.96
13.35 -22.49 -0.46
14.6 -24.6 7.66
1.47 -2.5 -0.78
14.59 -24.77 0.5
1.54 -2.62 -0.7
15.27 -25.93 1.58
15.26 -25.91 2.63
15.3 -25.99 3.7
1.56 -2.64 -0.38
14.89 -25.28 4.65
6.33 -10.75 -1.09
15.01 -25.5 5.75
8.53 -14.49 -0.88
15.22 -25.84 6.92
13.46 -22.86 -0.46
14.59 -24.78 7.7
1.45 -2.49 -0.77
14.36 -24.57 0.5
1.53 -2.63 -0.7
15.21 -26.04 1.58
15.18 -25.99 2.63
15.18 -25.98 3.69
1.55 -2.65 -0.38
14.78 -25.3 4.64
6.29 -10.77 -1.09
14.89 -25.48 5.74
8.5 -14.55 -0.88
15.08 -25.81 6.9
13.43 -22.99 -0.46
14.52 -24.85 7.71
1.43 -2.47 -0.76
14.3 -24.67 0.5
1.52 -2.63 -0.7
15.16 -26.16 2.65
15.09 -26.04 3.7
1.53 -2.64 -0.37
14.69 -25.34 4.64
6.24 -10.77 -1.09
14.8 -25.53 5.74
8.45 -14.58 -0.88
14.76 -25.46 6.79
13.46 -23.21 -0.47
8.88 -15.31 4.74
1.42 -2.47 -0.76
14.16 -24.63 0.5
1.51 -2.62 -0.7
15.12 -26.3 2.65
15.05 -26.16 3.71
1.52 -2.64 -0.37
14.61 -25.4 4.64
6.2 -10.79 -1.09
14.62 -25.42 5.7
8.41 -14.62 -0.88
14.58 -25.36 6.75
13.47 -23.42 -0.47
8.29 -14.42 4.46
1.41 -2.48 -0.77
14.05 -24.63 0.49
1.49 -2.62 -0.7
1.46 -2.55 -0.57
15.01 -26.32 2.65
15.01 -26.32 3.72
1.5 -2.63 -0.37
14.6 -25.59 4.67
6.14 -10.77 -1.09
14.63 -25.64 5.74
8.35 -14.64 -0.88
14.59 -25.57 6.8
13.43 -23.55 -0.47
15.19 -26.63 8.22
1.41 -2.49 -0.77
13.92 -24.6 0.49
1.48 -2.62 -0.7
1.45 -2.56 -0.57
14.54 -25.69 3.62
1.49 -2.63 -0.37
14.48 -25.59 4.66
6.12 -10.81 -1.09
14.52 -25.65 5.73
8.31 -14.68 -0.88
14.52 -25.65 6.8
13.44 -23.75 -0.48
6.54 -11.56 3.56
1.4 -2.49 -0.77
13.9 -24.78 0.5
1.45 -2.59 -0.69
1.44 -2.56 -0.57
14.44 -25.73 3.62
1.48 -2.64 -0.37
14.41 -25.69 4.66
6.07 -10.82 -1.09
14.38 -25.63 5.71
8.26 -14.72 -0.88
6.26 -11.15 2.95
13.45 -23.98 -0.48
6.53 -11.64 3.58
1.39 -2.49 -0.77
13.88 -24.95 0.5
1.44 -2.58 -0.68
1.47 -2.65 -0.37
14.29 -25.68 4.66
6.01 -10.8 -1.08
14.27 -25.64 5.7
8.2 -14.74 -0.88
6.23 -11.2 2.96
13.47 -24.2 -0.48
5.63 -10.12 3.1
1.37 -2.49 -0.76
13.81 -25.01 0.5
1.42 -2.58 -0.68
1.46 -2.64 -0.37
14.76 -26.74 4.84
5.98 -10.83 -1.08
14.43 -26.15 5.81
8.17 -14.8 -0.89
6.21 -11.25 2.97
13.5 -24.46 -0.49
5.59 -10.12 3.1
1.37 -2.5 -0.76
13.74 -25.09 0.5
1.41 -2.58 -0.68
16.58 -30.28 4.24
1.45 -2.65 -0.37
14.59 -26.64 4.81
5.93 -10.84 -1.08
14.12 -25.78 5.71
8.11 -14.81 -0.89
14.36 -26.23 6.9
13.52 -24.68 -0.49
5.55 -10.14 3.1
1.36 -2.51 -0.76
13.74 -25.3 0.5
1.4 -2.58 -0.68
16.76 -30.86 3.07
10.18 -18.76 2.62
1.44 -2.65 -0.37
10.19 -18.77 3.38
5.89 -10.85 -1.08
8.09 -14.91 3.3
8.09 -14.9 -0.89
8.05 -14.83 3.9
13.53 -24.92 -0.49
5.52 -10.17 3.1
1.35 -2.51 -0.77
13.68 -25.4 0.5
1.4 -2.59 -0.68
10.11 -18.77 2.62
1.42 -2.64 -0.37
10.11 -18.77 3.38
5.84 -10.84 -1.08
10.1 -18.76 4.14
8.03 -14.91 -0.89
10.09 -18.74 4.91
13.54 -25.13 -0.5
10.08 -18.71 5.69
1.34 -2.51 -0.76
18.74 -35.11 0.69
1.39 -2.61 -0.68
18.71 -35.04 2.08
18.77 -35.15 3.49
10.04 -18.8 2.62
1.42 -2.65 -0.37
10.03 -18.78 3.37
5.78 -10.83 -1.07
10.02 -18.76 4.13
7.98 -14.94 -0.89
10.01 -18.75 4.91
13.55 -25.38 -0.5
10 -18.72 5.69
1.33 -2.52 -0.76
16.66 -31.46 0.62
1.38 -2.61 -0.68
18.57 -35.07 2.08
18.62 -35.15 3.48
9.96 -18.8 2.61
1.41 -2.66 -0.37
9.96 -18.8 3.37
5.74 -10.84 -1.07
9.93 -18.76 4.13
7.95 -15 -0.89
9.94 -18.76 4.9
13.59 -25.66 -0.51
9.91 -18.71 5.67
1.32 -2.52 -0.76
16.21 -30.88 0.61
1.37 -2.62 -0.68
18.49 -35.21 2.08
18.5 -35.23 3.48
9.87 -18.8 2.61
1.39 -2.65 -0.37
9.87 -18.81 3.36
5.7 -10.86 -1.07
9.86 -18.77 4.12
7.91 -15.06 -0.89
9.86 -18.78 4.9
13.57 -25.84 -0.51
9.83 -18.72 5.67
1.33 -2.55 -0.77
16.01 -30.76 0.61
1.37 -2.62 -0.68
16.09 -30.91 1.83
9.79 -18.81 2.6
1.38 -2.65 -0.37
9.79 -18.81 3.36
5.65 -10.86 -1.07
9.78 -18.78 4.11
7.88 -15.15 -0.89
9.76 -18.76 4.88
13.63 -26.19 -0.52
9.75 -18.74 5.66
1.36 -2.63 -0.79
15.89 -30.79 0.6
1.37 -2.65 -0.69
15.91 -30.82 1.82
15.97 -30.94 3.05
9.71 -18.82 2.6
1.37 -2.66 -0.37
9.71 -18.81 3.35
5.62 -10.89 -1.07
9.7 -18.79 4.11
7.84 -15.19 -0.9
9.69 -18.77 4.88
13.65 -26.45 -0.52
9.68 -18.75 5.65
1.31 -2.57 -0.77
15.78 -30.83 0.6
1.37 -2.68 -0.69
15.81 -30.9 1.82
1.38 -2.7 -0.59
15.81 -30.9 3.04
9.63 -18.82 2.6
1.35 -2.64 -0.36
9.63 -18.81 3.35
5.58 -10.9 -1.07
9.62 -18.8 4.11
7.81 -15.26 -0.9
5.26 -10.27 2.66
13.67 -26.72 -0.52
9.58 -18.73 5.64
1.31 -2.57 -0.77
15.71 -30.97 0.61
1.37 -2.71 -0.7
15.71 -30.96 1.82
15.68 -30.9 3.03
9.56 -18.84 2.59
1.35 -2.66 -0.37
9.55 -18.83 3.34
5.54 -10.91 -1.07
9.54 -18.8 4.1
7.8 -15.38 -0.9
5.22 -10.29 2.66
13.71 -27.02 -0.53
9.51 -18.74 5.63
1.3 -2.57 -0.77
1.38 -2.74 -0.71
15.61 -31.03 1.82
15.56 -30.94 3.03
9.47 -18.83 2.59
1.34 -2.66 -0.37
9.48 -18.84 3.34
5.49 -10.92 -1.07
9.46 -18.8 4.09
7.72 -15.35 -0.9
13.73 -27.31 -0.53
6.14 -12.22 3.66
1.3 -2.6 -0.78
1.34 -2.69 -0.7
15.53 -31.14 3.04
1.27 -2.54 -0.45
9.4 -18.85 2.59
1.33 -2.66 -0.37
9.4 -18.85 3.34
5.45 -10.93 -1.07
9.38 -18.81 4.09
7.7 -15.44 -0.9
9.38 -18.81 4.85
13.77 -27.61 -0.54
9.36 -18.76 5.62
1.28 -2.6 -0.78
1.34 -2.71 -0.7
15.53 -31.4 3.06
1.24 -2.52 -0.44
9.33 -18.86 2.58
1.31 -2.65 -0.36
9.32 -18.85 3.33
5.41 -10.94 -1.07
9.3 -18.82 4.08
7.63 -15.44 -0.9
9.31 -18.82 4.85
13.78 -27.88 -0.54
9.28 -18.78 5.61
1.27 -2.58 -0.77
1.34 -2.73 -0.7
1.27 -2.6 -0.56
1.25 -2.55 -0.45
9.25 -18.87 2.58
1.3 -2.66 -0.36
9.24 -18.86 3.33
5.36 -10.94 -1.07
9.23 -18.84 4.08
7.61 -15.53 -0.91
4.96 -10.11 2.6
13.8 -28.16 -0.55
4.82 -9.83 2.93
1.27 -2.61 -0.78
15.38 -31.66 0.61
1.27 -2.62 -0.67
1.25 -2.58 -0.56
1.23 -2.52 -0.44
9.17 -18.87 2.58
1.3 -2.68 -0.37
9.16 -18.86 3.32
5.31 -10.94 -1.06
4.94 -10.18 2.2
7.58 -15.6 -0.91
4.9 -10.09 2.59
13.83 -28.47 -0.55
4.78 -9.85 2.93
1.25 -2.6 -0.77
15.1 -31.36 0.61
1.26 -2.61 -0.67
1.25 -2.59 -0.56
1.21 -2.51 -0.44
9.08 -18.86 2.57
1.28 -2.66 -0.36
4.92 -10.21 1.79
5.25 -10.91 -1.06
4.87 -10.12 2.18
7.54 -15.65 -0.91
4.85 -10.07 2.58
13.87 -28.8 -0.56
4.79 -9.96 2.96
1.27 -2.67 -0.79
14.99 -31.41 0.61
1.23 -2.59 -0.66
1.24 -2.59 -0.56
1.2 -2.51 -0.44
4.86 -10.19 1.39
1.27 -2.67 -0.36
4.86 -10.17 1.79
4.96 -10.4 -1.01
4.82 -10.11 2.18
7.48 -15.68 -0.91
4.8 -10.06 2.57
13.85 -29.03 -0.56
4.79 -10.04 2.98
1.23 -2.6 -0.66
1.22 -2.58 -0.55
4.86 -10.27 0.99
1.2 -2.54 -0.44
4.81 -10.17 1.38
1.26 -2.67 -0.36
4.8 -10.15 1.78
4.91 -10.37 -1
4.78 -10.11 2.17
7.45 -15.75 -0.91
4.76 -10.06 2.57
13.78 -29.14 -0.56
4.75 -10.05 2.98
1.12 -2.39 -0.71
8.88 -18.94 0.37
1.22 -2.6 -0.66
8.88 -18.96 1.1
1.21 -2.59 -0.56
4.77 -10.19 0.98
1.17 -2.5 -0.44
4.75 -10.15 1.38
1.26 -2.68 -0.36
4.76 -10.15 1.78
4.84 -10.34 -1
4.73 -10.1 2.17
7.38 -15.74 -0.91
4.73 -10.08 2.57
8.89 -18.97 -0.37
4.71 -10.06 2.98
1.11 -2.39 -0.71
8.81 -18.96 0.36
1.23 -2.64 -0.67
4.74 -10.2 0.59
1.2 -2.59 -0.55
4.72 -10.16 0.98
1.16 -2.51 -0.44
4.71 -10.14 1.37
1.25 -2.68 -0.36
4.72 -10.16 1.77
4.82 -10.38 -1
4.7 -10.11 2.17
7.37 -15.86 -0.92
4.7 -10.11 2.57
8.82 -18.99 -0.37
4.69 -10.09 2.98
1.11 -2.42 -0.71
4.68 -10.17 0.2
4.69 -10.18 0.59
1.2 -2.61 -0.56
4.68 -10.16 0.98
1.15 -2.51 -0.44
4.67 -10.15 1.37
1.23 -2.67 -0.36
4.69 -10.18 1.78
4.73 -10.27 -0.99
4.66 -10.13 2.17
4.72 -10.26 -0.59
4.67 -10.15 2.58
4.71 -10.22 -0.2
4.66 -10.13 2.99
4.63 -10.17 0.2
1.11 -2.43 -0.62
4.63 -10.15 0.58
1.21 -2.65 -0.57
4.64 -10.17 0.98
1.14 -2.49 -0.43
4.63 -10.16 1.37
1.21 -2.66 -0.36
4.64 -10.17 1.77
4.67 -10.24 -0.98
4.63 -10.16 2.17
4.66 -10.23 -0.59
4.65 -10.2 2.59
4.65 -10.2 -0.2
4.65 -10.19 3
4.6 -10.17 0.19
1.09 -2.42 -0.61
4.59 -10.16 0.58
1.2 -2.65 -0.57
4.6 -10.18 0.98
1.13 -2.51 -0.44
4.6 -10.19 1.37
1.21 -2.68 -0.36
4.61 -10.21 1.77
4.62 -10.23 -0.98
4.61 -10.2 2.18
4.62 -10.22 -0.59
8.53 -18.88 4.78
4.61 -10.2 -0.2
8.51 -18.85 5.54
4.55 -10.17 0.19
4.56 -10.18 0.58
4.56 -10.19 0.98
1.12 -2.51 -0.44
4.57 -10.21 1.37
1.2 -2.67 -0.36
4.59 -10.25 1.78
4.58 -10.23 -0.98
4.58 -10.24 2.18
4.57 -10.21 -0.59
8.46 -18.89 4.78
4.56 -10.19 -0.19
8.43 -18.83 5.53
4.51 -10.17 0.19
4.53 -10.2 0.59
1.09 -2.46 -0.52
4.53 -10.22 0.98
1.11 -2.5 -0.43
4.54 -10.23 1.37
1.19 -2.69 -0.36
8.39 -18.92 3.28
4.53 -10.21 -0.98
4.55 -10.27 2.18
4.52 -10.2 -0.58
8.38 -18.89 4.77
4.52 -10.19 -0.19
8.36 -18.84 5.52
4.48 -10.2 0.19
4.49 -10.22 0.59
1.1 -2.51 -0.53
4.51 -10.26 0.98
1.1 -2.5 -0.43
4.52 -10.28 1.38
1.18 -2.69 -0.36
8.32 -18.94 3.28
4.49 -10.21 -0.98
4.48 -10.21 -0.58
8.3 -18.9 4.77
4.48 -10.21 -0.19
8.29 -18.86 5.52
4.45 -10.22 0.19
4.46 -10.25 0.59
4.49 -10.33 0.99
1.09 -2.51 -0.43
1.17 -2.68 -0.36
8.25 -18.95 3.27
4.45 -10.23 -0.98
8.23 -18.91 4.01
4.45 -10.23 -0.58
8.22 -18.89 4.76
4.45 -10.23 -0.19
8.21 -18.87 5.51
4.42 -10.26 0.2
4.44 -10.3 0.59
8.19 -18.99 1.81
1.09 -2.53 -0.44
8.17 -18.96 2.54
1.16 -2.7 -0.36
8.17 -18.95 3.27
4.41 -10.23 -0.97
8.15 -18.92 4
4.42 -10.25 -0.59
8.15 -18.9 4.75
4.42 -10.26 -0.19
8.14 -18.88 5.51
4.41 -10.32 0.2
8.12 -19.01 1.08
8.1 -18.98 1.81
1.07 -2.51 -0.43
8.1 -18.97 2.53
1.16 -2.71 -0.36
8.1 -18.96 3.27
4.38 -10.25 -0.97
8.08 -18.92 4
4.39 -10.29 -0.59
8.07 -18.91 4.75
4.4 -10.3 -0.2
8.06 -18.87 5.5
1.1 -2.61 -0.76
8.04 -19.02 0.36
8.03 -19 1.08
8.03 -18.99 1.8
1.06 -2.5 -0.43
8.02 -18.97 2.53
1.14 -2.7 -0.36
8.02 -18.96 3.26
4.35 -10.28 -0.98
8 -18.93 3.99
4.36 -10.31 -0.59
8 -18.91 4.74
4.39 -10.37 -0.2
7.98 -18.88 5.49
1.4 -3.35 -0.97
7.96 -19.02 0.36
1.04 -2.48 -0.62
7.96 -19.01 1.08
7.96 -19 1.8
1.05 -2.51 -0.43
7.94 -18.97 2.53
1.14 -2.71 -0.36
7.94 -18.96 3.26
4.32 -10.32 -0.98
7.93 -18.94 3.99
4.34 -10.36 -0.59
7.94 -18.95 4.74
7.98 -19.05 -0.36
7.91 -18.89 5.49
1.39 -3.36 -0.98
6.89 -16.62 0.31
1.42 -3.41 -0.85
6.88 -16.59 0.94
6.88 -16.59 1.57
1.04 -2.52 -0.43
6.86 -16.54 2.2
1.12 -2.69 -0.36
7.87 -18.99 3.26
4.3 -10.38 -0.98
6.55 -15.79 3.32
4.29 -10.35 2.59
6.9 -16.64 -0.31
6.84 -16.5 4.79
1.39 -3.39 -0.98
6.82 -16.62 0.31
1.42 -3.45 -0.86
6.81 -16.6 0.94
1.04 -2.54 -0.53
6.81 -16.59 1.57
1.03 -2.51 -0.43
6.8 -16.56 2.2
1.11 -2.71 -0.36
6.8 -16.55 2.83
4.31 -10.49 -0.99
6.49 -15.82 3.32
6.81 -16.59 -0.94
4.26 -10.38 2.59
6.8 -16.57 -0.31
6.78 -16.51 4.78
1.42 -3.49 -1.01
6.76 -16.62 0.31
1.42 -3.49 -0.87
6.75 -16.61 0.94
1.4 -3.44 -0.72
6.74 -16.59 1.57
1.02 -2.52 -0.43
6.74 -16.57 2.2
1.11 -2.73 -0.36
6.73 -16.56 2.83
4.46 -10.97 -1.04
6.5 -15.99 3.35
6.73 -16.57 -0.94
6.73 -16.55 4.13
6.67 -16.4 -0.31
6.71 -16.51 4.77
1.42 -3.52 -1.02
6.69 -16.62 0.31
1.43 -3.55 -0.88
6.69 -16.61 0.94
1.41 -3.5 -0.73
6.68 -16.6 1.57
1.01 -2.51 -0.43
6.67 -16.58 2.19
1.09 -2.72 -0.36
6.67 -16.56 2.83
4.46 -11.08 -1.04
6.52 -16.21 3.4
6.65 -16.53 -0.93
6.66 -16.54 4.12
6.66 -16.56 -0.31
6.65 -16.53 4.77
1.42 -3.56 -1.03
6.63 -16.62 0.31
1.48 -3.72 -0.92
6.62 -16.61 0.94
6.62 -16.6 1.56
1 -2.52 -0.43
6.61 -16.57 2.19
1.09 -2.72 -0.36
6.61 -16.57 2.83
4.45 -11.15 -1.05
6.54 -16.4 3.43
6.56 -16.44 -0.93
6.6 -16.54 4.11
6.64 -16.65 -0.31
4.17 -10.46 3.02
1.45 -3.67 -1.06
6.56 -16.63 0.31
1.48 -3.75 -0.93
6.56 -16.61 0.94
6.56 -16.61 1.56
1 -2.53 -0.43
6.54 -16.58 2.19
1.08 -2.73 -0.36
6.55 -16.58 2.82
4.42 -11.19 -1.05
6.54 -16.58 3.46
6.43 -16.28 -0.92
6.53 -16.54 4.11
6.55 -16.58 -0.31
4.13 -10.47 3.02
1.45 -3.71 -1.07
6.5 -16.63 0.31
1.47 -3.76 -0.93
6.49 -16.62 0.93
6.49 -16.61 1.56
0.99 -2.53 -0.43
6.48 -16.58 2.19
1.06 -2.73 -0.36
6.48 -16.58 2.82
4.37 -11.2 -1.05
6.47 -16.56 3.46
6.37 -16.31 -0.92
6.47 -16.55 4.1
6.49 -16.62 -0.31
6.45 -16.52 4.75
1.44 -3.71 -1.07
6.43 -16.64 0.31
1.46 -3.76 -0.93
6.43 -16.63 0.93
6.42 -16.61 1.56
0.98 -2.52 -0.43
6.42 -16.6 2.18
1.06 -2.73 -0.36
6.41 -16.59 2.82
4.33 -11.2 -1.05
6.41 -16.57 3.45
6.29 -16.27 -0.91
6.41 -16.57 4.1
6.44 -16.65 -0.31
4.04 -10.44 3
1.42 -3.71 -1.06
6.37 -16.64 0.31
1.44 -3.77 -0.93
6.37 -16.64 0.93
6.36 -16.61 1.56
0.96 -2.52 -0.43
6.36 -16.61 2.18
1.04 -2.73 -0.36
6.35 -16.59 2.81
4.29 -11.22 -1.05
6.34 -16.58 3.45
6.3 -16.47 -0.92
6.34 -16.57 4.1
6.38 -16.66 -0.31
3.99 -10.43 2.99
1.41 -3.71 -1.06
6.31 -16.66 0.31
1.42 -3.75 -0.93
6.3 -16.64 0.93
6.3 -16.63 1.56
0.95 -2.52 -0.43
6.28 -16.6 2.18
1.04 -2.75 -0.36
6.29 -16.61 2.81
4.25 -11.22 -1.05
6.27 -16.57 3.44
6.26 -16.54 -0.93
6.28 -16.58 4.09
6.32 -16.68 -0.31
3.96 -10.46 3
1.39 -3.72 -1.07
6.24 -16.66 0.31
1.41 -3.75 -0.92
6.24 -16.64 0.93
6.23 -16.63 1.55
0.95 -2.53 -0.43
6.22 -16.61 2.18
1.02 -2.73 -0.36
6.22 -16.61 2.81
4.2 -11.22 -1.05
6.21 -16.58 3.44
6.23 -16.62 -0.93
6.21 -16.57 4.09
6.25 -16.68 -0.31
3.94 -10.51 3.01
1.38 -3.73 -1.07
6.18 -16.67 0.31
1.39 -3.75 -0.92
6.17 -16.65 0.93
6.17 -16.65 1.55
0.94 -2.53 -0.43
6.16 -16.61 2.18
1.02 -2.74 -0.36
6.16 -16.62 2.81
4.17 -11.26 -1.05
6.15 -16.58 3.44
6.16 -16.62 -0.93
6.15 -16.58 4.08
6.18 -16.68 -0.31
3.91 -10.55 3.01
1.36 -3.71 -1.06
6.11 -16.67 0.31
1.38 -3.76 -0.92
6.11 -16.66 0.93
1.42 -3.87 -0.8
6.1 -16.65 1.55
0.93 -2.53 -0.43
6.1 -16.63 2.18
1.01 -2.75 -0.36
6.09 -16.62 2.8
4.14 -11.29 -1.05
6.08 -16.59 3.43
6.12 -16.69 -0.93
6.08 -16.59 4.08
6.11 -16.68 -0.31
3.87 -10.57 3.02
1.35 -3.72 -1.06
6.04 -16.67 0.31
1.37 -3.78 -0.93
6.05 -16.67 0.93
1.38 -3.8 -0.78
6.04 -16.66 1.55
0.92 -2.52 -0.43
6.03 -16.63 2.17
1 -2.77 -0.36
6.03 -16.63 2.8
4.1 -11.3 -1.05
6.02 -16.59 3.43
6.05 -16.68 -0.93
6.02 -16.6 4.08
6.05 -16.7 -0.31
6.01 -16.57 4.72
1.34 -3.73 -1.06
5.98 -16.68 0.31
1.34 -3.74 -0.92
5.98 -16.68 0.93
1.39 -3.88 -0.8
5.98 -16.66 1.55
0.91 -2.53 -0.42
5.96 -16.62 2.17
0.99 -2.76 -0.36
5.97 -16.64 2.8
4.06 -11.32 -1.05
5.95 -16.6 3.43
5.96 -16.61 -0.92
5.95 -16.6 4.07
5.94 -16.58 4.72
1.35 -3.81 -1.08
5.92 -16.68 0.31
1.33 -3.75 -0.92
5.91 -16.67 0.93
1.36 -3.82 -0.79
5.91 -16.67 1.55
0.9 -2.53 -0.43
5.9 -16.63 2.17
0.98 -2.76 -0.36
5.9 -16.65 2.8
4.03 -11.35 -1.05
5.89 -16.61 3.43
5.88 -16.58 -0.92
5.88 -16.59 4.06
5.83 -16.45 -0.3
5.88 -16.59 4.72
5.86 -16.69 0.31
1.32 -3.75 -0.92
5.85 -16.67 0.93
1.35 -3.85 -0.79
5.85 -16.67 1.55
0.89 -2.53 -0.43
5.84 -16.64 2.17
0.97 -2.76 -0.36
5.84 -16.63 2.79
3.99 -11.37 -1.05
5.83 -16.61 3.42
5.76 -16.39 -0.91
5.84 -16.64 4.07
5.82 -16.57 -0.31
5.82 -16.58 4.71
1.11 -3.21 -0.91
5.8 -16.69 0.31
1.3 -3.75 -0.92
5.79 -16.68 0.93
1.35 -3.89 -0.8
5.78 -16.66 1.54
0.88 -2.54 -0.43
5.78 -16.65 2.16
0.96 -2.77 -0.36
5.78 -16.64 2.79
3.95 -11.37 -1.05
5.77 -16.62 3.42
5.7 -16.41 -0.91
5.77 -16.61 4.06
5.8 -16.71 -0.31
5.76 -16.58 4.7
1.1 -3.19 -0.9
5.73 -16.69 0.31
1.29 -3.74 -0.91
5.73 -16.68 0.92
5.72 -16.67 1.54
0.87 -2.53 -0.42
5.72 -16.66 2.16
0.95 -2.76 -0.36
5.71 -16.64 2.79
3.91 -11.39 -1.05
5.7 -16.61 3.41
5.64 -16.42 -0.91
5.7 -16.61 4.06
5.73 -16.68 -0.31
5.69 -16.59 4.7
1.09 -3.2 -0.91
5.67 -16.7 0.31
1.27 -3.74 -0.91
5.66 -16.69 0.92
1.31 -3.85 -0.79
5.66 -16.68 1.54
0.86 -2.53 -0.42
5.65 -16.65 2.16
0.95 -2.79 -0.36
5.65 -16.65 2.79
3.87 -11.41 -1.05
5.64 -16.62 3.41
5.6 -16.51 -0.91
5.65 -16.64 4.06
5.62 -16.54 -0.3
5.63 -16.6 4.7
1.07 -3.2 -0.9
5.61 -16.71 0.31
1.18 -3.5 -0.85
5.6 -16.69 0.92
1.29 -3.84 -0.79
5.6 -16.69 1.54
0.85 -2.53 -0.42
5.59 -16.66 2.16
0.93 -2.77 -0.36
5.59 -16.66 2.78
3.84 -11.44 -1.06
5.58 -16.64 3.41
5.61 -16.71 -0.92
5.58 -16.63 4.05
5.57 -16.61 4.69
1.06 -3.19 -0.9
5.54 -16.72 0.31
1.14 -3.44 -0.84
5.54 -16.7 0.92
5.54 -16.69 1.54
0.84 -2.54 -0.42
5.53 -16.67 2.16
0.93 -2.8 -0.36
5.53 -16.66 2.78
3.79 -11.43 -1.05
5.52 -16.64 3.41
5.55 -16.74 -0.92
5.52 -16.64 4.05
5.55 -16.73 -0.31
5.51 -16.62 4.69
1.04 -3.19 -0.9
5.48 -16.72 0.31
5.48 -16.71 0.92
5.47 -16.69 1.54
0.83 -2.54 -0.42
5.47 -16.68 2.16
0.91 -2.78 -0.36
5.46 -16.67 2.78
3.76 -11.47 -1.06
5.45 -16.64 3.4
5.49 -16.76 -0.92
5.46 -16.65 4.05
5.49 -16.75 -0.31
5.45 -16.62 4.69
1.03 -3.18 -0.9
5.41 -16.72 0.31
5.41 -16.72 0.92
5.41 -16.71 1.54
0.82 -2.53 -0.42
5.4 -16.68 2.15
0.9 -2.79 -0.36
5.4 -16.69 2.78
3.71 -11.47 -1.05
5.39 -16.64 3.4
5.43 -16.77 -0.92
5.39 -16.66 4.04
5.42 -16.75 -0.31
5.38 -16.63 4.68
1.02 -3.18 -0.89
5.35 -16.73 0.31
5.35 -16.73 0.92
5.35 -16.71 1.54
0.81 -2.54 -0.42
5.34 -16.68 2.15
0.9 -2.81 -0.36
5.34 -16.69 2.78
3.68 -11.51 -1.06
5.33 -16.65 3.4
5.36 -16.77 -0.92
5.33 -16.66 4.04
5.36 -16.77 -0.31
5.32 -16.64 4.68
1.01 -3.19 -0.9
5.29 -16.74 0.31
1.03 -3.27 -0.79
5.29 -16.72 0.92
5.29 -16.72 1.53
0.8 -2.54 -0.42
5.27 -16.69 2.15
0.89 -2.8 -0.36
5.28 -16.7 2.77
3.65 -11.54 -1.06
5.27 -16.66 3.4
5.3 -16.78 -0.92
5.26 -16.65 4.03
5.3 -16.77 -0.31
5.26 -16.65 4.68
0.99 -3.18 -0.89
5.23 -16.75 0.31
1.02 -3.28 -0.79
5.23 -16.73 0.92
5.23 -16.73 1.53
0.79 -2.54 -0.42
5.22 -16.7 2.15
0.88 -2.81 -0.36
5.22 -16.7 2.77
3.59 -11.51 -1.05
5.21 -16.67 3.39
5.24 -16.78 -0.92
5.24 -16.76 -0.31
5.2 -16.65 4.67
0.98 -3.18 -0.89
5.17 -16.75 0.31
1 -3.25 -0.79
5.17 -16.74 0.92
0.78 -2.53 -0.51
5.16 -16.72 1.53
0.78 -2.54 -0.42
5.15 -16.7 2.15
0.87 -2.81 -0.36
5.16 -16.7 2.77
3.56 -11.54 -1.06
5.14 -16.67 3.39
5.18 -16.79 -0.92
4.75 -15.4 3.72
5.18 -16.77 -0.31
5.14 -16.64 4.67
0.97 -3.17 -0.89
5.1 -16.75 0.31
0.99 -3.24 -0.78
5.1 -16.74 0.92
0.76 -2.51 -0.51
5.1 -16.74 1.53
0.77 -2.54 -0.42
5.09 -16.71 2.14
0.86 -2.83 -0.36
5.09 -16.72 2.77
3.53 -11.57 -1.06
5.08 -16.67 3.39
5.12 -16.8 -0.92
5.08 -16.67 4.02
5.11 -16.78 -0.31
5.07 -16.65 4.66
0.96 -3.18 -0.89
5.04 -16.75 0.31
0.98 -3.25 -0.78
5.04 -16.75 0.92
0.75 -2.5 -0.51
5.04 -16.74 1.53
0.76 -2.54 -0.42
5.03 -16.7 2.14
0.85 -2.84 -0.36
5.03 -16.71 2.76
3.49 -11.61 -1.06
5.02 -16.68 3.39
5.05 -16.77 -0.92
4.62 -15.34 3.7
5.05 -16.79 -0.31
5.01 -16.65 4.66
0.94 -3.17 -0.89
4.98 -16.76 0.31
0.97 -3.26 -0.79
4.98 -16.74 0.92
0.74 -2.5 -0.51
4.98 -16.74 1.53
0.76 -2.54 -0.42
4.97 -16.7 2.14
0.84 -2.83 -0.36
4.97 -16.71 2.76
3.45 -11.61 -1.06
4.96 -16.69 3.38
4.99 -16.79 -0.92
4.96 -16.68 4.02
4.99 -16.79 -0.31
4.95 -16.66 4.66
0.93 -3.17 -0.89
4.92 -16.77 0.31
0.96 -3.26 -0.78
4.92 -16.75 0.91
0.73 -2.49 -0.5
4.92 -16.75 1.53
0.75 -2.55 -0.42
4.91 -16.72 2.14
0.84 -2.85 -0.36
4.91 -16.71 2.76
3.41 -11.62 -1.06
4.9 -16.7 3.38
4.93 -16.8 -0.92
4.9 -16.68 4.01
4.93 -16.78 -0.31
4.89 -16.66 4.65
0.92 -3.18 -0.89
4.86 -16.78 0.3
0.95 -3.28 -0.79
4.85 -16.76 0.91
0.72 -2.5 -0.51
4.85 -16.74 1.52
0.74 -2.55 -0.42
4.84 -16.73 2.14
0.82 -2.85 -0.36
4.84 -16.72 2.76
3.37 -11.63 -1.06
4.84 -16.7 3.38
4.87 -16.82 -0.92
4.83 -16.68 4.01
4.86 -16.78 -0.3
4.82 -16.66 4.65
0.91 -3.18 -0.89
4.79 -16.77 0.3
0.94 -3.3 -0.79
4.79 -16.77 0.91
0.71 -2.5 -0.5
4.79 -16.75 1.52
0.73 -2.55 -0.42
4.78 -16.73 2.14
0.82 -2.86 -0.37
4.78 -16.73 2.76
3.33 -11.65 -1.06
4.77 -16.7 3.38
4.81 -16.83 -0.92
4.77 -16.71 4.01
4.8 -16.8 -0.3
4.76 -16.67 4.65
0.9 -3.19 -0.89
4.73 -16.77 0.3
0.94 -3.31 -0.79
4.73 -16.78 0.91
0.7 -2.49 -0.5
4.73 -16.76 1.52
0.72 -2.54 -0.42
4.72 -16.73 2.13
0.81 -2.87 -0.37
4.72 -16.74 2.75
3.29 -11.66 -1.06
4.72 -16.71 3.38
4.75 -16.82 -0.92
4.72 -16.72 4.01
4.71 -16.68 4.64
0.89 -3.2 -0.89
4.67 -16.78 0.3
0.92 -3.31 -0.79
4.67 -16.78 0.91
0.69 -2.49 -0.5
4.67 -16.77 1.52
0.71 -2.56 -0.42
4.66 -16.75 2.13
0.8 -2.87 -0.37
4.66 -16.74 2.75
3.25 -11.67 -1.06
4.66 -16.72 3.37
4.68 -16.82 -0.92
4.65 -16.71 4
4.65 -16.69 4.64
0.88 -3.21 -0.89
4.61 -16.8 0.3
0.91 -3.33 -0.8
4.61 -16.78 0.91
0.68 -2.49 -0.5
4.6 -16.77 1.52
0.7 -2.57 -0.42
4.6 -16.76 2.13
0.79 -2.86 -0.36
4.6 -16.74 2.75
3.21 -11.7 -1.06
4.59 -16.74 3.37
4.19 -15.28 -0.83
4.59 -16.72 4
4.21 -15.34 -0.28
4.59 -16.7 4.64
0.87 -3.21 -0.89
4.55 -16.8 0.3
0.9 -3.34 -0.8
4.55 -16.79 0.91
0.67 -2.49 -0.5
4.54 -16.77 1.52
0.69 -2.56 -0.42
4.54 -16.76 2.13
0.78 -2.87 -0.37
4.53 -16.75 2.75
3.16 -11.69 -1.06
4.53 -16.73 3.37
4.21 -15.55 -0.84
4.53 -16.73 4
4.16 -15.35 -0.28
4.52 -16.68 4.63
0.86 -3.21 -0.89
4.49 -16.8 0.3
0.9 -3.35 -0.8
4.49 -16.8 0.91
0.67 -2.49 -0.5
4.48 -16.78 1.52
0.68 -2.56 -0.42
4.48 -16.77 2.13
0.77 -2.89 -0.37
4.48 -16.77 2.75
3.13 -11.72 -1.06
4.47 -16.72 3.36
4.5 -16.84 -0.91
4.47 -16.73 4
4.46 -16.69 4.63
0.85 -3.22 -0.89
4.43 -16.81 0.3
0.88 -3.33 -0.79
4.43 -16.8 0.91
0.66 -2.49 -0.5
4.42 -16.78 1.52
0.67 -2.56 -0.42
4.42 -16.76 2.13
0.76 -2.9 -0.37
4.42 -16.77 2.75
3.09 -11.72 -1.06
4.41 -16.73 3.36
4.44 -16.84 -0.91
4.41 -16.75 4
4.06 -15.41 -0.28
4.41 -16.72 4.63
0.83 -3.21 -0.89
4.37 -16.82 0.3
0.87 -3.34 -0.8
4.36 -16.8 0.91
0.65 -2.5 -0.5
4.36 -16.8 1.52
0.67 -2.57 -0.42
4.36 -16.77 2.13
0.75 -2.88 -0.37
4.36 -16.78 2.75
3.04 -11.72 -1.06
4.35 -16.74 3.36
4.26 -16.4 -0.89
4.35 -16.74 3.99
4.01 -15.44 -0.28
4.34 -16.72 4.63
0.83 -3.22 -0.89
4.31 -16.82 0.3
0.86 -3.36 -0.8
4.3 -16.81 0.91
0.64 -2.49 -0.5
4.3 -16.81 1.52
0.66 -2.57 -0.42
4.29 -16.77 2.13
0.74 -2.9 -0.37
4.29 -16.77 2.74
3 -11.73 -1.06
4.29 -16.75 3.36
4.3 -16.8 -0.91
4.29 -16.75 3.99
4.31 -16.84 -0.3
4.28 -16.73 4.63
0.81 -3.2 -0.89
4.25 -16.83 0.3
0.84 -3.33 -0.79
4.24 -16.81 0.91
0.63 -2.5 -0.5
4.24 -16.8 1.52
0.65 -2.58 -0.42
4.23 -16.78 2.12
0.74 -2.93 -0.37
4.23 -16.78 2.74
2.96 -11.75 -1.06
4.23 -16.75 3.36
4.26 -16.87 -0.91
4.23 -16.75 3.99
4.25 -16.83 -0.3
4.22 -16.72 4.62
0.8 -3.21 -0.89
4.18 -16.83 0.3
4.18 -16.82 0.91
0.62 -2.5 -0.5
4.18 -16.82 1.52
0.64 -2.57 -0.42
4.17 -16.79 2.12
0.73 -2.94 -0.37
4.17 -16.79 2.74
2.91 -11.73 -1.06
4.16 -16.75 3.35
4.2 -16.88 -0.91
4.17 -16.76 3.99
4.19 -16.85 -0.3
4.16 -16.73 4.62
0.79 -3.23 -0.89
4.12 -16.83 0.3
4.12 -16.83 0.91
0.61 -2.51 -0.5
4.12 -16.82 1.52
0.63 -2.58 -0.42
4.11 -16.78 2.12
0.72 -2.93 -0.37
4.12 -16.81 2.74
2.88 -11.76 -1.06
4.1 -16.75 3.35
4.13 -16.86 -0.91
4.11 -16.77 3.99
4.13 -16.87 -0.3
4.1 -16.74 4.62
0.78 -3.22 -0.89
4.06 -16.85 0.3
4.06 -16.82 0.91
0.6 -2.5 -0.5
4.06 -16.83 1.51
0.62 -2.58 -0.42
4.05 -16.79 2.12
0.71 -2.93 -0.37
4.05 -16.8 2.74
2.85 -11.8 -1.06
4.04 -16.77 3.35
4.07 -16.88 -0.91
4.04 -16.77 3.98
4.07 -16.87 -0.3
4.04 -16.74 4.62
0.77 -3.22 -0.89
4.01 -16.85 0.3
4 -16.83 0.91
0.59 -2.5 -0.5
4 -16.83 1.51
0.61 -2.58 -0.42
3.99 -16.8 2.12
0.7 -2.95 -0.37
3.99 -16.8 2.74
2.81 -11.8 -1.06
3.99 -16.77 3.35
4.01 -16.88 -0.91
3.99 -16.77 3.98
4.01 -16.86 -0.3
3.98 -16.75 4.61
0.74 -3.18 -0.88
3.94 -16.85 0.3
0.59 -2.51 -0.6
3.94 -16.84 0.91
0.58 -2.49 -0.5
3.94 -16.83 1.51
0.61 -2.59 -0.42
3.93 -16.8 2.12
0.69 -2.96 -0.37
3.93 -16.81 2.73
2.76 -11.81 -1.06
3.92 -16.77 3.35
3.95 -16.89 -0.91
3.93 -16.78 3.98
3.95 -16.87 -0.3
3.92 -16.74 4.61
0.68 -2.94 -0.81
3.88 -16.85 0.3
0.57 -2.5 -0.59
3.88 -16.85 0.91
0.58 -2.51 -0.5
3.87 -16.83 1.51
0.6 -2.59 -0.42
3.87 -16.81 2.12
0.69 -2.98 -0.38
3.87 -16.82 2.73
2.71 -11.77 -1.06
3.86 -16.78 3.35
3.89 -16.9 -0.91
3.86 -16.79 3.98
3.88 -16.88 -0.3
3.86 -16.75 4.61
0.66 -2.91 -0.8
3.82 -16.85 0.3
0.56 -2.47 -0.58
3.81 -16.85 0.91
0.57 -2.51 -0.5
3.81 -16.84 1.51
0.59 -2.59 -0.42
3.81 -16.81 2.12
0.68 -2.99 -0.38
3.81 -16.83 2.73
2.67 -11.81 -1.06
3.8 -16.79 3.35
3.82 -16.89 -0.91
3.8 -16.79 3.97
3.82 -16.89 -0.3
3.79 -16.76 4.6
0.59 -2.63 -0.72
3.76 -16.86 0.3
0.55 -2.48 -0.59
3.75 -16.85 0.9
0.56 -2.5 -0.5
3.75 -16.85 1.51
0.58 -2.59 -0.42
3.75 -16.81 2.12
0.66 -2.98 -0.37
3.75 -16.82 2.73
2.64 -11.83 -1.06
3.74 -16.8 3.35
3.77 -16.91 -0.91
3.74 -16.79 3.97
3.76 -16.9 -0.3
3.74 -16.77 4.6
0.57 -2.59 -0.71
3.7 -16.87 0.3
0.54 -2.48 -0.59
3.69 -16.85 0.9
0.55 -2.5 -0.5
3.69 -16.85 1.51
0.57 -2.61 -0.42
3.69 -16.82 2.11
0.66 -3.01 -0.38
3.68 -16.82 2.73
2.59 -11.82 -1.06
3.68 -16.81 3.34
3.71 -16.92 -0.91
3.68 -16.81 3.97
3.7 -16.89 -0.3
3.68 -16.78 4.6
0.56 -2.58 -0.71
3.64 -16.88 0.3
0.53 -2.48 -0.59
3.64 -16.87 0.9
0.54 -2.51 -0.5
3.63 -16.84 1.51
0.57 -2.62 -0.42
3.63 -16.83 2.11
0.65 -3.01 -0.38
3.63 -16.82 2.73
2.55 -11.83 -1.06
3.63 -16.81 3.34
3.65 -16.91 -0.91
3.62 -16.81 3.97
3.64 -16.89 -0.3
3.62 -16.78 4.6
0.54 -2.56 -0.7
3.57 -16.87 0.3
0.53 -2.48 -0.58
3.57 -16.87 0.9
0.53 -2.51 -0.5
3.57 -16.85 1.51
0.55 -2.61 -0.42
3.57 -16.83 2.11
0.64 -3.04 -0.38
3.57 -16.84 2.73
2.51 -11.84 -1.06
3.56 -16.81 3.34
3.59 -16.92 -0.91
3.56 -16.82 3.97
3.58 -16.9 -0.3
3.56 -16.79 4.6
0.52 -2.52 -0.69
3.51 -16.88 0.3
0.51 -2.47 -0.58
3.51 -16.88 0.9
0.52 -2.51 -0.5
3.51 -16.87 1.51
0.54 -2.61 -0.42
3.5 -16.84 2.11
0.63 -3.04 -0.38
3.51 -16.84 2.73
2.47 -11.86 -1.06
3.5 -16.82 3.34
3.52 -16.93 -0.91
3.5 -16.83 3.97
3.52 -16.91 -0.3
3.49 -16.78 4.59
0.51 -2.52 -0.69
3.45 -16.89 0.3
0.5 -2.46 -0.58
3.45 -16.88 0.9
0.51 -2.51 -0.5
3.45 -16.87 1.51
0.54 -2.62 -0.42
3.44 -16.85 2.11
0.62 -3.05 -0.38
3.44 -16.85 2.72
2.42 -11.86 -1.06
3.44 -16.83 3.34
3.46 -16.92 -0.91
3.44 -16.82 3.96
3.46 -16.91 -0.3
3.43 -16.8 4.59
0.52 -2.59 -0.71
3.4 -16.9 0.3
0.5 -2.47 -0.58
3.39 -16.88 0.9
0.51 -2.51 -0.5
3.39 -16.88 1.51
0.53 -2.63 -0.42
3.39 -16.86 2.11
0.61 -3.06 -0.38
3.39 -16.84 2.72
2.39 -11.89 -1.06
3.38 -16.83 3.34
3.41 -16.93 -0.91
3.38 -16.83 3.96
3.4 -16.91 -0.3
3.38 -16.8 4.59
0.52 -2.62 -0.71
3.34 -16.9 0.3
0.49 -2.48 -0.58
3.33 -16.89 0.9
0.5 -2.52 -0.5
3.33 -16.87 1.5
0.52 -2.63 -0.43
3.33 -16.87 2.11
0.6 -3.06 -0.38
3.33 -16.85 2.72
2.34 -11.84 -1.06
3.32 -16.84 3.34
3.34 -16.94 -0.9
3.32 -16.84 3.96
3.34 -16.92 -0.3
3.32 -16.8 4.59
0.49 -2.52 -0.69
3.27 -16.89 0.3
0.48 -2.48 -0.58
3.28 -16.9 0.9
0.49 -2.53 -0.5
3.27 -16.88 1.5
0.51 -2.65 -0.43
3.27 -16.87 2.11
0.6 -3.08 -0.38
3.27 -16.86 2.72
2.3 -11.86 -1.06
3.26 -16.84 3.33
3.29 -16.96 -0.91
3.27 -16.85 3.96
3.28 -16.93 -0.3
3.26 -16.81 4.59
0.48 -2.52 -0.69
3.21 -16.91 0.3
0.47 -2.46 -0.58
3.21 -16.9 0.9
0.48 -2.53 -0.5
3.21 -16.89 1.5
0.51 -2.69 -0.43
3.21 -16.86 2.11
0.59 -3.09 -0.39
3.21 -16.87 2.72
2.25 -11.85 -1.06
3.2 -16.85 3.33
3.22 -16.93 -0.9
3.2 -16.85 3.96
3.22 -16.94 -0.3
3.2 -16.82 4.59
0.47 -2.53 -0.69
3.16 -16.92 0.3
0.46 -2.46 -0.58
3.15 -16.9 0.9
0.47 -2.53 -0.5
3.15 -16.9 1.5
3.15 -16.87 2.11
0.58 -3.1 -0.39
3.15 -16.87 2.72
2.22 -11.91 -1.06
3.15 -16.86 3.33
3.15 -16.9 -0.9
3.14 -16.85 3.96
3.16 -16.94 -0.3
3.14 -16.83 4.59
0.46 -2.5 -0.68
3.1 -16.93 0.3
0.45 -2.47 -0.58
3.09 -16.91 0.9
0.46 -2.53 -0.5
3.09 -16.91 1.5
3.09 -16.88 2.11
0.57 -3.12 -0.39
3.09 -16.87 2.72
2.18 -11.93 -1.06
3.08 -16.87 3.33
3.1 -16.93 -0.9
3.08 -16.86 3.96
3.1 -16.94 -0.3
3.08 -16.83 4.59
0.44 -2.44 -0.66
3.04 -16.93 0.3
0.44 -2.48 -0.58
3.04 -16.92 0.9
0.45 -2.53 -0.5
3.03 -16.9 1.5
3.03 -16.89 2.11
0.56 -3.13 -0.39
3.03 -16.89 2.72
2.15 -11.99 -1.07
3.03 -16.87 3.33
3.04 -16.97 -0.9
3.02 -16.86 3.95
3.04 -16.95 -0.3
3.02 -16.84 4.58
0.43 -2.44 -0.66
2.97 -16.93 0.3
0.44 -2.48 -0.58
2.97 -16.93 0.9
0.44 -2.53 -0.5
2.97 -16.91 1.5
2.97 -16.89 2.11
0.55 -3.15 -0.39
2.96 -16.87 2.71
2.1 -11.97 -1.06
2.96 -16.86 3.33
2.98 -16.98 -0.9
2.96 -16.87 3.96
2.98 -16.96 -0.3
2.96 -16.84 4.58
0.42 -2.44 -0.66
2.92 -16.94 0.3
0.43 -2.47 -0.58
2.92 -16.93 0.9
0.44 -2.54 -0.5
2.91 -16.92 1.5
2.91 -16.89 2.1
0.54 -3.15 -0.39
2.91 -16.9 2.72
2.06 -11.97 -1.06
2.9 -16.87 3.33
2.92 -16.97 -0.9
2.91 -16.88 3.95
2.92 -16.97 -0.3
2.9 -16.85 4.58
0.41 -2.44 -0.66
2.86 -16.95 0.3
0.42 -2.47 -0.58
2.85 -16.93 0.9
0.43 -2.54 -0.5
2.85 -16.93 1.5
2.85 -16.9 2.1
0.53 -3.17 -0.39
2.85 -16.91 2.72
2.03 -12.05 -1.07
2.84 -16.88 3.33
2.86 -16.98 -0.9
2.84 -16.87 3.95
2.86 -16.97 -0.3
2.84 -16.86 4.58
0.4 -2.44 -0.66
2.8 -16.96 0.3
0.41 -2.48 -0.58
2.79 -16.94 0.9
0.42 -2.53 -0.5
2.79 -16.94 1.5
0.61 -3.71 -0.59
2.79 -16.91 2.1
0.53 -3.19 -0.4
2.79 -16.91 2.71
1.98 -11.99 -1.06
2.79 -16.89 3.33
2.8 -17 -0.9
2.79 -16.88 3.95
2.8 -16.97 -0.3
2.78 -16.86 4.58
0.39 -2.42 -0.66
2.74 -16.96 0.3
0.4 -2.49 -0.58
2.73 -16.95 0.9
0.41 -2.54 -0.5
2.73 -16.93 1.5
0.59 -3.69 -0.59
2.73 -16.92 2.1
0.52 -3.25 -0.4
2.73 -16.92 2.71
1.94 -12.03 -1.07
2.73 -16.9 3.33
2.74 -17 -0.9
2.73 -16.89 3.95
2.74 -16.98 -0.3
2.72 -16.85 4.57
0.38 -2.43 -0.66
2.68 -16.96 0.3
0.39 -2.49 -0.58
2.68 -16.95 0.9
0.4 -2.54 -0.5
2.67 -16.94 1.5
0.58 -3.69 -0.59
2.67 -16.92 2.1
0.52 -3.31 -0.41
2.67 -16.93 2.71
1.89 -11.98 -1.06
2.67 -16.88 3.32
2.68 -17 -0.9
2.67 -16.89 3.95
2.68 -16.98 -0.3
2.66 -16.86 4.57
0.38 -2.44 -0.66
2.62 -16.97 0.3
0.38 -2.48 -0.58
2.62 -16.96 0.9
0.39 -2.55 -0.5
2.61 -16.95 1.5
0.57 -3.7 -0.59
2.61 -16.92 2.1
0.51 -3.28 -0.41
2.61 -16.94 2.71
1.86 -12.05 -1.07
2.61 -16.9 3.32
2.62 -17 -0.9
2.61 -16.9 3.95
2.62 -16.99 -0.3
2.6 -16.88 4.58
0.37 -2.45 -0.66
2.56 -16.97 0.3
0.38 -2.49 -0.58
2.56 -16.95 0.9
0.39 -2.55 -0.5
2.56 -16.96 1.5
0.56 -3.69 -0.59
2.56 -16.92 2.1
0.5 -3.3 -0.41
2.56 -16.94 2.71
1.82 -12.06 -1.07
2.55 -16.9 3.32
2.57 -17 -0.9
2.55 -16.89 3.94
2.57 -17 -0.3
2.55 -16.88 4.57
0.36 -2.44 -0.66
2.51 -16.99 0.3
0.37 -2.49 -0.58
2.5 -16.96 0.9
0.38 -2.55 -0.5
2.5 -16.96 1.5
0.55 -3.72 -0.59
2.5 -16.93 2.1
0.49 -3.32 -0.41
2.5 -16.93 2.71
1.78 -12.07 -1.07
2.49 -16.91 3.32
2.51 -17.01 -0.9
2.49 -16.9 3.94
2.51 -17 -0.3
2.49 -16.89 4.57
0.35 -2.43 -0.66
2.44 -16.98 0.3
0.36 -2.5 -0.58
2.44 -16.97 0.9
0.37 -2.55 -0.5
2.44 -16.96 1.5
2.44 -16.94 2.1
0.48 -3.34 -0.41
2.44 -16.94 2.71
1.74 -12.09 -1.07
2.43 -16.91 3.32
2.45 -17.02 -0.9
2.43 -16.91 3.94
2.45 -17 -0.3
2.43 -16.88 4.57
0.34 -2.44 -0.66
2.38 -16.98 0.3
0.35 -2.5 -0.58
2.38 -16.98 0.9
0.36 -2.56 -0.5
2.38 -16.97 1.5
0.52 -3.72 -0.59
2.38 -16.95 2.1
0.47 -3.38 -0.42
2.38 -16.95 2.71
1.7 -12.08 -1.07
2.37 -16.91 3.32
2.39 -17.03 -0.9
2.38 -16.92 3.94
2.39 -17.01 -0.3
2.37 -16.89 4.57
0.33 -2.44 -0.66
2.32 -16.99 0.3
0.34 -2.48 -0.58
2.32 -16.98 0.9
0.35 -2.57 -0.5
2.32 -16.97 1.5
2.32 -16.94 2.1
0.46 -3.4 -0.42
2.32 -16.96 2.71
1.66 -12.1 -1.07
2.31 -16.91 3.32
2.24 -16.38 -0.87
2.31 -16.92 3.94
2.09 -15.3 -0.27
2.31 -16.9 4.57
0.33 -2.45 -0.66
2.26 -17 0.3
0.33 -2.49 -0.58
2.26 -16.98 0.9
0.34 -2.57 -0.5
2.26 -17 1.5
2.26 -16.94 2.1
0.46 -3.43 -0.42
2.26 -16.96 2.71
1.61 -12.1 -1.07
2.26 -16.93 3.32
2.27 -17.03 -0.9
2.25 -16.92 3.94
2.25 -16.91 4.57
0.32 -2.45 -0.66
2.21 -17.01 0.3
0.32 -2.49 -0.58
2.2 -16.99 0.9
0.33 -2.56 -0.5
2.2 -16.99 1.5
2.2 -16.96 2.1
0.45 -3.47 -0.43
2.2 -16.95 2.71
1.57 -12.11 -1.07
2.2 -16.93 3.32
2.03 -15.65 -0.83
2.2 -16.93 3.94
1.98 -15.23 -0.27
2.19 -16.91 4.57
0.31 -2.44 -0.66
2.15 -17.01 0.3
0.32 -2.5 -0.58
2.14 -17 0.9
0.33 -2.58 -0.5
2.14 -16.99 1.5
2.14 -16.97 2.1
1.25 -9.92 -1.23
2.14 -16.96 2.71
1.53 -12.12 -1.07
2.14 -16.94 3.32
1.92 -15.24 -0.81
2.14 -16.93 3.94
2.15 -17.03 -0.3
2.13 -16.9 4.56
0.3 -2.44 -0.66
2.09 -17.01 0.3
0.31 -2.5 -0.58
2.08 -17 0.9
0.32 -2.6 -0.51
2.08 -16.99 1.5
0.35 -2.87 -0.46
2.08 -16.97 2.1
1.21 -9.89 -1.22
2.08 -16.97 2.71
1.49 -12.11 -1.07
2.08 -16.93 3.32
2.08 -16.94 -0.89
2.08 -16.94 3.94
2.09 -17.04 -0.3
2.07 -16.92 4.57
0.29 -2.45 -0.66
2.03 -17.02 0.3
0.3 -2.5 -0.58
2.02 -17.01 0.9
0.31 -2.61 -0.51
2.02 -17.01 1.5
0.34 -2.87 -0.46
2.02 -16.97 2.1
1.18 -9.9 -1.22
2.02 -16.98 2.71
1.45 -12.14 -1.07
2.02 -16.94 3.32
2.03 -17.05 -0.9
2.02 -16.95 3.94
2.03 -17.05 -0.3
2.02 -16.93 4.57
0.28 -2.45 -0.66
1.97 -17.03 0.3
0.29 -2.5 -0.58
1.97 -17 0.9
1.97 -17.01 1.5
0.33 -2.89 -0.46
1.96 -16.97 2.1
1.15 -9.9 -1.22
1.97 -16.98 2.71
1.41 -12.16 -1.07
1.96 -16.95 3.32
1.97 -17.04 -0.9
1.96 -16.94 3.94
1.97 -17.05 -0.3
1.96 -16.93 4.57
0.28 -2.46 -0.66
1.91 -17.03 0.3
0.28 -2.51 -0.58
1.91 -17.01 0.9
1.91 -17.02 1.5
0.33 -2.95 -0.47
1.9 -16.98 2.1
1.11 -9.9 -1.22
1.9 -16.98 2.71
1.36 -12.17 -1.07
1.9 -16.96 3.32
1.91 -17.01 -0.9
1.9 -16.95 3.94
1.91 -17.05 -0.3
1.61 -14.33 3.86
0.26 -2.44 -0.66
1.85 -17.04 0.3
0.27 -2.52 -0.58
1.85 -17.02 0.9
1.84 -17.01 1.5
0.32 -2.95 -0.47
1.84 -16.99 2.1
1.07 -9.9 -1.22
1.84 -16.98 2.71
1.32 -12.16 -1.07
1.84 -16.96 3.32
1.85 -17.07 -0.9
1.84 -16.96 3.94
1.85 -17.05 -0.3
1.84 -16.94 4.56
0.26 -2.45 -0.66
1.79 -17.03 0.3
0.27 -2.53 -0.59
1.79 -17.03 0.9
1.79 -17.02 1.5
1.78 -16.99 2.1
1.04 -9.9 -1.22
1.78 -17 2.71
1.28 -12.15 -1.07
1.78 -16.95 3.31
1.79 -17.08 -0.9
1.78 -16.97 3.94
1.79 -17.06 -0.3
1.78 -16.94 4.56
0.25 -2.46 -0.66
1.73 -17.04 0.3
0.26 -2.53 -0.59
1.73 -17.03 0.9
1.73 -17.03 1.5
1.73 -16.99 2.1
1.01 -9.91 -1.22
1.73 -17.01 2.71
1.23 -12.15 -1.07
1.72 -16.96 3.31
1.72 -16.97 3.94
1.73 -17.07 -0.3
1.72 -16.94 4.56
0.24 -2.46 -0.66
1.67 -17.04 0.3
1.67 -17.02 0.9
1.67 -17.04 1.5
1.67 -17 2.1
0.97 -9.91 -1.22
1.67 -17.01 2.71
1.19 -12.16 -1.07
1.66 -16.98 3.32
1.66 -16.97 3.94
1.67 -17.08 -0.3
1.66 -16.95 4.56
0.23 -2.47 -0.66
1.61 -17.06 0.3
1.61 -17.03 0.9
1.61 -17.04 1.5
1.6 -17.01 2.1
0.93 -9.91 -1.22
1.6 -17 2.7
1.15 -12.19 -1.07
1.6 -16.98 3.32
1.6 -16.98 3.94
1.6 -16.97 4.57
0.23 -2.48 -0.67
1.55 -17.06 0.3
1.55 -17.04 0.9
1.55 -17.04 1.5
1.55 -17.02 2.1
0.9 -9.92 -1.22
1.55 -17.02 2.71
1.11 -12.19 -1.07
1.54 -16.99 3.32
1.54 -16.98 3.94
1.39 -15.34 -0.27
1.54 -16.95 4.56
0.22 -2.51 -0.68
1.49 -17.06 0.3
1.49 -17.05 0.9
1.49 -17.05 1.5
1.49 -17.01 2.1
0.87 -9.92 -1.22
1.49 -17.02 2.71
1.07 -12.2 -1.07
1.49 -16.98 3.31
1.49 -16.99 3.94
1.48 -16.96 4.56
0.21 -2.48 -0.67
1.43 -17.07 0.3
1.43 -17.06 0.9
1.43 -17.05 1.5
1.43 -17.01 2.1
0.83 -9.91 -1.22
1.43 -17.03 2.71
1.02 -12.2 -1.07
1.43 -16.99 3.31
1.44 -17.1 -0.9
1.43 -17 3.94
1.44 -17.09 -0.3
1.42 -16.97 4.56
0.2 -2.48 -0.67
1.37 -17.08 0.3
1.37 -17.06 0.9
1.37 -17.07 1.5
1.37 -17.02 2.1
0.8 -9.89 -1.22
1.37 -17.04 2.71
0.98 -12.2 -1.07
1.37 -17 3.32
1.38 -17.11 -0.9
1.37 -16.99 3.94
1.38 -17.11 -0.3
1.37 -16.98 4.57
0.19 -2.47 -0.66
1.31 -17.08 0.3
1.31 -17.06 0.9
1.31 -17.07 1.5
1.31 -17.04 2.1
0.76 -9.9 -1.22
1.31 -17.03 2.71
0.94 -12.22 -1.07
1.31 -17.01 3.32
1.32 -17.13 -0.9
1.31 -16.99 3.93
1.32 -17.09 -0.3
1.31 -16.99 4.57
0.18 -2.47 -0.66
1.25 -17.09 0.3
1.25 -17.07 0.9
1.25 -17.06 1.5
1.25 -17.04 2.1
0.73 -9.91 -1.22
1.25 -17.04 2.71
0.9 -12.21 -1.07
1.25 -17.01 3.31
1.26 -17.13 -0.9
1.25 -17.01 3.94
1.26 -17.1 -0.3
1.25 -16.98 4.56
0.17 -2.46 -0.66
1.19 -17.08 0.3
1.19 -17.08 0.9
1.19 -17.07 1.5
1.19 -17.04 2.1
0.69 -9.92 -1.22
1.19 -17.05 2.71
0.86 -12.23 -1.07
1.19 -17 3.31
1.2 -17.13 -0.9
1.19 -17.02 3.94
1.2 -17.11 -0.3
1.19 -16.98 4.56
0.16 -2.48 -0.66
1.14 -17.09 0.3
1.13 -17.08 0.9
1.13 -17.08 1.5
1.13 -17.04 2.1
0.66 -9.92 -1.22
1.13 -17.06 2.71
0.81 -12.24 -1.07
1.13 -17.01 3.31
1.14 -17.13 -0.9
1.13 -17.02 3.94
1.14 -17.13 -0.3
1.13 -17 4.56
0.16 -2.5 -0.67
1.08 -17.1 0.3
1.07 -17.08 0.9
1.08 -17.09 1.5
1.07 -17.05 2.1
0.62 -9.9 -1.22
1.07 -17.06 2.71
0.77 -12.25 -1.07
1.07 -17.02 3.32
1.08 -17.14 -0.9
1.07 -17.02 3.94
1.08 -17.12 -0.3
1.07 -17.01 4.57
1.02 -17.11 0.3
1.02 -17.09 0.9
1.02 -17.09 1.5
1.01 -17.06 2.1
0.59 -9.9 -1.22
1.01 -17.05 2.71
0.73 -12.25 -1.07
1.01 -17.03 3.32
1.02 -17.15 -0.9
1.01 -17.02 3.94
1.02 -17.12 -0.3
1.01 -17.01 4.57
0.96 -17.11 0.3
0.96 -17.09 0.9
0.96 -17.09 1.5
0.95 -17.08 2.1
0.55 -9.91 -1.22
0.95 -17.06 2.71
0.69 -12.27 -1.07
0.95 -17.04 3.32
0.96 -17.16 -0.9
0.95 -17.03 3.94
0.96 -17.13 -0.3
0.95 -17.01 4.57
0.9 -17.11 0.3
0.9 -17.1 0.9
0.9 -17.1 1.5
0.17 -3.16 -0.5
0.89 -17.07 2.1
0.52 -9.92 -1.22
0.89 -17.08 2.71
0.64 -12.26 -1.07
0.89 -17.03 3.31
0.9 -17.16 -0.9
0.89 -17.04 3.94
0.9 -17.13 -0.3
0.89 -17.01 4.56
0.84 -17.11 0.3
0.84 -17.11 0.9
0.84 -17.11 1.5
0.16 -3.2 -0.51
0.83 -17.07 2.1
0.49 -9.92 -1.22
0.84 -17.08 2.71
0.6 -12.26 -1.07
0.83 -17.04 3.32
0.84 -17.16 -0.9
0.83 -17.05 3.94
0.84 -17.15 -0.3
0.83 -17.02 4.57
0.78 -17.13 0.3
0.78 -17.11 0.9
0.78 -17.11 1.5
0.15 -3.21 -0.51
0.78 -17.07 2.1
0.45 -9.93 -1.22
0.78 -17.09 2.71
0.56 -12.29 -1.08
0.78 -17.05 3.32
0.78 -17.16 -0.9
0.78 -17.05 3.94
0.78 -17.16 -0.3
0.78 -17.04 4.57
0.72 -17.14 0.3
0.72 -17.11 0.9
0.72 -17.12 1.5
0.14 -3.22 -0.51
0.72 -17.08 2.1
0.42 -9.92 -1.22
0.72 -17.08 2.71
0.52 -12.29 -1.08
0.72 -17.06 3.32
0.72 -17.17 -0.9
0.72 -17.06 3.94
0.72 -17.15 -0.3
0.72 -17.04 4.57
0.66 -17.14 0.3
0.66 -17.12 0.9
0.66 -17.11 1.5
0.13 -3.24 -0.51
0.66 -17.09 2.1
0.38 -9.91 -1.22
0.66 -17.09 2.71
0.47 -12.28 -1.07
0.66 -17.07 3.32
0.66 -17.17 -0.9
0.66 -17.06 3.94
0.66 -17.15 -0.3
0.66 -17.03 4.57
0.6 -17.13 0.3
0.6 -17.13 0.9
0.6 -17.12 1.5
0.11 -3.26 -0.52
0.6 -17.1 2.1
0.35 -9.92 -1.22
0.6 -17.1 2.71
0.43 -12.29 -1.08
0.6 -17.06 3.32
0.6 -17.17 -0.9
0.6 -17.08 3.95
0.6 -17.16 -0.3
0.6 -17.04 4.57
0.54 -17.14 0.3
0.54 -17.14 0.9
0.54 -17.13 1.5
0.1 -3.28 -0.52
0.54 -17.1 2.1
0.31 -9.93 -1.22
0.54 -17.11 2.71
0.39 -12.3 -1.08
0.54 -17.07 3.32
0.54 -17.18 -0.9
0.54 -17.08 3.94
0.54 -17.17 -0.3
0.54 -17.05 4.57
0.48 -17.14 0.3
0.48 -17.13 0.9
0.48 -17.14 1.5
0.09 -3.3 -0.52
0.48 -17.11 2.1
0.28 -9.93 -1.22
0.48 -17.11 2.71
0.35 -12.28 -1.08
0.48 -17.08 3.32
0.48 -17.19 -0.9
0.48 -17.07 3.94
0.48 -17.18 -0.3
0.48 -17.06 4.57
0.42 -17.16 0.3
0.42 -17.14 0.9
0.42 -17.14 1.5
0.08 -3.34 -0.53
0.42 -17.11 2.1
0.24 -9.93 -1.22
0.42 -17.11 2.71
0.3 -12.29 -1.08
0.42 -17.09 3.32
0.42 -17.01 -0.89
0.42 -17.09 3.95
0.42 -17.18 -0.3
0.42 -17.06 4.57
0.36 -17.17 0.3
0.36 -17.14 0.9
0.36 -17.14 1.5
0.07 -3.38 -0.54
0.36 -17.12 2.1
0.21 -9.95 -1.22
0.36 -17.11 2.71
0.26 -12.3 -1.08
0.36 -17.1 3.32
0.36 -16.95 -0.89
0.36 -17.09 3.95
0.36 -17.18 -0.3
0.36 -17.06 4.57
0.3 -17.17 0.3
0.3 -17.15 0.9
0.3 -17.14 1.5
0.06 -3.42 -0.54
0.3 -17.13 2.1
0.18 -9.94 -1.22
0.3 -17.12 2.71
0.22 -12.29 -1.08
0.3 -17.09 3.32
0.3 -17.01 -0.89
0.3 -17.1 3.95
0.3 -17.19 -0.3
0.2 -11.33 3.04
0.24 -17.17 0.3
0.24 -17.16 0.9
0.24 -17.15 1.5
0.05 -3.47 -0.55
0.24 -17.12 2.1
0.14 -9.94 -1.22
0.24 -17.13 2.71
0.17 -12.31 -1.08
0.24 -17.1 3.33
0.24 -17.01 -0.89
0.24 -17.1 3.95
0.24 -17.2 -0.3
0.16 -11.31 3.03
0.18 -17.18 0.3
0.18 -17.16 0.9
0.18 -17.16 1.5
0.1 -9.06 -1.44
0.18 -17.13 2.1
0.11 -9.93 -1.22
0.18 -17.14 2.72
0.13 -12.31 -1.08
0.18 -17.1 3.32
0.18 -16.88 -0.88
0.18 -17.1 3.95
0.18 -17.2 -0.3
0.12 -11.3 3.03
0.12 -17.18 0.3
0.12 -17.16 0.9
0.12 -17.16 1.5
0.06 -9.06 -1.43
0.12 -17.14 2.1
0.07 -9.92 -1.22
0.12 -17.13 2.71
0.09 -12.31 -1.08
0.12 -17.11 3.33
0.12 -16.97 -0.89
0.12 -17.12 3.95
0.12 -17.2 -0.3
0.12 -17.08 4.58
0.06 -17.19 0.3
0.06 -17.17 0.9
0.06 -17.16 1.5
0.03 -9.06 -1.44
0.06 -17.16 2.11
0.04 -9.94 -1.22
0.06 -17.14 2.71
0.05 -12.3 -1.08
0.06 -17.11 3.33
0.06 -16.17 -0.85
0.04 -11.12 2.57
0.06 -17.19 -0.3
0.06 -17.08 4.58
0 -17.18 0.3
0 -17.18 0.9
0 -17.16 1.5
0 -9.05 -1.43
0 -17.16 2.11
0 -9.93 -1.22
0 -17.12 2.71
0 -12.32 -1.08
0 -17.11 3.33
0 -15.43 -0.81
0 -11.12 2.57
0 -17.22 -0.3
0 -17.1 4.58
-0.05 -17.19 0.3
-0.05 -17.18 0.9
-0.05 -17.17 1.5
-0.03 -9.05 -1.43
-0.05 -17.15 2.11
-0.03 -9.95 -1.22
-0.05 -17.1 2.71
-0.04 -12.31 -1.08
-0.05 -17.12 3.33
-0.05 -14.75 -0.77
-0.03 -11.12 2.57
-0.05 -17.22 -0.3
-0.05 -17.1 4.58
-0.11 -17.2 0.3
-0.11 -17.18 0.9
-0.02 -2.94 -0.57
-0.11 -17.18 1.5
-0.06 -9.06 -1.43
-0.11 -17.16 2.11
-0.07 -9.95 -1.22
-0.11 -17.08 2.71
-0.08 -12.33 -1.08
-0.11 -17.13 3.33
-0.1 -14.64 -0.77
-0.11 -17.13 3.95
-0.11 -17.21 -0.3
-0.11 -17.11 4.58
-0.18 -17.2 0.3
-0.18 -17.19 0.9
-0.03 -2.94 -0.57
-0.18 -17.18 1.5
-0.09 -9.07 -1.44
-0.18 -17.17 2.11
-0.1 -9.94 -1.22
-0.18 -17.08 2.71
-0.13 -12.33 -1.08
-0.18 -17.13 3.33
-0.15 -14.66 -0.77
-0.18 -17.14 3.96
-0.18 -17.22 -0.3
-0.18 -17.12 4.59
-0.24 -17.21 0.3
-0.24 -17.19 0.9
-0.04 -2.96 -0.58
-0.24 -17.18 1.5
-0.12 -9.06 -1.44
-0.24 -17.18 2.11
-0.14 -9.95 -1.22
-0.24 -17.11 2.71
-0.17 -12.33 -1.08
-0.24 -17.13 3.33
-0.2 -14.65 -0.77
-0.24 -17.15 3.96
-0.24 -17.21 -0.3
-0.24 -17.12 4.59
-0.29 -17.2 0.3
-0.29 -17.2 0.9
-0.05 -2.98 -0.58
-0.29 -17.19 1.5
-0.15 -9.06 -1.43
-0.29 -17.18 2.11
-0.17 -9.96 -1.22
-0.29 -17.11 2.71
-0.21 -12.34 -1.08
-0.19 -10.97 2.13
-0.25 -14.66 -0.77
-0.29 -17.15 3.96
-0.29 -17.22 -0.3
-0.29 -17.12 4.59
-0.35 -17.21 0.3
-0.35 -17.21 0.9
-0.06 -2.99 -0.58
-0.35 -17.19 1.5
-0.19 -9.06 -1.43
-0.35 -17.17 2.11
-0.21 -9.97 -1.22
-0.35 -17.18 2.72
-0.25 -12.36 -1.08
-0.23 -10.94 2.13
-0.3 -14.64 -0.77
-0.35 -17.16 3.96
-0.32 -15.61 -0.27
-0.35 -17.13 4.59
-0.41 -17.21 0.3
-0.41 -17.21 0.9
-0.07 -3.01 -0.59
-0.41 -17.2 1.51
-0.22 -9.06 -1.44
-0.41 -17.18 2.11
-0.24 -9.96 -1.22
-0.41 -17.18 2.72
-0.3 -12.37 -1.08
-0.26 -10.94 2.13
-0.35 -14.65 -0.77
-0.41 -17.15 3.96
-0.38 -15.68 -0.27
-0.26 -10.71 2.87
-0.48 -17.23 0.3
-0.47 -17.2 0.9
-0.08 -3.01 -0.59
-0.47 -17.21 1.51
-0.25 -9.07 -1.44
-0.47 -17.19 2.11
-0.28 -9.97 -1.23
-0.47 -17.18 2.72
-0.34 -12.37 -1.08
-0.3 -10.96 2.13
-0.4 -14.66 -0.77
-0.47 -17.16 3.96
-0.43 -15.47 -0.27
-0.29 -10.67 2.86
-0.54 -17.23 0.3
-0.09 -3.04 -0.7
-0.54 -17.22 0.9
-0.09 -3.06 -0.59
-0.53 -17.2 1.51
-0.28 -9.06 -1.44
-0.53 -17.19 2.11
-0.31 -9.98 -1.23
-0.53 -17.19 2.72
-0.39 -12.39 -1.08
-0.53 -17.16 3.34
-0.46 -14.67 -0.77
-0.34 -10.79 2.49
-0.47 -15.26 -0.27
-0.33 -10.65 2.85
-0.6 -17.23 0.3
-0.6 -17.22 0.9
-0.11 -3.05 -0.59
-0.59 -17.21 1.51
-0.31 -9.05 -1.43
-0.37 -10.81 1.33
-0.34 -9.98 -1.23
-0.37 -10.8 1.71
-0.37 -10.78 -0.94
-0.59 -17.16 3.34
-0.51 -14.69 -0.77
-0.37 -10.73 2.48
-0.53 -15.27 -0.27
-0.37 -10.65 2.85
-0.66 -17.24 0.3
-0.41 -10.79 0.57
-0.12 -3.09 -0.6
-0.41 -10.75 0.94
-0.34 -9.05 -1.43
-0.41 -10.75 1.32
-0.38 -9.98 -1.23
-0.41 -10.74 1.7
-0.41 -10.74 -0.94
-0.41 -10.7 2.08
-0.41 -10.77 -0.56
-0.41 -10.71 2.47
-0.41 -10.79 -0.19
-0.41 -10.65 2.85
-0.45 -10.73 0.19
-0.44 -10.7 0.56
-0.13 -3.12 -0.61
-0.45 -10.72 0.94
-0.38 -9.04 -1.43
-0.45 -10.71 1.32
-0.41 -9.97 -1.23
-0.45 -10.73 1.7
-0.44 -10.69 -0.94
-0.44 -10.68 2.08
-0.44 -10.7 -0.56
