# .PCD v0.7 - Point Cloud Data file format
VERSION 0.7
FIELDS x y z
SIZE 4 4 4
TYPE F F F
COUNT 1 1 1
WIDTH 2766
HEIGHT 1
VIEWPOINT 0 0 0 1 0 0 0
POINTS 2766
DATA ascii
-1.08 0.2 -0.21
-12.58 2.33 -2.03
-1.6 0.3 -0.2
-28.41 5.27 -2.53
-1.12 0.21 -0.31
-1.41 0.27 -0.33
-1.07 0.2 -0.21
-12.58 2.38 -2.03
-1.6 0.3 -0.2
-28.46 5.39 -2.53
-1.13 0.22 -0.31
-1.41 0.27 -0.33
-1.08 0.21 -0.21
-12.58 2.43 -2.03
-1.6 0.31 -0.2
-28.26 5.45 -2.52
-1.13 0.22 -0.31
-1.41 0.28 -0.33
-1.07 0.21 -0.21
-12.59 2.47 -2.03
-1.6 0.31 -0.2
-27.92 5.49 -2.49
-1.13 0.23 -0.31
-1.44 0.29 -0.34
-1.07 0.21 -0.21
-12.59 2.52 -2.03
-1.6 0.32 -0.2
-27.65 5.53 -2.47
-1.13 0.23 -0.31
-1.42 0.29 -0.33
-1.07 0.22 -0.21
-12.59 2.57 -2.04
-1.61 0.33 -0.2
-27.32 5.57 -2.44
-56.09 11.43 -3
-1.12 0.23 -0.31
-1.44 0.3 -0.34
-1.08 0.22 -0.22
-12.6 2.61 -2.04
-1.61 0.33 -0.2
-27.06 5.61 -2.42
-55.69 11.55 -2.98
-1.14 0.24 -0.31
-1.42 0.3 -0.34
-1.09 0.23 -0.22
-12.59 2.66 -2.04
-1.61 0.34 -0.2
-26.78 5.65 -2.39
-55.21 11.66 -2.96
-83.4 17.6 -1.49
-1.14 0.24 -0.31
-1.42 0.3 -0.33
-1.08 0.23 -0.22
-12.6 2.71 -2.04
-1.6 0.34 -0.2
-26.51 5.69 -2.37
-54.67 11.74 -2.93
-83.32 17.88 -1.49
-1.12 0.25 -0.31
-58.26 12.71 1.04
-1.44 0.31 -0.34
-1.07 0.23 -0.21
-12.62 2.75 -2.05
-1.6 0.35 -0.2
-26.38 5.76 -2.36
-54.1 11.8 -2.9
-83.21 18.16 -1.49
-1.14 0.25 -0.31
-58.16 12.9 1.04
-1.45 0.32 -0.34
-1.08 0.24 -0.21
-12.62 2.8 -2.05
-1.6 0.36 -0.2
-26.34 5.84 -2.36
-53.65 11.9 -2.88
-83.17 18.45 -1.49
-1.12 0.25 -0.31
-57.73 13.02 1.03
-1.45 0.33 -0.34
-1.08 0.24 -0.21
-12.63 2.85 -2.05
-1.61 0.36 -0.2
-26.35 5.94 -2.36
-52.94 11.94 -2.84
-57.83 13.04 -1.03
-1.13 0.26 -0.31
-57.92 13.27 1.04
-1.42 0.33 -0.34
-1.08 0.25 -0.21
-12.64 2.9 -2.05
-1.61 0.37 -0.2
-26.32 6.03 -2.36
-52.39 12 -2.82
-1.15 0.27 -0.32
-57.76 13.45 1.04
-1.43 0.33 -0.34
-1.08 0.25 -0.21
-12.66 2.95 -2.06
-1.6 0.37 -0.2
-26.33 6.13 -2.37
-51.78 12.06 -2.79
-1.12 0.27 -0.31
-57.59 13.62 1.03
-1.44 0.34 -0.34
-1.08 0.26 -0.22
-1.79 0.42 -0.29
-1.61 0.38 -0.2
-26.29 6.22 -2.36
-51.23 12.11 -2.76
-1.12 0.27 -0.31
-57.54 13.82 1.03
-1.45 0.35 -0.34
-1.08 0.26 -0.22
-1.79 0.43 -0.29
-1.61 0.39 -0.2
-26.29 6.32 -2.37
-50.6 12.16 -2.73
-1.13 0.28 -0.31
-1.46 0.36 -0.35
-1.09 0.26 -0.22
-12.66 3.09 -2.06
-1.62 0.39 -0.2
-26.29 6.41 -2.37
-50.2 12.24 -2.71
-1.15 0.28 -0.32
-1.42 0.35 -0.34
-1.08 0.27 -0.22
-12.67 3.13 -2.07
-1.61 0.4 -0.2
-26.29 6.51 -2.37
-49.75 12.31 -2.69
-80.57 19.94 -1.45
-1.14 0.29 -0.32
-1.43 0.36 -0.34
-1.09 0.27 -0.22
-12.7 3.19 -2.07
-1.6 0.4 -0.2
-26.29 6.6 -2.37
-49.2 12.35 -2.66
-80.5 20.21 -1.45
-1.15 0.29 -0.32
-50.63 12.92 0.91
-1.44 0.37 -0.34
-1.07 0.27 -0.21
-12.69 3.24 -2.07
-1.61 0.41 -0.2
-26.28 6.7 -2.37
-48.83 12.46 -2.64
-80.36 20.5 -1.45
-1.12 0.29 -0.31
-1.45 0.38 -0.35
-1.09 0.28 -0.22
-12.7 3.28 -2.08
-1.62 0.42 -0.21
-26.28 6.8 -2.38
-48.32 12.5 -2.62
-80.35 20.79 -1.45
-1.11 0.29 -0.31
-1.46 0.38 -0.35
-1.09 0.28 -0.22
-12.69 3.33 -2.08
-1.65 0.43 -0.21
-25.15 6.6 -2.27
-47.9 12.57 -2.6
-1.12 0.3 -0.31
-1.45 0.39 -0.35
-1.1 0.29 -0.22
-12.7 3.38 -2.08
-1.64 0.44 -0.21
-26.27 6.99 -2.38
-45.79 12.18 -2.48
-1.13 0.3 -0.31
-1.45 0.39 -0.35
-1.09 0.29 -0.22
-12.72 3.43 -2.09
-1.61 0.43 -0.2
-25.69 6.93 -2.33
-45.3 12.22 -2.46
-1.12 0.31 -0.31
-49.82 13.62 0.9
-1.46 0.4 -0.35
-1.07 0.29 -0.22
-12.72 3.48 -2.09
-1.61 0.44 -0.2
-25.67 7.02 -2.33
-45.2 12.36 -2.46
-1.12 0.31 -0.31
-1.45 0.4 -0.35
-1.09 0.3 -0.22
-12.73 3.53 -2.09
-1.62 0.45 -0.21
-25.72 7.13 -2.34
-43.96 12.19 -2.39
-49.56 13.74 -0.9
-1.12 0.32 -0.31
-49.39 13.88 0.9
-1.46 0.41 -0.35
-1.09 0.31 -0.22
-12.71 3.57 -2.09
-1.63 0.46 -0.21
-1.66 0.47 -0.15
-43.5 12.22 -2.37
-1.14 0.32 -0.32
-1.44 0.41 -0.35
-1.09 0.31 -0.22
-12.72 3.62 -2.09
-1.63 0.46 -0.21
-1.66 0.47 -0.15
-42.99 12.25 -2.34
-1.14 0.33 -0.32
-1.43 0.41 -0.34
-1.1 0.32 -0.22
-12.72 3.67 -2.1
-1.62 0.47 -0.21
-1.64 0.47 -0.15
-42.57 12.28 -2.32
-58.67 16.93 -1.07
-1.13 0.33 -0.31
-48.36 14.14 0.88
-1.43 0.42 -0.34
-48.42 14.16 2.64
-1.08 0.32 -0.22
-12.72 3.72 -2.1
-1.62 0.47 -0.21
-1.65 0.48 -0.15
-42.18 12.33 -2.3
-58.61 17.14 -1.07
-1.12 0.33 -0.31
-1.43 0.42 -0.34
-1.08 0.32 -0.22
-12.72 3.77 -2.1
-1.63 0.48 -0.21
-24.46 7.24 -2.23
-41.78 12.37 -2.28
-58.56 17.34 -1.07
-1.13 0.34 -0.32
-1.42 0.43 -0.34
-1.09 0.33 -0.22
-49.04 14.71 4.48
-12.72 3.82 -2.1
-1.64 0.49 -0.21
-24.76 7.43 -2.26
-58.49 17.55 -1.07
-1.13 0.34 -0.32
-1.39 0.42 -0.33
-1.09 0.33 -0.22
-12.72 3.87 -2.11
-1.63 0.5 -0.21
-24.78 7.53 -2.27
-41 12.46 -2.25
-58.48 17.77 -1.07
-1.13 0.35 -0.32
-1.38 0.43 -0.33
-1.09 0.33 -0.22
-12.73 3.91 -2.11
-1.63 0.5 -0.21
-24.74 7.61 -2.26
-40.61 12.49 -2.23
-58.4 17.97 -1.07
-1.13 0.35 -0.32
-1.39 0.43 -0.34
-1.08 0.34 -0.22
-12.73 3.97 -2.11
-1.59 0.5 -0.2
-24.73 7.7 -2.27
-40.56 12.63 -2.23
-58.37 18.18 -1.07
-1.12 0.35 -0.32
-1.36 0.43 -0.33
-1.08 0.34 -0.22
-12.74 4.02 -2.11
-1.59 0.5 -0.2
-24.6 7.76 -2.26
-40.58 12.8 -2.23
-58.33 18.39 -1.07
-1.11 0.35 -0.31
-1.36 0.43 -0.33
-1.09 0.35 -0.22
-12.73 4.06 -2.12
-1.59 0.51 -0.2
-24.63 7.86 -2.26
-41.94 13.38 -2.31
-58.26 18.59 -1.07
-1.14 0.37 -0.32
-1.34 0.43 -0.32
-9.87 3.19 -2.02
-12.73 4.11 -2.12
-1.57 0.51 -0.2
-24.58 7.93 -2.26
-41.64 13.44 -2.29
-1.13 0.37 -0.32
-77.21 25.22 1.42
-1.33 0.44 -0.32
-1.1 0.36 -0.22
-12.73 4.16 -2.12
-1.59 0.52 -0.2
-24.55 8.02 -2.26
-41.55 13.57 -2.29
-77.19 25.21 -1.42
-1.13 0.37 -0.32
-77.09 25.48 1.42
-1.33 0.44 -0.32
-24.07 7.95 1.33
-1.08 0.36 -0.22
-12.74 4.21 -2.12
-18.33 6.06 -2.37
-24.77 8.19 -2.28
-40.98 13.55 -2.26
-77.1 25.48 -1.42
-1.13 0.38 -0.32
-1.32 0.44 -0.32
-1.1 0.37 -0.22
-24.1 8.06 2.22
-12.74 4.26 -2.13
-1.64 0.55 -0.21
-24.75 8.28 -2.28
-40.49 13.54 -2.24
-1.13 0.38 -0.32
-1.33 0.45 -0.32
-1.09 0.37 -0.22
-24.07 8.14 2.22
-12.73 4.31 -2.13
-1.56 0.53 -0.2
-24.48 8.28 -2.26
-40.26 13.62 -2.23
-1.13 0.39 -0.32
-1.3 0.44 -0.32
-24.02 8.22 1.33
-1.09 0.37 -0.22
-24.05 8.23 2.22
-12.73 4.36 -2.13
-1.54 0.53 -0.2
-24.55 8.4 -2.27
-39.95 13.67 -2.21
-1.13 0.39 -0.32
-77.06 26.67 1.42
-1.32 0.46 -0.32
-23.97 8.29 1.33
-1.12 0.39 -0.23
-24.04 8.32 2.23
-12.73 4.41 -2.13
-1.52 0.52 -0.2
-24.65 8.53 -2.28
-39.83 13.79 -2.21
-1.14 0.4 -0.32
-1.32 0.46 -0.32
-23.95 8.38 1.33
-1.1 0.38 -0.23
-12.74 4.46 -2.14
-1.52 0.53 -0.2
-24.64 8.62 -2.28
-39.53 13.84 -2.2
-1.13 0.4 -0.32
-1.32 0.47 -0.32
-23.93 8.47 1.33
-1.11 0.39 -0.23
-12.74 4.51 -2.14
-1.5 0.53 -0.2
-25.24 8.93 -2.34
-39.24 13.89 -2.18
-1.13 0.4 -0.32
-8.02 2.87 -1.97
-23.91 8.56 1.33
-1.11 0.4 -0.23
-12.73 4.55 -2.14
-1.5 0.54 -0.19
-25.17 9.01 -2.34
-38.88 13.91 -2.16
-65.64 23.49 -1.22
-1.12 0.41 -0.32
-40.04 14.48 0.74
-8.01 2.9 -1.97
-23.9 8.64 1.33
-1.11 0.4 -0.23
-12.72 4.6 -2.14
-1.5 0.54 -0.2
-25.15 9.09 -2.34
-38.48 13.91 -2.14
-39.96 14.45 -0.74
-1.14 0.42 -0.33
-39.99 14.62 0.74
-23.88 8.73 1.33
-1.1 0.4 -0.23
-40.05 14.64 3.73
-12.73 4.66 -2.15
-1.48 0.54 -0.19
-25.09 9.17 -2.34
-38.28 13.99 -2.14
-65.57 23.97 -1.22
-1.12 0.41 -0.32
-40.05 14.8 0.75
-23.87 8.82 1.33
-1.1 0.41 -0.23
-12.73 4.7 -2.15
-1.47 0.54 -0.19
-25.05 9.26 -2.34
-38.12 14.08 -2.13
-65.46 24.19 -1.22
-1.13 0.42 -0.32
-1.21 0.45 -0.3
-23.89 8.92 1.34
-1.09 0.41 -0.23
-12.73 4.76 -2.15
-1.46 0.54 -0.19
-25.86 9.66 -2.42
-38.11 14.24 -2.13
-65.4 24.43 -1.22
-1.12 0.42 -0.32
-1.19 0.45 -0.29
-23.95 9.04 1.34
-1.11 0.42 -0.23
-12.72 4.8 -2.15
-1.46 0.55 -0.19
-25.87 9.76 -2.42
-36.93 13.94 -2.07
-65.32 24.65 -1.22
-1.13 0.43 -0.33
-23.81 9.08 0.44
-1.16 0.44 -0.29
-1.12 0.43 -0.23
-12.72 4.85 -2.16
-1.45 0.55 -0.19
-1.52 0.58 -0.14
-23.71 9.04 -1.33
-23.76 9.06 -0.44
-1.14 0.44 -0.33
-1.13 0.44 -0.28
-40.03 15.43 2.25
-1.1 0.42 -0.23
-12.72 4.9 -2.16
-1.43 0.55 -0.19
-1.54 0.59 -0.14
-36.49 14.07 -2.05
-65.22 25.14 -1.22
-1.13 0.44 -0.33
-1.13 0.44 -0.28
-23.86 9.29 1.34
-1.09 0.42 -0.23
-12.72 4.95 -2.16
-1.42 0.55 -0.19
-25.72 10.02 -2.41
-36.38 14.17 -2.05
-65.08 25.35 -1.22
-1.11 0.44 -0.32
-1.13 0.45 -0.28
-1.11 0.43 -0.23
-12.72 5 -2.16
-1.42 0.56 -0.19
-25.68 10.11 -2.41
-35.78 14.08 -2.02
-65.01 25.58 -1.22
-1.11 0.44 -0.32
-1.12 0.45 -0.28
-1.1 0.44 -0.23
-12.7 5.05 -2.17
-1.41 0.56 -0.19
-25.64 10.19 -2.41
-35.51 14.11 -2
-65 25.83 -1.22
-1.11 0.44 -0.32
-1.11 0.44 -0.27
-1.12 0.45 -0.23
-12.7 5.1 -2.17
-1.4 0.56 -0.19
-25.6 10.27 -2.41
-35.1 14.08 -1.98
-64.96 26.06 -1.22
-1.1 0.45 -0.32
-75.96 30.77 1.43
-1.1 0.45 -0.27
-1.12 0.45 -0.23
-12.71 5.15 -2.17
-1.38 0.56 -0.18
-25.56 10.35 -2.41
-34.76 14.08 -1.97
-1.09 0.45 -0.32
-1.09 0.45 -0.27
-1.11 0.45 -0.23
-12.7 5.2 -2.17
-1.36 0.56 -0.18
-25.5 10.44 -2.41
-34.56 14.14 -1.96
-1.09 0.45 -0.32
-1.09 0.45 -0.27
-1.11 0.46 -0.23
-12.7 5.25 -2.18
-1.35 0.56 -0.18
-25.45 10.52 -2.41
-34.33 14.19 -1.95
-1.07 0.45 -0.31
-1.08 0.45 -0.27
-1.11 0.46 -0.23
-12.68 5.3 -2.18
-1.34 0.56 -0.18
-25.4 10.6 -2.41
-34.22 14.29 -1.94
-1.08 0.45 -0.31
-1.08 0.45 -0.27
-1.12 0.47 -0.24
-12.68 5.34 -2.18
-1.34 0.56 -0.18
-25.36 10.69 -2.41
-33.99 14.32 -1.93
-59.92 25.25 -1.13
-1.07 0.45 -0.31
-75.58 32.19 1.43
-1.08 0.46 -0.27
-1.13 0.48 -0.24
-12.67 5.4 -2.18
-1.3 0.55 -0.17
-25.31 10.78 -2.41
-33.8 14.4 -1.93
-59.6 25.39 -1.13
-1.06 0.46 -0.31
-1.09 0.47 -0.27
-9.76 4.2 -2.06
-12.68 5.45 -2.19
-1.29 0.55 -0.17
-25.26 10.86 -2.41
-33.59 14.44 -1.92
-59.59 25.61 -1.13
-1.04 0.45 -0.3
-75.54 32.8 1.44
-1.1 0.48 -0.28
-9.74 4.23 -2.06
-12.68 5.51 -2.19
-1.28 0.55 -0.17
-25.2 10.94 -2.4
-33.05 14.35 -1.89
-1.03 0.45 -0.3
-1.09 0.48 -0.28
-9.75 4.27 -2.07
-12.69 5.56 -2.19
-1.28 0.56 -0.17
-25.16 11.03 -2.4
-32.81 14.38 -1.88
-1.04 0.46 -0.3
-75.32 33.3 1.44
-1.09 0.48 -0.27
-9.74 4.3 -2.07
-12.75 5.64 -2.21
-1.27 0.56 -0.17
-25.11 11.1 -2.4
-32.55 14.39 -1.87
-1.04 0.47 -0.31
-1.07 0.48 -0.27
-9.74 4.34 -2.07
-1.22 0.55 -0.21
-1.25 0.56 -0.17
-25.04 11.17 -2.4
-32.44 14.47 -1.86
-1.03 0.46 -0.3
-7.87 3.54 -1.99
-9.72 4.38 -2.07
-1.2 0.54 -0.21
-1.24 0.56 -0.17
-25 11.26 -2.4
-32.21 14.51 -1.85
-1.02 0.46 -0.3
-62.72 28.5 1.2
-7.87 3.58 -2
-9.72 4.42 -2.08
-1.2 0.55 -0.21
-1.24 0.56 -0.17
-24.93 11.33 -2.4
-32.01 14.55 -1.84
-1.01 0.47 -0.3
-61.64 28.29 1.18
-7.86 3.61 -2
-9.72 4.46 -2.08
-1.21 0.55 -0.21
-1.23 0.56 -0.17
-24.88 11.42 -2.39
-31.84 14.61 -1.84
-1.03 0.48 -0.3
-60.59 28.05 1.17
-7.83 3.63 -1.99
-31.69 14.67 1.83
-9.71 4.5 -2.08
-1.19 0.55 -0.21
-1.22 0.57 -0.17
-24.85 11.5 -2.4
-31.68 14.67 -1.83
-60.82 28.15 -1.17
-1.03 0.48 -0.3
-59.46 27.8 1.15
-7.83 3.66 -1.99
-30.13 14.09 1.74
-9.7 4.54 -2.08
-30.01 14.03 2.9
-1.2 0.56 -0.21
-1.22 0.57 -0.17
-24.79 11.59 -2.39
-31.56 14.75 -1.83
-1.03 0.49 -0.31
-31.06 14.65 0.6
-7.83 3.69 -2
-30.51 14.39 1.77
-9.69 4.57 -2.08
-1.21 0.57 -0.21
-1.21 0.57 -0.16
-24.73 11.66 -2.39
-31.34 14.78 -1.82
-58.04 27.37 -1.12
-1.02 0.48 -0.3
-30.69 14.61 0.59
-7.83 3.72 -2
-9.68 4.61 -2.08
-57.66 27.44 5.59
-1.2 0.57 -0.21
-1.21 0.58 -0.16
-24.66 11.73 -2.39
-31.03 14.77 -1.8
-6.53 3.13 -1.94
-30.4 14.59 0.59
-7.81 3.75 -2
-9.68 4.64 -2.09
-30.86 14.81 2.99
-1.17 0.56 -0.21
-1.21 0.58 -0.16
-24.62 11.82 -2.39
-30.9 14.83 -1.8
-6.52 3.16 -1.94
-7.79 3.78 -2
-30.07 14.58 1.75
-9.67 4.69 -2.09
-29.68 14.39 2.89
-1.16 0.56 -0.2
-1.2 0.58 -0.16
-24.59 11.92 -2.39
-30.73 14.9 -1.79
-55.16 26.74 -1.07
-6.51 3.18 -1.94
-30.78 15.05 0.6
-7.79 3.81 -2
-31.09 15.2 1.81
-9.65 4.72 -2.09
-29.52 14.43 2.87
-1.16 0.56 -0.2
-1.18 0.58 -0.16
-24.55 12 -2.39
-30.69 15 -1.79
-6.49 3.2 -1.94
-30.37 14.98 0.59
-7.79 3.84 -2
-53.92 26.59 3.15
-9.64 4.75 -2.09
-30.61 15.09 2.99
-1.14 0.56 -0.2
-53.83 26.55 7.37
-1.19 0.58 -0.16
-24.56 12.11 -2.4
-30.53 15.06 -1.78
-30.47 15.02 -0.59
-6.48 3.23 -1.94
-30.34 15.1 0.59
-7.78 3.87 -2.01
-29.89 14.87 1.75
-9.63 4.79 -2.09
-29.64 14.75 2.9
-1.13 0.56 -0.2
-53.03 26.39 7.27
-1.18 0.59 -0.16
-24.52 12.2 -2.4
-30.3 15.08 -1.77
-30.42 15.14 -0.59
-6.48 3.25 -1.94
-52.09 26.15 1.02
-7.77 3.9 -2.01
-52.21 26.22 3.06
-9.62 4.83 -2.09
-52.23 26.22 5.11
-1.12 0.56 -0.2
-52.28 26.25 7.18
-1.17 0.59 -0.16
-24.46 12.28 -2.39
-52.08 26.15 -1.02
-6.47 3.28 -1.94
-52.02 26.35 1.02
-7.75 3.92 -2.01
-52.1 26.39 3.06
-9.61 4.87 -2.09
-52.17 26.43 5.12
-1.11 0.56 -0.2
-52.2 26.44 7.18
-1.14 0.58 -0.16
-24.43 12.38 -2.4
-52.07 26.38 -1.02
-6.46 3.3 -1.94
-52 26.57 1.02
-7.75 3.96 -2.01
-29.1 14.86 1.71
-9.6 4.91 -2.1
-52.11 26.62 5.12
-1.11 0.57 -0.2
-52.15 26.64 7.19
-1.13 0.58 -0.16
-24.41 12.47 -2.4
-38.56 19.7 -2.27
-51.99 26.56 -1.02
-6.46 3.33 -1.95
-51.96 26.78 1.02
-7.74 3.99 -2.01
-29.02 14.96 1.71
-9.58 4.94 -2.1
-52.11 26.85 5.13
-1.11 0.57 -0.2
-52.11 26.85 7.2
-1.13 0.58 -0.16
-24.36 12.55 -2.4
-38.3 19.74 -2.26
-51.93 26.76 -1.02
-6.44 3.34 -1.94
-51.91 26.95 1.02
-7.73 4.02 -2.01
-28.94 15.03 1.71
-9.57 4.97 -2.1
-52.04 27.02 5.13
-1.1 0.57 -0.2
-52.09 27.05 7.21
-1.13 0.59 -0.16
-24.35 12.65 -2.4
-51.91 26.95 -1.02
-6.44 3.37 -1.95
-51.85 27.16 1.02
-7.72 4.05 -2.01
-51.96 27.21 3.07
-9.57 5.01 -2.1
-52 27.24 5.14
-1.08 0.56 -0.19
-52.04 27.26 7.21
-1.15 0.6 -0.16
-24.28 12.72 -2.4
-51.84 27.15 -1.02
-6.42 3.39 -1.95
-51.83 27.37 1.02
-7.71 4.07 -2.01
-51.89 27.41 3.08
-9.57 5.05 -2.1
-51.94 27.43 5.14
-1.07 0.57 -0.19
-51.98 27.45 7.22
-1.15 0.61 -0.16
-24.24 12.8 -2.4
-6.42 3.42 -1.95
-51.77 27.58 1.02
-7.7 4.1 -2.01
-51.84 27.62 3.08
-9.55 5.09 -2.1
-51.91 27.65 5.15
-1.07 0.57 -0.19
-51.94 27.67 7.23
-16.56 8.82 -2.3
-24.19 12.89 -2.4
-6.42 3.45 -1.95
-51.73 27.79 1.02
-7.7 4.14 -2.02
-51.8 27.83 3.08
-9.54 5.12 -2.1
-51.86 27.86 5.15
-1.06 0.57 -0.19
-51.9 27.89 7.23
-16.5 8.87 -2.3
-24.11 12.96 -2.39
-6.4 3.47 -1.95
-51.68 28.01 1.03
-7.69 4.17 -2.02
-51.73 28.04 3.08
-9.53 5.16 -2.11
-51.8 28.07 5.16
-1.06 0.58 -0.19
-51.84 28.1 7.24
-1.14 0.62 -0.16
-24.02 13.02 -2.39
-6.39 3.49 -1.95
-51.63 28.21 1.03
-7.68 4.2 -2.02
-51.7 28.24 3.09
-9.52 5.2 -2.11
-51.76 28.28 5.16
-1.03 0.57 -0.19
-51.8 28.3 7.25
-1.11 0.61 -0.16
-23.96 13.09 -2.39
-37.65 20.57 -2.25
-51.75 28.28 -1.03
-6.39 3.52 -1.95
-51.57 28.42 1.03
-7.66 4.22 -2.02
-51.65 28.46 3.09
-9.51 5.24 -2.11
-51.72 28.5 5.17
-1.03 0.57 -0.19
-51.75 28.51 7.25
-1.1 0.61 -0.15
-23.91 13.18 -2.39
-37.58 20.71 -2.25
-6.38 3.54 -1.96
-51.53 28.61 1.03
-7.66 4.25 -2.02
-51.6 28.65 3.09
-9.51 5.28 -2.11
-51.69 28.7 5.17
-1.03 0.57 -0.19
-51.72 28.71 7.26
-1.07 0.6 -0.15
-23.9 13.27 -2.39
-51.55 28.62 -1.03
-6.38 3.57 -1.96
-51.49 28.83 1.03
-7.65 4.28 -2.02
-51.53 28.85 3.1
-9.48 5.31 -2.11
-51.62 28.91 5.18
-1.03 0.58 -0.19
-51.66 28.92 7.27
-1.06 0.6 -0.15
-23.89 13.38 -2.4
-51.48 28.83 -1.03
-6.36 3.59 -1.96
-51.45 29.04 1.03
-7.64 4.31 -2.03
-51.52 29.08 3.1
-9.48 5.35 -2.12
-51.59 29.12 5.18
-1.02 0.58 -0.19
-51.62 29.14 7.28
-1.06 0.6 -0.15
-23.84 13.46 -2.4
-51.44 29.03 -1.03
-6.35 3.62 -1.96
-51.4 29.25 1.03
-7.63 4.34 -2.03
-51.47 29.29 3.1
-9.47 5.39 -2.12
-51.53 29.33 5.19
-1.01 0.58 -0.18
-51.57 29.35 7.29
-1.06 0.6 -0.15
-23.8 13.55 -2.4
-6.35 3.64 -1.96
-49.94 28.65 1.01
-7.62 4.37 -2.03
-51.41 29.49 3.11
-9.45 5.42 -2.12
-51.48 29.53 5.19
-1 0.57 -0.18
-51.52 29.55 7.29
-16.13 9.25 -2.28
-23.74 13.62 -2.39
-6.35 3.67 -1.96
-49.38 28.56 1
-7.6 4.4 -2.03
-51.36 29.7 3.11
-9.45 5.46 -2.12
-51.44 29.75 5.2
-1 0.58 -0.18
-51.47 29.77 7.3
-16.08 9.3 -2.28
-23.7 13.71 -2.4
-6.34 3.7 -1.97
-48.8 28.46 0.99
-7.6 4.43 -2.03
-48.87 28.5 2.96
-9.43 5.5 -2.12
-48.83 28.48 4.95
-0.99 0.58 -0.18
-48.87 28.5 6.95
-16.03 9.35 -2.28
-49.02 28.59 8.99
-23.61 13.77 -2.39
-48.6 28.34 -0.98
-6.32 3.72 -1.96
-7.59 4.46 -2.03
-48.29 28.39 2.94
-9.42 5.54 -2.12
-48.25 28.37 4.9
-0.99 0.58 -0.18
-48.26 28.37 6.87
-15.98 9.39 -2.28
-48.42 28.47 8.9
-23.52 13.83 -2.39
-48.02 28.24 -0.97
-11.49 6.76 3.57
-6.31 3.74 -1.96
-7.58 4.49 -2.03
-47.68 28.25 2.9
-9.4 5.57 -2.12
-47.62 28.21 4.84
-0.96 0.57 -0.18
-47.66 28.23 6.8
-15.94 9.44 -2.27
-47.81 28.32 8.8
-23.46 13.9 -2.39
-47.41 28.08 -0.96
-11.49 6.81 3.58
-6.3 3.76 -1.97
-7.56 4.51 -2.03
-47.08 28.11 2.87
-9.4 5.61 -2.13
-47.05 28.1 4.79
-0.95 0.57 -0.18
-47.02 28.08 6.72
-15.88 9.48 -2.27
-47.2 28.19 8.71
-23.38 13.96 -2.38
-46.8 27.95 -0.95
-11.48 6.86 3.58
-6.3 3.79 -1.97
-7.55 4.54 -2.03
-46.48 27.96 2.84
-9.38 5.64 -2.13
-46.49 27.96 4.75
-0.95 0.57 -0.18
-46.46 27.95 6.66
-15.83 9.52 -2.27
-46.6 28.03 8.61
-23.32 14.03 -2.38
-12.38 7.45 3.34
-46.27 27.83 -0.94
-11.5 6.92 3.59
-6.29 3.81 -1.97
-7.54 4.57 -2.04
-45.91 27.84 2.81
-9.36 5.67 -2.13
-45.91 27.84 4.7
-0.95 0.58 -0.18
-45.86 27.81 6.59
-15.79 9.57 -2.27
-46 27.9 8.52
-23.24 14.09 -2.38
-12.34 7.48 3.33
-45.67 27.69 -0.93
-11.29 6.85 3.54
-6.26 3.83 -1.97
-7.53 4.6 -2.04
-45.36 27.73 2.79
-9.34 5.71 -2.13
-45.33 27.71 4.65
-0.95 0.58 -0.18
-45.3 27.69 6.52
-15.75 9.63 -2.27
-45.42 27.77 8.43
-23.13 14.14 -2.37
-12.29 7.51 3.32
-45.16 27.61 -0.92
-11.51 7.04 3.61
-6.26 3.86 -1.97
-44.46 27.4 0.91
-7.52 4.63 -2.04
-44.79 27.61 2.76
-9.33 5.75 -2.13
-44.75 27.58 4.6
-0.95 0.58 -0.18
-44.73 27.57 6.45
-15.71 9.68 -2.27
-44.85 27.64 8.34
-23.05 14.2 -2.37
-37.72 23.24 -2.32
-12.13 7.47 3.29
-44.56 27.46 -0.91
-11.5 7.08 3.62
-6.25 3.88 -1.97
-44.16 27.42 0.91
-7.5 4.66 -2.04
-44.25 27.48 2.73
-9.32 5.79 -2.13
-44.25 27.48 4.56
-0.93 0.58 -0.17
-44.22 27.46 6.39
-15.67 9.73 -2.26
-44.31 27.52 8.26
-22.97 14.26 -2.37
-11.55 7.18 2.64
-37.64 23.37 -2.32
-12.04 7.48 3.27
-44.08 27.37 -0.91
-12.21 7.58 3.85
-6.24 3.91 -1.97
-43.99 27.54 0.91
-7.49 4.69 -2.04
-44.05 27.57 2.72
-9.31 5.83 -2.13
-44.12 27.62 4.55
-0.93 0.58 -0.17
-44.14 27.63 6.39
-15.62 9.78 -2.26
-44.21 27.67 8.26
-23.55 14.74 -2.43
-11.57 7.24 3.15
-44 27.54 -0.91
-12.2 7.64 3.86
-6.23 3.93 -1.97
-43.96 27.73 0.91
-7.48 4.72 -2.04
-44 27.75 2.73
-9.28 5.85 -2.13
-44.09 27.81 4.56
-0.92 0.58 -0.17
-44.11 27.82 6.4
-15.58 9.83 -2.26
-11.82 7.45 2.21
-23.5 14.82 -2.43
-11.56 7.29 2.66
-11.19 7.06 3.06
-43.99 27.75 -0.91
-6.21 3.95 -1.97
-7.47 4.75 -2.04
-43.95 27.94 2.73
-9.27 5.9 -2.14
-44.03 27.99 4.56
-0.91 0.58 -0.17
-15.54 9.88 -2.26
-11.83 7.52 2.22
-24.54 15.6 -2.54
-11.51 7.32 2.65
-11.25 7.15 3.08
-44.08 28.02 -0.91
-11.77 7.49 3.74
-6.2 3.97 -1.97
-7.46 4.77 -2.04
-43.92 28.12 2.73
-9.26 5.93 -2.14
-44 28.17 4.57
-0.89 0.57 -0.17
-15.51 9.93 -2.26
-44.09 28.23 8.29
-24.66 15.79 -2.56
-11.75 7.52 2.71
-43.97 28.15 -2.74
-11.38 7.29 3.12
-43.99 28.16 -0.91
-11.77 7.54 3.75
-6.2 4 -1.98
-46.37 29.92 0.96
-7.44 4.8 -2.04
-43.88 28.32 2.74
-9.25 5.97 -2.14
-43.95 28.36 4.58
-0.89 0.58 -0.17
-15.47 9.98 -2.26
-11.82 7.63 2.23
-25.36 16.36 -2.64
-11.33 7.31 2.62
-43.93 28.35 -2.74
-44.01 28.4 -0.91
-13.97 9.02 4.46
-6.19 4.03 -1.98
-46.32 30.13 0.96
-7.43 4.83 -2.05
-43.82 28.5 2.74
-9.23 6.01 -2.14
-43.92 28.57 4.58
-0.89 0.58 -0.17
-48.21 31.35 7.06
-15.42 10.03 -2.26
-13.51 8.79 2.55
-23.92 15.56 -2.5
-12.69 8.26 2.94
-43.91 28.56 -2.75
-11.99 7.8 3.3
-43.95 28.59 -0.92
-11.59 7.54 3.7
-6.17 4.05 -1.98
-7.42 4.86 -2.05
-43.77 28.69 2.74
-9.21 6.03 -2.14
-43.87 28.76 4.59
-0.89 0.58 -0.17
-15.38 10.08 -2.26
-43.95 28.81 8.32
-23.79 15.59 -2.49
-11.41 7.48 2.65
-43.83 28.73 -2.75
-11.45 7.51 3.16
-43.88 28.76 -0.92
-11.66 7.64 3.73
-6.15 4.06 -1.98
-7.41 4.89 -2.05
-43.75 28.88 2.75
-9.19 6.07 -2.14
-43.83 28.94 4.6
-0.88 0.58 -0.17
-15.35 10.13 -2.26
-43.92 28.99 8.34
-23.81 15.72 -2.5
-13.36 8.82 3.11
-43.8 28.92 -2.75
-11.43 7.55 3.16
-11.65 7.69 3.74
-6.14 4.09 -1.98
-46.21 30.74 0.97
-7.4 4.92 -2.05
-43.69 29.07 2.75
-9.18 6.11 -2.14
-43.78 29.13 4.6
-0.87 0.58 -0.16
-44.06 29.31 6.5
-15.31 10.19 -2.26
-43.88 29.19 8.35
-23.79 15.82 -2.5
-11.86 7.89 2.77
-43.73 29.09 -2.75
-10.92 7.26 3.03
-11.84 7.87 3.81
-6.14 4.11 -1.98
-46.17 30.94 0.97
-7.37 4.94 -2.05
-43.65 29.25 2.75
-9.17 6.15 -2.15
-43.76 29.33 4.61
-0.87 0.58 -0.17
-46.43 31.11 6.86
-15.27 10.24 -2.26
-43.84 29.38 8.36
-23.83 15.97 -2.51
-11.81 7.92 2.76
-36.71 24.6 -2.32
-10.82 7.25 3.01
-11.41 7.64 3.68
-6.13 4.14 -1.98
-7.35 4.97 -2.05
-43.61 29.45 2.76
-9.16 6.19 -2.15
-43.71 29.52 4.61
-0.86 0.58 -0.16
-43.93 29.67 6.51
-15.22 10.28 -2.26
-43.79 29.58 8.37
-23.91 16.15 -2.52
-11.66 7.87 2.73
-36.47 24.63 -2.31
-11.07 7.48 3.08
-6.12 4.16 -1.98
-45.29 30.82 0.96
-7.35 5 -2.05
-43.56 29.64 2.76
-0.84 0.57 -0.2
-43.66 29.71 4.62
-0.86 0.58 -0.16
-15.17 10.32 -2.25
-43.76 29.77 8.38
-25.06 17.05 -2.65
-36.24 24.66 -2.3
-10.83 7.37 3.02
-6.1 4.18 -1.98
-7.34 5.03 -2.05
-43.53 29.84 2.77
-0.85 0.58 -0.2
-43.62 29.9 4.63
-0.86 0.59 -0.16
-15.15 10.39 -2.26
-43.7 29.96 8.39
-24.95 17.11 -2.65
-13.16 9.02 3.1
-36.08 24.74 -2.29
-10.85 7.44 3.04
-43.66 29.93 -0.92
-12.13 8.31 3.94
-6.09 4.21 -1.98
-7.32 5.06 -2.06
-43.48 30.03 2.77
-0.84 0.58 -0.2
-43.57 30.09 4.63
-0.83 0.58 -0.16
-44.36 30.63 6.62
-15.11 10.44 -2.26
-43.67 30.16 8.41
-24.82 17.14 -2.64
-13.15 9.08 3.11
-35.75 24.69 -2.28
-10.79 7.46 3.03
-43.64 30.14 -0.93
-13.23 9.14 4.31
-6.08 4.23 -1.98
-43.48 30.26 0.92
-7.3 5.08 -2.05
-43.43 30.22 2.77
-0.84 0.58 -0.2
-43.54 30.3 4.64
-0.83 0.58 -0.16
-43.62 30.36 6.53
-15.07 10.49 -2.25
-43.63 30.36 8.42
-24.74 17.22 -2.64
-35.27 24.55 -2.25
-11.33 7.89 3.19
-43.49 30.27 -0.92
-13.28 9.24 4.33
-6.08 4.26 -1.99
-43.13 30.21 0.92
-7.29 5.11 -2.06
-43.21 30.27 2.76
-0.83 0.58 -0.2
-43.21 30.26 4.62
-0.83 0.58 -0.16
-43.24 30.29 6.48
-15 10.51 -2.25
-43.38 30.39 8.39
-24.71 17.31 -2.64
-35.03 24.53 -2.24
-12.55 8.79 3.54
-43.41 30.4 -0.93
-10.79 7.56 3.53
-6.05 4.27 -1.99
-42.67 30.12 0.91
-7.28 5.14 -2.06
-42.74 30.17 2.74
-0.82 0.58 -0.2
-42.74 30.17 4.58
-0.84 0.59 -0.16
-42.75 30.17 6.42
-14.96 10.56 -2.25
-42.87 30.26 8.31
-24.61 17.37 -2.64
-12.32 8.7 2.93
-34.14 24.1 -2.19
-12.56 8.87 3.55
-10.26 7.24 3.37
-6.04 4.29 -1.99
-41.88 29.77 0.9
-7.27 5.17 -2.06
-42.29 30.06 2.72
-0.81 0.58 -0.19
-42.27 30.05 4.54
-0.82 0.58 -0.16
-42.28 30.06 6.37
-14.9 10.6 -2.25
-42.4 30.14 8.24
-24.57 17.47 -2.64
-33.9 24.1 -2.18
-42.11 29.94 -0.9
-10.25 7.29 3.37
-6.03 4.32 -1.99
-7.26 5.2 -2.06
-41.82 29.96 2.7
-0.81 0.58 -0.19
-41.82 29.96 4.5
-0.81 0.58 -0.16
-12.1 8.67 1.83
-14.86 10.64 -2.24
-41.95 30.05 8.17
-24.52 17.56 -2.64
-12.22 8.76 2.92
-33.73 24.16 -2.17
-10.99 7.87 3.12
-41.99 30.08 -0.9
-10.44 7.48 3.44
-6.02 4.34 -1.99
-7.23 5.22 -2.06
-41.39 29.86 2.67
-0.81 0.58 -0.19
-41.36 29.84 4.46
-0.83 0.6 -0.16
-12.09 8.73 1.83
-14.81 10.68 -2.24
-41.52 29.95 8.11
-24.45 17.64 -2.64
-11.93 8.61 2.86
-33.63 24.26 -2.17
-10.57 7.62 3.01
-10.04 7.24 3.32
-6.01 4.37 -1.99
-7.22 5.25 -2.06
-40.95 29.76 2.65
-0.81 0.59 -0.19
-40.92 29.74 4.43
-0.8 0.58 -0.16
-12.01 8.73 1.82
-14.76 10.73 -2.24
-41.08 29.86 8.04
-24.36 17.71 -2.64
-11.91 8.66 2.86
-33.56 24.39 -2.17
-11.56 8.4 3.3
-9.96 7.24 3.3
-5.99 4.39 -1.99
-7.21 5.28 -2.06
-40.78 29.86 2.65
-0.79 0.58 -0.19
-40.48 29.64 4.39
-0.82 0.6 -0.16
-11.86 8.68 1.8
-14.71 10.77 -2.24
-40.56 29.7 7.96
-24.26 17.76 -2.63
-12.17 8.91 2.93
-32.72 23.95 -2.12
-11.42 8.36 3.27
-10.23 7.49 3.4
-5.97 4.4 -1.99
-39.64 29.24 0.86
-7.2 5.31 -2.07
-40.06 29.54 4.35
-0.81 0.6 -0.16
-11.82 8.72 1.8
-14.67 10.82 -2.24
-40.17 29.62 7.9
-24.12 17.79 -2.62
-40.25 29.69 9.72
-32.5 23.97 -2.12
-11.46 8.46 3.29
-9.94 7.33 3.31
-5.96 4.43 -1.99
-39.57 29.4 0.86
-7.18 5.34 -2.07
-0.79 0.59 -0.19
-39.62 29.44 4.32
-0.81 0.6 -0.16
-11.87 8.82 1.82
-14.62 10.87 -2.24
-39.75 29.53 7.84
-24.01 17.84 -2.62
-12.23 9.09 2.96
-32.33 24.02 -2.11
-11.49 8.53 3.3
-39.42 29.29 -0.86
-9.89 7.35 3.3
-5.95 4.46 -1.99
-38.9 29.11 0.85
-7.16 5.36 -2.07
-39.24 29.37 2.57
-39.23 29.36 4.29
-0.81 0.6 -0.16
-12.05 9.02 1.85
-14.58 10.91 -2.24
-39.34 29.44 7.78
-23.9 17.89 -2.61
-12.15 9.09 2.95
-32.22 24.11 -2.11
-11.87 8.89 3.42
-39.1 29.26 -0.85
-9.66 7.23 3.23
-5.94 4.48 -1.99
-7.14 5.38 -2.07
-38.86 29.29 2.55
-38.81 29.26 4.25
-0.81 0.61 -0.16
-11.58 8.73 1.78
-14.53 10.95 -2.23
-38.93 29.35 7.72
-23.78 17.93 -2.61
-12.2 9.19 2.97
-39.02 29.41 -0.85
-9.76 7.36 3.28
-5.93 4.5 -2
-38.06 28.9 0.83
-7.14 5.42 -2.07
-38.45 29.2 2.53
-12.01 9.12 1.32
-0.8 0.61 -0.16
-11.68 8.87 1.8
-14.48 11 -2.23
-11.82 8.98 2.35
-23.66 17.97 -2.6
-12.16 9.24 2.97
-11.7 8.89 3.39
-10.15 7.71 3.41
-5.91 4.52 -1.99
-37.64 28.78 0.83
-7.12 5.45 -2.07
-11.36 8.68 0.75
-11.97 9.15 1.32
-0.81 0.62 -0.16
-38.02 29.07 5.88
-14.44 11.04 -2.23
-11.91 9.1 2.37
-23.55 18.01 -2.59
-38.19 29.2 9.34
-23.95 18.31 -1.58
-10.64 8.13 3.09
-9.91 7.58 3.34
-5.9 4.55 -2
-7.11 5.47 -2.07
-11.33 8.73 0.75
-11.31 8.71 1.25
-0.79 0.61 -0.16
-37.62 28.97 5.83
-14.41 11.1 -2.23
-11.89 9.15 2.38
-23.43 18.04 -2.59
-11.19 8.62 2.74
-11.58 8.92 3.37
-9.82 7.56 3.32
-5.89 4.57 -2
-7.08 5.5 -2.07
-11.18 8.67 0.74
-11.46 8.89 1.27
-0.79 0.61 -0.16
-11.59 8.99 1.8
-14.36 11.14 -2.23
-11.88 9.22 2.38
-23.32 18.09 -2.58
-37.39 29 9.2
-11.5 8.92 3.36
-10.05 7.8 3.41
-5.88 4.59 -2
-36.56 28.56 0.81
-7.07 5.53 -2.07
-11.05 8.63 0.73
-11.36 8.87 1.26
-10.64 8.31 -2.14
-36.89 28.82 5.75
-14.3 11.17 -2.23
-11.52 9 2.32
-23.23 18.15 -2.58
-37 28.91 9.13
-10.64 8.31 3.12
-10.41 8.14 3.54
-5.87 4.62 -2
-36.14 28.44 0.8
-7.06 5.55 -2.07
-11.1 8.74 0.74
-11.89 9.36 1.32
-10.58 8.33 -2.13
-11.88 9.35 1.86
-14.26 11.22 -2.23
-11.4 8.97 2.3
-20.79 16.36 -2.31
-11.41 8.98 2.82
-20.8 16.37 -1.39
-10.21 8.03 3
-20.86 16.42 -0.46
-5.85 4.63 -2
-35.81 28.38 0.8
-7.05 5.59 -2.08
-11.01 8.73 0.74
-11.8 9.35 1.32
-10.5 8.32 -2.12
-11.46 9.09 1.8
-14.21 11.27 -2.23
-10.47 8.3 2.12
-20.67 16.38 -2.31
-20.7 16.41 -1.38
-10.13 8.03 2.98
-20.82 16.5 -0.46
-11.22 8.89 3.84
-5.83 4.65 -2
-35.44 28.29 0.79
-7.04 5.62 -2.08
-11.24 8.97 0.75
-35.79 28.57 4.01
-10.43 8.32 -2.11
-11.57 9.23 1.82
-14.17 11.31 -2.23
-10.31 8.23 2.09
-20.65 16.48 -2.31
-35.9 28.66 8.93
-20.66 16.5 -1.39
-11.15 8.9 3.29
-20.78 16.59 -0.46
-9.78 7.81 3.35
-5.83 4.68 -2
-35.11 28.23 0.79
-7.01 5.64 -2.08
-11.53 9.27 0.78
-11.22 9.02 1.26
-10.35 8.32 -2.1
-11.51 9.26 1.81
-14.12 11.35 -2.22
-10.23 8.22 2.08
-20.63 16.58 -2.32
-35.68 28.69 8.9
-20.63 16.59 -1.39
-11.09 8.92 3.28
-20.76 16.69 -0.46
-9.67 7.78 3.33
-5.82 4.71 -2.01
-34.76 28.15 0.78
-6.99 5.66 -2.08
-11.47 9.29 0.77
-11.2 9.07 1.26
-10.3 8.34 -2.1
-11.4 9.23 1.8
-14.07 11.39 -2.22
-10.26 8.31 2.09
-20.6 16.68 -2.32
-11.28 9.13 2.82
-20.61 16.69 -1.39
-10.23 8.29 3.04
-20.73 16.78 -0.47
-9.7 7.86 3.35
-5.81 4.74 -2.01
-34.4 28.06 0.77
-6.98 5.69 -2.08
-11.47 9.36 0.78
-34.76 28.35 3.92
-10.23 8.35 -2.09
-10.97 8.95 1.74
-14.03 11.44 -2.22
-10.3 8.4 2.11
-20.57 16.78 -2.32
-12.63 10.3 3.17
-20.59 16.79 -1.39
-11.13 9.08 3.32
-20.68 16.87 -0.47
-9.77 7.97 3.38
-5.78 4.75 -2.01
-34.12 28.02 0.77
-6.97 5.73 -2.08
-11.44 9.4 0.78
-10.94 8.98 1.24
-10.2 8.37 -2.09
-10.94 8.99 1.74
-13.98 11.49 -2.22
-10.21 8.39 2.09
-20.55 16.88 -2.33
-12.28 10.08 3.09
-20.57 16.89 -1.39
-11.35 9.33 3.39
-20.65 16.96 -0.47
-9.75 8.01 3.38
-5.78 4.78 -2.01
-33.74 27.91 0.76
-6.95 5.75 -2.08
-11.37 9.41 0.77
-10.78 8.92 1.22
-10.13 8.38 -2.08
-10.98 9.08 1.75
-13.95 11.54 -2.22
-10.33 8.55 2.12
-20.52 16.98 -2.33
-10.74 8.88 2.71
-20.53 16.98 -1.4
-20.62 17.06 -0.47
-9.79 8.1 3.4
-5.76 4.8 -2.01
-33.44 27.85 0.76
-6.93 5.77 -2.08
-33.7 28.07 2.3
-10.77 8.97 1.23
-10.09 8.4 -2.08
-11.18 9.31 1.79
-13.9 11.58 -2.22
-11.13 9.27 2.29
-20.47 17.05 -2.33
-10.29 8.57 2.6
-20.5 17.07 -1.4
-11.32 9.43 3.4
-20.58 17.14 -0.47
-9.73 8.1 3.39
-5.76 4.83 -2.01
-33.09 27.76 0.75
-6.91 5.8 -2.08
-33.42 28.03 2.29
-10.75 9.02 1.23
-10.04 8.42 -2.07
-10.74 9.01 1.72
-13.85 11.61 -2.22
-20.46 17.17 -2.34
-12.45 10.44 3.16
-20.47 17.17 -1.4
-10.87 9.12 3.28
-20.55 17.24 -0.47
-9.75 8.18 3.41
-5.74 4.85 -2.01
-32.88 27.78 0.75
-6.9 5.83 -2.08
-33.08 27.95 2.27
-10.65 9 1.22
-9.98 8.43 -2.07
-10.96 9.26 1.76
-13.8 11.65 -2.22
-10.87 9.18 2.25
-20.44 17.26 -2.34
-10.27 8.68 2.61
-20.46 17.28 -1.4
-10.43 8.81 3.15
-20.51 17.32 -0.47
-9.72 8.21 3.41
-5.71 4.86 -2.01
-32.66 27.78 0.75
-6.88 5.86 -2.09
-32.77 27.88 2.25
-11.06 9.41 1.27
-9.93 8.45 -2.07
-10.95 9.31 1.76
-13.76 11.7 -2.22
-10.86 9.24 2.26
-20.39 17.35 -2.34
-12.33 10.49 3.15
-20.43 17.38 -1.41
-10.35 8.81 3.14
-33.2 28.25 -0.76
-9.68 8.24 3.41
-5.71 4.89 -2.01
-32.39 27.75 0.74
-6.88 5.9 -2.09
-32.45 27.8 2.24
-10.97 9.4 1.26
-9.88 8.47 -2.06
-11.56 9.91 1.87
-13.71 11.75 -2.22
-10.86 9.31 2.27
-20.39 17.47 -2.35
-10.99 9.41 2.81
-20.4 17.48 -1.41
-10.16 8.7 3.58
-5.69 4.91 -2.01
-32.07 27.68 0.74
-6.86 5.92 -2.09
-32.14 27.74 2.23
-11.23 9.69 1.3
-9.84 8.49 -2.06
-32.12 27.72 5.21
-13.67 11.8 -2.22
-10.75 9.28 2.25
-20.35 17.56 -2.35
-10.48 9.04 2.69
-20.36 17.57 -1.41
-10.1 8.71 3.08
-10.19 8.79 3.61
-5.68 4.94 -2.02
-31.77 27.61 0.73
-6.86 5.96 -2.1
-31.83 27.66 2.21
-11.2 9.73 1.3
-9.79 8.5 -2.05
-10.79 9.37 1.75
-13.62 11.83 -2.22
-10.66 9.27 2.24
-20.33 17.67 -2.36
-10.22 8.88 2.63
-20.34 17.68 -1.41
-9.96 8.66 3.05
-30.08 26.14 -0.7
-10.14 8.81 3.6
-5.67 4.96 -2.02
-31.47 27.54 0.73
-6.85 6 -2.1
-31.52 27.59 2.2
-11.71 10.25 1.36
-9.72 8.5 -2.05
-31.52 27.58 5.14
-10.4 9.1 -1.7
-10.56 9.24 2.22
-20.31 17.78 -2.36
-10.16 8.9 2.63
-20.32 17.78 -1.42
-9.96 8.72 3.06
-29.55 25.86 -0.69
-5.64 4.97 -2.02
-31.18 27.48 0.73
-6.82 6.01 -2.1
-31.23 27.52 2.18
-11.73 10.34 1.37
-9.66 8.51 -2.04
-31.25 27.54 5.11
-13.51 11.91 -2.21
-10.24 9.02 2.16
-20.27 17.87 -2.36
-10.11 8.91 2.62
-20.29 17.88 -1.42
-11.94 10.52 3.67
-29.27 25.8 -0.68
-9.9 8.73 3.54
-5.63 4.99 -2.02
-30.83 27.37 0.72
-6.8 6.03 -2.1
-30.94 27.46 2.17
-9.59 8.51 -2.03
-10.11 8.97 1.66
-10.34 9.18 -1.7
-10.12 8.98 2.14
-20.25 17.97 -2.37
-10.06 8.92 2.61
-20.26 17.98 -1.42
-9.98 8.85 3.08
-9.85 8.74 3.53
-5.61 5.02 -2.02
-30.39 27.16 0.71
-6.77 6.05 -2.1
-30.65 27.39 2.15
-10.65 9.52 1.25
-9.54 8.52 -2.03
-10.03 8.96 1.65
-10.22 9.13 -1.68
-10.07 9 2.14
-20.22 18.08 -2.37
-10.01 8.95 2.61
-20.22 18.08 -1.42
-9.91 8.86 3.07
-30.57 27.33 -0.72
-9.86 8.81 3.54
-5.6 5.04 -2.02
-30.32 27.29 0.71
-6.76 6.08 -2.1
-30.36 27.33 2.14
-10.05 9.05 1.18
-9.5 8.55 -2.02
-10 9 1.65
-10.25 9.23 -1.69
-10.04 9.04 2.14
-20.19 18.17 -2.38
-20.21 18.19 -1.42
-10 9 3.11
-10.25 9.23 -0.24
-10.58 9.52 3.81
-5.59 5.06 -2.02
-30.26 27.43 0.71
-6.74 6.11 -2.1
-30.3 27.46 2.14
-10 9.06 1.18
-9.44 8.56 -2.02
-10.08 9.14 -1.67
-10.04 9.1 -1.19
-11 9.97 2.89
-10.08 9.14 -0.71
-10.16 9.21 -0.24
-10.76 9.76 3.89
-5.56 5.08 -2.02
-30.22 27.58 0.71
-30.27 27.63 2.15
-9.95 9.09 1.18
-9.39 8.57 -2.01
-9.02 8.23 1.5
-9.98 9.11 -1.66
-30.38 27.73 6.52
-9.99 9.12 -1.18
-10.94 9.99 2.88
-10.03 9.15 -0.71
-9.61 8.77 3
-10.07 9.19 -0.24
-10.62 9.69 3.85
-5.55 5.1 -2.02
-10 9.19 0.24
-9.98 9.17 0.71
-9.94 9.13 1.18
-9.31 8.56 -2
-30.32 27.86 5.06
-9.94 9.13 -1.66
-11.17 10.26 2.4
-9.93 9.13 -1.18
-10.96 10.08 2.89
-10 9.19 -0.71
-10.3 9.46 3.23
-10.02 9.21 -0.24
-10.43 9.59 3.8
-5.54 5.12 -2.02
-9.96 9.22 0.24
-9.91 9.17 0.71
-9.93 9.19 1.18
-9.25 8.56 -2
-30.29 28.03 5.07
-9.89 9.15 -1.65
-30.33 28.06 6.54
-9.91 9.17 -1.18
-11.27 10.43 2.99
-9.96 9.22 -0.71
-9.61 8.89 3.02
-9.99 9.24 -0.24
-10.4 9.62 3.8
-5.52 5.14 -2.02
-9.92 9.25 0.24
-9.87 9.2 0.71
-9.22 8.59 -2
-30.25 28.19 5.08
-9.85 9.18 -1.65
-11.18 10.42 2.42
-9.89 9.22 -1.18
-30.33 28.26 8.06
-9.95 9.28 -0.71
-9.53 8.89 3.01
-9.97 9.29 -0.24
-10.43 9.72 3.82
-5.51 5.17 -2.02
-9.89 9.28 0.24
-9.85 9.25 0.71
-30.18 28.33 3.62
-9.17 8.61 -1.99
-30.22 28.36 5.09
-9.84 9.23 -1.66
-10.87 10.2 2.36
-9.87 9.26 -1.18
-10.3 9.67 2.75
-9.95 9.34 -0.72
-9.46 8.88 3
-9.95 9.33 -0.24
-10.95 10.27 4.02
-5.48 5.18 -2.02
-9.87 9.33 0.24
-9.84 9.3 0.71
-30.14 28.48 3.63
-9.07 8.57 -1.98
-30.18 28.52 5.1
-9.83 9.29 -1.66
-10.36 9.79 2.26
-9.85 9.3 -1.19
-10.22 9.66 2.73
-20.02 18.91 -1.44
-9.44 8.92 3
-9.97 9.42 -0.24
-5.47 5.2 -2.02
-9.86 9.38 0.24
-9.83 9.36 0.71
-30.11 28.66 3.64
-9.01 8.57 -1.97
-10.12 9.63 1.71
-9.82 9.34 -1.66
-10.18 9.69 2.23
-9.87 9.39 -1.19
-10.19 9.69 2.73
-19.98 19.01 -1.45
-10.31 9.81 3.29
-10.73 10.21 3.97
-5.45 5.23 -2.02
-9.89 9.47 0.24
-9.81 9.4 0.71
-9.97 9.56 1.21
-8.98 8.6 -1.97
-10.05 9.63 1.71
-9.83 9.42 -1.67
-10.13 9.71 2.22
-19.95 19.11 -2.42
-10.18 9.76 2.74
-19.95 19.12 -1.45
-10.29 9.86 3.29
-29.02 27.81 -0.7
-10.41 9.98 3.86
-5.44 5.25 -2.03
-29.94 28.89 0.73
-9.79 9.45 0.71
-9.92 9.58 1.21
-8.93 8.62 -1.97
-10.01 9.66 1.71
-12.82 12.37 -2.19
-10.1 9.74 2.22
-19.91 19.21 -2.42
-19.92 19.22 -1.45
-10.29 9.93 3.3
-28.74 27.74 -0.7
-10.29 9.93 3.83
-5.42 5.27 -2.03
-29.91 29.06 0.73
-9.86 9.58 0.72
-9.88 9.6 1.2
-8.88 8.63 -1.96
-9.99 9.71 1.71
-12.79 12.43 -2.19
-10.05 9.77 2.22
-19.88 19.32 -2.43
-10.76 10.46 2.92
-19.89 19.33 -1.45
-10.58 10.28 3.41
-29.95 29.1 -0.73
-10.28 9.99 3.84
-5.4 5.28 -2.02
-29.86 29.22 0.73
-29.9 29.26 2.19
-9.86 9.65 1.21
-8.85 8.66 -1.96
-12.74 12.47 -2.19
-10 9.78 2.22
-19.84 19.42 -2.43
-10.22 10 2.78
-19.86 19.44 -1.46
-30.12 29.48 9.73
-29.86 29.23 -0.73
-10.46 10.24 3.92
-5.39 5.31 -2.03
-29.82 29.39 0.73
-29.86 29.43 2.2
-9.86 9.72 1.21
-8.8 8.67 -1.96
-29.96 29.52 5.16
-12.69 12.51 -2.19
-9.99 9.84 2.22
-19.82 19.53 -2.43
-10.22 10.07 2.79
-19.83 19.54 -1.46
-7.55 7.44 2.45
-10.59 10.43 3.98
-5.37 5.33 -2.03
-29.78 29.55 0.73
-29.84 29.61 2.2
-29.89 29.66 3.68
-8.77 8.71 -1.96
-10.25 10.17 1.77
-12.64 12.55 -2.19
-29.95 29.72 6.68
-19.79 19.64 -2.44
-9.94 9.86 2.72
-19.78 19.63 -1.46
-7.59 7.53 2.47
-5.36 5.36 -2.03
-29.76 29.72 0.73
-29.79 29.75 2.21
-29.87 29.83 3.69
-8.73 8.72 -1.95
-29.89 29.85 5.19
-12.59 12.58 -2.19
-8.89 8.88 1.99
-19.77 19.74 -2.44
-8.35 8.34 2.29
-19.77 19.74 -1.46
-7.57 7.56 2.47
-29.77 29.73 -0.73
-7.6 7.59 2.88
-5.35 5.38 -2.03
-29.73 29.89 0.74
-29.77 29.93 2.21
-29.83 30 3.7
-8.69 8.74 -1.95
-29.85 30.02 5.2
-12.54 12.61 -2.18
-10.18 10.24 2.29
-19.74 19.85 -2.45
-19.74 19.85 -1.47
-8.66 8.71 2.84
-29.72 29.89 -0.74
-7.59 7.64 2.89
-5.32 5.39 -2.03
-29.68 30.07 0.74
-29.73 30.11 2.22
-29.78 30.17 3.71
-8.62 8.73 -1.94
-29.83 30.21 5.21
-12.5 12.66 -2.18
-8.63 8.74 1.95
-19.7 19.96 -2.45
-11.64 11.79 3.22
-19.71 19.97 -1.47
-7.61 7.71 2.5
-20.27 20.54 -0.5
-7.59 7.69 2.89
-5.3 5.41 -2.03
-29.63 30.23 0.74
-29.7 30.3 2.22
-29.74 30.34 3.72
-8.57 8.74 -1.94
-29.92 30.53 5.25
-12.45 12.71 -2.18
-10.33 10.54 2.34
-19.66 20.06 -2.46
-8.34 8.51 2.32
-19.68 20.08 -1.47
-9.83 10.03 3.24
-7.59 7.75 2.91
-5.29 5.44 -2.03
-29.59 30.41 0.74
-29.63 30.45 2.23
-29.7 30.52 3.73
-8.52 8.76 -1.94
-29.95 30.78 5.27
-12.4 12.75 -2.18
-11.96 12.3 2.72
-19.63 20.18 -2.46
-8.3 8.53 2.31
-19.64 20.18 -1.48
-11.13 11.43 3.68
-29.61 30.43 -0.74
-10.58 10.87 4.06
-5.28 5.46 -2.03
-29.55 30.58 0.74
-29.6 30.64 2.23
-29.67 30.7 3.74
-8.48 8.78 -1.93
-29.88 30.92 5.28
-12.35 12.78 -2.18
-10.52 10.89 2.4
-19.61 20.29 -2.47
-8.69 8.99 2.43
-19.61 20.3 -1.48
-8.58 8.89 2.85
-10.49 10.86 4.05
-5.26 5.48 -2.03
-20.8 21.67 0.52
-29.57 30.8 2.24
-29.63 30.87 3.74
-8.42 8.77 -1.93
-12.32 12.83 -2.18
-29.71 30.95 6.79
-19.58 20.4 -2.47
-8.38 8.73 2.35
-19.58 20.4 -1.48
-10.95 11.41 3.65
-20.08 20.91 -0.51
-9.78 10.18 3.78
-5.23 5.49 -2.03
-29.52 30.97 0.75
-29.54 30.99 2.24
-29.61 31.06 3.75
-8.39 8.8 -1.93
-29.64 31.1 5.27
-12.29 12.89 -2.19
-29.65 31.11 6.81
-19.54 20.5 -2.48
-10.54 11.06 2.97
-19.56 20.52 -1.49
-9.54 10.01 3.19
-20.12 21.11 -0.51
-9.73 10.21 3.78
-5.22 5.51 -2.03
-20.81 21.98 0.53
-29.49 31.15 2.25
-29.54 31.21 3.76
-8.35 8.82 -1.92
-29.58 31.25 5.28
-12.25 12.94 -2.19
-10.25 10.82 2.36
-19.52 20.62 -2.48
-7.72 8.16 2.18
-19.53 20.63 -1.49
-9.96 10.52 3.34
-20.11 21.24 -0.51
-9.74 10.29 3.8
-5.2 5.54 -2.04
-20.25 21.55 0.52
-29.45 31.33 2.25
-29.52 31.41 3.77
-8.31 8.84 -1.92
-29.52 31.41 5.29
-12.2 12.98 -2.19
-10.25 10.91 2.37
-19.49 20.73 -2.49
-10.02 10.66 2.84
-19.48 20.73 -1.49
-9.68 10.3 3.26
-20.09 21.38 -0.51
-7.44 7.92 2.91
-5.2 5.57 -2.04
-19.59 20.98 0.5
-19.95 21.37 1.53
-29.48 31.57 3.78
-8.27 8.85 -1.92
-29.52 31.61 5.31
-12.15 13.01 -2.19
-11.57 12.39 2.69
-19.47 20.85 -2.5
-8.59 9.2 2.45
-19.46 20.84 -1.49
-9.96 10.66 3.37
-8.27 8.86 3.25
-5.19 5.59 -2.04
-29.34 31.64 0.75
-29.38 31.68 2.26
-29.43 31.75 3.79
-8.19 8.83 -1.91
-29.46 31.77 5.32
-12.1 13.05 -2.18
-9.99 10.77 2.33
-19.44 20.97 -2.5
-8.6 9.28 2.46
-19.44 20.97 -1.5
-9.86 10.63 3.35
-9.64 10.4 3.8
-5.15 5.6 -2.04
-29.29 31.82 0.75
-29.33 31.86 2.27
-8.65 9.4 1.12
-8.16 8.87 -1.91
-29.42 31.96 5.33
-12.04 13.08 -2.18
-29.45 32 6.89
-19.4 21.08 -2.51
-8.57 9.31 2.46
-19.4 21.08 -1.5
-7.71 8.38 2.63
-19.95 21.67 -0.51
-8.24 8.96 3.26
-5.14 5.63 -2.04
-29.24 32 0.76
-29.3 32.06 2.28
-29.34 32.11 3.81
-8.12 8.88 -1.91
-19.74 21.6 3.59
-11.99 13.12 -2.18
-9.97 10.91 2.34
-19.36 21.18 -2.51
-10.12 11.08 2.92
-19.37 21.19 -1.5
-9.75 10.66 3.34
-20.2 22.1 -0.52
-8.15 8.92 3.24
-5.12 5.64 -2.04
-19.78 21.78 0.51
-20.43 22.5 1.59
-20.23 22.28 2.63
-8.06 8.88 -1.9
-8.31 9.15 1.52
-11.94 13.15 -2.18
-29.39 32.36 6.92
-19.34 21.3 -2.52
-7.42 8.17 2.14
-19.34 21.3 -1.51
-11.08 12.21 3.81
-20.09 22.13 -0.52
-8.18 9.01 3.26
-5.11 5.67 -2.04
-29.19 32.37 0.76
-19.65 21.8 1.54
-29.28 32.48 3.83
-8.03 8.91 -1.9
-29.29 32.49 5.37
-11.87 13.17 -2.18
-7.94 8.81 1.88
-19.31 21.42 -2.52
-10.35 11.48 3
-19.3 21.4 -1.51
-11.11 12.32 3.83
-5.08 5.68 -2.04
-29.13 32.54 0.76
-29.18 32.61 2.29
-19.62 21.92 2.57
-8 8.93 -1.9
-29.26 32.69 5.39
-11.83 13.21 -2.18
-29.28 32.71 6.95
-19.28 21.54 -2.53
-7.36 8.22 2.14
-19.28 21.54 -1.51
-7 7.82 2.42
-19.64 21.95 -0.51
-5.06 5.7 -2.04
-29.08 32.73 0.76
-19.94 22.43 1.57
-8.66 9.74 1.14
-7.95 8.94 -1.89
-29.22 32.88 5.4
-11.78 13.25 -2.18
-8.32 9.36 1.98
-19.24 21.65 -2.53
-10.26 11.55 3
-19.25 21.66 -1.52
-6.95 7.82 2.42
-19.96 22.46 -0.52
-7.07 7.96 2.85
-5.05 5.72 -2.04
-19.8 22.42 0.52
-29.12 32.97 2.31
-29.15 33.01 3.85
-7.9 8.95 -1.89
-29.19 33.05 5.41
-11.73 13.28 -2.18
-29.23 33.1 6.99
-19.22 21.76 -2.54
-8.01 9.07 2.35
-19.22 21.76 -1.52
-7.64 8.66 2.67
-19.94 22.57 -0.53
-7.05 7.98 2.85
-5.03 5.73 -2.04
-19.89 22.68 0.53
-29.06 33.14 2.31
-29.12 33.21 3.86
-7.84 8.94 -1.88
-8.34 9.52 1.55
-11.68 13.32 -2.18
-8.26 9.43 1.99
-19.18 21.88 -2.55
-19.18 21.87 -1.52
-7.66 8.73 2.68
-19.81 22.6 -0.52
-7.56 8.62 3.07
-5.02 5.76 -2.05
-28.96 33.26 0.77
-29.01 33.32 2.32
-8.55 9.82 1.14
-7.8 8.95 -1.88
-29.1 33.42 5.44
-11.62 13.35 -2.17
-29.14 33.46 7.03
-19.16 22 -2.55
-19.15 22 -1.53
-6.87 7.89 2.42
-19.76 22.7 -0.53
-7.55 8.67 3.08
-5 5.78 -2.05
-19.56 22.63 0.52
-28.97 33.5 2.32
-8.52 9.85 1.14
-7.76 8.97 -1.88
-29.06 33.62 5.46
-11.57 13.38 -2.17
-16.36 18.93 -2.19
-7.59 8.78 2.26
-16.38 18.95 -1.31
-7.58 8.76 2.67
-19.4 22.44 -0.52
-7.33 8.47 3
-4.97 5.79 -2.04
-28.88 33.64 0.77
-28.94 33.71 2.33
-29 33.78 3.89
-7.72 9 -1.88
-29.02 33.8 5.47
-11.52 13.42 -2.17
-7.83 9.12 1.9
-16.21 18.88 -2.18
-7.51 8.75 2.24
-16.25 18.92 -1.31
-19.2 22.36 -0.51
-7.89 9.19 3.25
-4.95 5.81 -2.04
-28.85 33.85 0.78
-28.9 33.91 2.34
-8.52 9.99 1.15
-7.67 8.99 -1.87
-28.98 34 5.48
-11.47 13.46 -2.17
-7.6 8.91 1.85
-16.08 18.86 -2.17
-7.53 8.83 2.25
-16.1 18.89 -1.3
-7.85 9.2 2.79
-7.82 9.17 -0.21
-7.83 9.19 3.23
-4.94 5.83 -2.05
-7.78 9.19 0.21
-28.85 34.09 2.34
-7.73 9.14 1.05
-7.62 9.01 -1.87
-7.58 8.96 1.44
-11.42 13.5 -2.17
-7.55 8.92 1.85
-16.04 18.95 -2.17
-7.65 9.04 2.3
-16.04 18.95 -1.3
-7.81 9.22 2.79
-7.79 9.2 -0.21
-7.23 8.54 3
-4.92 5.86 -2.05
-7.68 9.14 0.21
-7.71 9.18 0.63
-7.62 9.07 1.04
-7.59 9.03 -1.87
-7.54 8.98 1.44
-7.79 9.27 -1.49
-7.53 8.96 1.85
-7.77 9.25 -1.06
-7.74 9.21 2.34
-7.74 9.21 -0.63
-7.77 9.25 2.79
-7.61 9.06 -0.21
-7.78 9.25 3.24
-4.9 5.88 -2.05
-7.57 9.07 0.21
-7.65 9.17 0.63
-7.58 9.08 1.04
-7.54 9.03 -1.86
-7.53 9.02 1.44
-7.71 9.25 -1.48
-7.71 9.24 1.91
-7.7 9.23 -1.05
-7.73 9.26 2.35
-7.69 9.22 -0.63
-7.77 9.31 2.8
-7.61 9.12 -0.21
-7.8 9.35 3.26
-4.87 5.88 -2.05
-7.57 9.14 0.21
-7.61 9.19 0.63
-7.54 9.1 1.03
-7.51 9.06 -1.86
-7.63 9.21 1.47
-7.67 9.26 -1.48
-7.7 9.29 1.91
-7.65 9.23 -1.05
-7.65 9.24 -0.63
-7.61 9.18 -0.21
-9.11 10.99 3.82
-4.86 5.91 -2.05
-7.56 9.19 0.21
-7.58 9.21 0.63
-7.53 9.15 1.04
-7.47 9.07 -1.86
-7.64 9.29 1.48
-7.63 9.27 -1.47
-7.62 9.26 -1.05
-7.77 9.44 2.38
-7.62 9.26 -0.63
-7.98 9.7 2.9
-7.61 9.25 -0.21
-8.98 10.92 3.79
-4.85 5.93 -2.05
-7.57 9.26 0.21
-7.56 9.25 0.63
-7.55 9.24 1.04
-7.44 9.1 -1.86
-7.6 9.3 1.47
-7.6 9.3 -1.47
-7.75 9.48 1.94
-7.6 9.31 -1.05
-7.77 9.51 2.39
-7.6 9.3 -0.63
-7.93 9.7 2.89
-7.6 9.3 -0.21
-8.9 10.89 3.77
-4.83 5.95 -2.05
-7.56 9.32 0.21
-7.54 9.3 0.63
-7.58 9.35 1.05
-7.38 9.1 -1.86
-7.59 9.36 1.48
-7.58 9.35 -1.48
-7.68 9.47 1.93
-7.6 9.37 -1.06
-7.59 9.36 -0.63
-7.59 9.36 -0.21
-7.24 8.92 3.08
-4.8 5.96 -2.05
-7.55 9.38 0.21
-7.55 9.38 0.63
-7.63 9.48 1.06
-7.33 9.1 -1.85
-7.63 9.47 1.49
-7.58 9.41 -1.48
-7.63 9.48 1.93
-7.61 9.45 -1.06
-7.05 8.75 2.18
-7.6 9.43 -0.63
-6.97 8.66 2.57
-7.58 9.41 -0.21
-7.19 8.93 3.07
-4.78 5.97 -2.05
-7.55 9.44 0.21
-7.61 9.51 1.07
-7.28 9.1 -1.85
-7.91 9.9 1.56
-7.59 9.49 -1.49
-7.62 9.53 1.93
-15.8 19.76 -2.21
-7.64 9.55 2.38
-7.66 9.58 -0.64
-6.99 8.74 2.58
-7.57 9.46 -0.21
-4.77 6 -2.05
-7.53 9.49 0.21
-19.11 24.06 1.61
-6.63 8.35 -2.07
-28.53 35.93 4.01
-7.24 9.11 -1.84
-28.54 35.94 5.64
-10.95 13.79 -2.16
-7.61 9.59 1.94
-15.78 19.87 -2.22
-15.79 19.88 -1.33
-6.9 8.69 2.56
-7.56 9.53 -0.21
-7.35 9.26 3.17
-4.75 6.02 -2.06
-7.52 9.54 0.21
-28.44 36.06 2.41
-6.6 8.36 -2.07
-28.47 36.1 4.02
-7.21 9.14 -1.84
-28.51 36.15 5.65
-10.89 13.81 -2.16
-7.64 9.69 1.96
-15.74 19.96 -2.22
-7.61 9.65 2.39
-15.75 19.97 -1.33
-6.91 8.76 2.57
-7.55 9.57 -0.21
-7.09 8.99 3.07
-4.73 6.04 -2.06
-7.51 9.59 0.21
-28.37 36.23 2.41
-6.56 8.38 -2.07
-28.44 36.32 4.04
-7.17 9.16 -1.84
-28.47 36.35 5.67
-10.83 13.83 -2.16
-8.54 10.9 2.19
-15.72 20.08 -2.23
-15.72 20.07 -1.34
-7.57 9.67 2.83
-7.53 9.62 -0.21
-7.6 9.71 3.3
-4.72 6.07 -2.06
-28.3 36.42 2.42
-6.53 8.41 -2.07
-28.38 36.52 4.05
-7.12 9.16 -1.84
-28.41 36.56 5.68
-10.78 13.87 -2.16
-28.45 36.61 7.34
-15.69 20.19 -2.24
-6.92 8.9 2.19
-15.69 20.2 -1.34
-28.27 36.63 2.42
-6.5 8.42 -2.07
-28.33 36.71 4.06
-7.08 9.18 -1.84
-28.37 36.77 5.7
-10.73 13.91 -2.16
-28.4 36.81 7.36
-15.65 20.28 -2.24
-6.86 8.89 2.18
-15.67 20.3 -1.34
-6.74 8.74 2.55
-8.53 11.05 3.74
-19.31 25.21 0.55
-28.25 36.87 2.43
-6.46 8.43 -2.06
-28.3 36.93 4.07
-7.04 9.19 -1.83
-28.32 36.97 5.72
-10.69 13.95 -2.16
-28.37 37.02 7.39
-15.63 20.4 -2.25
-28.4 37.07 9.08
-15.64 20.42 -1.35
-6.69 8.73 2.54
-19.17 25.02 -0.55
-4.65 6.12 -2.06
-19.19 25.22 0.55
-28.19 37.05 2.44
-6.42 8.44 -2.06
-28.26 37.15 4.08
-7.03 9.23 -1.84
-28.28 37.17 5.73
-10.64 13.98 -2.16
-28.33 37.24 7.41
-15.61 20.51 -2.26
-7.27 9.56 2.33
-15.62 20.52 -1.35
-7.89 10.37 3.01
-19.15 25.17 -0.55
-6.95 9.13 3.07
-4.63 6.14 -2.06
-19.02 25.2 0.55
-19.08 25.27 1.66
-6.39 8.46 -2.06
-18.95 25.11 2.75
-6.95 9.2 -1.83
-28.24 37.4 5.75
-10.58 14.01 -2.16
-7.54 9.99 1.98
-15.58 20.63 -2.26
-6.65 8.82 2.15
-15.58 20.64 -1.36
-7.86 10.41 3.01
-19.01 25.19 -0.55
-8.88 11.77 3.95
-4.61 6.16 -2.06
-28.04 37.4 0.82
-28.09 37.47 2.45
-6.36 8.48 -2.06
-28.16 37.57 4.11
-6.91 9.21 -1.82
-28.19 37.6 5.77
-10.53 14.04 -2.16
-28.22 37.65 7.45
-15.56 20.75 -2.27
-8.88 11.85 2.88
-15.56 20.76 -1.36
-7.99 10.66 3.08
-28.03 37.39 -0.82
-8.82 11.76 3.94
-4.58 6.16 -2.06
-19.37 26.03 0.57
-28.06 37.69 2.46
-6.31 8.47 -2.05
-18.82 25.28 2.76
-6.86 9.22 -1.82
-28.14 37.8 5.79
-10.48 14.07 -2.15
-28.18 37.86 7.47
-15.52 20.85 -2.27
-6.68 8.98 2.18
-15.53 20.87 -1.36
-8.24 11.07 3.19
-28.01 37.63 -0.82
-6.85 9.21 3.08
-27.95 37.82 0.82
-28 37.88 2.47
-6.28 8.49 -2.05
-18.4 24.89 2.71
-6.85 9.27 -1.83
-28.09 38.01 5.8
-10.44 14.12 -2.16
-28.14 38.08 7.5
-15.49 20.96 -2.28
-7.87 10.64 2.57
-15.5 20.98 -1.37
-7.97 10.78 3.09
-27.96 37.84 -0.82
-6.84 9.25 3.08
-27.9 38.03 0.82
-27.95 38.09 2.48
-6.26 8.53 -2.06
-28.02 38.18 4.14
-6.79 9.26 -1.82
-28.05 38.22 5.82
-10.38 14.14 -2.15
-28.1 38.29 7.52
-15.47 21.08 -2.29
-28.15 38.36 9.25
-15.48 21.1 -1.37
-8.16 11.12 3.19
-19.06 25.97 -0.56
-6.81 9.28 3.08
-27.86 38.24 0.83
-18.12 24.87 1.61
-6.23 8.55 -2.06
-27.98 38.41 4.16
-6.74 9.26 -1.81
-28 38.44 5.84
-10.31 14.16 -2.15
-28.05 38.51 7.55
-15.44 21.2 -2.29
-7.52 10.32 2.48
-15.44 21.2 -1.37
-7.59 10.42 2.98
-27.87 38.26 -0.83
-8.25 11.33 3.76
-27.82 38.47 0.83
-17.87 24.72 1.6
-6.17 8.54 -2.05
-27.92 38.62 4.17
-6.72 9.3 -1.82
-7.44 10.29 1.56
-10.27 14.2 -2.15
-28 38.72 7.57
-15.4 21.3 -2.3
-7.37 10.2 2.45
-15.41 21.31 -1.38
-7.68 10.63 3.03
-27.82 38.47 -0.83
-8.17 11.29 3.73
-27.77 38.68 0.83
-27.81 38.74 2.5
-6.16 8.58 -2.05
-27.87 38.83 4.18
-6.7 9.34 -1.82
-27.91 38.88 5.88
-10.22 14.24 -2.15
-27.96 38.94 7.59
-15.36 21.39 -2.3
-15.38 21.43 -1.38
-7.91 11.01 3.13
-27.77 38.68 -0.83
-7.81 10.88 3.59
-27.7 38.89 0.83
-27.75 38.96 2.51
-6.12 8.6 -2.05
-27.82 39.06 4.19
-6.7 9.4 -1.83
-27.85 39.11 5.9
-10.17 14.28 -2.15
-27.9 39.17 7.62
-15.32 21.5 -2.31
-7.95 11.16 2.66
-15.34 21.54 -1.39
-8.62 12.11 3.43
-18.85 26.46 -0.57
-7.78 10.93 3.59
-27.65 39.11 0.84
-6.09 8.61 -2.05
-17.5 24.75 2.65
-6.67 9.43 -1.83
-27.8 39.32 5.91
-10.12 14.31 -2.15
-27.85 39.39 7.64
-15.3 21.63 -2.32
-7.86 11.12 2.65
-15.31 21.64 -1.39
-7.49 10.6 3
-18.59 26.28 -0.56
-7.13 10.08 3.31
-27.61 39.35 0.84
-27.68 39.44 2.53
-6.05 8.62 -2.05
-17.48 24.9 2.66
-6.61 9.42 -1.82
-27.73 39.51 5.93
-10.05 14.32 -2.15
-27.78 39.59 7.66
-15.27 21.75 -2.33
-7.27 10.36 2.46
-15.28 21.78 -1.39
-18.63 26.55 -0.57
-7.89 11.24 3.68
-18.45 26.48 0.56
-6.6 9.47 -1.83
-38.5 55.26 8.27
-10 14.36 -2.15
-38.72 55.58 10.73
-15.22 21.85 -2.33
-15.25 21.89 -1.4
-8.39 12.05 3.39
-18.63 26.75 -0.57
-7.08 10.16 3.32
-19.58 28.31 0.6
-19.24 27.82 2.96
-6.57 9.5 -1.83
-38.19 55.24 8.25
-9.95 14.39 -2.15
-7.1 10.27 1.98
-15.2 21.98 -2.34
-7.12 10.3 2.43
-15.22 22.02 -1.4
-6.97 10.08 3.28
-19.21 27.99 1.78
-19.25 28.06 2.98
-6.55 9.54 -1.83
-38.19 55.65 8.29
-9.9 14.42 -2.15
-38.01 55.39 10.64
-15.16 22.08 -2.34
-7.1 10.35 2.44
-15.18 22.12 -1.41
-8.12 11.84 3.31
-18.45 26.88 -0.57
-7 10.2 3.31
-18.55 27.23 0.58
-19.16 28.12 1.78
-6.55 9.61 -1.84
-9.84 14.44 -2.15
-7.1 10.42 2
-15.13 22.21 -2.35
-15.16 22.24 -1.41
-18.86 27.68 -0.58
-6.98 10.25 3.32
-18.95 28.02 0.59
-19.21 28.4 1.8
-6.47 9.56 -1.83
-9.78 14.47 -2.14
-6.87 10.16 1.94
-15.1 22.33 -2.36
-15.13 22.37 -1.42
-7.59 11.23 3.13
-18.82 27.83 -0.59
-18.82 28.05 0.59
-18.94 28.22 1.78
-6.48 9.65 -1.84
-9.73 14.5 -2.14
-15.08 22.46 -2.37
-15.09 22.48 -1.42
-6.93 10.32 2.87
-18.79 27.99 -0.59
-6.39 9.53 3.07
-18.11 27.19 0.57
-6.46 9.69 -1.84
-36.65 55.01 8.12
-9.68 14.53 -2.14
-15.03 22.57 -2.37
-15.06 22.61 -1.42
-6.92 10.39 2.88
-18.71 28.08 -0.59
-6.89 10.35 3.33
-36.12 54.61 1.14
-6.47 9.78 -1.86
-36.45 55.11 8.11
-9.63 14.56 -2.14
-6.97 10.54 2
-15 22.68 -2.38
-15.03 22.72 -1.43
-7.36 11.13 3.08
-18.14 27.43 -0.57
-17.72 26.99 0.56
-6.46 9.84 -1.86
-36.29 55.29 8.12
-9.58 14.59 -2.14
-6.89 10.5 1.99
-14.98 22.82 -2.39
-15 22.86 -1.43
-7.31 11.14 3.08
-18.05 27.5 -0.57
-6.82 10.39 3.33
-18.32 28.14 2.94
-6.59 10.13 -1.91
-36.31 55.76 8.17
-9.51 14.61 -2.14
-36.38 55.87 10.56
-14.94 22.94 -2.39
-14.95 22.96 -1.44
-7.27 11.17 3.08
-6.3 9.67 3.09
-18.29 28.31 0.59
-18.24 28.23 1.76
-6.55 10.14 -1.91
-36.11 55.88 8.17
-9.46 14.63 -2.14
-36.11 55.89 10.54
-14.89 23.05 -2.4
-6.92 10.71 2.48
-14.93 23.1 -1.44
-18.35 28.39 -0.59
-6.78 10.49 3.35
-18.18 28.32 1.76
-6.42 10.01 -1.88
-35.92 55.97 8.17
-9.41 14.67 -2.14
-14.86 23.16 -2.41
-14.9 23.22 -1.45
-6.32 9.85 2.7
-18.23 28.41 -0.59
-6.74 10.5 3.34
-17.4 27.32 1.7
-5.55 8.72 -2.01
-6.35 9.97 -1.87
-35.44 55.65 8.1
-9.35 14.69 -2.14
-14.84 23.3 -2.42
-14.87 23.35 -1.45
-7.55 11.85 3.24
-18.16 28.52 -0.59
-6.72 10.55 3.35
-5.52 8.74 -2.01
-6.96 11.02 -2.06
-9.3 14.73 -2.14
-14.8 23.43 -2.42
-6.74 10.68 2.45
-14.81 23.45 -1.45
-18.04 28.55 -0.59
-6.7 10.61 3.36
-5.48 8.74 -2.01
-6.92 11.05 -2.06
-9.23 14.73 -2.13
-14.76 23.55 -2.43
-6.73 10.73 2.46
-14.78 23.58 -1.46
-6.66 10.63 2.9
-17.81 28.41 -0.59
-6.29 10.11 -1.89
-9.18 14.76 -2.13
-14.73 23.68 -2.44
-14.75 23.71 -1.46
-6.25 10.04 2.73
-6.52 10.48 3.31
-6.84 11.09 -2.06
-9.13 14.79 -2.13
-14.69 23.8 -2.45
-6.48 10.51 2.4
-14.72 23.85 -1.47
-6.59 10.68 3.36
-17.44 28.49 0.58
-18.2 29.72 3.05
-6.8 11.1 -2.06
-9.07 14.81 -2.13
-14.66 23.93 -2.46
-6.54 10.68 2.43
-14.68 23.97 -1.47
-7.18 11.72 3.68
-18.05 29.71 0.61
-5.33 8.78 -2
-6.76 11.13 -2.06
-9.01 14.83 -2.13
-6.29 10.36 1.92
-14.63 24.07 -2.46
-6.49 10.69 2.43
-14.64 24.1 -1.48
-7.23 11.89 3.73
-32.33 53.64 1.09
-5.29 8.77 -1.99
-6.72 11.15 -2.06
-8.95 14.85 -2.13
-6.26 10.39 1.92
-14.59 24.21 -2.47
-6.44 10.69 2.43
-14.62 24.25 -1.48
-6.8 11.29 3.04
-6.37 10.57 3.31
-18.43 30.81 0.63
-18.46 30.88 1.89
-5.23 8.75 -1.98
-17.92 29.97 3.05
-6.69 11.18 -2.06
-8.89 14.87 -2.13
-6.23 10.41 1.92
-14.55 24.34 -2.48
-6.42 10.74 2.43
-14.58 24.37 -1.49
-6.7 11.21 3.02
