# .PCD v0.7 - Point Cloud Data file format
VERSION 0.7
FIELDS x y z
SIZE 4 4 4
TYPE F F F
COUNT 1 1 1
WIDTH 2953
HEIGHT 1
VIEWPOINT 0 0 0 1 0 0 0
POINTS 2953
DATA ascii
-6.88 11.13 -2.07
-8.53 13.8 -1.99
-11.48 18.59 -1.91
-6.85 11.17 -2.07
-8.48 13.83 -1.99
-11.41 18.61 -1.91
-6.81 11.19 -2.07
-8.43 13.86 -1.99
-11.33 18.63 -1.91
-5.47 9.07 -2.06
-6.77 11.22 -2.08
-8.39 13.9 -1.99
-11.25 18.65 -1.91
-13.09 21.7 -0.44
-5.45 9.1 -2.06
-6.73 11.24 -2.07
-8.35 13.95 -2
-11.18 18.68 -1.9
-13.1 21.89 -0.45
-5.41 9.1 -2.06
-6.69 11.27 -2.08
-8.3 13.98 -2
-11.12 18.72 -1.9
-27 45.82 0.93
-5.38 9.12 -2.06
-6.66 11.3 -2.08
-8.26 14.01 -2
-11.05 18.76 -1.9
-26.84 45.91 0.93
-5.34 9.12 -2.05
-6.63 11.35 -2.08
-8.22 14.06 -2
-44.92 76.82 14.09
-10.98 18.78 -1.9
-26.67 46.01 0.93
-5.3 9.15 -2.06
-6.59 11.38 -2.08
-8.18 14.11 -2
-10.9 18.81 -1.9
-26.61 46.27 0.93
-5.27 9.16 -2.05
-6.55 11.4 -2.08
-8.14 14.15 -2
-10.84 18.84 -1.9
-10.65 18.52 -1.12
-26.46 46.36 0.93
-5.24 9.18 -2.05
-6.53 11.44 -2.09
-8.09 14.18 -2
-43.91 76.95 14.03
-10.76 18.86 -1.9
-10.51 18.42 -1.11
-26.35 46.54 0.93
-5.2 9.19 -2.05
-6.49 11.47 -2.09
-8.04 14.2 -2
-10.7 18.9 -1.9
-10.44 18.44 -1.11
-26.23 46.72 0.94
-5.17 9.2 -2.05
-6.46 11.51 -2.09
-7.99 14.23 -2
-10.63 18.94 -1.9
-5.14 9.23 -2.05
-6.43 11.54 -2.09
-7.94 14.26 -2
-12.22 21.94 3.98
-10.56 18.96 -1.9
-25.9 46.9 0.94
-5.1 9.24 -2.05
-6.39 11.56 -2.09
-7.9 14.3 -2.01
-10.49 18.99 -1.9
-10.33 18.71 -1.12
-5.07 9.26 -2.05
-6.35 11.6 -2.09
-7.85 14.32 -2.01
-11.99 21.89 3.95
-10.42 19.03 -1.9
-10.28 18.76 -1.12
-5.04 9.27 -2.05
-6.31 11.6 -2.09
-7.79 14.34 -2
-12.07 22.22 4.01
-10.37 19.08 -1.9
-10.22 18.81 -1.12
-5 9.28 -2.05
-6.24 11.58 -2.08
-7.75 14.37 -2
-11.99 22.25 4
-10.3 19.1 -1.9
-10.12 18.77 -1.12
-4.96 9.29 -2.05
-6.2 11.61 -2.08
-7.7 14.42 -2.01
-10.2 19.09 -1.89
-4.93 9.31 -2.05
-6.16 11.62 -2.08
-7.65 14.45 -2.01
-10.11 19.09 -1.89
-4.9 9.33 -2.05
-6.14 11.68 -2.09
-11.8 22.46 3.12
-7.61 14.47 -2.01
-10.07 19.16 -1.89
-40.26 77.26 1.52
-4.87 9.34 -2.05
-6.12 11.74 -2.1
-11.65 22.35 3.09
-7.55 14.48 -2.01
-11.34 21.76 3.89
-10.04 19.26 -1.9
-39.9 77.2 1.52
-4.83 9.35 -2.05
-11.51 22.27 2.19
-6.09 11.78 -2.1
-11.58 22.41 3.1
-7.5 14.52 -2.01
-11.25 21.77 3.88
-9.97 19.29 -1.9
-11.2 21.66 6.53
-39.56 77.2 1.51
-4.8 9.36 -2.05
-11.5 22.44 2.21
-6.05 11.8 -2.1
-11.04 21.55 2.97
-7.45 14.54 -2.01
-11.59 22.61 4.02
-9.89 19.3 -1.9
-11.13 21.72 5.63
-11.08 21.62 6.51
-39.2 77.12 1.51
-4.77 9.38 -2.05
-6.02 11.84 -2.1
-10.88 21.41 2.95
-7.4 14.57 -2.01
-9.82 19.33 -1.9
-11.07 21.79 5.64
-10.73 21.12 6.35
-38.86 77.11 1.51
-4.73 9.4 -2.05
-5.97 11.84 -2.1
-10.85 21.53 2.96
-7.36 14.6 -2.01
-10.89 21.6 3.83
-9.76 19.36 -1.9
-10.98 21.8 5.63
-4.69 9.4 -2.04
-10.87 21.77 2.13
-5.88 11.79 -2.09
-10.79 21.62 2.97
-7.3 14.62 -2.01
-10.82 21.68 3.84
-9.69 19.4 -1.9
-10.93 21.9 5.65
-10.75 21.72 1.27
-4.66 9.41 -2.04
-5.84 11.79 -2.08
-10.72 21.66 2.97
-7.26 14.66 -2.01
-11.33 22.89 4.05
-9.62 19.44 -1.9
-10.91 22.03 5.68
-10.69 21.8 1.27
-4.62 9.42 -2.04
-10.91 22.23 2.17
-5.79 11.8 -2.08
-10.47 21.34 2.92
-7.2 14.69 -2.01
-8.56 17.45 3.08
-9.54 19.44 -1.89
-8.56 17.44 3.78
-8.55 17.42 4.48
-8.52 17.36 5.18
-11.26 23.14 1.35
-4.59 9.44 -2.04
-8.4 17.27 1.68
-5.74 11.81 -2.08
-8.4 17.27 2.36
-7.15 14.71 -2.01
-8.42 17.31 3.05
-9.45 19.43 -1.89
-8.41 17.29 3.74
-8.42 17.32 4.45
-8.4 17.27 -0.34
-8.42 17.31 5.16
-8.3 17.22 0.33
-8.31 17.24 1
-4.56 9.46 -2.04
-8.33 17.27 1.68
-5.7 11.82 -2.08
-8.33 17.28 2.36
-7.1 14.74 -2.01
-8.35 17.32 3.04
-8.29 17.19 -1.67
-8.35 17.32 3.74
-8.3 17.22 -1
-8.37 17.37 4.45
-8.3 17.22 -0.33
-8.38 17.38 5.17
-10.5 21.97 1.28
-4.53 9.47 -2.04
-5.65 11.82 -2.07
-10.31 21.56 2.93
-7.04 14.74 -2.01
-8.4 17.58 3.09
-9.29 19.44 -1.89
-8.39 17.55 3.78
-8.39 17.55 4.49
-8.37 17.5 5.2
-27.84 58.81 1.14
-10.42 22.01 1.28
-4.48 9.47 -2.04
-5.6 11.82 -2.07
-10.27 21.69 2.95
-6.99 14.77 -2.01
-10.49 22.17 3.88
-9.23 19.5 -1.89
-8.4 17.75 3.82
-8.36 17.66 4.51
-8.31 17.55 5.2
-36 76.72 1.48
-10.35 22.05 1.28
-4.45 9.48 -2.03
-10.56 22.51 2.18
-5.56 11.85 -2.07
-10.27 21.89 2.97
-6.94 14.79 -2.01
-10.24 21.82 3.82
-9.17 19.53 -1.89
-8.31 17.71 4.52
-35.66 76.66 1.48
-10.29 22.13 1.28
-4.41 9.48 -2.03
-10.47 22.51 2.17
-5.52 11.86 -2.07
-10.26 22.06 2.99
-6.89 14.81 -2.01
-9.79 21.05 3.68
-9.15 19.66 -1.9
-9.83 21.13 4.53
-8.36 17.98 -1.04
-8.38 18 -0.35
-10.37 22.29 6.59
-35.32 76.59 1.47
-10.24 22.21 1.28
-4.38 9.5 -2.03
-11.29 24.49 2.36
-5.48 11.88 -2.07
-10.49 22.75 3.08
-6.84 14.82 -2
-9.73 21.1 3.68
-9.07 19.67 -1.9
-11.34 24.58 5.26
-8.35 18.12 -1.05
-8.35 18.11 -0.35
-10.39 22.54 6.65
-10.09 22.1 1.27
-4.35 9.52 -2.03
-9.66 21.14 2.03
-5.43 11.88 -2.07
-10.3 22.54 3.04
-6.77 14.83 -2
-11.57 25.34 4.41
-8.97 19.63 -1.89
-8.35 18.29 -1.05
-10.99 24.06 6.11
-8.36 18.3 -0.35
-10.11 22.13 6.52
-34.59 76.41 1.46
-4.31 9.52 -2.03
-9.95 21.97 2.11
-5.39 11.91 -2.07
-10.17 22.46 3.03
-6.72 14.85 -2
-11.35 25.07 4.36
-8.87 19.6 -1.88
-10.28 22.71 4.85
-8.36 18.46 -1.06
-8.79 19.41 4.92
-8.37 18.5 -0.35
-8.76 19.35 5.69
-9.96 22.22 1.28
-4.27 9.53 -2.03
-9.94 22.18 2.13
-5.34 11.92 -2.07
-11.5 25.64 3.45
-6.67 14.87 -2
-8.68 19.35 3.36
-8.77 19.55 -1.87
-8.68 19.36 4.12
-8.36 18.64 -1.07
-8.69 19.39 4.91
-8.4 18.73 -0.36
-8.67 19.34 5.68
-10.81 24.34 1.4
-4.24 9.54 -2.03
-8.57 19.3 1.85
-5.3 11.93 -2.07
-8.58 19.3 2.59
-6.62 14.89 -2
-8.58 19.32 3.35
-8.71 19.61 -1.88
-8.59 19.33 4.11
-8.36 18.82 -1.08
-8.61 19.37 4.89
-8.41 18.94 -0.36
-8.64 19.46 5.7
-8.48 19.26 0.37
-8.48 19.28 1.1
-4.21 9.57 -2.03
-8.49 19.31 1.85
-5.25 11.94 -2.07
-8.5 19.33 2.59
-6.56 14.91 -2
-8.61 19.57 3.39
-8.5 19.31 -1.85
-8.63 19.61 4.16
-8.36 19.01 -1.09
-8.58 19.5 4.92
-8.42 19.13 -0.36
-8.58 19.5 5.71
-8.42 19.32 0.37
-4.17 9.56 -2.03
-10.2 23.4 2.23
-5.21 11.95 -2.06
-11.12 25.51 3.42
-6.5 14.91 -2
-8.58 19.68 3.4
-8.39 19.25 -1.84
-8.56 19.63 4.16
-8.37 19.21 -1.1
-8.52 19.53 4.92
-8.42 19.32 -0.37
-32.89 76.19 1.45
-9.62 22.28 1.27
-4.13 9.56 -2.02
-10.07 23.33 2.22
-5.17 11.97 -2.06
-9.44 21.87 2.92
-6.44 14.93 -2
-8.5 19.7 3.4
-8.47 19.62 -1.87
-8.47 19.62 4.15
-8.38 19.42 -1.11
-8.48 19.64 4.94
-8.44 19.54 -0.37
-9.97 23.08 6.74
-32.55 76.12 1.45
-9.55 22.33 1.27
-4.1 9.58 -2.02
-8.91 20.84 1.98
-5.12 11.98 -2.06
-10.41 24.33 3.25
-6.4 14.96 -2
-8.43 19.72 3.4
-8.38 19.59 -1.86
-8.39 19.61 4.15
-8.4 19.64 -1.12
-10 23.39 5.87
-8.44 19.74 -0.37
-32.21 76.08 1.44
-9.53 22.51 1.28
-4.06 9.58 -2.02
-8.84 20.88 1.98
-5.08 11.99 -2.06
-6.34 14.97 -2
-8.35 19.71 3.39
-8.28 19.57 -1.86
-8.32 19.64 4.15
-8.41 19.87 -1.13
-9.9 23.38 5.86
-8.43 19.91 -0.38
-31.88 76.02 1.44
-7.65 18.24 1.04
-4.02 9.59 -2.02
-9.85 23.48 2.23
-5.04 12.03 -2.07
-10.73 25.58 3.41
-6.29 14.99 -2
-8.27 19.71 3.39
-8.03 19.15 -1.82
-9.07 21.63 4.56
-8.42 20.08 -1.14
-9.19 21.91 5.48
-8.43 20.09 -0.38
-9.89 23.58 6.85
-31.62 76.11 1.44
-7.59 18.28 1.04
-3.99 9.61 -2.02
-10.45 25.16 2.38
-5 12.03 -2.06
-9.44 22.72 3.02
-6.24 15.01 -2
-8.19 19.72 3.38
-8 19.25 -1.82
-8.99 21.65 4.56
-8.44 20.31 -1.15
-9.51 22.89 5.72
-8.42 20.28 -0.38
-8.88 21.37 6.2
-31.52 76.63 1.45
-7.58 18.43 1.04
-3.96 9.62 -2.02
-8.74 21.24 2.01
-4.95 12.04 -2.06
-6.18 15.02 -1.99
-8.15 19.8 3.39
-7.96 19.36 -1.83
-9.84 23.91 5.03
-8.45 20.53 -1.16
-9.43 22.91 5.72
-8.44 20.52 -0.39
-7.63 18.73 0.35
-7.57 18.58 1.05
-3.92 9.62 -2.02
-8.69 21.34 2.02
-4.9 12.04 -2.06
-8.69 21.35 2.83
-6.13 15.05 -2
-8.69 21.35 3.65
-7.9 19.39 -1.83
-9.33 22.9 4.81
-8.46 20.77 -1.18
-10.03 24.64 6.14
-8.47 20.81 -0.39
-9.4 23.09 6.68
-7.53 18.68 0.35
-7.52 18.66 1.05
-3.89 9.64 -2.02
-4.86 12.05 -2.06
-8.59 21.31 2.82
-6.08 15.07 -2
-8.61 21.35 3.65
-7.56 18.74 -1.77
-8.6 21.34 4.47
-7.55 18.72 -1.06
-8.61 21.35 5.31
-7.55 18.71 -0.35
-8.59 21.3 6.15
-7.47 18.72 0.35
-8.49 21.26 1.2
-3.86 9.66 -2.02
-8.49 21.27 2
-4.81 12.05 -2.06
-8.5 21.3 2.82
-6.02 15.09 -1.99
-8.51 21.32 3.64
-7.78 19.48 -1.84
-8.51 21.33 4.46
-8.48 21.25 -1.2
-8.54 21.39 5.32
-8.49 21.26 -0.4
-8.58 21.49 6.2
-8.43 21.33 0.4
-3.16 7.99 -1.98
-3.82 9.66 -2.02
-4.77 12.07 -2.06
-8.49 21.48 2.84
-5.97 15.1 -1.99
-8.47 21.43 3.65
-7.71 19.52 -1.84
-8.47 21.43 4.48
-8.5 21.5 5.34
-9.54 24.16 6.96
-3.13 8 -1.98
-3.77 9.66 -2.02
-8.55 21.86 2.05
-4.72 12.09 -2.06
-8.54 21.86 2.88
-5.91 15.11 -1.99
-8.4 21.49 3.65
-7.66 19.6 -1.84
-8.43 21.57 4.5
-8.52 21.81 5.41
-8.7 22.27 6.41
-31.02 80.18 1.5
-3.74 9.67 -2.01
-8.48 21.91 2.06
-4.68 12.09 -2.05
-9.08 23.47 3.09
-5.86 15.14 -1.99
-8.46 21.88 3.72
-7.6 19.64 -1.84
-8.37 21.64 4.51
-8.5 21.97 5.44
-9.71 25.1 7.21
-30.94 80.78 1.51
-3.71 9.68 -2.01
-8.46 22.09 2.07
-4.63 12.09 -2.05
-7.99 20.87 2.74
-5.81 15.16 -1.99
-8.67 22.65 3.84
-7.55 19.71 -1.85
-9.2 24.01 6.89
-30.84 81.35 1.52
-9.72 25.65 1.44
-3.67 9.69 -2.01
-7.67 20.24 1.89
-4.59 12.1 -2.05
-8.6 22.7 2.98
-5.75 15.17 -1.99
-7.5 19.79 -1.85
-8.54 22.52 4.68
-9.39 24.78 6.12
-30.74 81.97 1.53
-9.58 25.55 1.43
-3.64 9.69 -2.01
-8.13 21.67 2.02
-4.54 12.11 -2.05
-8.57 22.85 3
-5.7 15.19 -1.99
-9.05 24.13 4.08
-7.45 19.85 -1.86
-8.36 22.3 4.63
-8.09 21.56 6.17
-3.6 9.69 -2.01
-8.61 23.19 2.16
-4.5 12.12 -2.05
-8.46 22.8 2.99
-5.64 15.21 -1.99
-9.92 26.72 4.51
-7.42 20 -1.87
-9.4 25.34 5.25
-10.19 27.45 -1.53
-8.11 21.85 5.38
-8.45 22.78 6.51
-30.6 83.3 1.55
-3.56 9.68 -2.01
-7.59 20.66 1.93
-4.45 12.13 -2.05
-7.59 20.67 2.7
-5.59 15.23 -1.99
-8.59 23.38 3.95
-7.36 20.03 -1.87
-9.33 25.4 5.26
-8.25 22.47 5.53
-8.44 22.97 6.56
-3.52 9.7 -2.01
-7.53 20.72 1.93
-4.41 12.13 -2.04
-7.58 20.85 2.72
-5.54 15.25 -1.99
-8.49 23.36 3.94
-7.31 20.12 -1.87
-8.17 22.48 5.52
-8.07 22.21 6.33
-3.49 9.71 -2.01
-8.05 22.41 2.08
-4.36 12.13 -2.04
-8.37 23.3 3.04
-5.5 15.3 -2
-7.26 20.21 -1.88
-8.27 23.02 4.75
-7.61 21.2 5.2
-8.58 23.88 6.8
-8.31 23.39 1.3
-3.45 9.72 -2.01
-7.51 21.13 1.96
-4.32 12.15 -2.04
-5.48 15.43 -2.01
-8.33 23.44 3.94
-7.19 20.25 -1.88
-8.25 23.22 4.79
-8.39 23.61 5.79
-8.19 23.3 0.43
-8.2 23.32 1.3
-3.42 9.72 -2
-7.46 21.21 1.97
-4.27 12.15 -2.04
-7.52 21.4 2.79
-5.47 15.55 -2.02
-8.24 23.45 3.94
-7.15 20.35 -1.89
-8.29 23.58 4.86
-8.3 23.61 5.78
-8.19 23.31 -0.43
-8.1 23.29 0.43
-8.12 23.36 1.3
-3.39 9.74 -2
-7.43 21.39 1.98
-4.22 12.15 -2.04
-8.17 23.51 3.06
-5.45 15.68 -2.04
-7.1 20.41 -1.89
-7.85 22.57 4.64
-8.08 23.25 -1.29
-7.32 21.05 5.15
-8.08 23.25 -0.43
-8.22 23.65 6.71
-8.01 23.31 0.43
-8.05 23.43 1.3
-3.35 9.75 -2
-7.38 21.48 1.99
-4.18 12.15 -2.04
-7.94 23.11 3
-5.44 15.82 -2.05
-7.67 22.31 3.74
-7.05 20.51 -1.9
-8.13 23.65 4.86
-7.99 23.23 -1.29
-7.16 20.84 5.09
-8.01 23.29 -0.43
-8.83 25.69 7.28
-8.48 24.95 1.38
-3.32 9.76 -2
-7.06 20.78 1.92
-4.13 12.16 -2.03
-8.64 25.43 3.3
-5.42 15.95 -2.07
-7.6 22.36 3.74
-7.02 20.65 -1.91
-7.59 22.35 4.59
-7.91 23.28 -1.29
-8.26 24.29 5.92
-7.94 23.37 -0.43
-7.71 22.69 6.42
-19.8 58.94 1.09
-8.39 24.98 1.38
-3.28 9.77 -2
-7.65 22.78 2.1
-4.09 12.17 -2.03
-8.37 24.92 3.23
-5.39 16.06 -2.08
-7.76 23.09 3.86
-6.97 20.75 -1.91
-7.33 21.81 4.47
-7.87 23.42 -1.29
-6.97 20.74 5.05
-7.66 22.79 6.44
-19.59 58.99 1.08
-3.24 9.77 -2
-7.04 21.19 1.95
-4.05 12.18 -2.03
-7.73 23.29 3.01
-5.34 16.09 -2.08
-8.99 27.07 4.52
-6.91 20.82 -1.92
-7.11 21.42 5.21
-7.37 22.2 6.27
-8.26 25.16 1.39
-3.21 9.78 -2
-7.86 23.93 2.2
-4 12.19 -2.03
-8.19 24.94 3.22
-5.29 16.11 -2.08
-8.85 26.95 4.49
-6.87 20.94 -1.93
-8.33 25.37 5.19
-7.11 21.65 5.26
-7.94 24.2 6.82
-8.85 27.27 0.5
-3.17 9.78 -2
-7.77 23.96 2.2
-3.95 12.19 -2.03
-10.25 31.61 4.08
-5.23 16.11 -2.08
-6.82 21.02 3.5
-6.84 21.07 -1.94
-8.23 25.37 5.19
-8.84 27.25 -1.5
-7.28 22.45 5.45
-8.84 27.27 -0.5
-7.99 24.65 6.94
-8.75 27.26 0.5
-8.75 27.27 1.5
-3.14 9.79 -2
-7.77 24.21 2.22
-3.91 12.2 -2.03
-8.15 25.4 3.28
-5.17 16.11 -2.08
-8.02 24.98 4.16
-6.76 21.08 -1.94
-7.32 22.83 4.66
-7.69 23.97 5.81
-7.73 24.08 6.78
-18.81 59.33 1.09
-10.25 32.34 1.78
-3.11 9.8 -2
-8.13 25.64 2.35
-3.87 12.21 -2.03
-10.5 33.11 4.26
-5.11 16.12 -2.08
-6.76 21.33 3.54
-6.67 21.05 -1.93
-7.11 22.43 4.57
-7.02 22.14 6.22
-3.07 9.79 -1.99
-7.83 24.99 2.29
-3.83 12.22 -2.03
-7.15 22.84 2.94
-5.05 16.13 -2.08
-7.91 25.25 4.19
-6.65 21.23 -1.95
-8.15 26.03 5.3
-7.96 25.41 6.15
-18.26 59.01 1.08
-9.9 31.99 1.75
-3.03 9.8 -1.99
-7.79 25.17 2.31
-3.78 12.22 -2.03
-7.02 22.7 2.92
-4.99 16.14 -2.07
-7.47 24.14 4
-6.61 21.38 -1.96
-6.92 22.37 4.55
-6.51 21.04 5.08
-9.59 31.39 1.72
-3 9.8 -1.99
-7.11 23.27 2.13
-3.73 12.22 -2.02
-9.89 32.37 4.16
-4.94 16.15 -2.07
-7.45 24.38 4.04
-6.56 21.48 -1.97
-6.83 22.37 4.55
-11.08 36.27 -1.99
-6.94 22.71 5.48
-7.27 23.78 6.66
-9.72 32.2 1.76
-2.96 9.82 -1.99
-7.65 25.34 2.32
-3.69 12.23 -2.02
-9.79 32.44 4.16
-4.88 16.16 -2.07
-7.37 24.43 4.04
-6.52 21.61 -1.98
-7.56 25.05 5.09
-10.93 36.24 -1.98
-6.94 23 5.55
-6.68 22.15 6.2
-9.88 33.15 0.6
-9.04 30.35 1.66
-2.93 9.83 -1.99
-9.74 32.71 2.99
-3.65 12.24 -2.02
-4.82 16.17 -2.07
-9.25 31.05 5.13
-6.49 21.77 -1.99
-7.89 26.47 5.37
-10.73 36.03 -1.97
-6.6 22.17 5.34
-17.37 59.07 1.07
-7.46 25.35 1.38
-2.89 9.81 -1.99
-3.6 12.25 -2.02
-7.35 24.98 3.2
-4.76 16.18 -2.07
-6.63 22.53 3.72
-6.44 21.91 -2
-6.11 20.76 4.21
-10.59 36 -1.97
-6.53 22.19 5.34
-7.16 24.35 6.8
-17.06 58.75 1.07
-8.92 30.72 1.68
-2.85 9.82 -1.99
-9.23 31.78 2.9
-3.56 12.25 -2.02
-6.61 22.77 2.91
-4.7 16.19 -2.07
-9.08 31.26 5.16
-6.39 22.02 -2.01
-10.48 36.08 -1.97
-6.17 21.26 5.11
-6.31 21.73 6.06
-7.25 25.31 1.38
-2.82 9.84 -1.99
-6.78 23.67 2.15
-3.51 12.24 -2.02
-6.55 22.85 2.92
-4.64 16.21 -2.07
-7.25 25.31 4.17
-6.33 22.1 -2.01
-10.32 36.01 -1.96
-6.4 22.32 5.36
-6.33 22.09 6.16
-8.84 31.26 1.7
-2.78 9.84 -1.99
-8.73 30.88 2.81
-3.46 12.25 -2.02
-6.83 24.17 3.08
-4.58 16.21 -2.07
-9.08 32.1 5.28
-6.27 22.17 -2.02
-9.25 32.7 6.6
-10.17 35.96 -1.96
-6.06 21.43 5.14
-6.53 23.08 6.43
-6.99 25.05 1.36
-2.75 9.85 -1.99
-6.55 23.48 2.13
-3.42 12.25 -2.01
-7.34 26.3 3.35
-4.52 16.2 -2.07
-6.21 22.25 -2.02
-10.04 35.97 -1.96
-6.3 22.58 5.41
-6.71 24.07 6.69
-9.5 34.49 1.87
-2.71 9.85 -1.99
-6.69 24.29 2.2
-3.38 12.27 -2.02
-6.04 21.92 2.79
-4.46 16.21 -2.06
-6.78 24.62 4.04
-6.14 22.29 -2.02
-6.99 25.37 5.11
-10.03 36.41 -1.98
-6.7 24.32 5.82
-8.69 31.99 1.74
-2.68 9.85 -1.98
-9.1 33.5 3.04
-3.33 12.26 -2.01
-6.01 22.1 2.81
-4.41 16.22 -2.06
-6.68 24.58 4.03
-6.06 22.31 -2.02
-9.99 36.77 -2
-6.18 22.74 6.31
-9.24 34.49 1.87
-2.64 9.86 -1.98
-6.9 25.76 2.33
-3.28 12.26 -2.01
-6.11 22.79 2.9
-4.34 16.21 -2.06
-6 22.39 3.67
-5.99 22.35 -2.02
-6.5 24.28 4.89
-9.9 36.95 -2
-6.86 25.59 6.12
-6.31 23.55 6.53
-2.61 9.86 -1.98
-8.84 33.46 3.03
-3.24 12.26 -2.01
-6.04 22.86 2.9
-4.28 16.21 -2.06
-8.78 33.22 5.44
-5.92 22.4 -2.03
-5.87 22.22 4.47
-9.76 36.94 -2
-6.23 23.57 5.63
-5.54 20.98 5.81
-6.26 24.01 1.3
-2.57 9.88 -1.98
-8.67 33.27 3.01
-3.19 12.26 -2.01
-5.96 22.88 2.9
-4.22 16.19 -2.05
-8.09 31.05 5.08
-5.85 22.45 -2.03
-5.81 22.29 4.48
-9.62 36.95 -2
-6.34 24.33 5.8
-5.92 22.74 6.3
-2.53 9.87 -1.98
-6.66 25.93 2.34
-3.15 12.28 -2.01
-8.7 33.89 4.3
-4.16 16.2 -2.05
-7.96 31 5.07
-5.78 22.5 -2.03
-9.45 36.82 -1.99
-6.63 25.83 6.16
-6.56 25.54 -0.46
-6.04 23.53 6.51
-8.46 33.44 0.6
-8.48 33.49 1.81
-2.5 9.87 -1.98
-8.46 33.42 3.02
-3.11 12.28 -2.01
-6.18 24.42 3.09
-4.1 16.21 -2.05
-8.39 33.16 5.42
-5.7 22.54 -2.03
-6.33 25.02 5.02
-6.55 25.9 -1.4
-8.42 33.26 7.92
-6.46 25.54 -0.46
-8.34 33.45 0.6
-7.65 30.69 1.66
-2.46 9.87 -1.98
-6.14 24.64 2.22
-3.06 12.27 -2
-6.1 24.45 3.09
-4.04 16.2 -2.05
-8.42 33.79 5.52
-5.63 22.59 -2.04
-6.24 25.03 5.02
-8.28 33.23 -1.79
-5.4 21.66 5.15
-6.36 25.51 -0.46
-5.4 21.65 5.98
-9.93 40.43 0.73
-8.26 33.62 1.81
-2.43 9.88 -1.98
-6.05 24.62 2.22
-3.02 12.28 -2
-6.01 24.48 3.1
-3.98 16.2 -2.05
-8.3 33.81 5.51
-5.55 22.6 -2.04
-6.15 25.03 5.01
-8.18 33.31 -1.8
-5.32 21.65 5.15
-6.28 25.58 -0.46
-5.4 21.98 6.06
-7.96 32.9 1.77
-2.39 9.88 -1.98
-5.96 24.64 2.22
-2.97 12.28 -2
-5.93 24.52 3.1
-3.92 16.19 -2.05
-7.94 32.81 5.35
-5.48 22.64 -2.04
-6.16 25.45 5.09
-8.83 36.49 -1.97
-5.26 21.75 5.17
-6.26 25.87 -0.46
-2.35 9.88 -1.97
-5.87 24.65 2.22
-2.93 12.29 -2
-5.86 24.58 3.1
-3.86 16.2 -2.04
-7.88 33.08 5.39
-5.4 22.66 -2.04
-7.92 33.24 6.64
-8.69 36.48 -1.97
-5.75 24.13 5.73
-6.23 26.14 -0.47
-5.65 24.09 1.3
-2.32 9.89 -1.97
-5.79 24.68 2.22
-2.88 12.29 -2
-6.05 25.8 3.25
-3.8 16.2 -2.04
-7.82 33.35 5.43
-5.32 22.7 -2.04
-8.56 36.52 -1.97
-5.73 24.44 5.79
-5.23 22.31 6.14
-7.45 32.25 1.73
-2.28 9.9 -1.97
-5.68 24.6 2.21
-2.84 12.29 -2
-7.69 33.32 4.2
-3.74 16.2 -2.04
-9.46 40.98 6.66
-5.25 22.75 -2.04
-5.72 24.76 4.94
-8.42 36.49 -1.96
-5.17 22.38 6.15
-7.59 33.41 1.8
-2.25 9.91 -1.97
-5.15 22.64 2.03
-2.79 12.29 -2
-5.64 24.81 3.12
-3.68 16.2 -2.04
-5.18 22.78 -2.04
-5.56 24.47 4.88
-8.3 36.5 -1.96
-7.57 33.84 1.82
-2.22 9.91 -1.97
-5.54 24.77 2.22
-2.75 12.29 -1.99
-7.13 31.87 4.01
-3.62 16.18 -2.04
-5.1 22.79 -2.04
-5.54 24.77 4.93
-8.16 36.49 -1.96
-10.83 49.21 0.88
-1.82 8.26 -1.95
-7.33 33.29 1.79
-2.18 9.91 -1.97
-5.47 24.84 2.22
-2.71 12.3 -1.99
-5.44 24.7 3.11
-3.57 16.2 -2.04
-9.16 41.61 6.75
-5.02 22.8 -2.04
-7.33 33.3 6.63
-8.04 36.54 -1.96
-11.88 53.96 -0.96
-1.79 8.26 -1.95
-8.75 40.43 2.17
-2.15 9.92 -1.97
-5.33 24.63 2.21
-2.66 12.3 -1.99
-5.45 25.18 3.16
-3.51 16.2 -2.04
-4.93 22.78 -2.04
-7.35 33.96 6.75
-7.91 36.54 -1.96
-11.67 53.92 -0.96
-8.87 41.68 0.74
-1.76 8.26 -1.95
-8.86 41.64 2.23
-2.11 9.93 -1.97
-5.26 24.71 2.21
-2.62 12.29 -1.99
-5.39 25.31 3.18
-3.45 16.21 -2.03
-7.23 33.96 5.5
-4.85 22.81 -2.04
-7.2 33.85 6.73
-7.78 36.56 -1.96
-11.48 53.96 -0.96
-8.72 41.7 0.74
-1.72 8.25 -1.95
-6.61 31.62 1.69
-2.08 9.94 -1.97
-5.17 24.72 2.21
-2.57 12.3 -1.99
-6.73 32.18 4.04
-3.39 16.2 -2.03
-7.18 34.34 5.56
-4.77 22.83 -2.04
-7.64 36.54 -1.96
-8.73 41.73 -0.74
-1.7 8.26 -1.95
-2.04 9.95 -1.97
-6.39 31.11 2.78
-2.53 12.31 -1.99
-8.36 40.69 5.1
-3.33 16.18 -2.03
-6.93 33.71 5.45
-4.71 22.9 -2.05
-7.52 36.6 -1.96
-11.12 54.1 -0.96
-6.19 30.67 0.55
-1.67 8.26 -1.95
-6.65 32.96 1.76
-2.01 9.94 -1.97
-2.48 12.31 -1.99
-6.51 32.27 4.04
-3.27 16.19 -2.03
-6.79 33.62 5.43
-4.67 23.14 -2.07
-6.19 30.65 -1.64
-6.19 30.69 -0.55
-1.64 8.27 -1.95
-1.97 9.95 -1.97
-8.31 41.92 3.74
-2.44 12.31 -1.99
-6.4 32.26 4.04
-3.21 16.2 -2.03
-6.6 33.27 5.37
-4.64 23.42 -2.09
-7.25 36.55 -1.95
-1.61 8.28 -1.95
-1.94 9.96 -1.97
-6.44 33.08 2.95
-2.4 12.31 -1.99
-8.28 42.54 5.32
-3.15 16.19 -2.03
-9.65 49.58 8
-4.61 23.69 -2.11
-7.11 36.56 -1.95
-14.59 76.37 1.36
-1.58 8.28 -1.95
-7.84 41.02 2.19
-1.9 9.97 -1.97
-2.35 12.31 -1.99
-3.09 16.18 -2.02
-4.58 23.98 -2.14
-6.98 36.55 -1.95
-1.55 8.28 -1.95
-1.87 9.99 -1.97
-9.42 50.26 4.47
-2.31 12.32 -1.99
-3.03 16.18 -2.02
-9.37 49.95 8.05
-4.54 24.22 -2.16
-6.85 36.54 -1.95
-1.53 8.3 -1.95
-6.5 35.32 1.88
-1.84 9.98 -1.97
-2.27 12.33 -1.99
-2.98 16.18 -2.02
-4.46 24.25 -2.16
-6.73 36.58 -1.95
-1.5 8.31 -1.95
-1.8 9.99 -1.97
-5.68 31.51 2.8
-2.22 12.33 -1.98
-2.92 16.18 -2.02
-4.34 24.07 -2.14
-6.6 36.63 -1.95
-1.47 8.31 -1.95
-5.86 33.17 1.77
-1.77 10 -1.97
-5.95 33.68 2.99
-2.18 12.32 -1.98
-7.16 40.5 5.05
-2.86 16.18 -2.02
-4.25 24.03 -2.14
-6.46 36.56 -1.95
-8.74 50.48 0.89
-1.44 8.31 -1.95
-13.19 76.19 4.05
-1.73 10.01 -1.97
-7.13 41.18 3.66
-2.13 12.33 -1.98
-2.8 16.18 -2.02
-4.16 24.03 -2.13
-6.32 36.5 -1.94
-8.55 50.43 0.89
-1.41 8.31 -1.95
-1.7 10.02 -1.98
-5.74 33.85 3
-2.09 12.34 -1.98
-2.74 16.16 -2.01
-4.08 24.04 -2.13
-6.22 36.66 -1.95
-8.3 50.02 0.89
-1.38 8.32 -1.95
-1.66 10.01 -1.97
-5.85 35.29 3.13
-2.05 12.36 -1.98
-2.68 16.16 -2.01
-3.98 24.01 -2.13
-6.12 36.89 -1.96
-8.14 50.13 0.89
-1.35 8.33 -1.95
-8.06 49.64 2.64
-1.63 10.02 -1.97
-6.91 42.52 3.77
-2.01 12.36 -1.98
-2.62 16.15 -2.01
-3.89 23.97 -2.12
-6.09 37.5 -1.99
-1.32 8.33 -1.95
-8.23 51.83 2.75
-1.59 10.03 -1.97
-5.68 35.75 3.17
-1.96 12.36 -1.98
-6.42 40.43 5.03
-2.56 16.15 -2.01
-3.81 23.98 -2.12
-5.99 37.74 -2
-1.29 8.33 -1.95
-6.63 42.71 2.27
-1.56 10.03 -1.97
-6.47 41.66 3.69
-1.92 12.38 -1.98
-6.41 41.31 5.13
-2.5 16.13 -2
-3.72 23.96 -2.12
-9 59.35 1.05
-1.26 8.32 -1.94
-1.52 10.04 -1.97
-1.88 12.38 -1.98
-2.44 16.11 -2
-3.63 23.94 -2.12
-5.58 36.83 -0.65
-7.56 51.03 0.9
-1.23 8.33 -1.94
-1.49 10.03 -1.97
-6.31 42.59 3.77
-1.84 12.4 -1.99
-4.96 33.51 4.16
-2.38 16.1 -2
-3.54 23.9 -2.11
-5.47 36.92 -1.96
-1.2 8.34 -1.95
-1.45 10.03 -1.97
-7.21 49.93 4.41
-1.79 12.4 -1.98
-2.33 16.1 -2
-3.45 23.89 -2.11
-6.49 44.91 -2.38
-10.76 74.48 -1.31
-1.18 8.35 -1.95
-1.42 10.04 -1.97
-1.75 12.4 -1.98
-2.27 16.09 -2
-3.36 23.87 -2.11
-6.37 45.18 -2.39
-10.5 74.47 -1.31
-1.15 8.33 -1.94
-1.38 10.05 -1.97
-1.71 12.41 -1.98
-2.21 16.08 -1.99
-3.28 23.86 -2.11
-1.12 8.34 -1.94
-6.78 50.58 2.67
-1.35 10.06 -1.97
-1.66 12.42 -1.98
-2.15 16.07 -1.99
-3.19 23.83 -2.1
-6.1 45.5 -2.41
-1.09 8.35 -1.94
-6.4 49.03 2.59
-1.31 10.05 -1.97
-1.62 12.43 -1.99
-2.1 16.08 -1.99
-3.11 23.82 -2.1
-1.06 8.35 -1.94
-1.28 10.06 -1.97
-1.58 12.43 -1.98
-2.04 16.08 -1.99
-3.02 23.78 -2.1
-1.03 8.36 -1.94
-1.24 10.07 -1.97
-1.53 12.43 -1.98
-1.98 16.09 -1.99
-2.93 23.77 -2.1
-1 8.35 -1.94
-1.21 10.07 -1.97
-1.49 12.43 -1.98
-1.93 16.1 -1.99
-2.85 23.74 -2.09
-0.97 8.36 -1.94
-1.17 10.08 -1.97
-1.45 12.45 -1.99
-1.87 16.1 -1.99
-2.76 23.73 -2.09
-0.94 8.36 -1.94
-1.14 10.07 -1.97
-1.41 12.46 -1.99
-1.82 16.12 -1.99
-2.67 23.69 -2.09
-5.29 46.92 -2.47
-0.91 8.36 -1.94
-1.1 10.08 -1.97
-1.36 12.47 -1.99
-1.76 16.14 -1.99
-2.58 23.65 -2.08
-5.12 46.95 -2.47
-8.23 75.38 -1.32
-7.97 75.37 1.32
-0.88 8.37 -1.94
-1.07 10.09 -1.97
-5.35 50.56 4.45
-1.32 12.47 -1.99
-1.71 16.16 -1.99
-2.5 23.62 -2.08
-7.97 75.38 -1.32
-7.72 75.36 1.32
-0.86 8.36 -1.94
-1.03 10.1 -1.97
-1.28 12.48 -1.99
-1.66 16.16 -1.99
-2.42 23.6 -2.08
-7.72 75.31 -1.32
-7.46 75.29 1.32
-0.83 8.37 -1.94
-1 10.09 -1.97
-1.24 12.49 -1.99
-1.6 16.16 -1.99
-2.34 23.6 -2.07
-7.45 75.26 -1.32
-0.8 8.37 -1.94
-0.96 10.09 -1.97
-1.19 12.5 -1.99
-1.54 16.18 -2
-2.24 23.55 -2.07
-4.61 48.52 -2.55
-7.15 75.24 -1.32
-6.89 75.24 1.32
-0.77 8.38 -1.94
-0.93 10.1 -1.97
-1.15 12.52 -1.99
-1.48 16.18 -2
-2.15 23.51 -2.07
-6.89 75.19 -1.32
-6.66 75.32 1.32
-0.74 8.38 -1.94
-8.23 93.08 4.9
-0.89 10.1 -1.97
-1.11 12.51 -1.99
-1.43 16.2 -2
-2.08 23.49 -2.06
-4.41 49.9 -2.63
-6.65 75.2 -1.32
-0.71 8.38 -1.94
-0.86 10.11 -1.97
-1.06 12.52 -1.99
-1.38 16.21 -2
-1.99 23.45 -2.06
-4.24 49.91 -2.63
-0.68 8.38 -1.94
-0.82 10.11 -1.97
-1.02 12.53 -1.99
-1.32 16.21 -2
-1.9 23.44 -2.06
-0.65 8.38 -1.94
-0.79 10.11 -1.97
-0.97 12.54 -1.99
-1.26 16.22 -2
-1.82 23.39 -2.05
-0.62 8.38 -1.94
-0.75 10.11 -1.97
-0.93 12.55 -1.99
-1.21 16.23 -2
-1.73 23.32 -2.05
-0.59 8.38 -1.94
-0.72 10.12 -1.97
-0.89 12.54 -1.99
-1.15 16.25 -2
-1.65 23.28 -2.04
-0.57 8.38 -1.94
-0.68 10.12 -1.97
-0.85 12.55 -1.99
-1.1 16.24 -2
-1.57 23.27 -2.04
-0.45 7.09 -1.9
-0.54 8.38 -1.94
-0.65 10.13 -1.97
-0.8 12.55 -1.99
-1.04 16.24 -2
-1.49 23.24 -2.04
-0.43 7.09 -1.9
-4.49 74.55 1.3
-0.51 8.39 -1.94
-0.61 10.12 -1.97
-0.76 12.57 -1.99
-0.98 16.25 -2
-1.4 23.23 -2.04
-0.4 7.08 -1.9
-5.26 92.61 1.62
-0.48 8.4 -1.94
-0.58 10.13 -1.97
-0.71 12.57 -1.99
-0.92 16.26 -2
-1.32 23.24 -2.04
-4.28 75.46 -1.32
-0.38 7.08 -1.9
-0.45 8.4 -1.94
-0.54 10.14 -1.97
-0.67 12.56 -1.99
-0.87 16.27 -2
-1.24 23.23 -2.04
-4.02 75.4 -1.32
-0.35 7.08 -1.9
-3.72 74.67 1.3
-0.42 8.39 -1.94
-0.5 10.14 -1.97
-0.63 12.57 -1.99
-0.81 16.27 -2
-1.16 23.24 -2.04
-3.75 75.38 -1.32
-0.33 7.09 -1.9
-4.3 92.47 1.62
-0.39 8.39 -1.94
-0.47 10.15 -1.97
-0.58 12.58 -1.99
-0.76 16.27 -2
-1.08 23.25 -2.04
-3.5 75.35 -1.32
-0.3 7.09 -1.9
-0.36 8.39 -1.94
-0.44 10.14 -1.97
-0.54 12.59 -2
-0.7 16.28 -2
-1 23.25 -2.04
-0.28 7.07 -1.9
-0.33 8.4 -1.94
-0.4 10.14 -1.97
-0.49 12.59 -2
-0.64 16.28 -2
-0.91 23.25 -2.04
-2.96 75.28 -1.32
-0.25 7.08 -1.9
-0.3 8.4 -1.94
-0.36 10.15 -1.97
-0.45 12.58 -1.99
-0.58 16.29 -2
-0.83 23.25 -2.04
-0.23 7.08 -1.9
-2.41 74.72 1.3
-0.27 8.38 -1.94
-0.33 10.16 -1.98
-2.41 74.64 6.53
-0.41 12.59 -1.99
-0.53 16.3 -2
-2.38 73.61 11.66
-0.75 23.25 -2.04
-0.2 7.09 -1.9
-0.24 8.39 -1.94
-0.29 10.16 -1.98
-0.36 12.61 -2
-0.47 16.29 -2
-2.12 73.57 11.66
-0.67 23.26 -2.04
-0.18 7.09 -1.9
-0.21 8.4 -1.94
-0.26 10.16 -1.97
-0.32 12.61 -2
-0.42 16.29 -2
-1.91 74.76 11.84
-0.59 23.24 -2.03
-0.16 7.08 -1.9
-1.67 75.89 1.32
-0.18 8.4 -1.94
-0.22 10.16 -1.97
-0.28 12.61 -2
-0.36 16.31 -2
-0.51 23.23 -2.03
-0.13 7.08 -1.9
-0.16 8.4 -1.94
-0.19 10.17 -1.98
-0.24 12.61 -2
-0.3 16.31 -2
-0.43 23.22 -2.03
-0.11 7.08 -1.9
-0.13 8.39 -1.94
-0.15 10.16 -1.98
-0.19 12.61 -2
-0.25 16.31 -2
-0.35 23.23 -2.03
-0.08 7.09 -1.9
-0.1 8.4 -1.94
-0.12 10.17 -1.98
-0.15 12.62 -2
-0.19 16.3 -2
-0.27 23.24 -2.03
-0.06 7.09 -1.9
-0.07 8.4 -1.94
-0.08 10.16 -1.98
-0.1 12.62 -2
-0.13 16.31 -2
-0.19 23.22 -2.03
-0.03 7.07 -1.89
-0.04 8.4 -1.94
-0.05 10.16 -1.98
-0.06 12.62 -2
-0.08 16.32 -2
-0.11 23.22 -2.03
-0.01 7.08 -1.9
-0.01 8.41 -1.94
-0.01 10.17 -1.98
-0.02 12.62 -2
-0.02 16.32 -2
-0.03 23.2 -2.03
0.02 7.08 -1.9
0.02 8.39 -1.94
0.02 10.17 -1.98
0.03 12.62 -2
0.04 16.32 -2
0.05 23.21 -2.03
0.04 7.09 -1.9
0.05 8.4 -1.94
0.06 10.17 -1.98
0.07 12.63 -2
0.09 16.31 -2
0.13 23.19 -2.03
0.07 7.08 -1.9
0.08 8.4 -1.94
0.09 10.17 -1.98
0.12 12.63 -2
0.15 16.31 -2
0.21 23.2 -2.03
0.09 7.08 -1.9
0.11 8.41 -1.94
0.13 10.15 -1.97
0.16 12.64 -2
0.05 4.13 0.51
0.21 16.32 -2
0.3 23.17 -2.03
0.38 29.64 -1.55
0.11 7.08 -1.9
0.14 8.41 -1.94
0.16 10.17 -1.98
0.2 12.63 -2
0.26 16.32 -2
0.37 23.17 -2.03
0.47 29.54 -1.55
0.14 7.08 -1.9
0.16 8.4 -1.94
0.2 10.18 -1.98
0.25 12.63 -2
0.32 16.32 -2
0.45 23.18 -2.03
0.16 7.08 -1.9
0.19 8.39 -1.94
0.23 10.17 -1.98
0.29 12.63 -2
0.38 16.31 -2
0.53 23.18 -2.03
0.19 7.08 -1.9
0.22 8.41 -1.94
0.27 10.15 -1.97
0.33 12.64 -2
0.43 16.3 -2
0.61 23.17 -2.03
0.78 29.53 -1.55
0.21 7.07 -1.9
0.25 8.41 -1.94
0.3 10.16 -1.98
0.38 12.64 -2
0.48 16.3 -2
0.69 23.17 -2.03
0.88 29.53 -1.55
0.23 7.07 -1.89
0.28 8.41 -1.94
0.34 10.16 -1.98
0.42 12.63 -2
0.54 16.3 -2
0.76 23.16 -2.03
0.97 29.37 -1.54
0.26 7.08 -1.9
0.31 8.4 -1.94
0.38 10.16 -1.98
0.47 12.63 -2
0.6 16.3 -2
0.86 23.16 -2.03
1.09 29.52 -1.55
0.29 7.07 -1.9
0.34 8.4 -1.94
0.41 10.16 -1.98
0.51 12.64 -2
0.66 16.29 -2
0.93 23.15 -2.03
1.19 29.52 -1.55
0.31 7.07 -1.9
0.37 8.41 -1.94
0.45 10.15 -1.98
0.56 12.64 -2
0.72 16.29 -2
1.02 23.17 -2.03
1.3 29.51 -1.55
1.88 42.6 -0.74
0.33 7.05 -1.89
0.4 8.41 -1.94
0.48 10.15 -1.97
0.6 12.64 -2
0.77 16.29 -2
1.1 23.21 -2.03
2.01 42.51 -0.74
0.36 7.06 -1.89
0.43 8.41 -1.94
0.51 10.14 -1.97
0.64 12.63 -2
0.82 16.28 -2
1.11 21.95 -1.92
2.15 42.48 -0.74
0.38 7.06 -1.9
0.45 8.4 -1.94
0.23 4.17 -0.81
0.23 4.21 -0.67
0.88 16.28 -2
1.18 21.93 -1.92
0.2 3.69 -0.19
2.29 42.5 -0.74
0.22 3.84 -1.03
0.49 8.39 -1.94
0.24 4.23 -0.82
0.25 4.24 -0.67
0.23 3.92 -0.48
0.21 3.56 -0.19
2.46 42.46 -0.74
0.23 3.68 -0.99
0.51 8.4 -1.94
0.25 4.16 -0.81
0.23 3.74 -0.46
0.23 3.81 -0.33
0.22 3.52 -0.18
2.6 42.53 -0.74
0.23 3.62 -0.97
0.24 3.65 -0.84
0.24 3.65 -0.71
0.25 3.78 -0.6
0.23 3.61 -0.44
0.24 3.68 -0.32
0.23 3.49 -0.18
0.25 3.61 -0.97
0.24 3.58 -0.83
0.24 3.59 -0.7
0.25 3.69 -0.59
0.24 3.51 -0.43
0.24 3.54 -0.31
0.23 3.39 -0.18
0.28 4.09 -0.07
0.27 3.79 -1.02
0.25 3.55 -0.69
0.24 3.3 -0.52
0.24 3.4 -0.42
0.3 4.23 0.67
0.25 3.43 -0.3
0.24 3.39 -0.18
0.28 3.95 -0.07
0.25 3.34 -0.9
0.25 3.3 -0.64
0.24 3.22 -0.51
0.25 3.3 -0.41
0.31 4.2 0.67
0.25 3.37 -0.3
0.26 3.47 -0.18
0.28 3.76 -0.07
0.25 3.22 -0.87
0.31 3.97 0.07
0.26 3.28 -0.76
0.25 3.19 -0.62
0.25 3.13 -0.5
0.25 3.21 -0.39
0.31 3.89 0.62
0.26 3.25 -0.29
0.27 3.39 -0.18
0.29 3.63 -0.06
0.26 3.17 -0.85
0.27 3.25 -0.75
0.26 3.17 -0.62
0.25 3.08 -0.49
0.26 3.14 -0.39
0.32 3.92 0.62
0.26 3.18 -0.28
0.27 3.31 -0.17
0.29 3.54 -0.06
0.26 3.06 -0.82
0.34 3.91 0.21
0.26 3.01 -0.48
0.26 3.08 -0.38
0.27 3.11 -0.27
0.27 3.17 -0.17
0.3 3.44 -0.06
0.27 3.04 -0.82
0.27 2.99 -0.58
0.26 2.97 -0.47
0.27 3 -0.37
0.36 4.06 0.65
0.27 3.04 -0.27
0.26 2.87 -0.15
0.3 3.35 -0.06
0.27 2.91 -0.78
0.27 2.87 -0.66
0.27 2.97 -0.58
0.36 3.92 0.34
0.27 2.93 -0.47
0.27 2.94 -0.36
0.38 4.09 0.65
0.28 2.99 -0.26
0.26 2.82 -0.15
0.3 3.27 -0.06
0.27 2.85 -0.77
0.27 2.83 -0.66
0.28 2.92 -0.57
0.28 2.88 -0.46
0.28 2.88 -0.36
0.39 4.06 0.65
0.28 2.95 -0.26
0.27 2.81 -0.15
0.31 3.19 -0.06
0.28 2.79 -0.75
0.28 2.77 -0.64
0.29 2.89 -0.56
0.28 2.84 -0.45
0.28 2.83 -0.35
0.41 4.07 0.65
0.29 2.86 -0.25
0.33 3.28 0.64
0.28 2.82 -0.15
0.32 3.19 -0.06
0.28 2.74 -0.74
0.28 2.72 -0.63
0.29 2.83 -0.55
0.29 2.78 -0.44
0.29 2.78 -0.34
0.42 4.06 0.65
0.29 2.82 -0.25
0.34 3.25 0.64
0.29 2.84 -0.15
0.32 3.14 -0.06
0.29 2.69 -0.73
0.35 3.32 0.06
0.29 2.69 -0.63
0.3 2.81 -0.55
0.29 2.74 -0.44
0.29 2.73 -0.34
0.43 4.07 0.65
0.3 2.77 -0.24
0.3 2.77 -0.15
0.32 3.02 -0.05
0.3 2.7 -0.73
0.3 2.74 -0.64
0.3 2.71 -0.53
0.3 2.69 -0.43
0.3 2.69 -0.33
0.44 3.96 0.63
0.3 2.74 -0.24
0.3 2.75 -0.15
0.37 3.37 0.78
0.33 3.04 -0.05
0.31 2.75 -0.74
0.31 2.73 -0.63
0.3 2.6 -0.51
0.3 2.65 -0.42
0.3 2.64 -0.33
0.46 4.01 0.64
0.31 2.69 -0.24
0.37 3.26 0.76
0.34 3 -0.05
0.32 2.71 -0.73
0.31 2.63 -0.61
0.3 2.55 -0.5
0.31 2.61 -0.42
0.31 2.6 -0.32
0.5 4.23 0.67
0.31 2.63 -0.23
0.3 2.58 -0.14
0.34 2.87 -0.05
0.31 2.59 -0.6
0.31 2.53 -0.49
0.31 2.54 -0.4
0.31 2.56 -0.32
0.31 2.59 -0.23
0.31 2.55 -0.13
0.32 2.55 -0.59
0.31 2.5 -0.49
0.31 2.53 -0.4
0.31 2.53 -0.31
0.32 2.57 -0.23
0.32 2.58 -0.14
0.36 2.88 -0.05
0.55 4.3 0.23
0.32 2.48 -0.49
0.32 2.49 -0.4
0.32 2.48 -0.31
0.5 3.94 0.63
0.32 2.52 -0.22
0.45 3.52 0.69
0.33 2.58 -0.14
0.32 2.44 -0.48
0.58 4.43 0.39
0.32 2.46 -0.39
0.32 2.44 -0.3
0.33 2.48 -0.22
0.45 3.4 0.67
0.34 2.55 -0.13
0.34 2.5 -0.68
0.34 2.53 -0.59
0.33 2.41 -0.47
0.33 2.42 -0.39
0.33 2.42 -0.3
0.33 2.45 -0.22
0.45 3.32 0.65
0.34 2.51 -0.13
0.34 2.42 -0.65
0.34 2.47 -0.58
0.33 2.38 -0.47
0.33 2.38 -0.38
0.33 2.4 -0.3
0.34 2.42 -0.21
0.35 2.49 -0.13
0.37 2.66 -0.05
0.34 2.42 -0.66
0.35 2.44 -0.57
0.33 2.36 -0.46
0.34 2.36 -0.38
0.34 2.38 -0.3
0.34 2.39 -0.21
0.35 2.47 -0.13
0.37 2.62 -0.05
0.4 2.82 0.76
0.35 2.39 -0.65
0.35 2.43 -0.57
0.34 2.34 -0.46
0.34 2.35 -0.38
0.34 2.35 -0.29
0.35 2.37 -0.21
0.36 2.44 -0.13
0.48 3.32 0.78
0.37 2.55 -0.05
0.35 2.38 -0.64
0.37 2.45 -0.57
0.34 2.31 -0.45
0.35 2.33 -0.37
0.35 2.33 -0.29
0.35 2.34 -0.21
0.36 2.42 -0.13
0.49 3.27 0.76
0.38 2.53 -0.04
0.36 2.33 -0.63
0.35 2.29 -0.45
0.35 2.31 -0.37
0.35 2.31 -0.29
0.35 2.31 -0.2
0.37 2.41 -0.13
0.49 3.21 0.75
0.38 2.49 -0.04
0.36 2.31 -0.63
0.36 2.28 -0.45
0.36 2.29 -0.37
0.36 2.29 -0.28
0.36 2.3 -0.2
0.37 2.39 -0.13
0.48 3.07 0.72
0.39 2.5 -0.04
0.41 2.62 0.71
0.37 2.29 -0.62
0.36 2.27 -0.45
0.36 2.28 -0.37
0.36 2.27 -0.28
0.36 2.27 -0.2
0.38 2.36 -0.13
0.48 2.99 0.7
0.39 2.46 -0.04
0.42 2.62 0.71
0.36 2.22 -0.6
0.37 2.26 -0.44
0.37 2.27 -0.36
0.37 2.25 -0.28
0.37 2.27 -0.2
0.38 2.32 -0.12
0.48 2.93 0.69
0.4 2.46 -0.04
0.42 2.57 0.7
0.36 2.19 -0.59
0.38 2.27 -0.53
0.37 2.23 -0.44
0.37 2.25 -0.36
0.37 2.24 -0.28
0.38 2.25 -0.2
0.39 2.33 -0.12
0.48 2.86 0.67
0.4 2.41 -0.04
0.43 2.55 0.69
0.37 2.17 -0.59
0.38 2.23 -0.52
0.38 2.23 -0.44
0.38 2.24 -0.36
0.38 2.23 -0.28
0.38 2.23 -0.2
0.39 2.29 -0.12
0.4 2.35 -0.04
0.43 2.52 0.69
0.38 2.16 -0.59
0.38 2.21 -0.52
0.38 2.21 -0.44
0.38 2.21 -0.36
0.39 2.22 -0.28
0.39 2.23 -0.2
0.4 2.29 -0.12
0.41 2.34 -0.04
0.44 2.52 0.69
0.38 2.15 -0.59
0.39 2.19 -0.51
0.39 2.21 -0.44
0.39 2.2 -0.35
0.39 2.21 -0.28
0.39 2.22 -0.2
0.4 2.27 -0.12
0.42 2.35 -0.04
0.45 2.54 0.69
0.39 2.15 -0.58
0.4 2.19 -0.51
0.48 2.65 0.14
0.4 2.2 -0.43
0.4 2.19 -0.35
0.4 2.2 -0.27
0.4 2.22 -0.2
0.41 2.24 -0.12
0.42 2.34 -0.04
0.45 2.49 0.68
0.4 2.15 -0.59
0.4 2.18 -0.51
0.4 2.18 -0.43
0.4 2.19 -0.35
0.41 2.2 -0.27
0.41 2.21 -0.2
0.41 2.23 -0.12
0.43 2.3 -0.04
0.46 2.48 0.68
0.4 2.14 -0.58
0.41 2.18 -0.51
0.41 2.17 -0.43
0.41 2.18 -0.35
0.41 2.2 -0.27
0.41 2.2 -0.2
0.42 2.24 -0.12
0.47 2.5 0.68
0.41 2.13 -0.58
0.42 2.17 -0.51
0.42 2.17 -0.43
0.42 2.17 -0.35
0.42 2.2 -0.27
0.42 2.19 -0.2
0.6 3.14 0.62
0.43 2.21 -0.12
0.53 2.76 0.65
0.47 2.46 0.67
0.42 2.13 -0.58
0.42 2.16 -0.51
0.42 2.17 -0.43
0.42 2.16 -0.35
0.43 2.19 -0.27
0.72 3.67 0.59
0.43 2.19 -0.2
0.48 2.45 0.67
0.43 2.14 -0.58
0.43 2.16 -0.51
0.43 2.16 -0.43
0.43 2.17 -0.35
0.43 2.17 -0.27
0.44 2.19 -0.2
0.44 2.21 -0.12
0.55 2.75 0.65
0.46 2.3 -0.04
0.51 2.54 0.69
0.43 2.12 -0.58
0.44 2.16 -0.51
0.44 2.15 -0.43
0.44 2.17 -0.35
0.44 2.17 -0.27
0.44 2.18 -0.19
0.44 2.19 -0.12
0.56 2.75 0.65
0.46 2.3 -0.04
0.51 2.53 0.69
0.44 2.12 -0.58
0.44 2.16 -0.51
0.44 2.15 -0.43
0.45 2.16 -0.35
0.45 2.17 -0.27
0.45 2.17 -0.19
0.45 2.19 -0.12
0.57 2.75 0.65
0.47 2.28 -0.04
0.52 2.5 0.68
0.44 2.11 -0.58
0.45 2.15 -0.51
0.45 2.14 -0.42
0.45 2.15 -0.35
0.45 2.17 -0.27
0.45 2.17 -0.19
0.46 2.18 -0.12
0.59 2.82 0.66
0.48 2.29 -0.04
0.52 2.48 0.68
0.45 2.11 -0.58
0.46 2.14 -0.51
0.46 2.14 -0.42
0.46 2.15 -0.35
0.46 2.16 -0.27
0.46 2.17 -0.19
0.46 2.17 -0.12
0.62 2.88 0.68
0.48 2.24 -0.04
0.52 2.46 0.67
0.46 2.12 -0.58
0.46 2.14 -0.51
0.46 2.14 -0.43
0.46 2.14 -0.35
0.47 2.16 -0.27
0.47 2.16 -0.19
0.47 2.16 -0.12
0.62 2.86 0.67
0.47 2.18 -0.04
0.53 2.44 0.67
0.47 2.12 -0.58
0.49 2.22 0.04
0.47 2.14 -0.51
0.5 2.26 0.12
0.47 2.13 -0.42
0.47 2.13 -0.35
0.48 2.16 -0.27
0.81 3.65 0.59
0.48 2.16 -0.19
0.48 2.17 -0.12
0.48 2.16 -0.04
0.47 2.1 -0.58
0.49 2.17 0.04
0.48 2.14 -0.51
0.5 2.24 0.12
0.48 2.12 -0.42
0.51 2.27 0.2
0.48 2.14 -0.35
0.48 2.15 -0.27
0.82 3.64 0.59
0.48 2.15 -0.19
0.49 2.18 -0.12
0.49 2.17 -0.04
0.48 2.11 -0.58
0.49 2.15 0.04
0.49 2.14 -0.51
0.5 2.18 0.12
0.49 2.13 -0.42
0.51 2.23 0.2
0.49 2.13 -0.35
0.49 2.15 -0.27
0.49 2.15 -0.19
0.49 2.17 -0.12
0.5 2.18 -0.04
0.49 2.11 -0.58
0.5 2.18 0.04
0.49 2.13 -0.51
0.5 2.17 0.12
0.49 2.13 -0.43
0.51 2.2 0.2
0.49 2.13 -0.35
0.53 2.28 0.29
0.5 2.15 -0.27
0.5 2.15 -0.19
0.5 2.15 -0.12
0.51 2.18 -0.04
0.5 2.11 -0.58
0.51 2.18 0.04
0.5 2.13 -0.51
0.52 2.19 0.12
0.5 2.13 -0.43
0.52 2.2 0.2
0.5 2.12 -0.35
0.54 2.28 0.29
0.5 2.14 -0.27
0.51 2.15 -0.19
0.51 2.15 -0.12
0.51 2.17 -0.04
0.5 2.11 -0.58
0.52 2.17 0.04
0.51 2.13 -0.51
0.52 2.19 0.12
0.5 2.11 -0.42
0.53 2.21 0.2
0.51 2.13 -0.35
0.52 2.19 0.28
0.51 2.14 -0.27
0.54 2.25 0.37
0.51 2.15 -0.19
0.52 2.16 -0.12
0.52 2.17 -0.04
0.51 2.1 -0.58
0.53 2.17 0.04
0.52 2.13 -0.51
0.53 2.17 0.12
0.51 2.11 -0.42
0.53 2.19 0.2
0.52 2.13 -0.35
0.53 2.18 0.28
0.53 2.16 -0.27
0.54 2.22 0.36
0.52 2.14 -0.19
0.55 2.25 0.45
0.52 2.16 -0.12
0.52 2.16 -0.04
0.58 2.39 0.66
0.52 2.12 -0.58
0.53 2.16 0.04
0.53 2.15 -0.51
0.54 2.18 0.12
0.53 2.16 -0.43
0.54 2.2 0.2
0.53 2.17 -0.35
0.55 2.22 0.28
0.53 2.16 -0.27
0.54 2.2 0.36
0.54 2.18 -0.2
0.55 2.25 0.45
0.54 2.17 -0.12
0.54 2.18 -0.04
0.57 2.31 0.64
0.53 2.14 -0.59
0.54 2.16 0.04
0.53 2.13 -0.51
0.54 2.17 0.12
0.54 2.14 -0.43
0.55 2.18 0.2
0.53 2.14 -0.35
0.55 2.18 0.28
0.54 2.16 -0.27
0.56 2.23 0.36
0.54 2.16 -0.19
0.55 2.21 0.44
0.54 2.16 -0.12
0.57 2.28 0.54
0.54 2.17 -0.04
0.57 2.28 0.63
0.54 2.14 -0.59
0.55 2.17 0.04
0.54 2.13 -0.51
0.55 2.17 0.12
0.54 2.14 -0.43
0.55 2.18 0.2
0.54 2.14 -0.35
0.55 2.19 0.28
0.54 2.14 -0.27
0.56 2.22 0.36
0.55 2.16 -0.19
0.56 2.21 0.44
0.55 2.16 -0.12
0.58 2.3 0.55
0.55 2.18 -0.04
0.58 2.28 0.63
0.55 2.13 -0.59
0.56 2.16 0.04
0.55 2.13 -0.51
0.56 2.17 0.12
0.55 2.12 -0.42
0.56 2.19 0.2
0.55 2.15 -0.35
0.56 2.18 0.28
0.55 2.14 -0.27
0.57 2.2 0.36
0.56 2.16 -0.2
0.58 2.24 0.45
0.55 2.15 -0.12
0.58 2.25 0.54
0.56 2.16 -0.04
0.59 2.29 0.63
0.55 2.12 -0.59
0.56 2.16 0.04
0.56 2.14 -0.51
0.57 2.16 0.12
0.55 2.12 -0.43
0.57 2.18 0.2
0.56 2.14 -0.35
0.57 2.2 0.28
0.56 2.15 -0.27
0.57 2.19 0.36
0.56 2.15 -0.19
0.58 2.2 0.44
0.56 2.15 -0.12
0.59 2.28 0.54
0.59 2.27 0.63
0.56 2.12 -0.59
0.57 2.16 0.04
0.57 2.14 -0.51
0.57 2.17 0.12
0.56 2.13 -0.43
0.58 2.18 0.2
0.57 2.14 -0.35
0.59 2.22 0.28
0.57 2.15 -0.27
0.59 2.21 0.36
0.57 2.15 -0.19
0.58 2.21 0.44
0.57 2.16 -0.12
0.59 2.24 0.54
0.58 2.18 -0.04
0.6 2.25 0.62
0.57 2.12 -0.59
0.58 2.16 0.04
0.57 2.13 -0.51
0.58 2.16 0.12
0.57 2.13 -0.43
0.59 2.18 0.2
0.57 2.13 -0.35
0.59 2.19 0.28
0.58 2.15 -0.27
0.6 2.23 0.37
0.58 2.16 -0.2
0.59 2.19 0.44
0.58 2.14 -0.12
0.6 2.25 0.54
0.58 2.16 -0.04
0.61 2.27 0.63
0.58 2.13 -0.59
0.59 2.16 0.04
0.58 2.13 -0.51
0.59 2.16 0.12
0.58 2.13 -0.43
0.59 2.18 0.2
0.58 2.14 -0.35
0.6 2.19 0.28
0.58 2.14 -0.27
0.61 2.22 0.36
0.59 2.15 -0.19
0.6 2.21 0.45
0.58 2.14 -0.12
0.61 2.23 0.53
0.59 2.15 -0.04
0.61 2.25 0.63
0.59 2.12 -0.59
0.6 2.16 0.04
0.59 2.13 -0.51
0.59 2.16 0.12
0.59 2.12 -0.43
0.6 2.18 0.2
0.59 2.14 -0.35
0.61 2.19 0.28
0.59 2.14 -0.27
0.61 2.21 0.36
0.6 2.16 -0.2
0.61 2.22 0.45
0.59 2.15 -0.12
0.62 2.23 0.53
0.59 2.14 -0.04
0.61 2.22 0.62
0.59 2.11 -0.59
0.6 2.16 0.04
0.6 2.13 -0.51
0.61 2.17 0.12
0.59 2.12 -0.43
0.61 2.17 0.2
0.6 2.15 -0.35
0.61 2.2 0.28
0.6 2.15 -0.27
0.62 2.21 0.36
0.6 2.15 -0.19
0.62 2.21 0.45
0.6 2.15 -0.12
0.63 2.25 0.54
0.59 2.12 -0.04
0.62 2.2 0.61
0.6 2.12 -0.59
0.61 2.15 0.04
0.61 2.14 -0.51
0.61 2.16 0.12
0.6 2.13 -0.43
0.62 2.17 0.2
0.61 2.14 -0.35
0.62 2.2 0.28
0.61 2.15 -0.27
0.63 2.21 0.36
0.61 2.15 -0.2
0.62 2.19 0.44
0.61 2.16 -0.12
0.63 2.24 0.54
0.6 2.12 -0.04
0.63 2.21 0.62
0.61 2.12 -0.59
0.62 2.15 0.04
0.61 2.13 -0.51
0.62 2.16 0.12
0.61 2.14 -0.43
0.63 2.18 0.2
0.61 2.14 -0.35
0.63 2.19 0.28
0.62 2.15 -0.27
0.64 2.22 0.37
0.62 2.15 -0.2
0.63 2.2 0.44
0.62 2.16 -0.12
0.64 2.23 0.54
0.61 2.11 -0.04
0.64 2.22 0.62
0.62 2.13 -0.59
0.63 2.15 0.04
0.62 2.13 -0.51
0.63 2.16 0.12
0.62 2.13 -0.43
0.64 2.18 0.2
0.62 2.14 -0.35
0.64 2.18 0.28
0.62 2.14 -0.27
0.64 2.19 0.36
0.63 2.16 -0.2
0.64 2.19 0.44
0.63 2.16 -0.12
0.65 2.22 0.53
0.62 2.12 -0.04
0.65 2.23 0.62
0.63 2.12 -0.59
0.64 2.16 0.04
0.63 2.14 -0.52
0.64 2.16 0.12
0.62 2.12 -0.43
0.65 2.2 0.2
0.63 2.14 -0.35
0.64 2.18 0.28
0.63 2.14 -0.27
0.65 2.19 0.36
0.63 2.15 -0.2
0.65 2.2 0.45
0.64 2.16 -0.12
0.65 2.22 0.53
0.63 2.13 -0.04
0.66 2.23 0.62
0.63 2.11 -0.59
0.64 2.15 -0.52
0.64 2.13 -0.43
0.64 2.14 -0.35
0.64 2.15 -0.28
0.66 2.21 0.37
0.64 2.15 -0.2
0.66 2.19 0.44
0.64 2.15 -0.12
0.67 2.23 0.54
0.65 2.17 -0.04
0.64 2.12 -0.59
0.67 2.21 0.04
0.65 2.13 -0.51
0.68 2.24 0.12
0.65 2.13 -0.43
0.65 2.14 -0.35
0.67 2.22 0.28
0.65 2.15 -0.28
0.67 2.23 0.37
0.65 2.15 -0.2
0.65 2.16 -0.12
0.67 2.23 0.54
0.67 2.2 -0.04
0.67 2.22 0.62
0.65 2.12 -0.59
0.65 2.12 -0.51
0.66 2.15 -0.44
0.65 2.14 -0.35
0.66 2.15 -0.28
1.31 4.27 0.71
0.66 2.15 -0.2
0.67 2.2 0.45
0.66 2.14 -0.12
0.69 2.24 0.54
0.67 2.18 0.61
0.66 2.13 -0.6
0.66 2.12 -0.51
1.37 4.4 0.24
0.66 2.14 -0.44
1.37 4.42 0.41
0.66 2.14 -0.36
0.66 2.14 -0.27
1.32 4.25 0.71
0.67 2.15 -0.2
0.67 2.15 -0.12
0.68 2.2 0.62
0.67 2.12 -0.6
0.67 2.12 -0.51
1.38 4.39 0.24
0.67 2.13 -0.43
1.39 4.42 0.41
0.67 2.15 -0.36
0.67 2.14 -0.28
1.34 4.26 0.71
0.67 2.15 -0.2
0.67 2.15 -0.12
0.72 2.31 0.56
0.71 2.26 0.63
0.67 2.11 -0.59
1.4 4.42 0.08
1.37 4.33 0.24
0.68 2.13 -0.44
1.38 4.36 0.4
0.68 2.15 -0.36
0.68 2.15 -0.28
1.35 4.25 0.71
0.68 2.15 -0.2
0.68 2.15 -0.12
0.68 2.11 -0.59
1.4 4.36 0.08
0.69 2.15 -0.52
1.4 4.35 0.24
0.69 2.14 -0.44
0.69 2.14 -0.36
0.69 2.15 -0.28
1.37 4.27 0.71
0.69 2.15 -0.2
0.69 2.14 -0.12
0.69 2.11 -0.6
0.69 2.13 -0.52
0.7 2.14 -0.44
0.7 2.14 -0.36
1.4 4.3 0.56
0.7 2.15 -0.28
1.39 4.27 0.71
0.7 2.15 -0.2
0.69 2.13 -0.12
0.72 2.2 0.62
0.7 2.12 -0.6
0.7 2.13 -0.52
1.42 4.31 0.24
0.7 2.14 -0.44
1.43 4.33 0.4
0.71 2.15 -0.36
1.42 4.32 0.56
0.7 2.14 -0.28
1.41 4.3 0.72
0.71 2.15 -0.2
0.7 2.14 -0.12
0.73 2.23 0.63
0.71 2.12 -0.6
0.71 2.13 -0.52
1.43 4.31 0.24
0.71 2.13 -0.44
1.44 4.33 0.4
0.72 2.16 -0.36
1.43 4.29 0.56
0.71 2.15 -0.28
0.72 2.15 -0.2
0.71 2.14 -0.12
0.74 2.21 0.62
0.71 2.11 -0.6
0.72 2.13 -0.52
1.45 4.31 0.24
0.72 2.13 -0.44
1.46 4.32 0.4
0.72 2.15 -0.36
1.46 4.33 0.56
0.72 2.15 -0.28
1.44 4.28 0.71
0.72 2.14 -0.2
0.72 2.14 -0.12
0.74 2.21 0.62
0.72 2.11 -0.6
0.73 2.13 -0.52
0.73 2.14 -0.44
1.48 4.35 0.4
0.73 2.14 -0.36
1.46 4.28 0.56
0.73 2.15 -0.28
1.46 4.28 0.72
0.73 2.14 -0.2
0.73 2.15 -0.12
0.75 2.21 0.63
0.73 2.12 -0.6
0.74 2.14 -0.52
1.43 4.16 0.23
0.74 2.14 -0.44
0.74 2.15 -0.36
0.74 2.15 -0.28
1.49 4.33 0.72
0.74 2.15 -0.2
0.74 2.14 -0.12
0.64 1.86 0.53
0.74 2.12 -0.6
0.74 2.13 -0.52
0.75 2.14 -0.44
0.75 2.15 -0.36
0.74 2.14 -0.28
0.75 2.15 -0.2
0.64 1.85 0.38
0.75 2.14 -0.12
0.67 1.91 0.47
0.64 1.85 0.52
0.75 2.12 -0.6
0.75 2.12 -0.52
0.66 1.88 0.1
0.75 2.13 -0.44
0.66 1.88 0.17
0.76 2.16 -0.36
0.66 1.86 0.24
0.76 2.14 -0.28
0.66 1.87 0.31
0.76 2.15 -0.2
0.65 1.84 0.38
0.76 2.14 -0.12
0.65 1.85 0.45
0.65 1.85 -0.03
0.65 1.85 0.52
0.75 2.11 -0.6
0.65 1.84 0.03
0.76 2.13 -0.52
0.65 1.83 0.1
0.76 2.13 -0.44
0.66 1.85 0.17
0.77 2.15 -0.36
0.66 1.84 0.24
0.77 2.15 -0.28
0.65 1.83 0.31
0.76 2.15 -0.2
0.65 1.83 0.38
0.77 2.15 -0.12
0.66 1.85 0.45
0.65 1.83 -0.03
0.66 1.85 0.52
0.76 2.11 -0.6
0.66 1.82 0.03
0.77 2.14 -0.53
0.66 1.83 0.1
0.77 2.14 -0.44
0.66 1.84 0.17
0.77 2.15 -0.36
0.66 1.83 0.24
0.77 2.15 -0.28
0.67 1.86 0.31
0.77 2.14 -0.2
0.66 1.83 0.38
0.77 2.14 -0.12
0.67 1.86 0.46
0.66 1.84 -0.03
0.7 1.95 0.56
0.77 2.12 -0.61
0.66 1.82 0.03
0.78 2.14 -0.53
0.67 1.83 0.1
0.78 2.14 -0.44
0.68 1.86 0.17
0.78 2.15 -0.36
0.67 1.85 0.24
0.78 2.15 -0.28
0.69 1.9 0.32
0.78 2.15 -0.2
0.68 1.86 0.38
0.78 2.14 -0.12
0.67 1.85 0.45
0.67 1.85 -0.03
0.78 2.12 -0.61
0.67 1.83 0.03
0.79 2.14 -0.53
0.67 1.82 0.1
0.79 2.14 -0.44
0.79 2.15 -0.36
0.7 1.89 0.25
0.79 2.14 -0.28
0.79 2.15 -0.2
0.7 1.9 0.39
0.79 2.14 -0.12
0.69 1.87 0.46
0.69 1.87 -0.03
0.79 2.12 -0.61
0.69 1.85 0.03
0.8 2.14 -0.53
0.67 1.81 0.1
0.79 2.13 -0.44
0.8 2.16 -0.36
0.8 2.14 -0.28
0.8 2.15 -0.2
0.8 2.14 -0.12
0.69 1.86 0.46
0.79 2.11 -0.6
0.7 1.85 0.03
0.81 2.15 -0.53
0.68 1.82 0.1
0.8 2.13 -0.44
0.81 2.16 -0.37
0.81 2.15 -0.28
0.8 2.14 -0.2
0.7 1.86 0.39
0.81 2.15 -0.12
0.7 1.87 0.46
0.8 2.11 -0.61
0.7 1.85 0.03
0.81 2.13 -0.53
0.69 1.83 0.1
0.81 2.13 -0.44
0.82 2.15 -0.36
0.82 2.15 -0.28
0.81 2.14 -0.2
0.82 2.17 -0.12
0.72 1.88 0.47
0.81 2.12 -0.61
0.7 1.82 0.03
0.81 2.12 -0.52
0.7 1.83 0.1
0.82 2.14 -0.45
0.83 2.15 -0.37
0.83 2.16 -0.28
0.74 1.92 0.33
0.83 2.16 -0.2
0.71 1.86 0.39
0.83 2.17 -0.12
0.72 1.86 0.46
0.82 2.12 -0.61
0.71 1.83 0.03
0.82 2.12 -0.53
0.71 1.82 0.1
0.83 2.14 -0.45
0.83 2.15 -0.36
0.84 2.15 -0.28
0.84 2.15 -0.2
0.72 1.85 0.39
0.83 2.15 -0.12
0.83 2.13 -0.61
0.71 1.81 0.03
0.83 2.12 -0.53
0.71 1.82 0.1
0.83 2.12 -0.44
0.84 2.15 -0.37
0.71 1.81 0.24
0.84 2.15 -0.28
0.84 2.14 -0.2
0.84 2.16 -0.12
0.83 2.11 -0.61
0.75 1.9 0.04
0.84 2.13 -0.53
0.84 2.13 -0.45
1.45 3.67 0.35
0.85 2.15 -0.37
0.72 1.83 0.24
0.85 2.15 -0.28
0.73 1.85 0.31
0.84 2.13 -0.2
0.86 2.16 -0.12
0.75 1.88 0.47
0.85 2.12 -0.61
0.72 1.8 0.03
0.85 2.12 -0.53
0.73 1.83 0.1
0.85 2.14 -0.45
1.45 3.63 0.34
0.86 2.15 -0.37
0.72 1.8 0.24
0.87 2.16 -0.29
0.73 1.81 0.31
0.85 2.13 -0.2
0.73 1.82 0.38
0.86 2.16 -0.12
0.74 1.85 0.46
0.75 1.87 0.54
0.86 2.12 -0.61
0.73 1.81 0.03
0.86 2.12 -0.53
0.73 1.8 0.1
0.86 2.14 -0.45
1.47 3.64 0.34
0.87 2.15 -0.37
0.72 1.77 0.23
0.87 2.16 -0.29
0.73 1.81 0.31
0.87 2.14 -0.2
0.73 1.8 0.38
0.87 2.15 -0.12
0.74 1.83 0.46
0.75 1.85 0.53
0.87 2.13 -0.61
0.73 1.8 0.03
0.86 2.12 -0.53
0.73 1.78 0.1
0.87 2.14 -0.45
1.51 3.7 0.35
0.88 2.15 -0.37
0.72 1.77 0.23
0.88 2.15 -0.28
0.74 1.81 0.31
0.88 2.15 -0.2
0.73 1.79 0.38
0.88 2.15 -0.12
0.73 1.79 0.45
0.91 2.24 -0.04
0.74 1.83 0.53
0.87 2.12 -0.61
0.74 1.8 0.03
0.87 2.12 -0.53
0.73 1.78 0.1
0.88 2.13 -0.45
0.89 2.15 -0.37
0.73 1.77 0.23
0.89 2.15 -0.29
0.73 1.78 0.3
0.88 2.15 -0.2
0.73 1.78 0.37
0.89 2.16 -0.12
0.74 1.81 0.45
0.91 2.21 -0.04
0.75 1.81 0.53
0.88 2.12 -0.61
0.74 1.77 0.03
0.89 2.13 -0.53
0.74 1.77 0.1
0.88 2.13 -0.45
0.9 2.15 -0.37
0.73 1.76 0.23
0.9 2.16 -0.29
0.74 1.78 0.31
0.89 2.14 -0.2
0.74 1.77 0.37
0.9 2.16 -0.12
0.75 1.8 0.45
0.91 2.19 -0.04
0.75 1.79 0.52
0.89 2.12 -0.61
0.74 1.75 0.03
0.89 2.13 -0.53
0.75 1.77 0.1
0.9 2.13 -0.45
0.9 2.15 -0.37
0.74 1.76 0.23
0.91 2.16 -0.29
0.74 1.77 0.3
0.9 2.14 -0.2
0.73 1.75 0.37
0.91 2.16 -0.12
0.76 1.81 0.45
0.92 2.2 -0.04
0.76 1.8 0.52
0.9 2.12 -0.62
0.74 1.75 0.03
0.9 2.12 -0.53
0.75 1.76 0.1
0.91 2.13 -0.45
0.91 2.14 -0.37
0.75 1.76 0.23
0.92 2.16 -0.29
0.75 1.77 0.3
0.91 2.14 -0.2
0.74 1.75 0.37
0.91 2.15 -0.12
0.76 1.79 0.45
0.92 2.18 -0.04
0.77 1.81 0.53
0.91 2.13 -0.62
0.75 1.74 0.03
0.91 2.12 -0.53
0.75 1.74 0.1
0.91 2.13 -0.45
0.92 2.15 -0.37
0.75 1.76 0.23
0.92 2.15 -0.29
0.76 1.76 0.3
0.92 2.15 -0.2
0.75 1.75 0.37
0.92 2.15 -0.12
0.77 1.81 0.45
0.94 2.2 -0.04
0.78 1.81 0.53
0.92 2.13 -0.62
0.75 1.74 0.03
0.92 2.12 -0.53
0.75 1.73 0.1
0.92 2.13 -0.45
0.93 2.15 -0.37
0.76 1.75 0.23
0.93 2.16 -0.29
0.76 1.75 0.3
0.93 2.15 -0.2
0.76 1.76 0.37
0.93 2.15 -0.12
0.8 1.86 0.47
0.95 2.19 -0.04
0.78 1.8 0.52
0.92 2.11 -0.62
0.76 1.74 0.03
0.93 2.13 -0.54
0.76 1.74 0.1
0.93 2.12 -0.45
0.94 2.14 -0.37
0.77 1.76 0.24
0.95 2.17 -0.29
0.77 1.77 0.31
0.93 2.14 -0.2
0.78 1.78 0.38
0.94 2.16 -0.12
0.96 2.19 -0.04
0.93 2.12 -0.62
0.76 1.72 0.03
0.94 2.14 -0.54
0.77 1.74 0.1
0.94 2.13 -0.45
0.94 2.14 -0.37
0.96 2.17 -0.29
0.95 2.14 -0.2
0.95 2.15 -0.12
0.97 2.2 -0.04
0.94 2.12 -0.62
0.94 2.12 -0.54
0.95 2.13 -0.45
1.25 2.81 0.27
0.95 2.14 -0.37
0.96 2.16 -0.29
0.96 2.16 -0.21
0.95 2.15 -0.12
0.98 2.19 -0.04
0.96 2.13 -0.62
0.95 2.12 -0.54
0.79 1.76 0.1
0.96 2.13 -0.45
1.24 2.76 0.26
0.96 2.14 -0.37
1.2 2.66 0.36
0.97 2.16 -0.29
0.97 2.16 -0.21
0.97 2.15 -0.12
0.99 2.2 -0.04
0.96 2.13 -0.63
0.97 2.13 -0.54
0.8 1.77 0.1
0.96 2.12 -0.45
1.26 2.78 0.27
0.97 2.14 -0.37
1.21 2.67 0.36
0.98 2.16 -0.29
1.21 2.67 0.46
0.98 2.15 -0.21
1.2 2.65 0.56
0.98 2.16 -0.12
0.99 2.18 -0.04
1.02 2.24 0.66
0.97 2.12 -0.62
0.98 2.13 -0.54
1.19 2.61 0.15
0.97 2.12 -0.45
1.28 2.79 0.27
0.98 2.14 -0.37
1.22 2.66 0.36
0.99 2.17 -0.29
1.22 2.66 0.46
0.98 2.15 -0.21
1.2 2.63 0.56
0.99 2.16 -0.12
1 2.18 -0.04
1.01 2.21 0.65
0.98 2.12 -0.62
0.99 2.13 -0.54
1.2 2.59 0.15
0.98 2.13 -0.46
0.99 2.14 -0.37
1.22 2.65 0.36
1 2.17 -0.29
1.23 2.66 0.46
0.99 2.15 -0.21
1.2 2.6 0.56
1 2.16 -0.12
1.01 2.18 -0.04
1.03 2.22 0.66
0.99 2.12 -0.63
0.99 2.12 -0.54
1.21 2.59 0.15
0.99 2.13 -0.46
1 2.14 -0.37
1.23 2.64 0.36
1.01 2.16 -0.29
1.24 2.67 0.47
1 2.15 -0.21
1.21 2.61 0.56
1 2.15 -0.12
1.02 2.18 -0.04
1.04 2.23 0.66
1 2.13 -0.63
1 2.13 -0.54
1.21 2.58 0.15
1 2.13 -0.46
1.01 2.14 -0.37
1.25 2.65 0.36
1.01 2.15 -0.29
1.26 2.68 0.47
1.02 2.16 -0.21
1.23 2.61 0.56
1.01 2.15 -0.12
1.02 2.18 -0.04
1.05 2.23 0.66
1.01 2.12 -0.63
1.01 2.14 -0.55
1.01 2.12 -0.46
1.02 2.15 -0.38
1.26 2.65 0.36
1.02 2.16 -0.29
1.28 2.7 0.47
1.03 2.16 -0.21
1.24 2.61 0.56
1.02 2.15 -0.12
1.03 2.16 -0.04
1.06 2.23 0.66
1.01 2.12 -0.63
1.02 2.14 -0.55
1.23 2.57 0.15
1.01 2.12 -0.46
1.24 2.59 0.25
1.03 2.15 -0.38
1.26 2.63 0.36
1.04 2.17 -0.29
1.27 2.66 0.47
1.03 2.15 -0.21
1.24 2.6 0.56
1.03 2.16 -0.13
1.04 2.16 -0.04
1.07 2.23 0.66
1.02 2.12 -0.63
1.03 2.14 -0.55
1.24 2.57 0.15
1.03 2.13 -0.46
1.25 2.59 0.25
1.03 2.14 -0.38
1.27 2.63 0.36
1.05 2.17 -0.3
1.28 2.65 0.47
1.04 2.15 -0.21
1.26 2.6 0.56
1.04 2.16 -0.13
1.05 2.17 -0.04
1.07 2.22 0.66
1.03 2.12 -0.63
1.04 2.13 -0.55
1.23 2.53 0.15
1.04 2.13 -0.46
1.24 2.54 0.25
1.04 2.13 -0.38
1.28 2.63 0.36
1.05 2.16 -0.3
1.27 2.61 0.46
1.06 2.17 -0.21
1.28 2.62 0.57
1.05 2.15 -0.13
1.06 2.17 -0.04
1.09 2.23 0.66
1.04 2.13 -0.63
1.05 2.13 -0.55
1.26 2.56 0.15
1.04 2.12 -0.46
1.24 2.53 0.25
1.05 2.14 -0.38
1.06 2.16 -0.29
1.29 2.61 0.46
1.06 2.17 -0.21
1.29 2.63 0.57
1.06 2.15 -0.13
1.07 2.17 -0.04
1.1 2.23 0.67
1.05 2.12 -0.63
1.22 2.45 0.05
1.06 2.14 -0.55
1.27 2.56 0.15
1.05 2.11 -0.46
1.24 2.51 0.25
1.06 2.15 -0.38
1.07 2.16 -0.3
1.31 2.64 0.47
1.07 2.16 -0.21
1.31 2.65 0.57
1.07 2.16 -0.13
1.07 2.16 -0.04
1.11 2.24 0.67
1.06 2.12 -0.63
1.2 2.41 0.05
1.07 2.15 -0.55
1.27 2.53 0.15
1.06 2.12 -0.46
1.27 2.53 0.25
1.07 2.15 -0.38
1.08 2.16 -0.3
1.32 2.63 0.47
1.08 2.16 -0.21
1.39 2.77 0.6
1.08 2.16 -0.13
1.08 2.17 -0.04
1.12 2.23 0.67
1.07 2.12 -0.64
1.2 2.38 0.05
1.08 2.14 -0.55
1.29 2.55 0.15
1.07 2.12 -0.46
1.29 2.57 0.25
1.08 2.13 -0.38
1.09 2.17 -0.3
1.33 2.63 0.47
1.09 2.16 -0.21
1.09 2.16 -0.13
1.09 2.17 -0.04
1.13 2.23 0.67
1.08 2.11 -0.64
1.21 2.38 0.05
1.09 2.14 -0.55
1.27 2.5 0.15
1.08 2.13 -0.46
1.3 2.56 0.25
1.09 2.14 -0.38
1.1 2.17 -0.3
1.35 2.65 0.47
1.1 2.16 -0.21
1.58 3.11 0.68
1.1 2.15 -0.13
1.1 2.17 -0.04
1.14 2.24 0.67
1.09 2.12 -0.64
1.22 2.38 0.05
1.1 2.14 -0.56
1.25 2.43 0.14
1.1 2.13 -0.47
1.31 2.56 0.25
1.1 2.14 -0.38
1.11 2.16 -0.3
1.38 2.68 0.48
1.11 2.17 -0.21
1.11 2.16 -0.13
1.12 2.18 -0.04
1.15 2.24 0.68
1.1 2.12 -0.64
1.23 2.38 0.05
1.11 2.15 -0.56
1.25 2.41 0.14
1.1 2.12 -0.46
1.29 2.48 0.24
1.11 2.15 -0.38
1.12 2.16 -0.3
1.38 2.68 0.48
