# .PCD v0.7 - Point Cloud Data file format
VERSION 0.7
FIELDS x y z
SIZE 4 4 4
TYPE F F F
COUNT 1 1 1
WIDTH 2765
HEIGHT 1
VIEWPOINT 0 0 0 1 0 0 0
POINTS 2765
DATA ascii
6.97 -1.42 -1.64
8.17 -1.66 -1.62
9.82 -2 -1.59
12.47 -2.54 -1.56
16.74 -3.41 -1.49
25.62 -5.22 -1.37
6.06 -1.26 -1.66
6.96 -1.44 -1.64
8.17 -1.69 -1.62
9.81 -2.03 -1.59
12.46 -2.58 -1.56
16.73 -3.47 -1.49
25.66 -5.32 -1.37
6.06 -1.28 -1.66
6.96 -1.47 -1.64
8.16 -1.72 -1.62
9.81 -2.07 -1.59
12.44 -2.63 -1.56
16.72 -3.53 -1.49
25.59 -5.4 -1.37
6.04 -1.3 -1.66
35.42 -7.61 0.63
6.95 -1.49 -1.64
8.15 -1.75 -1.62
9.81 -2.11 -1.59
12.43 -2.67 -1.56
16.71 -3.59 -1.49
25.64 -5.51 -1.37
6.04 -1.32 -1.66
35.33 -7.72 0.63
6.95 -1.52 -1.64
8.15 -1.78 -1.62
9.8 -2.14 -1.59
12.43 -2.71 -1.56
16.7 -3.65 -1.5
25.55 -5.58 -1.37
6.03 -1.34 -1.66
35.32 -7.84 0.63
6.95 -1.54 -1.64
8.15 -1.81 -1.62
9.79 -2.17 -1.59
12.43 -2.76 -1.56
16.7 -3.71 -1.5
25.58 -5.68 -1.37
6.04 -1.36 -1.66
35.33 -7.98 0.63
6.93 -1.56 -1.64
8.15 -1.84 -1.62
9.79 -2.21 -1.59
12.41 -2.8 -1.56
16.68 -3.77 -1.5
25.51 -5.76 -1.37
6.04 -1.38 -1.66
35.4 -8.12 0.63
6.94 -1.59 -1.64
8.14 -1.87 -1.62
9.78 -2.24 -1.59
12.39 -2.84 -1.56
16.69 -3.83 -1.5
25.1 -5.76 -1.35
6.03 -1.4 -1.66
35.48 -8.27 0.64
6.94 -1.62 -1.64
8.14 -1.9 -1.62
9.77 -2.28 -1.59
12.39 -2.89 -1.56
16.68 -3.89 -1.5
6.01 -1.42 -1.65
6.93 -1.64 -1.65
8.13 -1.93 -1.62
9.77 -2.31 -1.59
12.39 -2.93 -1.56
16.66 -3.94 -1.5
25.06 -5.93 -1.35
6.01 -1.45 -1.66
6.93 -1.67 -1.64
8.14 -1.96 -1.63
9.75 -2.35 -1.59
12.38 -2.98 -1.56
16.65 -4 -1.5
6 -1.47 -1.66
6.91 -1.69 -1.64
8.13 -1.99 -1.63
9.74 -2.38 -1.59
12.36 -3.02 -1.56
16.64 -4.06 -1.5
25.33 -6.18 -1.37
6.01 -1.49 -1.66
6.91 -1.71 -1.64
8.13 -2.01 -1.63
9.75 -2.41 -1.59
12.35 -3.06 -1.56
16.64 -4.12 -1.5
25.23 -6.25 -1.36
6.01 -1.51 -1.66
6.91 -1.74 -1.65
8.1 -2.04 -1.62
9.75 -2.45 -1.59
12.35 -3.1 -1.56
16.63 -4.18 -1.5
25.14 -6.32 -1.36
6 -1.53 -1.66
6.91 -1.76 -1.65
8.11 -2.07 -1.63
9.73 -2.48 -1.59
12.35 -3.15 -1.57
16.61 -4.24 -1.5
25.07 -6.4 -1.36
5.99 -1.55 -1.66
6.9 -1.79 -1.65
8.11 -2.1 -1.63
9.73 -2.52 -1.59
12.34 -3.2 -1.57
16.6 -4.3 -1.5
25.04 -6.49 -1.36
25.04 -6.48 -0.45
5.99 -1.57 -1.66
6.89 -1.81 -1.64
8.11 -2.13 -1.63
9.72 -2.55 -1.59
12.33 -3.24 -1.57
16.59 -4.36 -1.5
24.98 -6.56 -1.35
24.97 -6.56 -0.45
5.99 -1.6 -1.66
6.88 -1.83 -1.64
8.1 -2.16 -1.63
9.7 -2.59 -1.59
12.31 -3.28 -1.56
16.6 -4.42 -1.5
24.91 -6.64 -1.35
5.98 -1.62 -1.66
6.89 -1.86 -1.65
8.08 -2.18 -1.63
9.7 -2.62 -1.59
12.31 -3.33 -1.57
16.59 -4.48 -1.5
24.86 -6.72 -1.35
24.89 -6.73 -0.45
5.97 -1.64 -1.66
6.88 -1.89 -1.65
8.08 -2.21 -1.63
9.68 -2.65 -1.59
12.31 -3.37 -1.57
16.57 -4.54 -1.5
24.78 -6.79 -1.35
24.85 -6.81 -0.45
5.97 -1.66 -1.66
6.88 -1.91 -1.65
8.07 -2.24 -1.63
79.96 -22.21 7.26
9.67 -2.69 -1.59
12.3 -3.42 -1.57
16.56 -4.6 -1.5
24.72 -6.86 -1.34
24.83 -6.89 -0.45
5.97 -1.68 -1.66
6.87 -1.93 -1.65
79.96 -22.51 4.35
8.08 -2.27 -1.63
79.98 -22.51 7.27
9.66 -2.72 -1.59
12.3 -3.46 -1.57
16.55 -4.66 -1.5
24.67 -6.94 -1.34
24.8 -6.98 -0.45
5.96 -1.7 -1.66
6.86 -1.96 -1.65
8.06 -2.3 -1.63
79.98 -22.81 7.28
9.65 -2.75 -1.59
12.28 -3.5 -1.57
16.54 -4.72 -1.51
24.65 -7.03 -1.34
24.78 -7.07 -0.45
5.96 -1.72 -1.66
6.86 -1.98 -1.65
79.99 -23.12 4.36
8.05 -2.33 -1.63
80.02 -23.13 7.29
9.65 -2.79 -1.59
12.27 -3.55 -1.57
16.54 -4.78 -1.51
24.55 -7.09 -1.34
24.75 -7.15 -0.45
5.95 -1.74 -1.66
6.86 -2.01 -1.65
8.04 -2.35 -1.63
9.64 -2.82 -1.59
12.27 -3.59 -1.57
16.52 -4.84 -1.51
24.57 -7.19 -1.34
24.72 -7.24 -0.45
5.94 -1.76 -1.66
60.45 -17.93 1.1
6.86 -2.03 -1.65
60.32 -17.89 3.3
8.04 -2.38 -1.63
60.09 -17.82 5.48
9.62 -2.85 -1.59
12.27 -3.64 -1.57
16.51 -4.9 -1.51
24.5 -7.27 -1.34
24.71 -7.33 -0.45
5.94 -1.78 -1.66
60.28 -18.11 1.1
6.84 -2.06 -1.65
60.28 -18.11 3.3
8.03 -2.41 -1.63
9.62 -2.89 -1.59
12.25 -3.68 -1.57
16.5 -4.96 -1.51
24.35 -7.32 -1.33
24.7 -7.42 -0.45
5.94 -1.81 -1.66
59.99 -18.25 1.09
6.84 -2.08 -1.65
59.81 -18.19 3.28
8.03 -2.44 -1.63
9.61 -2.92 -1.59
12.24 -3.72 -1.57
16.48 -5.01 -1.51
24.31 -7.4 -1.33
24.67 -7.51 -0.45
5.93 -1.83 -1.66
59.42 -18.3 1.09
6.84 -2.11 -1.65
59.27 -18.26 3.25
8.02 -2.47 -1.63
58.1 -17.9 5.32
9.61 -2.96 -1.59
12.23 -3.77 -1.57
16.47 -5.07 -1.51
24.23 -7.46 -1.33
24.65 -7.59 -0.45
5.92 -1.85 -1.66
58.82 -18.34 1.08
6.83 -2.13 -1.65
58.73 -18.31 3.22
8 -2.5 -1.63
57.56 -17.95 5.28
9.6 -2.99 -1.59
12.22 -3.81 -1.57
16.42 -5.12 -1.51
24.2 -7.55 -1.33
24.63 -7.68 -0.45
5.91 -1.86 -1.66
33.13 -10.45 0.61
6.82 -2.15 -1.65
58.72 -18.51 3.23
8 -2.52 -1.63
57.38 -18.09 5.26
9.59 -3.02 -1.59
12.22 -3.85 -1.57
16.42 -5.18 -1.51
24.13 -7.61 -1.33
24.63 -7.76 -0.45
5.91 -1.89 -1.66
33.08 -10.56 0.61
6.81 -2.17 -1.65
8 -2.55 -1.63
9.58 -3.06 -1.59
12.21 -3.9 -1.57
16.4 -5.24 -1.51
24.08 -7.69 -1.32
24.61 -7.86 -0.45
5.91 -1.91 -1.66
33.15 -10.71 0.61
6.8 -2.2 -1.65
7.99 -2.58 -1.63
55.86 -18.05 5.14
9.59 -3.1 -1.6
12.19 -3.94 -1.57
16.39 -5.3 -1.51
24.03 -7.77 -1.32
24.59 -7.95 -0.45
5.91 -1.93 -1.67
56.75 -18.57 1.04
6.8 -2.22 -1.65
56.72 -18.56 3.13
7.96 -2.61 -1.63
55.37 -18.11 5.1
9.58 -3.13 -1.6
12.18 -3.98 -1.57
16.36 -5.35 -1.51
24.03 -7.86 -1.32
24.57 -8.04 -0.45
5.9 -1.95 -1.66
6.8 -2.25 -1.65
56.66 -18.76 3.13
7.96 -2.64 -1.63
54.8 -18.15 5.05
9.57 -3.17 -1.6
12.17 -4.03 -1.57
16.35 -5.41 -1.51
23.94 -7.93 -1.32
24.56 -8.13 -0.45
5.89 -1.97 -1.66
6.79 -2.27 -1.65
7.95 -2.66 -1.63
54.66 -18.31 5.04
9.55 -3.2 -1.6
12.16 -4.07 -1.57
16.32 -5.47 -1.51
23.85 -7.99 -1.32
24.55 -8.23 -0.45
5.89 -2 -1.67
6.77 -2.29 -1.65
7.95 -2.69 -1.63
9.55 -3.24 -1.6
53.5 -18.13 6.94
12.16 -4.12 -1.58
16.31 -5.53 -1.51
23.82 -8.07 -1.32
24.54 -8.32 -0.45
5.89 -2.02 -1.67
54.7 -18.75 1.01
6.77 -2.32 -1.65
54.63 -18.73 3.03
7.94 -2.72 -1.63
9.54 -3.27 -1.6
52.99 -18.17 6.88
12.12 -4.16 -1.57
16.31 -5.59 -1.51
23.79 -8.16 -1.32
24.52 -8.41 -0.45
5.88 -2.04 -1.67
6.76 -2.34 -1.65
54.6 -18.93 3.03
7.92 -2.75 -1.63
52.78 -18.3 4.89
9.53 -3.31 -1.6
52.51 -18.2 6.82
12.11 -4.2 -1.57
16.29 -5.65 -1.51
23.73 -8.23 -1.32
24.49 -8.49 -0.45
5.86 -2.06 -1.67
6.75 -2.37 -1.65
7.91 -2.77 -1.63
52.25 -18.32 4.84
9.52 -3.34 -1.6
52.05 -18.25 6.77
12.1 -4.24 -1.57
16.28 -5.71 -1.51
23.64 -8.29 -1.31
24.48 -8.58 -0.45
5.86 -2.08 -1.67
6.75 -2.39 -1.65
7.91 -2.8 -1.63
52 -18.42 4.83
9.5 -3.37 -1.6
51.56 -18.27 6.72
12.09 -4.28 -1.58
16.26 -5.76 -1.51
23.58 -8.35 -1.31
24.48 -8.67 -0.45
5.86 -2.1 -1.67
52.64 -18.86 0.98
6.73 -2.41 -1.65
52.56 -18.83 2.93
7.9 -2.83 -1.63
9.48 -3.4 -1.6
51.06 -18.3 6.66
12.08 -4.33 -1.58
16.25 -5.82 -1.51
23.47 -8.41 -1.31
5.85 -2.12 -1.67
6.72 -2.43 -1.65
52.56 -19.03 2.93
7.89 -2.86 -1.63
9.48 -3.43 -1.6
50.62 -18.32 6.61
12.06 -4.36 -1.57
16.25 -5.88 -1.51
23.33 -8.45 -1.3
5.85 -2.14 -1.67
6.73 -2.46 -1.65
7.87 -2.88 -1.63
50.36 -18.44 4.69
9.48 -3.47 -1.6
50.17 -18.36 6.56
12.04 -4.41 -1.57
16.21 -5.94 -1.51
23.3 -8.53 -1.3
35.96 -13.16 -0.67
5.83 -2.16 -1.67
6.71 -2.49 -1.65
7.86 -2.91 -1.63
49.92 -18.48 4.66
9.46 -3.5 -1.6
49.72 -18.4 6.51
12.03 -4.45 -1.58
16.19 -5.99 -1.51
23.24 -8.6 -1.3
35.87 -13.28 -0.67
5.83 -2.18 -1.67
50.72 -18.98 0.95
6.7 -2.51 -1.65
50.67 -18.96 2.84
7.86 -2.94 -1.63
49.45 -18.5 4.62
9.45 -3.54 -1.6
49.28 -18.44 6.46
12.03 -4.5 -1.58
16.17 -6.05 -1.51
23.23 -8.69 -1.3
35.81 -13.4 -0.67
5.82 -2.2 -1.67
6.68 -2.53 -1.65
50.51 -19.1 2.83
7.85 -2.97 -1.63
49.34 -18.65 4.61
9.44 -3.57 -1.6
48.81 -18.45 6.41
12.02 -4.54 -1.58
16.16 -6.11 -1.51
23.11 -8.74 -1.29
35.84 -13.55 -0.67
5.82 -2.22 -1.67
6.68 -2.55 -1.65
50.55 -19.32 2.84
7.84 -3 -1.63
9.43 -3.6 -1.6
48.38 -18.49 6.36
12.01 -4.59 -1.58
16.14 -6.17 -1.51
23.08 -8.82 -1.3
35.82 -13.69 -0.67
5.81 -2.24 -1.67
6.68 -2.58 -1.65
7.83 -3.02 -1.63
48.17 -18.6 4.52
9.42 -3.64 -1.6
47.97 -18.52 6.31
11.98 -4.63 -1.58
16.11 -6.22 -1.51
23.09 -8.91 -1.3
35.88 -13.85 -0.67
5.79 -2.26 -1.67
6.67 -2.6 -1.65
48.69 -19 2.74
7.82 -3.05 -1.63
47.74 -18.63 4.48
9.4 -3.67 -1.6
47.57 -18.56 6.27
11.97 -4.67 -1.58
16.1 -6.28 -1.51
22.97 -8.96 -1.29
35.94 -14.02 -0.67
5.79 -2.28 -1.67
48.45 -19.1 0.91
6.66 -2.62 -1.65
48.43 -19.09 2.73
7.81 -3.08 -1.63
47.35 -18.66 4.45
9.39 -3.7 -1.6
47.13 -18.58 6.22
11.97 -4.72 -1.58
16.08 -6.34 -1.51
22.96 -9.05 -1.29
5.78 -2.3 -1.67
48.41 -19.28 0.91
6.64 -2.64 -1.65
7.8 -3.11 -1.63
46.93 -18.69 4.42
9.37 -3.73 -1.6
46.73 -18.61 6.18
11.96 -4.76 -1.58
16.05 -6.39 -1.51
22.9 -9.12 -1.29
5.78 -2.33 -1.67
6.63 -2.67 -1.65
7.79 -3.13 -1.63
46.52 -18.71 4.39
9.37 -3.77 -1.6
46.35 -18.64 6.13
11.94 -4.8 -1.58
16.05 -6.45 -1.51
22.87 -9.2 -1.29
5.77 -2.35 -1.67
6.63 -2.7 -1.65
7.77 -3.16 -1.63
46.15 -18.75 4.36
9.36 -3.8 -1.6
46.07 -18.72 6.11
11.91 -4.84 -1.58
16.02 -6.51 -1.51
22.75 -9.24 -1.29
5.75 -2.36 -1.67
46.65 -19.14 0.88
6.63 -2.72 -1.65
46.61 -19.12 2.64
7.76 -3.19 -1.63
45.74 -18.77 4.33
9.35 -3.84 -1.6
45.62 -18.72 6.05
11.89 -4.88 -1.58
15.98 -6.56 -1.51
22.71 -9.32 -1.29
5.75 -2.38 -1.67
46.27 -19.18 0.87
6.62 -2.74 -1.65
46.23 -19.16 2.62
7.76 -3.22 -1.63
45.37 -18.8 4.3
9.33 -3.87 -1.6
45.22 -18.74 6.01
11.91 -4.94 -1.58
15.97 -6.62 -1.51
22.68 -9.4 -1.29
5.74 -2.4 -1.67
45.88 -19.2 0.87
6.6 -2.76 -1.65
45.83 -19.18 2.6
7.75 -3.24 -1.63
45 -18.83 4.27
9.32 -3.9 -1.6
44.82 -18.76 5.97
11.9 -4.98 -1.58
15.95 -6.68 -1.51
22.65 -9.48 -1.29
5.74 -2.43 -1.67
45.52 -19.24 0.86
6.58 -2.78 -1.65
45.42 -19.2 2.58
7.74 -3.27 -1.63
44.63 -18.86 4.24
9.31 -3.94 -1.6
44.44 -18.78 5.92
11.87 -5.02 -1.58
15.91 -6.72 -1.51
5.73 -2.44 -1.67
45.14 -19.26 0.86
6.58 -2.81 -1.65
45.04 -19.22 2.57
7.72 -3.29 -1.63
44.26 -18.89 4.21
9.3 -3.97 -1.6
44.09 -18.81 5.89
11.86 -5.06 -1.58
15.9 -6.78 -1.51
5.71 -2.46 -1.67
44.73 -19.28 0.85
6.58 -2.83 -1.65
44.63 -19.23 2.55
7.71 -3.32 -1.63
43.85 -18.89 4.18
9.29 -4 -1.6
43.88 -18.91 5.87
11.85 -5.11 -1.58
15.87 -6.84 -1.51
5.7 -2.48 -1.67
44.47 -19.33 0.85
6.57 -2.86 -1.65
44.43 -19.31 2.54
7.7 -3.35 -1.63
43.52 -18.91 4.15
9.27 -4.03 -1.6
43.81 -19.04 5.87
11.84 -5.15 -1.59
15.85 -6.89 -1.51
5.7 -2.5 -1.67
44.24 -19.41 0.84
6.55 -2.87 -1.65
44.16 -19.38 2.53
7.69 -3.38 -1.63
43.17 -18.94 4.12
9.26 -4.06 -1.6
11.82 -5.19 -1.59
15.84 -6.95 -1.51
5.69 -2.52 -1.67
6.55 -2.9 -1.65
7.68 -3.41 -1.63
42.84 -18.99 4.1
9.25 -4.1 -1.6
11.8 -5.23 -1.58
15.82 -7.01 -1.51
5.68 -2.54 -1.67
6.54 -2.93 -1.65
7.66 -3.43 -1.63
42.47 -19 4.07
9.24 -4.13 -1.6
42.29 -18.92 5.69
11.78 -5.27 -1.58
15.81 -7.07 -1.52
5.67 -2.56 -1.67
6.53 -2.95 -1.65
7.65 -3.45 -1.63
42.12 -19.02 4.04
9.23 -4.17 -1.6
41.98 -18.95 5.66
11.77 -5.32 -1.59
15.78 -7.12 -1.51
5.66 -2.58 -1.67
6.52 -2.97 -1.65
7.63 -3.48 -1.63
41.8 -19.05 4.02
9.21 -4.19 -1.6
41.71 -19.01 5.63
11.76 -5.36 -1.59
15.76 -7.18 -1.52
5.65 -2.6 -1.67
42.48 -19.54 0.82
6.5 -2.99 -1.65
42.42 -19.51 2.45
7.62 -3.51 -1.63
41.75 -19.2 4.02
9.19 -4.23 -1.6
41.69 -19.17 5.63
11.74 -5.4 -1.59
15.71 -7.22 -1.51
5.65 -2.62 -1.67
42.14 -19.56 0.81
6.49 -3.01 -1.65
42.08 -19.53 2.43
7.61 -3.53 -1.63
9.18 -4.26 -1.6
41.7 -19.36 5.64
11.72 -5.44 -1.59
15.68 -7.28 -1.51
5.64 -2.64 -1.67
29.73 -13.93 0.57
6.48 -3.04 -1.65
29.72 -13.92 1.72
7.59 -3.56 -1.63
29.65 -13.89 2.86
9.17 -4.29 -1.6
41.72 -19.54 5.66
11.7 -5.48 -1.59
15.64 -7.33 -1.51
29.75 -13.94 -0.57
5.62 -2.66 -1.67
6.47 -3.06 -1.65
7.59 -3.59 -1.63
9.15 -4.32 -1.6
29.33 -13.86 3.98
11.69 -5.53 -1.59
15.61 -7.38 -1.51
5.61 -2.68 -1.67
41.96 -20.01 0.81
6.46 -3.08 -1.65
7.58 -3.61 -1.63
41.64 -19.86 4.04
9.13 -4.35 -1.6
41.75 -19.91 5.68
11.67 -5.57 -1.59
15.59 -7.43 -1.51
5.61 -2.7 -1.67
6.45 -3.1 -1.65
29.58 -14.23 1.72
7.57 -3.64 -1.63
41.76 -20.1 4.05
9.11 -4.39 -1.6
41.73 -20.09 5.69
11.66 -5.61 -1.59
15.58 -7.5 -1.51
5.6 -2.72 -1.67
6.44 -3.12 -1.65
7.56 -3.67 -1.63
41.81 -20.3 4.07
9.1 -4.42 -1.6
42.01 -20.4 5.73
11.64 -5.65 -1.59
15.57 -7.56 -1.51
5.59 -2.74 -1.67
6.42 -3.15 -1.65
7.54 -3.69 -1.63
41.82 -20.49 4.07
9.09 -4.45 -1.6
42.35 -20.75 5.79
11.62 -5.69 -1.59
15.55 -7.62 -1.51
5.57 -2.75 -1.66
6.42 -3.17 -1.65
42.09 -20.79 2.46
7.53 -3.72 -1.63
41.84 -20.67 4.08
9.08 -4.49 -1.6
42.35 -20.92 5.8
11.61 -5.74 -1.59
15.52 -7.67 -1.51
5.56 -2.77 -1.67
6.41 -3.19 -1.65
42.03 -20.95 2.46
7.52 -3.75 -1.63
41.84 -20.85 4.09
9.06 -4.51 -1.6
42.39 -21.12 5.82
11.61 -5.78 -1.59
41.78 -20.82 7.39
15.5 -7.73 -1.52
21.62 -10.77 -1.27
5.55 -2.79 -1.67
6.38 -3.21 -1.65
42.02 -21.13 2.46
7.51 -3.78 -1.63
41.86 -21.04 4.1
9.05 -4.55 -1.6
42.31 -21.27 5.82
11.58 -5.82 -1.59
41.8 -21.01 7.41
15.48 -7.78 -1.52
5.54 -2.81 -1.67
6.38 -3.23 -1.65
42.06 -21.33 2.47
7.5 -3.8 -1.63
41.88 -21.24 4.11
9.03 -4.58 -1.6
42.42 -21.51 5.84
11.56 -5.86 -1.59
41.8 -21.2 7.42
15.45 -7.84 -1.52
21.54 -10.92 -1.27
5.54 -2.84 -1.67
42.54 -21.76 0.83
6.37 -3.26 -1.65
42.05 -21.51 2.48
7.47 -3.82 -1.63
41.88 -21.42 4.12
9.02 -4.61 -1.6
42.12 -21.54 5.81
11.54 -5.9 -1.59
41.82 -21.39 7.44
15.43 -7.89 -1.52
21.5 -11 -1.27
5.52 -2.85 -1.67
6.36 -3.28 -1.65
42.08 -21.71 2.48
7.46 -3.85 -1.63
41.89 -21.61 4.12
9.01 -4.65 -1.61
41.97 -21.65 5.8
11.53 -5.95 -1.59
41.83 -21.58 7.45
15.4 -7.95 -1.52
21.44 -11.06 -1.26
5.52 -2.87 -1.67
42.08 -21.9 0.83
6.34 -3.3 -1.65
42.06 -21.88 2.48
7.47 -3.89 -1.64
41.89 -21.8 4.13
8.98 -4.67 -1.6
41.86 -21.78 5.79
11.51 -5.99 -1.59
41.84 -21.77 7.47
15.38 -8 -1.52
21.34 -11.11 -1.26
5.5 -2.89 -1.66
41.85 -21.96 0.83
6.32 -3.32 -1.65
41.98 -22.03 2.48
7.46 -3.92 -1.64
41.91 -21.99 4.14
8.97 -4.71 -1.6
41.86 -21.97 5.8
11.51 -6.04 -1.6
41.87 -21.97 7.49
15.38 -8.07 -1.52
21.25 -11.15 -1.26
5.49 -2.91 -1.67
41.88 -22.16 0.83
6.31 -3.34 -1.65
41.97 -22.21 2.49
7.45 -3.94 -1.64
41.94 -22.19 4.15
8.96 -4.74 -1.61
41.88 -22.17 5.82
11.47 -6.07 -1.59
26.15 -13.84 4.69
15.34 -8.12 -1.52
21.18 -11.21 -1.26
5.48 -2.93 -1.67
41.87 -22.35 0.83
6.3 -3.36 -1.65
7.43 -3.96 -1.64
41.95 -22.39 4.16
8.95 -4.78 -1.61
41.88 -22.35 5.83
11.46 -6.11 -1.59
26.04 -13.9 4.68
15.33 -8.18 -1.52
21.13 -11.28 -1.26
5.47 -2.94 -1.67
6.3 -3.39 -1.65
7.42 -3.99 -1.64
41.95 -22.57 4.17
8.94 -4.81 -1.61
41.91 -22.55 5.84
11.44 -6.15 -1.6
15.29 -8.23 -1.52
21.09 -11.35 -1.26
5.46 -2.96 -1.66
6.29 -3.41 -1.65
7.4 -4.01 -1.64
41.97 -22.77 4.18
8.91 -4.83 -1.61
41.92 -22.74 5.86
11.42 -6.2 -1.6
41.91 -22.74 7.55
15.27 -8.29 -1.52
21.13 -11.46 -1.26
5.45 -2.98 -1.66
6.27 -3.43 -1.65
7.39 -4.05 -1.64
41.97 -22.97 4.19
8.9 -4.87 -1.61
41.93 -22.94 5.87
11.4 -6.24 -1.6
41.92 -22.94 7.57
15.24 -8.34 -1.52
21.05 -11.52 -1.26
5.44 -3 -1.67
40.97 -22.61 0.82
6.25 -3.45 -1.65
7.38 -4.07 -1.64
41.99 -23.17 4.2
8.89 -4.9 -1.61
41.94 -23.14 5.88
11.37 -6.28 -1.6
41.93 -23.14 7.58
15.24 -8.41 -1.52
21.01 -11.59 -1.26
5.44 -3.02 -1.67
40.81 -22.71 0.82
6.25 -3.48 -1.65
42.77 -23.8 2.57
7.35 -4.09 -1.64
42.01 -23.37 4.21
8.87 -4.94 -1.61
41.96 -23.35 5.9
11.37 -6.32 -1.6
41.94 -23.33 7.6
15.21 -8.46 -1.52
20.97 -11.67 -1.26
5.42 -3.04 -1.66
40.37 -22.65 0.81
6.24 -3.5 -1.65
42.69 -23.95 2.57
7.34 -4.12 -1.64
42 -23.56 4.21
8.85 -4.97 -1.61
41.99 -23.55 5.91
11.34 -6.36 -1.6
41.96 -23.54 7.62
15.19 -8.52 -1.52
20.93 -11.74 -1.26
5.41 -3.06 -1.66
40.48 -22.89 0.81
6.22 -3.52 -1.65
7.33 -4.14 -1.64
42.04 -23.78 4.23
8.84 -5 -1.61
41.98 -23.74 5.92
11.33 -6.41 -1.6
24.76 -14 4.51
15.17 -8.58 -1.52
20.85 -11.79 -1.26
5.4 -3.08 -1.67
40.21 -22.93 0.81
6.21 -3.54 -1.65
42.17 -24.05 2.54
7.33 -4.18 -1.64
42.01 -23.95 4.23
8.82 -5.03 -1.61
11.31 -6.45 -1.6
24.73 -14.1 4.51
15.15 -8.64 -1.53
20.81 -11.86 -1.26
5.38 -3.1 -1.66
6.19 -3.56 -1.65
41.85 -24.06 2.53
7.31 -4.2 -1.64
41.74 -23.99 4.21
8.81 -5.06 -1.61
11.28 -6.49 -1.6
24.65 -14.17 4.5
15.14 -8.7 -1.53
20.77 -11.94 -1.26
5.38 -3.12 -1.67
6.18 -3.58 -1.65
41.56 -24.08 2.52
7.28 -4.22 -1.64
41.45 -24.02 4.19
8.8 -5.1 -1.61
11.26 -6.52 -1.6
15.09 -8.75 -1.53
20.73 -12.01 -1.26
5.36 -3.13 -1.66
41.37 -24.17 0.84
6.17 -3.61 -1.65
41.29 -24.12 2.51
7.27 -4.25 -1.64
41.16 -24.04 4.17
8.78 -5.13 -1.61
11.24 -6.57 -1.6
15.07 -8.8 -1.53
20.68 -12.08 -1.26
5.35 -3.15 -1.66
41.04 -24.17 0.83
6.16 -3.63 -1.65
40.97 -24.13 2.49
7.26 -4.27 -1.64
41.11 -24.2 4.17
8.76 -5.16 -1.61
11.23 -6.61 -1.6
42.04 -24.75 7.73
15.03 -8.85 -1.53
20.64 -12.15 -1.26
5.34 -3.17 -1.66
40.78 -24.19 0.83
6.14 -3.64 -1.65
40.68 -24.14 2.48
7.25 -4.3 -1.64
8.75 -5.19 -1.61
11.2 -6.65 -1.6
42.06 -24.95 7.75
15.02 -8.91 -1.53
20.6 -12.22 -1.26
5.34 -3.19 -1.67
40.47 -24.2 0.82
6.13 -3.67 -1.65
40.37 -24.14 2.46
7.23 -4.32 -1.64
8.74 -5.22 -1.61
40.11 -23.99 5.74
11.18 -6.68 -1.6
42.08 -25.16 7.77
14.99 -8.96 -1.53
20.56 -12.29 -1.26
5.32 -3.21 -1.66
40.15 -24.2 0.82
6.12 -3.69 -1.65
40.1 -24.17 2.45
7.21 -4.34 -1.64
8.72 -5.26 -1.61
39.86 -24.02 5.71
11.16 -6.73 -1.6
42.09 -25.37 7.78
14.98 -9.03 -1.53
20.51 -12.37 -1.26
5.3 -3.22 -1.66
39.89 -24.23 0.81
6.12 -3.72 -1.65
39.84 -24.2 2.44
7.2 -4.38 -1.64
39.72 -24.13 4.07
8.71 -5.29 -1.61
39.58 -24.05 5.69
11.15 -6.77 -1.6
42.1 -25.58 7.8
14.93 -9.07 -1.53
20.47 -12.44 -1.26
5.3 -3.24 -1.66
39.61 -24.26 0.81
6.1 -3.74 -1.65
39.57 -24.23 2.43
7.18 -4.4 -1.64
39.46 -24.16 4.05
8.68 -5.32 -1.61
39.32 -24.08 5.66
11.13 -6.81 -1.6
42.13 -25.8 7.82
14.9 -9.12 -1.53
20.43 -12.51 -1.26
5.29 -3.26 -1.66
39.35 -24.28 0.81
6.08 -3.75 -1.65
39.29 -24.25 2.42
7.17 -4.42 -1.64
39.17 -24.17 4.03
8.67 -5.35 -1.61
39.03 -24.09 5.63
11.11 -6.85 -1.6
42.13 -26 7.84
14.88 -9.18 -1.53
20.34 -12.55 -1.25
5.28 -3.28 -1.67
39.08 -24.31 0.8
6.07 -3.78 -1.65
39.01 -24.26 2.41
7.16 -4.45 -1.64
38.88 -24.18 4.01
8.65 -5.38 -1.61
38.78 -24.12 5.61
11.08 -6.89 -1.6
42.14 -26.21 7.86
14.85 -9.23 -1.53
20.34 -12.65 -1.26
5.26 -3.3 -1.66
38.81 -24.32 0.8
6.06 -3.8 -1.65
38.74 -24.28 2.4
7.13 -4.47 -1.64
38.63 -24.21 3.99
8.64 -5.42 -1.62
38.51 -24.14 5.58
11.05 -6.93 -1.6
42.17 -26.43 7.88
14.83 -9.29 -1.53
20.23 -12.68 -1.25
5.24 -3.31 -1.66
38.54 -24.35 0.8
6.05 -3.82 -1.65
38.46 -24.3 2.38
7.12 -4.49 -1.64
38.35 -24.22 3.97
8.62 -5.45 -1.62
38.25 -24.16 5.55
11.03 -6.97 -1.6
42.16 -26.63 7.9
14.78 -9.34 -1.53
20.21 -12.76 -1.25
5.23 -3.33 -1.66
38.26 -24.35 0.79
6.04 -3.85 -1.65
38.21 -24.32 2.37
7.1 -4.52 -1.64
38.09 -24.25 3.95
8.6 -5.47 -1.61
37.99 -24.19 5.53
11.01 -7.01 -1.6
42.18 -26.85 7.92
14.74 -9.38 -1.53
20.11 -12.8 -1.25
5.23 -3.35 -1.66
37.99 -24.37 0.79
6.02 -3.86 -1.65
37.94 -24.34 2.36
7.08 -4.54 -1.64
37.84 -24.28 3.93
8.59 -5.51 -1.62
37.71 -24.19 5.5
10.99 -7.05 -1.6
42.26 -27.11 7.95
14.72 -9.45 -1.53
20.06 -12.87 -1.25
5.22 -3.37 -1.67
37.73 -24.39 0.78
6.01 -3.88 -1.65
37.67 -24.35 2.35
7.08 -4.57 -1.64
37.59 -24.3 3.92
8.57 -5.54 -1.62
37.46 -24.22 5.48
10.96 -7.08 -1.6
14.69 -9.5 -1.53
20.01 -12.93 -1.25
5.2 -3.39 -1.66
37.47 -24.41 0.78
6 -3.91 -1.65
37.4 -24.37 2.34
7.05 -4.59 -1.64
37.32 -24.31 3.9
8.55 -5.57 -1.62
37.21 -24.24 5.45
10.93 -7.12 -1.6
14.65 -9.54 -1.53
19.97 -13.01 -1.25
5.19 -3.4 -1.66
37.21 -24.42 0.78
5.98 -3.93 -1.65
37.16 -24.39 2.33
7.04 -4.62 -1.64
37.07 -24.33 3.88
8.54 -5.6 -1.62
36.95 -24.25 5.43
10.91 -7.16 -1.6
14.61 -9.59 -1.53
19.91 -13.07 -1.25
5.18 -3.42 -1.66
36.94 -24.43 0.77
5.98 -3.95 -1.65
36.91 -24.41 2.32
7.02 -4.65 -1.64
36.82 -24.35 3.86
8.51 -5.63 -1.62
36.68 -24.26 5.4
10.89 -7.2 -1.6
14.58 -9.65 -1.53
19.88 -13.15 -1.25
5.17 -3.44 -1.66
36.7 -24.46 0.77
5.95 -3.97 -1.65
36.65 -24.43 2.31
7.01 -4.67 -1.64
36.56 -24.36 3.84
8.49 -5.66 -1.62
36.44 -24.28 5.38
10.87 -7.24 -1.6
14.57 -9.71 -1.53
19.79 -13.19 -1.25
5.16 -3.46 -1.66
36.51 -24.51 0.77
5.95 -3.99 -1.65
36.41 -24.45 2.3
6.99 -4.69 -1.64
36.32 -24.39 3.83
8.47 -5.69 -1.62
36.19 -24.3 5.35
10.83 -7.27 -1.6
14.53 -9.76 -1.53
19.76 -13.27 -1.25
22.55 -15.14 -0.47
5.15 -3.48 -1.66
36.27 -24.54 0.76
5.93 -4.01 -1.65
36.15 -24.45 2.29
6.97 -4.72 -1.64
36.07 -24.41 3.81
8.46 -5.72 -1.62
35.95 -24.32 5.33
10.82 -7.32 -1.6
14.51 -9.82 -1.53
19.72 -13.34 -1.25
22.58 -15.27 -0.48
5.13 -3.5 -1.66
36.05 -24.57 0.76
5.91 -4.03 -1.65
35.9 -24.47 2.28
6.95 -4.74 -1.64
35.82 -24.41 3.79
8.44 -5.75 -1.62
35.71 -24.34 5.31
10.79 -7.36 -1.6
14.45 -9.85 -1.53
19.69 -13.42 -1.25
22.52 -15.35 -0.48
5.11 -3.51 -1.66
35.82 -24.6 0.76
5.91 -4.06 -1.65
35.66 -24.49 2.27
6.94 -4.77 -1.64
35.57 -24.43 3.77
8.42 -5.78 -1.62
35.47 -24.36 5.28
10.77 -7.4 -1.6
14.42 -9.9 -1.53
19.62 -13.47 -1.25
5.11 -3.54 -1.67
35.55 -24.6 0.75
5.88 -4.07 -1.65
35.42 -24.51 2.26
6.93 -4.8 -1.64
35.34 -24.45 3.76
8.39 -5.81 -1.62
35.22 -24.37 5.26
10.75 -7.44 -1.6
14.37 -9.94 -1.53
19.54 -13.52 -1.25
5.1 -3.55 -1.66
35.32 -24.62 0.75
5.87 -4.09 -1.65
35.17 -24.52 2.25
6.92 -4.82 -1.64
35.09 -24.46 3.74
8.37 -5.84 -1.62
34.99 -24.39 5.24
10.71 -7.47 -1.6
14.35 -10 -1.53
19.5 -13.6 -1.25
5.08 -3.57 -1.66
35.1 -24.65 0.75
5.85 -4.11 -1.65
34.94 -24.54 2.24
6.89 -4.84 -1.64
34.87 -24.49 3.73
8.36 -5.87 -1.62
34.77 -24.42 5.22
10.69 -7.51 -1.6
14.32 -10.06 -1.53
19.45 -13.66 -1.25
5.07 -3.58 -1.66
34.77 -24.6 0.74
5.85 -4.14 -1.65
34.73 -24.57 2.23
6.87 -4.86 -1.64
34.61 -24.49 3.71
8.34 -5.9 -1.62
34.54 -24.43 5.19
10.67 -7.55 -1.61
14.28 -10.1 -1.53
19.37 -13.71 -1.24
5.06 -3.6 -1.66
34.54 -24.62 0.74
5.84 -4.16 -1.65
34.5 -24.59 2.22
6.86 -4.89 -1.64
34.41 -24.53 3.7
8.31 -5.93 -1.62
34.31 -24.45 5.17
10.65 -7.59 -1.61
14.24 -10.15 -1.53
19.32 -13.77 -1.24
5.05 -3.63 -1.67
34.36 -24.67 0.74
5.81 -4.17 -1.65
34.26 -24.6 2.21
6.85 -4.92 -1.64
34.19 -24.55 3.68
8.29 -5.95 -1.62
34.06 -24.46 5.15
10.64 -7.64 -1.61
39.62 -28.45 7.73
14.21 -10.2 -1.53
19.28 -13.85 -1.24
5.04 -3.64 -1.67
33.16 -23.99 0.71
5.79 -4.19 -1.65
34.04 -24.63 2.2
6.83 -4.94 -1.64
33.96 -24.57 3.67
8.27 -5.99 -1.62
33.84 -24.48 5.13
10.62 -7.68 -1.61
39.34 -28.46 7.69
14.17 -10.25 -1.53
19.23 -13.91 -1.24
5.02 -3.66 -1.67
33.86 -24.67 0.73
5.79 -4.22 -1.65
33.81 -24.64 2.19
6.81 -4.96 -1.64
33.74 -24.58 3.65
8.26 -6.02 -1.62
33.62 -24.5 5.11
10.57 -7.7 -1.61
39.29 -28.63 7.7
14.13 -10.3 -1.53
19.2 -13.99 -1.24
5.01 -3.67 -1.66
33.64 -24.68 0.73
5.77 -4.23 -1.65
33.6 -24.64 2.18
6.79 -4.98 -1.64
33.52 -24.58 3.64
8.23 -6.04 -1.62
33.42 -24.51 5.09
10.54 -7.73 -1.61
39.02 -28.62 7.66
14.09 -10.34 -1.53
19.15 -14.05 -1.24
5 -3.69 -1.67
33.41 -24.69 0.73
5.76 -4.26 -1.65
33.37 -24.66 2.17
6.78 -5.01 -1.64
33.3 -24.6 3.62
8.21 -6.07 -1.62
10.52 -7.77 -1.61
38.71 -28.6 7.62
14.05 -10.38 -1.53
19.1 -14.12 -1.24
4.99 -3.71 -1.67
33.07 -24.62 0.72
5.74 -4.28 -1.65
33.13 -24.67 2.16
6.76 -5.04 -1.64
33.06 -24.61 3.61
8.19 -6.09 -1.62
32.95 -24.54 5.04
10.48 -7.81 -1.6
38.43 -28.62 7.59
14.02 -10.44 -1.53
19.03 -14.17 -1.24
4.97 -3.73 -1.67
32.66 -24.5 0.71
5.72 -4.29 -1.65
32.91 -24.69 2.16
6.75 -5.06 -1.64
32.83 -24.63 3.59
8.17 -6.13 -1.62
32.74 -24.56 5.02
10.45 -7.84 -1.6
38.17 -28.63 7.56
13.98 -10.49 -1.53
18.99 -14.25 -1.24
4.96 -3.75 -1.67
32.39 -24.48 0.71
5.71 -4.31 -1.65
32.7 -24.71 2.15
6.72 -5.08 -1.64
32.67 -24.69 3.58
8.15 -6.16 -1.62
32.62 -24.65 5.02
10.42 -7.88 -1.6
37.7 -28.49 7.48
13.95 -10.54 -1.53
18.93 -14.31 -1.24
4.94 -3.76 -1.66
32.16 -24.49 0.71
5.7 -4.34 -1.65
32.64 -24.85 2.15
6.7 -5.1 -1.64
32.64 -24.85 3.59
8.13 -6.19 -1.62
32.62 -24.83 5.03
10.4 -7.92 -1.61
37.28 -28.38 7.42
13.9 -10.58 -1.53
18.88 -14.37 -1.24
4.93 -3.78 -1.66
32.01 -24.54 0.7
5.68 -4.36 -1.65
32.66 -25.04 2.16
6.7 -5.13 -1.64
32.72 -25.08 3.61
8.1 -6.21 -1.62
34.07 -26.11 5.27
10.38 -7.96 -1.61
36.83 -28.23 7.35
13.87 -10.63 -1.53
18.83 -14.44 -1.24
4.92 -3.8 -1.67
32.01 -24.72 0.71
5.66 -4.37 -1.65
34.33 -26.51 2.27
6.68 -5.16 -1.64
32.78 -25.31 3.62
8.08 -6.24 -1.62
34.07 -26.31 5.29
10.36 -8 -1.61
36.47 -28.16 7.3
13.83 -10.68 -1.53
18.75 -14.48 -1.24
4.91 -3.82 -1.67
32.81 -25.5 0.73
5.65 -4.39 -1.65
34.33 -26.69 2.28
6.66 -5.18 -1.64
32.82 -25.51 3.64
8.06 -6.27 -1.62
34.08 -26.5 5.3
10.33 -8.03 -1.61
36.14 -28.09 7.25
13.79 -10.72 -1.53
18.7 -14.54 -1.24
4.89 -3.83 -1.67
31.89 -24.98 0.71
5.64 -4.42 -1.65
34.36 -26.91 2.29
6.63 -5.19 -1.64
32.83 -25.71 3.65
8.04 -6.3 -1.62
34.1 -26.7 5.32
10.31 -8.07 -1.61
35.66 -27.93 7.17
13.75 -10.77 -1.53
18.68 -14.63 -1.24
4.88 -3.85 -1.66
31.67 -24.99 0.7
5.62 -4.43 -1.65
34.39 -27.13 2.3
6.62 -5.22 -1.64
32.82 -25.89 3.66
8.01 -6.32 -1.62
34.12 -26.91 5.34
10.28 -8.11 -1.61
35.16 -27.74 7.09
13.69 -10.8 -1.53
18.61 -14.68 -1.24
4.87 -3.87 -1.67
31.68 -25.18 0.71
5.6 -4.45 -1.65
34.4 -27.34 2.3
6.6 -5.25 -1.64
32.85 -26.1 3.67
7.98 -6.35 -1.62
34.13 -27.13 5.35
10.27 -8.16 -1.61
34.85 -27.7 7.05
13.67 -10.86 -1.53
18.56 -14.75 -1.24
4.86 -3.89 -1.67
31.58 -25.28 0.71
5.58 -4.47 -1.65
34.37 -27.51 2.31
6.59 -5.27 -1.64
32.86 -26.3 3.68
7.97 -6.38 -1.62
34.14 -27.32 5.37
10.24 -8.19 -1.61
34.55 -27.65 7.01
13.63 -10.91 -1.53
18.51 -14.81 -1.24
4.85 -3.91 -1.67
31 -24.99 0.7
5.57 -4.49 -1.65
34.34 -27.68 2.31
6.57 -5.29 -1.64
32.92 -26.54 3.7
7.94 -6.4 -1.62
34.17 -27.55 5.39
10.2 -8.22 -1.61
34 -27.41 6.92
13.6 -10.96 -1.53
18.45 -14.88 -1.24
4.83 -3.92 -1.67
30.71 -24.92 0.69
5.56 -4.51 -1.65
34.44 -27.95 2.32
6.54 -5.31 -1.64
7.92 -6.43 -1.62
34.2 -27.76 5.41
10.17 -8.25 -1.61
33.68 -27.33 6.87
13.56 -11.01 -1.53
18.41 -14.94 -1.24
4.81 -3.93 -1.66
30.54 -24.97 0.69
5.55 -4.53 -1.65
34.47 -28.18 2.33
6.52 -5.33 -1.64
7.9 -6.46 -1.62
34.21 -27.97 5.43
10.15 -8.3 -1.61
33.3 -27.22 6.81
13.51 -11.05 -1.53
18.36 -15.01 -1.24
4.8 -3.95 -1.67
30.59 -25.19 0.69
5.53 -4.55 -1.65
34.47 -28.39 2.34
6.51 -5.36 -1.64
7.87 -6.48 -1.61
34.22 -28.18 5.44
10.13 -8.34 -1.61
32.94 -27.12 6.76
13.47 -11.09 -1.53
18.3 -15.07 -1.24
4.79 -3.97 -1.67
32.93 -27.31 0.75
5.5 -4.57 -1.65
34.44 -28.57 2.35
6.49 -5.39 -1.64
34.48 -28.6 3.92
7.84 -6.51 -1.61
34.23 -28.39 5.46
10.11 -8.39 -1.61
32.8 -27.2 6.75
13.45 -11.15 -1.53
18.24 -15.13 -1.24
4.78 -3.99 -1.67
32.96 -27.52 0.75
5.49 -4.58 -1.65
34.29 -28.63 2.34
6.47 -5.41 -1.64
34.29 -28.63 3.91
7.82 -6.53 -1.61
32.98 -27.54 5.28
10.08 -8.41 -1.61
13.4 -11.19 -1.53
18.19 -15.19 -1.24
4.76 -4 -1.67
33.02 -27.77 0.75
5.48 -4.61 -1.65
34.32 -28.86 2.35
6.45 -5.42 -1.64
34.29 -28.84 3.92
7.78 -6.55 -1.61
34.26 -28.81 5.5
10.05 -8.45 -1.61
13.37 -11.24 -1.53
18.14 -15.25 -1.24
4.74 -4.02 -1.67
32.98 -27.93 0.75
5.47 -4.63 -1.65
34.3 -29.05 2.36
6.43 -5.45 -1.64
34.32 -29.06 3.93
7.77 -6.58 -1.61
34.28 -29.03 5.52
10.03 -8.49 -1.61
13.31 -11.27 -1.53
18.08 -15.31 -1.24
28.58 -24.2 -0.65
4.73 -4.04 -1.67
32.99 -28.14 0.76
5.45 -4.65 -1.65
34.31 -29.27 2.36
6.41 -5.47 -1.64
34.32 -29.28 3.95
7.74 -6.6 -1.61
34.3 -29.26 5.54
10 -8.53 -1.61
13.28 -11.33 -1.53
18.03 -15.38 -1.24
28.44 -24.26 -0.65
4.72 -4.05 -1.67
33.01 -28.35 0.76
5.44 -4.67 -1.65
34.32 -29.48 2.37
6.4 -5.49 -1.64
34.35 -29.5 3.96
7.71 -6.62 -1.61
34.32 -29.47 5.55
9.97 -8.56 -1.61
34.24 -29.41 7.15
13.24 -11.37 -1.53
17.97 -15.44 -1.24
28.38 -24.37 -0.65
4.71 -4.08 -1.67
33.03 -28.57 0.76
5.41 -4.68 -1.65
34.33 -29.7 2.38
6.38 -5.52 -1.64
34.36 -29.72 3.97
7.69 -6.65 -1.61
34.32 -29.7 5.57
9.94 -8.6 -1.61
34.06 -29.47 7.13
13.19 -11.41 -1.53
17.91 -15.49 -1.24
28.32 -24.5 -0.65
4.7 -4.09 -1.67
33.04 -28.79 0.76
5.4 -4.71 -1.65
34.57 -30.13 2.4
6.35 -5.54 -1.64
7.66 -6.68 -1.61
34.33 -29.92 5.59
9.91 -8.63 -1.61
33.85 -29.5 7.11
13.12 -11.44 -1.52
17.84 -15.55 -1.24
28.23 -24.6 -0.65
4.67 -4.1 -1.67
33.05 -29.01 0.77
5.38 -4.72 -1.65
34.63 -30.39 2.41
6.34 -5.56 -1.64
7.64 -6.71 -1.61
34.35 -30.15 5.61
9.88 -8.67 -1.61
33.68 -29.56 7.1
13.05 -11.45 -1.52
17.78 -15.6 -1.24
4.66 -4.12 -1.67
33.05 -29.21 0.77
5.36 -4.74 -1.65
34.61 -30.59 2.42
6.32 -5.58 -1.64
34.74 -30.71 4.06
7.61 -6.72 -1.61
34.37 -30.38 5.63
9.85 -8.71 -1.61
33.52 -29.63 7.09
13.02 -11.51 -1.52
17.74 -15.67 -1.24
4.65 -4.14 -1.67
33.08 -29.44 0.77
5.34 -4.75 -1.65
34.57 -30.76 2.43
6.3 -5.61 -1.64
34.61 -30.8 4.05
7.58 -6.74 -1.61
34.38 -30.6 5.65
9.83 -8.75 -1.62
33.41 -29.73 7.08
12.99 -11.56 -1.52
17.64 -15.7 -1.24
4.64 -4.15 -1.67
33.1 -29.65 0.78
5.33 -4.77 -1.65
34.61 -31.01 2.44
6.28 -5.63 -1.64
7.57 -6.79 -1.61
34.39 -30.82 5.67
9.8 -8.78 -1.62
33.16 -29.71 7.05
12.94 -11.59 -1.52
17.6 -15.77 -1.24
4.63 -4.17 -1.67
33.12 -29.88 0.78
5.31 -4.79 -1.65
6.26 -5.64 -1.64
7.56 -6.82 -1.61
34.42 -31.05 5.69
9.77 -8.81 -1.62
12.89 -11.63 -1.52
17.54 -15.82 -1.24
4.6 -4.18 -1.67
33.13 -30.09 0.78
5.3 -4.81 -1.65
6.24 -5.67 -1.64
7.53 -6.84 -1.61
34.43 -31.27 5.71
9.75 -8.85 -1.62
12.85 -11.67 -1.52
17.46 -15.86 -1.24
4.59 -4.2 -1.67
33.13 -30.3 0.78
5.29 -4.84 -1.65
6.22 -5.69 -1.64
7.5 -6.86 -1.61
34.45 -31.5 5.73
9.72 -8.89 -1.62
12.81 -11.72 -1.52
17.41 -15.92 -1.24
4.58 -4.22 -1.67
33.15 -30.55 0.79
5.25 -4.84 -1.65
6.2 -5.72 -1.64
7.48 -6.9 -1.61
34.46 -31.76 5.75
9.69 -8.93 -1.62
12.78 -11.78 -1.52
17.34 -15.98 -1.24
4.57 -4.24 -1.67
33.16 -30.78 0.79
5.24 -4.87 -1.65
6.18 -5.74 -1.64
33.24 -30.85 3.97
7.45 -6.92 -1.61
33.16 -30.78 5.55
9.65 -8.95 -1.62
12.73 -11.82 -1.52
17.28 -16.04 -1.24
4.55 -4.25 -1.67
33.23 -31.04 0.79
5.23 -4.89 -1.65
6.16 -5.75 -1.64
34.83 -32.53 4.17
7.44 -6.95 -1.61
34.51 -32.24 5.8
9.62 -8.98 -1.62
12.69 -11.86 -1.52
17.21 -16.08 -1.23
4.53 -4.26 -1.67
33.2 -31.23 0.8
5.22 -4.91 -1.65
34.69 -32.62 2.5
6.14 -5.77 -1.64
28.41 -26.72 3.41
7.42 -6.98 -1.61
34.52 -32.47 5.82
9.59 -9.02 -1.62
12.63 -11.88 -1.52
17.17 -16.15 -1.24
4.52 -4.28 -1.67
33.21 -31.46 0.8
5.2 -4.93 -1.65
6.12 -5.8 -1.64
7.39 -7 -1.61
34.53 -32.71 5.84
9.56 -9.06 -1.62
12.6 -11.93 -1.52
17.11 -16.21 -1.24
4.51 -4.3 -1.67
33.21 -31.68 0.8
5.17 -4.93 -1.65
34.84 -33.23 2.52
6.1 -5.82 -1.64
34.92 -33.31 4.22
7.37 -7.03 -1.61
34.56 -32.96 5.86
9.53 -9.09 -1.62
12.55 -11.97 -1.52
17.04 -16.25 -1.23
4.49 -4.31 -1.67
33.23 -31.94 0.8
5.15 -4.95 -1.65
34.72 -33.37 2.52
6.08 -5.84 -1.64
7.34 -7.06 -1.61
34.52 -33.18 5.88
9.47 -9.11 -1.61
12.51 -12.03 -1.52
16.96 -16.31 -1.23
4.47 -4.33 -1.67
33.25 -32.18 0.81
5.14 -4.98 -1.65
34.55 -33.44 2.52
6.05 -5.86 -1.64
34.52 -33.41 4.2
7.32 -7.08 -1.61
28.15 -27.24 4.81
9.44 -9.14 -1.61
12.47 -12.07 -1.52
16.92 -16.37 -1.23
4.45 -4.34 -1.67
33.28 -32.42 0.81
5.13 -4.99 -1.65
34.36 -33.47 2.51
6.04 -5.88 -1.64
34.29 -33.4 4.19
7.29 -7.1 -1.61
34.21 -33.32 5.86
9.42 -9.18 -1.62
12.43 -12.11 -1.52
16.87 -16.44 -1.23
4.44 -4.36 -1.67
33.29 -32.65 0.81
5.11 -5.01 -1.65
34.14 -33.49 2.51
6.02 -5.9 -1.64
34.06 -33.41 4.17
7.25 -7.11 -1.61
33.99 -33.34 5.85
9.39 -9.21 -1.61
12.39 -12.15 -1.52
16.82 -16.49 -1.23
4.43 -4.37 -1.67
33.3 -32.9 0.82
5.09 -5.02 -1.65
33.91 -33.49 2.5
6 -5.92 -1.64
33.85 -33.44 4.16
7.24 -7.15 -1.61
33.76 -33.35 5.83
9.36 -9.25 -1.62
12.39 -12.24 -1.52
16.72 -16.52 -1.23
4.42 -4.39 -1.67
33.33 -33.15 0.82
5.07 -5.04 -1.65
33.69 -33.51 2.49
5.98 -5.95 -1.64
33.64 -33.46 4.15
7.21 -7.18 -1.61
33.58 -33.4 5.82
9.32 -9.27 -1.61
12.34 -12.27 -1.52
16.68 -16.59 -1.23
4.4 -4.41 -1.67
33.34 -33.4 0.82
5.05 -5.06 -1.65
33.48 -33.54 2.48
5.95 -5.96 -1.64
33.42 -33.48 4.14
7.19 -7.21 -1.61
33.34 -33.4 5.79
9.28 -9.29 -1.61
12.31 -12.33 -1.52
16.59 -16.62 -1.23
4.38 -4.41 -1.67
33.3 -33.59 0.83
5.04 -5.08 -1.65
33.26 -33.54 2.48
5.93 -5.98 -1.64
27.93 -28.17 3.47
7.17 -7.23 -1.61
27.06 -27.29 4.72
9.24 -9.32 -1.61
29.03 -29.28 6.53
12.3 -12.41 -1.53
16.55 -16.69 -1.23
4.37 -4.43 -1.67
33.24 -33.77 0.83
5.03 -5.11 -1.65
33.23 -33.76 2.48
5.91 -6 -1.64
33.22 -33.74 4.14
7.13 -7.25 -1.61
33.21 -33.73 5.81
9.22 -9.37 -1.61
28.16 -28.6 6.36
12.17 -12.36 -1.52
16.48 -16.74 -1.23
4.35 -4.45 -1.67
37.21 -38.06 0.93
5 -5.12 -1.65
5.89 -6.03 -1.64
7.11 -7.27 -1.61
27.95 -28.58 4.91
9.2 -9.41 -1.62
28 -28.63 6.34
12.13 -12.4 -1.52
16.43 -16.81 -1.23
4.33 -4.47 -1.67
37.04 -38.17 0.93
4.98 -5.13 -1.65
5.87 -6.05 -1.64
7.08 -7.3 -1.61
26.93 -27.75 4.75
9.21 -9.49 -1.62
27.41 -28.24 6.23
12.02 -12.39 -1.51
16.37 -16.87 -1.23
4.32 -4.48 -1.67
32.4 -33.62 0.81
4.97 -5.15 -1.65
5.84 -6.06 -1.64
27.81 -28.85 3.51
7.06 -7.33 -1.61
28.22 -29.27 4.99
9.18 -9.52 -1.62
11.95 -12.39 -1.51
16.32 -16.93 -1.23
4.3 -4.49 -1.67
27.75 -28.99 0.7
4.95 -5.17 -1.65
27.75 -28.99 2.1
5.82 -6.08 -1.64
27.68 -28.92 3.5
7.04 -7.35 -1.61
27.61 -28.84 4.9
9.15 -9.56 -1.63
11.88 -12.41 -1.5
16.29 -17.01 -1.23
4.28 -4.5 -1.67
27.64 -29.07 0.7
4.94 -5.19 -1.65
27.67 -29.1 2.1
5.8 -6.1 -1.64
27.6 -29.04 3.51
7.01 -7.37 -1.61
27.51 -28.94 4.9
9.14 -9.62 -1.63
26.87 -28.27 6.18
11.82 -12.44 -1.5
16.23 -17.07 -1.23
4.28 -4.53 -1.67
4.91 -5.2 -1.65
5.78 -6.12 -1.64
6.98 -7.4 -1.61
9.08 -9.62 -1.62
27.49 -29.12 6.34
11.77 -12.47 -1.5
16.17 -17.13 -1.23
4.26 -4.55 -1.67
28.07 -29.95 0.72
4.89 -5.22 -1.65
5.75 -6.14 -1.64
6.96 -7.42 -1.61
27.1 -28.91 4.87
8.97 -9.57 -1.61
11.71 -12.49 -1.5
16.11 -17.18 -1.23
4.24 -4.56 -1.67
27.95 -30.03 0.72
4.88 -5.24 -1.65
5.73 -6.15 -1.63
6.94 -7.45 -1.61
8.9 -9.57 -1.6
11.64 -12.51 -1.5
16.05 -17.24 -1.23
4.22 -4.56 -1.66
27.68 -29.95 0.71
4.86 -5.26 -1.65
5.71 -6.17 -1.63
39.21 -42.42 5.05
6.91 -7.48 -1.61
8.86 -9.58 -1.6
11.58 -12.52 -1.49
15.99 -17.3 -1.23
4.2 -4.58 -1.67
27.65 -30.13 0.71
4.84 -5.28 -1.65
39 -42.5 3.02
5.69 -6.2 -1.64
38.91 -42.4 5.04
6.88 -7.49 -1.61
35.78 -38.99 6.5
8.83 -9.62 -1.6
11.51 -12.55 -1.49
15.92 -17.35 -1.23
4.19 -4.6 -1.67
27.74 -30.44 0.72
4.82 -5.29 -1.65
38.75 -42.53 3.02
5.66 -6.22 -1.63
38.69 -42.46 5.03
6.85 -7.52 -1.61
35.71 -39.19 6.51
8.77 -9.62 -1.6
11.44 -12.56 -1.49
15.91 -17.46 -1.24
25.63 -28.12 -0.66
4.18 -4.61 -1.67
27.64 -30.53 0.72
4.8 -5.31 -1.65
38.54 -42.58 3.01
5.64 -6.23 -1.63
6.83 -7.55 -1.61
33.58 -37.1 6.14
8.71 -9.62 -1.59
33.48 -36.99 7.9
11.38 -12.57 -1.48
15.85 -17.52 -1.24
4.16 -4.62 -1.67
27.4 -30.49 0.72
4.79 -5.33 -1.65
33.7 -37.5 2.64
5.62 -6.25 -1.63
6.8 -7.57 -1.61
33.28 -37.03 6.11
8.66 -9.63 -1.59
33.33 -37.08 7.9
11.32 -12.59 -1.48
15.75 -17.52 -1.23
25.43 -28.3 -0.66
4.14 -4.63 -1.66
4.77 -5.35 -1.65
33.6 -37.63 2.64
5.6 -6.27 -1.63
12.88 -14.43 1.69
6.78 -7.59 -1.61
33.18 -37.17 6.12
8.62 -9.66 -1.59
11.24 -12.59 -1.48
15.66 -17.54 -1.23
4.12 -4.65 -1.66
4.75 -5.36 -1.65
5.57 -6.29 -1.63
12.82 -14.46 1.69
6.74 -7.6 -1.61
8.58 -9.67 -1.59
25.65 -28.93 6.12
11.19 -12.62 -1.48
15.59 -17.59 -1.23
4.11 -4.67 -1.67
4.73 -5.37 -1.65
32.97 -37.48 2.62
5.56 -6.31 -1.63
12.77 -14.51 1.69
6.71 -7.63 -1.61
32.86 -37.35 6.11
8.52 -9.69 -1.58
11.1 -12.61 -1.47
15.51 -17.63 -1.23
4.1 -4.69 -1.67
4.71 -5.39 -1.65
32.8 -37.55 2.61
5.53 -6.34 -1.64
12.7 -14.54 1.69
6.68 -7.65 -1.61
26.11 -29.89 4.87
8.47 -9.69 -1.58
11.03 -12.63 -1.47
32.91 -37.67 9.72
15.5 -17.74 -1.23
4.08 -4.7 -1.67
4.7 -5.42 -1.66
5.5 -6.34 -1.63
12.58 -14.5 1.68
6.66 -7.68 -1.61
32.1 -37 6.01
8.43 -9.72 -1.58
32.06 -36.96 7.75
10.96 -12.64 -1.46
32.8 -37.81 9.73
15.43 -17.79 -1.23
4.05 -4.71 -1.66
12.51 -14.52 0.33
4.68 -5.44 -1.66
12.5 -14.52 1
5.48 -6.37 -1.63
12.6 -14.63 1.69
6.63 -7.7 -1.61
31.95 -37.09 6.01
8.38 -9.73 -1.58
25.54 -29.65 6.2
10.89 -12.65 -1.46
32.01 -37.17 9.53
4.04 -4.72 -1.67
12.45 -14.56 0.33
4.67 -5.46 -1.66
12.51 -14.63 1.01
5.46 -6.39 -1.63
12.54 -14.66 1.69
6.6 -7.72 -1.61
31.76 -37.13 6
8.33 -9.74 -1.57
31.79 -37.17 7.75
10.83 -12.66 -1.46
31.9 -37.3 9.54
12.5 -14.61 -1.01
12.47 -14.58 -0.33
4.02 -4.74 -1.67
4.63 -5.46 -1.65
12.47 -14.68 1.01
5.44 -6.41 -1.63
12.57 -14.8 1.7
6.57 -7.74 -1.61
31.53 -37.13 5.98
8.28 -9.75 -1.57
31.56 -37.16 7.72
10.77 -12.68 -1.46
31.72 -37.35 9.52
12.4 -14.6 -1
4.01 -4.76 -1.67
4.62 -5.47 -1.65
12.53 -14.85 1.02
5.42 -6.42 -1.63
12.54 -14.86 1.7
6.55 -7.76 -1.61
31.45 -37.27 5.99
8.24 -9.76 -1.57
31.52 -37.35 7.74
10.72 -12.7 -1.45
31.73 -37.6 9.56
15.22 -18.04 -1.24
4 -4.77 -1.67
27.29 -32.57 0.74
4.6 -5.49 -1.65
5.39 -6.44 -1.63
6.52 -7.78 -1.61
31.6 -37.71 6.04
8.2 -9.78 -1.57
31.42 -37.5 7.75
10.65 -12.71 -1.45
31.6 -37.71 9.56
15.15 -18.08 -1.24
3.97 -4.77 -1.66
4.59 -5.52 -1.66
31.77 -38.19 2.6
5.37 -6.46 -1.63
31.39 -37.73 4.29
6.49 -7.8 -1.61
31.39 -37.73 6.03
8.15 -9.79 -1.56
31.46 -37.82 7.79
10.58 -12.71 -1.45
15.07 -18.11 -1.23
3.96 -4.79 -1.67
27.05 -32.74 0.74
4.57 -5.53 -1.66
31.7 -38.38 2.61
5.35 -6.48 -1.63
7.97 -9.64 1.09
6.46 -7.82 -1.61
31.29 -37.87 6.03
8.11 -9.81 -1.56
31.53 -38.17 7.84
10.53 -12.74 -1.45
31.43 -38.04 9.59
15.03 -18.19 -1.24
3.94 -4.81 -1.67
26.94 -32.84 0.74
4.54 -5.54 -1.65
31.55 -38.46 2.61
5.33 -6.5 -1.63
7.93 -9.67 1.09
6.44 -7.85 -1.61
31.17 -38.01 6.04
8.06 -9.83 -1.56
31.04 -37.85 7.75
10.47 -12.77 -1.45
31.2 -38.04 9.56
15 -18.28 -1.24
3.93 -4.82 -1.67
26.84 -32.95 0.74
4.52 -5.56 -1.65
5.31 -6.52 -1.63
7.89 -9.69 1.09
6.41 -7.87 -1.61
31.21 -38.32 6.07
8.02 -9.84 -1.56
30.91 -37.95 7.75
10.41 -12.78 -1.44
31.07 -38.16 9.57
14.77 -18.13 -1.23
3.91 -4.84 -1.67
26.7 -33.02 0.74
4.51 -5.57 -1.65
31.13 -38.5 2.59
5.28 -6.53 -1.63
7.83 -9.69 1.09
6.38 -7.89 -1.61
31.04 -38.39 6.06
7.98 -9.87 -1.56
31.13 -38.49 7.84
10.33 -12.78 -1.44
14.62 -18.08 -1.22
3.89 -4.85 -1.67
26.84 -33.43 0.75
4.49 -5.59 -1.66
30.92 -38.51 2.59
5.26 -6.55 -1.63
7.8 -9.71 1.09
6.35 -7.91 -1.61
30.99 -38.6 6.08
7.93 -9.88 -1.56
10.26 -12.78 -1.43
14.54 -18.11 -1.22
3.87 -4.86 -1.66
4.47 -5.61 -1.66
30.95 -38.82 2.6
5.24 -6.57 -1.63
7.75 -9.72 1.09
6.33 -7.93 -1.61
7.9 -9.91 -1.56
10.2 -12.79 -1.43
14.46 -18.13 -1.22
3.86 -4.87 -1.67
30.34 -38.33 0.85
4.44 -5.62 -1.65
30.94 -39.1 2.61
5.22 -6.6 -1.64
7.71 -9.74 1.09
6.29 -7.95 -1.61
7.85 -9.91 -1.55
10.14 -12.81 -1.43
14.36 -18.15 -1.21
3.84 -4.89 -1.67
30.13 -38.34 0.85
4.43 -5.63 -1.65
30.96 -39.4 2.63
5.19 -6.61 -1.63
7.68 -9.77 1.09
6.26 -7.97 -1.61
7.45 -9.48 1.48
7.8 -9.92 -1.55
10.07 -12.82 -1.43
14.28 -18.17 -1.21
3.83 -4.9 -1.67
29.91 -38.34 0.85
4.41 -5.65 -1.66
30.97 -39.69 2.64
5.17 -6.63 -1.63
7.61 -9.75 1.08
6.24 -8 -1.61
7.42 -9.51 1.48
7.75 -9.94 -1.55
10.01 -12.83 -1.42
14.2 -18.2 -1.21
3.81 -4.92 -1.67
29.68 -38.34 0.85
4.39 -5.67 -1.66
30.98 -40.01 2.65
5.15 -6.65 -1.63
7.59 -9.8 1.08
6.21 -8.02 -1.61
7.38 -9.54 1.48
7.71 -9.96 -1.55
9.93 -12.83 -1.42
14.11 -18.23 -1.21
3.79 -4.93 -1.67
29.48 -38.35 0.84
4.37 -5.68 -1.65
31 -40.33 2.67
5.12 -6.66 -1.63
7.56 -9.83 1.09
6.18 -8.03 -1.61
7.33 -9.53 1.48
7.69 -10 -1.55
9.87 -12.84 -1.42
14.02 -18.24 -1.21
3.77 -4.95 -1.67
29.28 -38.37 0.84
4.34 -5.69 -1.65
5.1 -6.69 -1.64
7.52 -9.85 1.08
6.15 -8.06 -1.61
7.22 -9.46 1.46
7.64 -10.01 -1.55
9.81 -12.86 -1.42
13.92 -18.24 -1.2
7.33 -9.6 3.24
3.76 -4.96 -1.67
29.06 -38.36 0.84
4.32 -5.7 -1.65
29.96 -39.55 2.6
5.08 -6.7 -1.63
7.3 -9.64 1.06
6.12 -8.08 -1.61
7.21 -9.52 1.47
7.57 -9.99 -1.54
9.75 -12.87 -1.41
13.81 -18.23 -1.2
7.29 -9.62 3.23
3.74 -4.97 -1.67
4.31 -5.72 -1.65
29.1 -38.67 2.54
5.05 -6.71 -1.63
7.26 -9.65 1.06
6.1 -8.1 -1.61
7.2 -9.57 1.47
7.51 -9.98 -1.53
9.69 -12.88 -1.41
7.37 -9.79 2.38
13.72 -18.24 -1.2
7.37 -9.79 2.83
7.26 -9.65 3.24
3.72 -4.98 -1.66
4.29 -5.74 -1.65
5.04 -6.74 -1.64
7.24 -9.7 1.06
6.07 -8.12 -1.61
7.24 -9.69 1.49
7.41 -9.92 -1.52
7.28 -9.74 1.93
7.41 -9.92 -1.08
7.31 -9.79 2.37
7.4 -9.91 -0.65
7.31 -9.79 2.82
7.39 -9.89 -0.22
7.25 -9.7 3.24
3.7 -4.99 -1.67
7.32 -9.88 0.21
4.27 -5.76 -1.66
7.32 -9.87 0.64
5.01 -6.76 -1.64
7.27 -9.8 1.07
6.03 -8.13 -1.6
7.29 -9.84 1.5
7.35 -9.92 -1.52
7.34 -9.89 -1.08
7.26 -9.79 2.37
7.33 -9.88 -0.64
7.28 -9.81 2.82
7.32 -9.87 -0.21
3.69 -5.01 -1.67
7.28 -9.88 0.21
4.24 -5.76 -1.65
7.27 -9.88 0.64
4.99 -6.77 -1.63
7.26 -9.86 1.07
6 -8.15 -1.6
7.26 -9.86 1.5
7.31 -9.93 -1.51
7.3 -9.91 -1.08
7.22 -9.81 2.37
7.29 -9.91 -0.64
7.26 -9.86 2.83
7.27 -9.88 -0.21
3.67 -5.03 -1.67
7.24 -9.9 0.21
4.23 -5.78 -1.65
7.23 -9.89 0.64
4.96 -6.79 -1.63
7.24 -9.91 1.07
5.97 -8.18 -1.6
7.2 -9.85 1.5
7.27 -9.95 -1.51
7.25 -9.93 -1.08
7.2 -9.85 2.37
7.25 -9.93 -0.64
7.24 -9.9 -0.21
3.65 -5.04 -1.67
7.22 -9.95 0.21
4.21 -5.8 -1.65
7.21 -9.94 0.64
4.94 -6.81 -1.63
7.09 -9.77 1.06
5.94 -8.19 -1.6
7.07 -9.75 1.48
7.24 -9.98 -1.51
7.24 -9.98 -1.08
7.17 -9.89 2.37
7.22 -9.95 -0.64
7.22 -9.95 -0.21
3.63 -5.04 -1.66
7.22 -10.02 0.22
4.19 -5.82 -1.66
4.91 -6.82 -1.63
5.91 -8.21 -1.6
7.05 -9.8 1.48
7.23 -10.04 -1.52
7.15 -9.93 1.94
7.22 -10.03 -1.08
7.13 -9.9 2.37
7.21 -10.01 -0.65
7.21 -10.02 -0.22
3.61 -5.05 -1.66
4.17 -5.83 -1.65
4.89 -6.84 -1.63
7.04 -9.85 1.06
5.87 -8.22 -1.6
7.2 -10.08 -1.52
7.14 -9.99 1.95
9.23 -12.92 -1.39
7.09 -9.92 2.37
13.05 -18.26 -1.18
3.59 -5.07 -1.66
4.13 -5.83 -1.65
4.87 -6.86 -1.64
7.01 -9.88 1.06
5.85 -8.24 -1.6
6.94 -9.78 1.47
7.17 -10.1 -1.52
7.13 -10.05 1.95
9.17 -12.93 -1.39
7.13 -10.05 2.4
12.95 -18.26 -1.17
3.58 -5.08 -1.67
4.12 -5.84 -1.65
4.84 -6.88 -1.64
6.99 -9.93 1.06
5.81 -8.26 -1.6
6.95 -9.87 1.48
7.11 -10.1 -1.52
7.11 -10.1 1.96
9.11 -12.93 -1.38
12.84 -18.24 -1.17
3.57 -5.1 -1.67
4.1 -5.86 -1.65
4.81 -6.89 -1.63
6.99 -10 1.07
5.79 -8.28 -1.6
6.95 -9.93 1.49
7.07 -10.11 -1.52
9.04 -12.94 -1.38
12.76 -18.25 -1.17
3.54 -5.11 -1.67
4.09 -5.89 -1.65
4.79 -6.9 -1.63
6.98 -10.06 1.07
5.79 -8.34 -1.61
6.94 -10.01 1.5
7.03 -10.13 -1.51
8.98 -12.94 -1.38
12.67 -18.26 -1.16
3.52 -5.12 -1.66
4.06 -5.9 -1.65
4.77 -6.92 -1.63
6.93 -10.07 1.07
5.78 -8.4 -1.61
6.99 -10.15 -1.51
8.92 -12.95 -1.38
12.57 -18.26 -1.16
3.51 -5.13 -1.67
4.03 -5.9 -1.65
4.74 -6.94 -1.63
5.76 -8.43 -1.62
6.95 -10.16 -1.51
8.86 -12.96 -1.37
12.49 -18.27 -1.16
3.5 -5.15 -1.67
7.5 -11.05 0.23
4.01 -5.91 -1.65
7.51 -11.06 0.7
4.72 -6.96 -1.63
6.95 -10.24 1.08
5.72 -8.43 -1.61
7.46 -10.99 1.63
6.91 -10.18 -1.51
7.47 -11.01 2.11
7.52 -11.08 -1.17
7.45 -10.98 2.58
7.51 -11.07 -0.7
7.44 -10.97 3.06
7.54 -11.12 -0.23
7.43 -10.95 3.55
3.47 -5.16 -1.67
7.43 -11.03 0.23
4 -5.94 -1.65
7.42 -11.01 0.7
4.69 -6.97 -1.63
6.91 -10.26 1.08
5.69 -8.45 -1.61
7.4 -10.99 1.63
6.86 -10.19 -1.51
7.4 -10.99 2.1
7.45 -11.07 -1.17
7.39 -10.98 2.57
7.44 -11.04 -0.7
7.39 -10.98 3.06
7.44 -11.04 -0.23
7.39 -10.97 3.55
3.46 -5.17 -1.67
7.38 -11.05 0.23
3.98 -5.95 -1.65
7.38 -11.04 0.7
4.67 -6.99 -1.63
5.66 -8.47 -1.61
7.36 -11.02 1.63
6.82 -10.2 -1.51
7.38 -11.04 2.1
7.41 -11.09 -1.17
7.37 -11.03 2.58
7.4 -11.08 -0.7
7.4 -11.06 3.07
7.4 -11.08 -0.23
3.44 -5.19 -1.67
7.42 -11.19 0.23
3.96 -5.97 -1.65
7.38 -11.13 0.7
4.65 -7.01 -1.64
5.63 -8.49 -1.61
6.78 -10.22 -1.51
8.63 -13 -1.37
3.43 -5.2 -1.67
3.93 -5.97 -1.65
4.62 -7.02 -1.63
6.87 -10.44 1.09
5.6 -8.5 -1.61
6.73 -10.22 -1.5
8.55 -12.98 -1.36
12.02 -18.26 -1.15
3.41 -5.21 -1.67
3.92 -5.99 -1.65
4.6 -7.04 -1.63
6.87 -10.51 1.1
5.55 -8.49 -1.61
6.68 -10.22 -1.5
8.49 -12.99 -1.36
11.94 -18.26 -1.14
3.39 -5.23 -1.67
3.89 -6 -1.65
4.57 -7.05 -1.63
6.85 -10.56 1.1
5.51 -8.5 -1.6
6.8 -10.49 1.54
6.64 -10.24 -1.5
8.43 -12.99 -1.35
11.81 -18.21 -1.14
3.37 -5.23 -1.67
3.88 -6.02 -1.65
4.55 -7.07 -1.63
5.47 -8.5 -1.6
6.8 -10.56 1.54
6.6 -10.25 -1.5
8.36 -12.99 -1.35
11.68 -18.14 -1.13
3.35 -5.24 -1.67
3.85 -6.04 -1.65
4.53 -7.09 -1.63
5.45 -8.53 -1.6
6.56 -10.27 -1.5
8.3 -13 -1.35
11.56 -18.1 -1.13
3.33 -5.26 -1.67
3.83 -6.04 -1.65
4.5 -7.11 -1.64
5.39 -8.51 -1.6
40 -63.13 9.18
6.52 -10.28 -1.49
8.24 -13.01 -1.35
11.46 -18.09 -1.12
3.32 -5.27 -1.67
3.81 -6.05 -1.65
4.48 -7.12 -1.64
31.52 -50.11 5.18
5.37 -8.53 -1.6
39.73 -63.16 9.16
6.47 -10.29 -1.49
8.19 -13.02 -1.35
11.36 -18.06 -1.12
3.3 -5.28 -1.67
3.78 -6.06 -1.65
4.45 -7.13 -1.63
31.35 -50.22 5.18
5.34 -8.55 -1.6
39.44 -63.19 9.15
6.43 -10.3 -1.49
8.13 -13.03 -1.34
11.26 -18.04 -1.11
3.27 -5.29 -1.67
3.77 -6.09 -1.65
4.43 -7.15 -1.63
25.51 -41.19 4.24
5.31 -8.57 -1.6
6.39 -10.32 -1.49
8.06 -13.02 -1.34
11.18 -18.05 -1.11
3.26 -5.3 -1.67
3.75 -6.1 -1.65
4.41 -7.17 -1.64
31.38 -51.06 5.24
5.28 -8.59 -1.6
6.35 -10.33 -1.49
8.01 -13.03 -1.34
11.09 -18.04 -1.11
3.24 -5.32 -1.67
3.73 -6.12 -1.65
4.38 -7.18 -1.64
5.25 -8.61 -1.6
6.31 -10.35 -1.49
12.01 -19.7 3.65
7.95 -13.03 -1.34
10.98 -18.01 -1.11
3.22 -5.33 -1.67
3.7 -6.12 -1.65
4.36 -7.2 -1.64
5.21 -8.62 -1.6
6.26 -10.34 -1.48
11.9 -19.67 3.64
7.89 -13.04 -1.33
10.9 -18.01 -1.1
3.21 -5.34 -1.67
3.68 -6.14 -1.65
4.33 -7.21 -1.63
5.17 -8.62 -1.59
6.21 -10.35 -1.48
11.81 -19.67 3.63
7.83 -13.04 -1.33
10.81 -18.01 -1.1
3.18 -5.35 -1.67
3.66 -6.14 -1.65
4.3 -7.23 -1.64
5.14 -8.63 -1.59
6.17 -10.37 -1.48
7.77 -13.05 -1.33
10.73 -18.01 -1.1
3.17 -5.36 -1.67
3.64 -6.16 -1.65
4.28 -7.25 -1.64
5.09 -8.62 -1.59
37.3 -63.15 9.01
6.14 -10.39 -1.48
11.63 -19.68 3.62
7.71 -13.06 -1.33
11.6 -19.64 4.43
10.65 -18.03 -1.1
3.15 -5.37 -1.67
3.61 -6.16 -1.65
4.26 -7.27 -1.64
31.46 -53.68 5.44
5.06 -8.64 -1.59
6.09 -10.39 -1.48
7.66 -13.07 -1.33
11.53 -19.68 4.43
10.55 -18 -1.09
3.13 -5.38 -1.67
3.6 -6.19 -1.65
4.23 -7.28 -1.64
5.03 -8.65 -1.59
6.04 -10.39 -1.48
7.6 -13.08 -1.32
10.47 -18.01 -1.09
3.11 -5.4 -1.67
3.58 -6.21 -1.66
4.2 -7.29 -1.63
5 -8.67 -1.59
5.99 -10.39 -1.47
7.54 -13.07 -1.32
10.44 -18.1 -1.09
18.08 -31.36 -0.63
3.09 -5.4 -1.67
24.82 -43.39 0.87
3.55 -6.21 -1.65
24.87 -43.48 2.63
4.18 -7.3 -1.64
24.79 -43.33 4.37
4.97 -8.69 -1.59
24.7 -43.18 6.11
5.95 -10.41 -1.47
7.47 -13.06 -1.32
10.41 -18.21 -1.1
18.02 -31.51 -0.63
3.07 -5.42 -1.67
3.53 -6.23 -1.65
4.16 -7.32 -1.64
4.93 -8.69 -1.58
14.13 -24.9 3.52
5.92 -10.43 -1.47
15.12 -26.66 4.85
7.41 -13.06 -1.31
11.14 -19.64 4.39
10.34 -18.22 -1.1
17.97 -31.68 -0.64
3.05 -5.43 -1.67
3.5 -6.23 -1.65
4.13 -7.34 -1.64
4.89 -8.7 -1.58
14.11 -25.07 3.53
5.87 -10.43 -1.47
11.07 -19.67 3.58
7.35 -13.06 -1.31
11.08 -19.69 4.39
10.27 -18.25 -1.1
17.95 -31.89 -0.64
3.04 -5.45 -1.67
3.48 -6.24 -1.65
24.57 -44.02 2.64
4.1 -7.35 -1.64
4.86 -8.71 -1.58
14.03 -25.13 3.53
5.83 -10.44 -1.47
10.99 -19.69 3.57
7.29 -13.07 -1.31
10.23 -18.33 -1.1
3.02 -5.45 -1.67
3.47 -6.26 -1.65
4.08 -7.36 -1.64
35.71 -64.51 6.45
4.83 -8.73 -1.58
13.8 -24.92 3.5
5.79 -10.45 -1.47
14.78 -26.7 4.83
7.23 -13.06 -1.31
10.18 -18.38 -1.1
2.99 -5.45 -1.67
3.45 -6.28 -1.65
4.05 -7.38 -1.64
4.8 -8.74 -1.58
13.67 -24.89 3.49
5.75 -10.47 -1.47
14.84 -27.03 4.88
7.18 -13.07 -1.3
10.11 -18.42 -1.1
14.96 -27.24 8.33
2.98 -5.47 -1.67
27.82 -51.09 1.02
3.42 -6.29 -1.65
4.03 -7.39 -1.64
4.77 -8.75 -1.58
13.64 -25.05 3.5
5.71 -10.48 -1.47
14.64 -26.88 4.85
7.12 -13.08 -1.3
10.04 -18.43 -1.1
10.43 -19.15 -0.38
13.21 -24.26 7.4
2.96 -5.48 -1.67
3.4 -6.29 -1.65
4 -7.41 -1.64
4.74 -8.77 -1.58
5.67 -10.49 -1.46
14.52 -26.88 4.84
7.07 -13.08 -1.3
9.96 -18.44 -1.1
10.27 -19.01 -0.38
13.17 -24.38 7.42
2.94 -5.49 -1.67
10.58 -19.75 0.39
3.38 -6.3 -1.65
10.57 -19.73 1.17
3.98 -7.43 -1.64
10.56 -19.72 1.96
4.7 -8.78 -1.58
10.53 -19.65 2.74
5.62 -10.49 -1.46
10.53 -19.67 3.53
7.01 -13.09 -1.3
10.53 -19.66 4.34
9.88 -18.45 -1.1
10.53 -19.65 5.15
10.16 -18.96 -0.38
10.49 -19.58 5.95
2.92 -5.5 -1.67
10.5 -19.78 0.39
3.36 -6.32 -1.65
10.48 -19.74 1.17
3.95 -7.44 -1.64
10.48 -19.74 1.96
4.67 -8.79 -1.58
10.46 -19.69 2.74
5.58 -10.5 -1.46
10.44 -19.66 3.53
6.96 -13.1 -1.3
10.43 -19.64 4.32
9.79 -18.44 -1.09
10.42 -19.62 5.13
10.06 -18.95 -0.37
10.41 -19.6 5.95
2.9 -5.51 -1.67
26.55 -50.43 0.99
3.34 -6.34 -1.65
10.45 -19.85 1.18
3.93 -7.45 -1.64
4.64 -8.82 -1.58
14.15 -26.87 3.73
5.54 -10.51 -1.46
10.43 -19.81 3.55
6.9 -13.09 -1.29
9.71 -18.44 -1.09
10.41 -19.77 5.16
9.96 -18.91 -0.37
13.2 -25.06 7.59
2.88 -5.52 -1.67
26.48 -50.71 1
3.32 -6.35 -1.65
3.9 -7.47 -1.64
4.6 -8.81 -1.57
12.99 -24.88 3.45
5.49 -10.52 -1.46
6.84 -13.1 -1.29
9.62 -18.43 -1.09
12.74 -24.41 6.36
9.89 -18.94 -0.37
12.88 -24.67 7.46
2.87 -5.53 -1.67
26.41 -51.02 1
3.29 -6.35 -1.65
3.87 -7.48 -1.64
4.57 -8.82 -1.57
12.96 -25.04 3.46
5.45 -10.52 -1.45
6.79 -13.11 -1.29
9.52 -18.4 -1.09
14.4 -27.82 7.23
9.82 -18.96 -0.37
12.98 -25.07 7.56
2.85 -5.54 -1.67
26.33 -51.31 1.01
3.26 -6.36 -1.65
3.85 -7.5 -1.64
32.49 -63.3 6.22
4.54 -8.84 -1.57
12.87 -25.07 3.46
5.41 -10.54 -1.46
13.11 -25.55 4.55
6.74 -13.12 -1.29
9.43 -18.38 -1.08
14.13 -27.53 7.14
9.76 -19.02 -0.37
2.83 -5.56 -1.67
26.28 -51.65 1.01
3.25 -6.38 -1.65
3.82 -7.5 -1.64
4.51 -8.85 -1.57
12.82 -25.2 3.47
5.36 -10.54 -1.45
12.94 -25.42 4.52
6.67 -13.12 -1.29
13.49 -26.52 5.78
9.35 -18.37 -1.08
13.99 -27.49 7.12
9.68 -19.02 -0.37
12.54 -24.64 7.41
2.81 -5.56 -1.67
3.23 -6.4 -1.65
3.79 -7.51 -1.63
4.47 -8.86 -1.57
12.86 -25.49 3.51
5.32 -10.55 -1.45
13.2 -26.17 4.64
6.62 -13.12 -1.29
9.25 -18.35 -1.08
13.41 -26.59 6.87
9.56 -18.95 -0.37
12.38 -24.54 7.36
2.79 -5.57 -1.67
3.21 -6.41 -1.65
3.77 -7.53 -1.64
4.43 -8.85 -1.57
12.64 -25.25 3.47
5.28 -10.55 -1.45
12.67 -25.32 4.48
6.57 -13.12 -1.28
13.1 -26.16 5.69
9.16 -18.3 -1.07
13.32 -26.62 6.87
9.48 -18.93 -0.37
2.77 -5.58 -1.67
3.18 -6.41 -1.65
3.74 -7.54 -1.64
4.4 -8.87 -1.57
12.54 -25.27 3.46
5.24 -10.56 -1.45
12.53 -25.26 4.47
6.52 -13.13 -1.28
12.71 -25.62 5.56
9.08 -18.3 -1.07
13.33 -26.87 6.93
9.4 -18.95 -0.37
12.89 -25.98 7.77
2.75 -5.6 -1.67
3.16 -6.43 -1.65
3.71 -7.55 -1.64
4.37 -8.88 -1.57
5.19 -10.56 -1.45
12.48 -25.37 4.48
6.46 -13.14 -1.28
9 -18.3 -1.07
13.76 -27.98 7.2
9.33 -18.98 -0.37
12.81 -26.05 7.78
2.73 -5.61 -1.67
3.14 -6.44 -1.65
3.69 -7.56 -1.64
4.34 -8.89 -1.57
5.16 -10.58 -1.44
13.52 -27.74 4.89
6.41 -13.14 -1.28
8.91 -18.28 -1.07
9.26 -19 -0.37
2.71 -5.61 -1.67
3.12 -6.46 -1.66
3.67 -7.59 -1.64
4.3 -8.9 -1.57
