# .PCD v0.7 - Point Cloud Data file format
VERSION 0.7
FIELDS x y z
SIZE 4 4 4
TYPE F F F
COUNT 1 1 1
WIDTH 3146
HEIGHT 1
VIEWPOINT 0 0 0 1 0 0 0
POINTS 3146
DATA ascii
0.83 2.62 0.14
0.81 2.56 -0.52
0.87 2.75 0.25
0.81 2.55 -0.42
0.81 2.55 -0.33
0.81 2.55 -0.23
1.48 4.66 0.95
0.81 2.56 -0.14
0.83 2.6 -0.05
0.85 2.63 -0.74
0.83 2.59 0.05
0.88 2.75 -0.67
0.82 2.55 -0.52
0.86 2.66 0.24
0.82 2.55 -0.42
0.81 2.52 -0.33
0.82 2.54 -0.23
1.5 4.67 0.95
0.82 2.56 -0.14
0.83 2.59 -0.05
0.85 2.61 -0.73
0.84 2.58 0.05
0.89 2.73 -0.66
0.84 2.57 0.14
0.82 2.53 -0.52
0.84 2.59 0.24
0.83 2.54 -0.42
0.82 2.51 -0.32
0.82 2.53 -0.23
1.52 4.68 0.96
0.83 2.54 -0.14
0.83 2.56 -0.05
0.85 2.58 -0.73
0.85 2.57 0.05
0.89 2.7 -0.66
0.84 2.57 0.14
0.83 2.52 -0.51
0.85 2.58 0.24
0.83 2.53 -0.42
0.86 2.61 0.34
0.83 2.52 -0.33
0.82 2.51 -0.23
0.83 2.54 -0.14
0.84 2.55 -0.05
0.86 2.57 -0.73
0.85 2.54 0.05
0.89 2.69 -0.65
0.85 2.56 0.14
0.84 2.51 -0.51
0.86 2.57 0.24
0.83 2.5 -0.42
0.87 2.61 0.34
0.84 2.51 -0.32
0.88 2.65 0.44
0.83 2.51 -0.23
0.84 2.52 -0.14
0.85 2.55 -0.05
0.87 2.57 -0.73
0.89 2.65 -0.64
0.86 2.55 0.14
0.84 2.51 -0.51
0.86 2.56 0.24
0.84 2.5 -0.42
0.87 2.59 0.34
0.84 2.5 -0.32
0.88 2.63 0.44
0.84 2.5 -0.23
0.84 2.5 -0.14
0.86 2.55 -0.05
0.87 2.57 -0.73
0.9 2.64 -0.64
0.86 2.54 0.14
0.85 2.5 -0.51
0.87 2.56 0.24
0.85 2.5 -0.42
0.87 2.56 0.33
0.85 2.49 -0.32
0.89 2.62 0.44
0.85 2.5 -0.23
0.89 2.6 0.53
0.85 2.5 -0.14
0.86 2.54 -0.05
0.88 2.55 -0.72
0.87 2.53 0.05
0.9 2.62 -0.64
0.87 2.53 0.14
0.85 2.48 -0.51
0.88 2.55 0.24
0.86 2.5 -0.42
0.88 2.55 0.33
0.86 2.48 -0.32
0.89 2.58 0.43
0.86 2.5 -0.23
0.86 2.49 -0.14
0.91 2.64 0.64
0.87 2.52 -0.05
0.88 2.52 -0.71
0.88 2.54 0.05
0.91 2.62 -0.64
0.88 2.53 0.14
0.86 2.47 -0.51
0.88 2.53 0.23
0.87 2.49 -0.42
0.89 2.55 0.33
0.87 2.49 -0.32
0.89 2.57 0.43
0.87 2.49 -0.23
0.9 2.59 0.53
0.87 2.49 -0.14
0.91 2.6 0.64
0.88 2.52 -0.05
0.94 2.69 0.76
0.89 2.52 -0.72
0.88 2.5 0.05
0.91 2.59 -0.63
0.89 2.53 0.14
0.87 2.47 -0.51
0.89 2.54 0.24
0.87 2.47 -0.41
0.9 2.55 0.33
0.87 2.48 -0.32
0.9 2.56 0.43
0.87 2.48 -0.23
0.91 2.59 0.53
0.87 2.48 -0.14
0.92 2.6 0.64
0.89 2.52 -0.05
0.91 2.58 0.73
0.9 2.52 -0.72
0.89 2.5 0.05
0.92 2.58 -0.63
0.9 2.52 0.14
0.88 2.47 -0.51
0.9 2.53 0.24
0.88 2.47 -0.42
0.91 2.54 0.33
0.88 2.48 -0.32
0.91 2.57 0.43
0.88 2.48 -0.23
0.91 2.56 0.53
0.88 2.47 -0.14
0.92 2.59 0.63
0.89 2.51 -0.05
0.91 2.57 0.73
0.91 2.52 -0.72
0.9 2.5 0.05
0.93 2.57 -0.63
0.9 2.51 0.14
0.89 2.46 -0.51
0.91 2.53 0.24
0.89 2.47 -0.42
0.91 2.53 0.33
0.89 2.47 -0.32
0.92 2.56 0.43
0.89 2.48 -0.23
0.92 2.55 0.53
0.89 2.47 -0.14
0.93 2.57 0.63
0.9 2.51 -0.05
0.92 2.56 0.73
0.91 2.51 -0.72
0.91 2.5 0.05
0.94 2.57 -0.63
0.91 2.51 0.14
0.89 2.45 -0.51
0.92 2.53 0.24
0.9 2.47 -0.42
0.92 2.53 0.33
0.9 2.46 -0.32
0.93 2.55 0.43
0.9 2.48 -0.23
0.93 2.55 0.53
0.9 2.47 -0.14
0.94 2.58 0.63
0.91 2.49 -0.05
0.93 2.57 0.73
0.92 2.5 -0.71
0.92 2.49 0.05
0.94 2.56 -0.63
0.92 2.51 0.14
0.9 2.45 -0.51
0.93 2.51 0.23
0.91 2.47 -0.42
0.93 2.53 0.33
0.91 2.47 -0.32
0.94 2.55 0.43
0.91 2.47 -0.23
0.94 2.54 0.53
0.91 2.47 -0.14
0.95 2.58 0.64
0.92 2.5 -0.05
0.95 2.57 0.73
0.92 2.49 -0.71
0.92 2.48 0.05
0.95 2.56 -0.63
0.93 2.51 0.14
0.91 2.45 -0.51
0.93 2.51 0.23
0.91 2.46 -0.41
0.94 2.53 0.33
0.92 2.47 -0.32
0.95 2.55 0.43
0.92 2.47 -0.23
0.94 2.53 0.53
0.92 2.47 -0.14
0.96 2.58 0.64
0.93 2.5 -0.05
0.96 2.57 0.74
0.94 2.49 -0.71
0.94 2.5 0.05
0.96 2.55 -0.63
0.94 2.51 0.14
0.93 2.47 -0.51
0.95 2.52 0.24
0.92 2.46 -0.42
0.94 2.51 0.33
0.94 2.51 -0.33
0.96 2.55 0.43
0.94 2.5 -0.23
0.95 2.53 0.53
0.94 2.5 -0.14
0.97 2.57 0.63
0.94 2.51 -0.05
0.96 2.56 0.73
0.95 2.49 -0.71
0.95 2.5 0.05
0.96 2.54 -0.63
0.96 2.52 0.14
0.94 2.47 -0.51
0.96 2.54 0.24
0.95 2.5 -0.42
0.96 2.52 0.33
0.95 2.49 -0.33
0.97 2.54 0.43
0.95 2.5 -0.23
0.96 2.53 0.53
0.95 2.49 -0.14
0.97 2.56 0.63
0.96 2.52 -0.05
0.98 2.57 0.74
0.95 2.47 -0.71
0.96 2.51 0.05
0.99 2.59 -0.64
0.96 2.49 0.14
0.94 2.45 -0.51
0.97 2.52 0.24
0.96 2.5 -0.42
0.97 2.52 0.33
0.96 2.51 -0.33
0.98 2.55 0.43
0.97 2.52 -0.24
0.98 2.55 0.53
0.96 2.5 -0.14
0.99 2.57 0.64
0.96 2.49 -0.05
0.98 2.56 0.73
0.96 2.47 -0.71
0.97 2.51 0.05
1.06 2.73 -0.68
0.97 2.5 0.14
0.98 2.52 -0.52
0.97 2.51 0.24
0.97 2.5 -0.42
0.98 2.52 0.33
0.97 2.51 -0.33
0.98 2.54 0.43
0.97 2.51 -0.24
0.98 2.53 0.53
0.98 2.52 -0.14
1 2.57 0.64
0.97 2.49 -0.05
0.99 2.56 0.74
0.97 2.46 -0.71
0.98 2.5 0.05
1.01 2.57 -0.64
0.98 2.5 0.14
0.98 2.49 -0.52
0.98 2.51 0.24
0.97 2.48 -0.42
0.98 2.51 0.33
0.98 2.51 -0.33
0.99 2.54 0.43
0.98 2.49 -0.23
0.99 2.52 0.53
0.98 2.51 -0.14
1.01 2.57 0.64
0.98 2.5 -0.05
1 2.56 0.74
0.98 2.48 -0.71
0.99 2.5 0.05
1.01 2.57 -0.64
0.99 2.5 0.14
0.98 2.49 -0.52
0.99 2.51 0.24
0.99 2.49 -0.42
0.99 2.51 0.33
0.99 2.5 -0.33
1.01 2.54 0.43
0.98 2.49 -0.23
1 2.52 0.53
0.99 2.49 -0.14
1.01 2.56 0.64
0.99 2.5 -0.05
1.01 2.55 0.74
1 2.5 -0.72
1 2.5 0.05
1.03 2.57 -0.64
1 2.49 0.14
0.99 2.49 -0.52
1 2.51 0.24
1 2.5 -0.43
1 2.51 0.33
1 2.49 -0.33
1.02 2.54 0.43
0.99 2.49 -0.23
1.01 2.53 0.53
1 2.5 -0.14
1.02 2.56 0.64
1 2.5 -0.05
1.02 2.56 0.74
1.01 2.49 -0.72
1.01 2.51 0.05
1.04 2.57 -0.64
1.01 2.5 0.14
1 2.48 -0.52
1.02 2.52 0.24
1.01 2.5 -0.43
1.01 2.51 0.33
1.01 2.49 -0.33
1.02 2.53 0.43
1 2.49 -0.23
1.02 2.53 0.53
1.01 2.5 -0.14
1.03 2.55 0.64
1.01 2.49 -0.05
1.03 2.55 0.74
1 2.47 -0.71
1.02 2.5 0.05
1.05 2.57 -0.64
1.02 2.51 0.14
1.01 2.48 -0.52
1.02 2.51 0.24
1.02 2.5 -0.43
1.02 2.5 -0.33
1.01 2.48 -0.23
1.02 2.51 -0.14
1.05 2.56 0.64
1.02 2.49 -0.05
1.04 2.55 0.74
1.02 2.47 -0.72
1.02 2.49 0.05
1.06 2.57 -0.64
1.03 2.49 0.14
1.02 2.48 -0.52
1.02 2.49 -0.43
1.03 2.5 -0.33
1.02 2.48 -0.23
1.03 2.5 -0.14
1.02 2.49 -0.05
1.05 2.55 0.74
1.03 2.47 -0.72
1.03 2.48 0.05
1.06 2.55 -0.64
1.04 2.5 0.14
1.03 2.48 -0.52
1.04 2.49 -0.43
1.04 2.5 -0.33
1.97 4.73 0.81
1.03 2.48 -0.24
1.95 4.7 0.99
1.04 2.5 -0.14
1.04 2.5 -0.05
1.04 2.48 -0.72
1.04 2.49 0.05
1.07 2.55 -0.64
1.05 2.49 0.14
1.04 2.48 -0.52
1.05 2.49 -0.43
1.05 2.5 -0.33
1.05 2.49 -0.24
1.98 4.71 0.99
1.05 2.5 -0.14
1.05 2.49 -0.05
1.05 2.47 -0.72
1.06 2.5 0.05
1.08 2.56 -0.64
1.06 2.5 0.14
1.05 2.47 -0.52
1.06 2.5 -0.43
1.06 2.5 -0.33
1.05 2.48 -0.24
1.06 2.5 -0.14
1.06 2.49 -0.05
1.07 2.49 -0.73
1.07 2.49 0.05
1.1 2.56 -0.64
1.07 2.5 0.14
1.06 2.48 -0.52
1.13 2.64 0.25
1.07 2.49 -0.43
1.07 2.5 -0.33
1.06 2.47 -0.24
1.07 2.49 -0.14
1.06 2.49 -0.05
1.1 2.56 -0.75
1.07 2.49 0.05
1.11 2.57 -0.65
1.08 2.51 0.14
1.07 2.48 -0.53
1.12 2.59 0.25
1.07 2.49 -0.43
1.08 2.5 -0.33
1.07 2.48 -0.24
1.08 2.5 -0.14
1.08 2.49 -0.05
0.98 2.26 0.66
1.13 2.59 -0.76
1.09 2.49 0.05
1.12 2.56 -0.65
1.08 2.47 0.14
1.08 2.48 -0.53
0.99 2.27 0.22
1.09 2.49 -0.43
1.09 2.5 -0.33
1.09 2.49 -0.24
1.01 2.31 0.49
1.09 2.49 -0.14
1.09 2.49 -0.05
0.98 2.26 0.66
1.14 2.59 -0.76
1.1 2.5 0.05
1.13 2.57 -0.65
1.07 2.44 0.14
1.09 2.48 -0.53
0.98 2.22 0.21
1.1 2.49 -0.43
1.1 2.49 -0.33
1.1 2.49 -0.24
0.99 2.24 0.48
1.1 2.49 -0.14
1.01 2.3 0.58
1.1 2.5 -0.05
0.99 2.25 0.66
1.15 2.59 -0.76
1.11 2.5 0.05
1.15 2.58 -0.65
1.09 2.45 0.14
1.1 2.48 -0.53
0.99 2.23 0.21
1.11 2.49 -0.43
1.11 2.49 -0.33
1.11 2.49 -0.24
1 2.24 0.48
1.11 2.5 -0.14
1.02 2.3 0.58
1.11 2.49 -0.05
1 2.25 0.66
1.16 2.59 -0.76
1.12 2.49 0.05
1.17 2.6 -0.66
1.12 2.49 0.14
1.11 2.48 -0.53
1.04 2.32 0.22
1.12 2.49 -0.43
1.12 2.5 -0.34
1.11 2.47 -0.24
1.12 2.5 -0.14
1.02 2.26 0.57
1.12 2.49 -0.05
1.01 2.25 0.66
1.17 2.59 -0.76
1.12 2.48 0.05
1.18 2.6 -0.66
1.13 2.49 0.14
1.12 2.48 -0.53
1.12 2.48 -0.43
1.02 2.25 0.3
1.14 2.51 -0.34
1.12 2.48 -0.24
1.13 2.5 -0.14
1.03 2.27 0.57
1.13 2.5 -0.05
1.02 2.24 0.66
1.19 2.6 -0.77
1.14 2.49 0.05
1.19 2.6 -0.66
1.14 2.5 0.14
1.13 2.48 -0.53
1.13 2.48 -0.43
1.01 2.2 0.3
1.14 2.5 -0.34
1.06 2.32 0.4
1.13 2.48 -0.24
1.14 2.49 -0.14
1.02 2.23 0.57
1.14 2.5 -0.05
1.04 2.27 0.67
1.2 2.6 -0.77
1.15 2.5 0.05
1.2 2.61 -0.66
1.15 2.49 0.14
1.14 2.48 -0.53
1.15 2.48 -0.43
1.01 2.19 0.3
1.15 2.48 -0.34
1.03 2.23 0.39
1.15 2.49 -0.24
1.15 2.49 -0.14
1.03 2.23 0.57
1.15 2.5 -0.05
1.01 2.19 0.65
1.21 2.59 -0.77
1.16 2.49 0.05
1.22 2.62 -0.67
1.15 2.48 0.14
1.15 2.47 -0.53
1.15 2.48 -0.43
1.02 2.18 0.3
1.16 2.49 -0.34
1.03 2.22 0.39
1.16 2.49 -0.24
1.16 2.49 -0.14
1.03 2.22 0.56
1.16 2.49 -0.05
1.04 2.23 0.66
1.21 2.58 -0.77
1.17 2.5 0.05
1.23 2.62 -0.67
1.17 2.49 0.14
1.16 2.47 -0.53
1.17 2.48 -0.43
1.01 2.15 0.29
1.17 2.49 -0.34
1.03 2.19 0.38
1.16 2.48 -0.24
1.18 2.5 -0.14
1.04 2.21 0.56
1.17 2.49 -0.05
1.02 2.18 0.65
1.23 2.59 -0.77
1.18 2.49 0.05
1.24 2.62 -0.67
1.19 2.51 0.15
1.17 2.47 -0.53
1.17 2.48 -0.43
1.02 2.16 0.29
1.19 2.5 -0.34
1.04 2.18 0.38
1.18 2.48 -0.24
1.18 2.5 -0.14
1.05 2.21 0.56
1.19 2.5 -0.05
1.03 2.17 0.64
1.24 2.6 -0.77
1.19 2.49 0.05
1.25 2.61 -0.67
1.2 2.51 0.15
1.18 2.47 -0.53
1.18 2.48 -0.43
1.02 2.13 0.29
1.2 2.51 -0.34
1.04 2.18 0.38
1.19 2.49 -0.24
1.19 2.49 -0.14
1.05 2.2 0.56
1.2 2.5 -0.05
1.03 2.16 0.64
1.26 2.6 -0.77
1.2 2.49 0.05
1.26 2.61 -0.67
1.21 2.5 0.15
1.19 2.47 -0.53
1.55 3.22 0.31
1.2 2.48 -0.44
1.02 2.12 0.29
1.2 2.5 -0.34
1.04 2.16 0.38
1.2 2.5 -0.24
1.2 2.48 -0.14
1.05 2.17 0.56
1.21 2.5 -0.05
1.04 2.15 0.64
1.26 2.6 -0.77
1.21 2.49 0.05
1.27 2.62 -0.67
1.22 2.5 0.15
1.2 2.46 -0.53
1.57 3.22 0.31
1.21 2.48 -0.44
1.03 2.12 0.29
1.21 2.49 -0.34
1.04 2.14 0.38
1.21 2.5 -0.24
2.06 4.23 0.91
1.21 2.49 -0.14
1.06 2.18 0.56
1.21 2.5 -0.05
1.05 2.16 0.64
1.28 2.6 -0.78
1.23 2.5 0.05
1.29 2.63 -0.68
1.23 2.5 0.15
1.21 2.47 -0.53
1.52 3.11 0.3
1.22 2.48 -0.44
1.05 2.13 0.29
1.23 2.5 -0.34
1.05 2.14 0.38
1.22 2.48 -0.24
2.08 4.24 0.92
1.22 2.49 -0.15
1.07 2.19 0.56
1.22 2.5 -0.05
1.05 2.15 0.64
1.29 2.6 -0.78
1.23 2.49 0.05
1.3 2.62 -0.68
1.24 2.51 0.15
1.22 2.47 -0.54
1.51 3.05 0.3
1.23 2.47 -0.44
1.05 2.13 0.29
1.24 2.5 -0.34
1.06 2.15 0.38
1.23 2.49 -0.24
2.07 4.17 0.9
1.23 2.49 -0.15
1.09 2.2 0.57
1.24 2.5 -0.05
1.07 2.16 0.64
1.3 2.6 -0.78
1.24 2.48 0.05
1.31 2.62 -0.68
1.25 2.5 0.15
1.23 2.47 -0.54
1.47 2.94 0.29
1.24 2.47 -0.44
1.06 2.13 0.29
1.25 2.5 -0.34
1.08 2.17 0.38
1.25 2.49 -0.24
2.08 4.16 0.9
1.24 2.48 -0.15
1.25 2.5 -0.05
1.1 2.2 0.66
1.31 2.6 -0.78
1.26 2.49 0.05
1.33 2.63 -0.68
1.26 2.5 0.15
1.25 2.47 -0.54
1.38 2.74 0.27
1.25 2.47 -0.44
1.09 2.16 0.3
1.26 2.5 -0.34
1.26 2.5 -0.24
2.08 4.12 0.9
1.25 2.48 -0.15
1.26 2.5 -0.05
1.33 2.61 -0.78
1.27 2.5 0.05
1.34 2.64 -0.68
1.27 2.5 0.15
1.26 2.47 -0.54
1.45 2.85 0.28
1.26 2.48 -0.44
1.1 2.16 0.3
1.27 2.49 -0.34
1.27 2.5 -0.24
1.26 2.49 -0.15
1.27 2.5 -0.05
1.33 2.6 -0.78
1.28 2.5 0.05
1.36 2.64 -0.69
1.28 2.5 0.15
1.27 2.47 -0.54
1.37 2.67 0.26
1.27 2.47 -0.44
1.11 2.17 0.3
1.28 2.49 -0.34
1.28 2.49 -0.24
1.58 3.08 0.67
1.27 2.48 -0.15
2.07 4.04 1.05
1.28 2.5 -0.05
1.34 2.6 -0.78
1.29 2.48 0.05
1.37 2.65 -0.69
1.3 2.51 0.15
1.28 2.47 -0.54
1.28 2.47 -0.44
1.42 2.74 0.38
1.29 2.5 -0.35
1.61 3.11 0.56
1.28 2.48 -0.24
1.59 3.07 0.67
1.29 2.49 -0.15
2.09 4.03 1.05
1.29 2.5 -0.05
1.36 2.6 -0.79
1.3 2.49 0.05
1.38 2.64 -0.69
1.31 2.5 0.15
1.29 2.48 -0.54
1.29 2.47 -0.44
1.41 2.71 0.37
1.3 2.49 -0.35
1.62 3.1 0.55
1.3 2.49 -0.25
1.59 3.05 0.67
1.29 2.48 -0.15
1.3 2.5 -0.05
1.37 2.61 -0.79
1.31 2.49 0.05
1.39 2.64 -0.69
1.31 2.49 0.15
1.31 2.48 -0.55
1.36 2.59 0.26
1.3 2.48 -0.44
1.42 2.71 0.38
1.31 2.49 -0.35
1.6 3.05 0.55
1.31 2.5 -0.25
1.6 3.05 0.67
1.3 2.48 -0.15
1.67 3.18 0.83
1.31 2.5 -0.05
1.38 2.61 -0.79
1.33 2.5 0.05
1.4 2.65 -0.69
1.32 2.5 0.15
1.31 2.48 -0.54
1.37 2.58 0.26
1.32 2.48 -0.44
1.44 2.71 0.38
1.32 2.49 -0.35
1.61 3.05 0.55
1.32 2.5 -0.25
1.62 3.05 0.67
1.32 2.49 -0.15
1.64 3.1 0.81
1.32 2.49 -0.05
1.39 2.6 -0.79
1.33 2.5 0.05
1.42 2.66 -0.7
1.34 2.5 0.15
1.32 2.48 -0.55
1.37 2.55 0.25
1.33 2.49 -0.45
1.46 2.73 0.38
1.33 2.49 -0.35
1.62 3.04 0.55
1.33 2.49 -0.25
1.62 3.04 0.67
1.33 2.49 -0.15
1.65 3.09 0.81
1.33 2.5 -0.05
1.41 2.61 -0.79
1.34 2.49 0.05
1.43 2.65 -0.7
1.35 2.5 0.15
1.34 2.48 -0.55
1.37 2.55 0.25
1.33 2.47 -0.44
1.48 2.74 0.38
1.35 2.5 -0.35
1.64 3.03 0.55
1.34 2.49 -0.25
1.62 3.01 0.67
1.34 2.49 -0.15
1.66 3.08 0.81
1.35 2.5 -0.05
1.41 2.6 -0.79
1.36 2.49 0.05
1.43 2.64 -0.69
1.36 2.5 0.15
1.35 2.49 -0.55
1.38 2.53 0.25
1.35 2.47 -0.45
1.48 2.73 0.38
1.36 2.5 -0.35
1.65 3.03 0.55
1.36 2.49 -0.25
1.64 3.02 0.67
1.35 2.48 -0.15
1.68 3.1 0.81
1.36 2.5 -0.05
1.43 2.6 -0.8
1.37 2.49 0.05
1.45 2.64 -0.69
1.37 2.49 0.15
1.36 2.49 -0.55
1.39 2.53 0.25
1.36 2.48 -0.45
1.52 2.78 0.39
1.36 2.49 -0.35
1.66 3.03 0.55
1.37 2.5 -0.25
1.65 3.01 0.67
1.36 2.48 -0.15
1.67 3.05 0.8
1.37 2.5 -0.05
1.43 2.59 -0.79
1.38 2.5 0.05
1.46 2.64 -0.7
1.38 2.5 0.15
1.37 2.48 -0.55
1.4 2.53 0.25
1.37 2.49 -0.45
1.56 2.81 0.39
1.38 2.49 -0.35
1.38 2.5 -0.25
1.67 3.03 0.67
1.37 2.48 -0.15
1.72 3.11 0.82
1.38 2.5 -0.05
1.43 2.56 -0.79
1.39 2.5 0.05
1.46 2.62 -0.69
1.39 2.5 0.15
1.38 2.48 -0.55
1.4 2.52 0.25
1.38 2.48 -0.45
1.57 2.81 0.39
1.39 2.49 -0.35
1.64 2.94 0.53
1.39 2.49 -0.25
1.69 3.04 0.68
1.4 2.5 -0.15
1.72 3.09 0.82
1.39 2.5 -0.05
1.43 2.55 -0.78
1.4 2.49 0.05
1.47 2.61 -0.69
1.4 2.5 0.15
1.4 2.49 -0.55
1.41 2.52 0.25
1.39 2.47 -0.45
1.57 2.79 0.39
1.4 2.49 -0.35
1.61 2.87 0.52
1.4 2.49 -0.25
1.69 3.01 0.67
1.41 2.51 -0.15
1.76 3.13 0.83
1.41 2.5 -0.05
2.06 3.66 1.13
1.44 2.54 -0.78
1.41 2.49 0.05
1.46 2.59 -0.69
1.42 2.5 0.15
1.41 2.49 -0.56
1.42 2.52 0.25
1.4 2.48 -0.45
1.56 2.76 0.39
1.41 2.49 -0.35
1.64 2.89 0.53
1.41 2.49 -0.25
1.71 3.02 0.67
1.42 2.5 -0.15
1.42 2.51 -0.05
1.44 2.53 -0.78
1.43 2.5 0.05
1.47 2.57 -0.68
1.42 2.49 0.15
1.42 2.49 -0.56
1.44 2.52 0.25
1.42 2.48 -0.45
1.58 2.77 0.39
1.42 2.48 -0.35
1.65 2.88 0.53
1.43 2.5 -0.25
1.76 3.08 0.69
1.42 2.48 -0.15
1.44 2.51 -0.05
1.45 2.51 -0.78
1.44 2.5 0.05
1.47 2.56 -0.68
1.44 2.5 0.15
1.43 2.48 -0.56
1.45 2.52 0.25
1.43 2.49 -0.45
1.59 2.77 0.39
1.43 2.49 -0.35
1.64 2.84 0.52
1.44 2.5 -0.25
1.43 2.49 -0.15
2.12 3.68 0.98
1.44 2.5 -0.05
1.45 2.49 -0.77
1.45 2.5 0.05
1.48 2.55 -0.68
1.45 2.5 0.15
1.44 2.48 -0.56
1.46 2.51 0.25
1.44 2.49 -0.46
1.61 2.77 0.39
1.45 2.49 -0.35
1.65 2.85 0.52
1.44 2.49 -0.25
2.09 3.61 0.81
1.46 2.51 -0.15
2.09 3.61 0.96
1.45 2.5 -0.05
1.45 2.48 -0.77
1.46 2.49 0.05
1.48 2.54 -0.68
1.47 2.51 0.15
1.46 2.49 -0.56
1.47 2.52 0.26
1.45 2.48 -0.45
1.46 2.5 -0.36
1.67 2.85 0.52
1.45 2.49 -0.25
1.47 2.51 -0.15
2.07 3.55 0.95
1.46 2.51 -0.05
1.45 2.47 -0.77
1.47 2.5 0.05
1.49 2.53 -0.68
1.48 2.51 0.15
1.47 2.49 -0.56
1.49 2.52 0.26
1.46 2.48 -0.46
1.62 2.75 0.39
1.47 2.5 -0.36
1.7 2.88 0.53
1.47 2.49 -0.25
1.92 3.27 0.74
1.47 2.5 -0.15
2.12 3.59 0.96
1.48 2.51 -0.05
1.46 2.46 -0.77
1.49 2.5 0.05
1.49 2.51 -0.67
1.49 2.5 0.15
1.48 2.5 -0.56
1.5 2.53 0.26
1.48 2.49 -0.46
1.63 2.74 0.39
1.48 2.49 -0.36
1.69 2.84 0.52
1.48 2.5 -0.25
1.91 3.22 0.73
1.48 2.5 -0.15
2.1 3.54 0.95
1.49 2.51 -0.05
1.46 2.44 -0.76
1.5 2.51 0.05
1.49 2.5 -0.67
1.5 2.51 0.15
1.49 2.49 -0.56
1.51 2.53 0.26
1.49 2.49 -0.46
1.64 2.73 0.39
1.49 2.5 -0.36
1.69 2.83 0.52
1.49 2.49 -0.25
1.91 3.2 0.72
1.5 2.51 -0.15
2.12 3.53 0.95
1.5 2.51 -0.05
1.47 2.43 -0.76
1.51 2.51 0.05
1.5 2.48 -0.67
1.52 2.51 0.15
1.5 2.49 -0.56
1.52 2.52 0.26
1.5 2.49 -0.46
1.62 2.69 0.39
1.51 2.5 -0.36
1.73 2.86 0.53
1.5 2.49 -0.25
1.92 3.19 0.72
1.52 2.51 -0.15
2.12 3.52 0.95
1.51 2.51 -0.05
2.07 3.43 1.07
1.47 2.42 -0.76
1.52 2.51 0.05
1.51 2.48 -0.67
1.53 2.51 0.15
1.51 2.49 -0.57
1.54 2.53 0.26
1.51 2.48 -0.46
1.63 2.68 0.39
1.53 2.51 -0.36
1.75 2.88 0.53
1.52 2.49 -0.26
1.92 3.16 0.72
1.53 2.51 -0.15
2.17 3.56 0.96
1.53 2.51 -0.05
1.47 2.4 -0.75
1.54 2.5 0.05
1.5 2.45 -0.66
1.54 2.52 0.15
1.55 2.53 0.26
1.52 2.48 -0.46
1.67 2.72 0.39
1.54 2.5 -0.36
1.75 2.85 0.53
1.53 2.5 -0.26
1.93 3.15 0.72
1.54 2.5 -0.15
1.54 2.51 -0.05
1.48 2.4 -0.75
1.55 2.51 0.05
1.51 2.44 -0.66
1.55 2.51 0.15
1.54 2.49 -0.57
1.57 2.54 0.26
1.54 2.49 -0.46
1.65 2.67 0.39
1.54 2.5 -0.36
1.79 2.9 0.54
1.55 2.5 -0.26
1.91 3.1 0.71
1.55 2.51 -0.15
2.19 3.55 0.96
1.55 2.51 -0.05
2.11 3.41 1.07
1.48 2.38 -0.75
1.56 2.51 0.05
1.52 2.43 -0.66
1.56 2.51 0.16
1.53 2.46 -0.56
1.58 2.54 0.26
1.55 2.49 -0.46
1.55 2.5 -0.36
1.79 2.88 0.54
1.56 2.5 -0.26
1.91 3.07 0.7
1.56 2.51 -0.15
2.15 3.46 0.94
1.56 2.51 -0.05
1.49 2.37 -0.75
1.58 2.51 0.05
1.52 2.42 -0.66
1.58 2.51 0.16
1.54 2.45 -0.56
1.59 2.53 0.26
1.56 2.49 -0.47
1.75 2.78 0.4
1.57 2.51 -0.36
1.88 3 0.56
1.57 2.5 -0.26
1.91 3.04 0.7
1.58 2.51 -0.16
1.58 2.51 -0.05
1.5 2.37 -0.75
1.58 2.5 0.05
1.52 2.41 -0.66
1.59 2.52 0.16
1.54 2.44 -0.56
1.6 2.53 0.26
1.57 2.49 -0.47
1.78 2.82 0.41
1.59 2.51 -0.36
1.93 3.05 0.57
1.58 2.5 -0.26
1.9 3 0.69
1.59 2.51 -0.16
1.59 2.51 -0.05
1.5 2.36 -0.75
1.6 2.51 0.05
1.51 2.38 -0.65
1.61 2.52 0.16
1.55 2.43 -0.56
1.62 2.54 0.26
1.58 2.49 -0.47
1.6 2.51 -0.37
1.9 2.98 0.56
1.6 2.5 -0.26
1.93 3.03 0.7
1.59 2.5 -0.16
1.61 2.52 -0.05
1.53 2.38 -0.76
1.61 2.51 0.05
1.53 2.39 -0.66
1.61 2.51 0.16
1.55 2.42 -0.56
1.63 2.54 0.26
1.6 2.49 -0.47
1.6 2.5 -0.36
1.91 2.98 0.56
1.61 2.51 -0.26
1.9 2.96 0.68
1.61 2.5 -0.16
2.15 3.35 0.92
1.62 2.52 -0.05
1.53 2.37 -0.76
1.63 2.52 0.05
1.55 2.39 -0.66
1.63 2.52 0.16
1.55 2.4 -0.55
1.64 2.54 0.26
1.62 2.51 -0.37
1.63 2.52 -0.26
1.92 2.96 0.69
1.62 2.51 -0.16
2.16 3.34 0.92
1.62 2.51 -0.05
2.1 3.25 1.04
1.53 2.35 -0.75
1.64 2.51 0.05
1.56 2.4 -0.66
1.64 2.52 0.16
1.56 2.39 -0.55
1.65 2.53 0.26
1.62 2.49 -0.47
1.63 2.51 -0.37
1.63 2.5 -0.26
1.91 2.93 0.68
1.63 2.51 -0.16
2.17 3.33 0.92
1.63 2.51 -0.05
1.55 2.36 -0.76
1.64 2.5 0.05
1.57 2.39 -0.66
1.66 2.52 0.16
1.58 2.4 -0.56
1.66 2.53 0.27
1.62 2.47 -0.47
1.65 2.52 -0.37
1.65 2.51 -0.26
1.92 2.92 0.68
1.65 2.51 -0.16
1.65 2.52 -0.05
1.56 2.36 -0.76
1.66 2.5 0.05
1.57 2.38 -0.66
1.67 2.53 0.16
1.58 2.39 -0.56
1.68 2.54 0.27
1.63 2.46 -0.47
1.66 2.52 -0.37
1.66 2.51 -0.26
1.93 2.92 0.68
1.65 2.5 -0.16
1.67 2.52 -0.05
1.58 2.36 -0.76
1.67 2.51 0.05
1.59 2.38 -0.66
1.68 2.52 0.16
1.59 2.38 -0.56
1.69 2.54 0.27
1.64 2.46 -0.47
1.85 2.77 0.41
1.67 2.5 -0.37
1.92 2.88 0.55
1.68 2.52 -0.26
2.05 3.07 0.72
1.67 2.5 -0.16
1.68 2.52 -0.05
1.59 2.36 -0.76
1.69 2.51 0.05
1.6 2.39 -0.66
1.69 2.52 0.16
1.6 2.38 -0.56
1.71 2.54 0.27
1.65 2.45 -0.47
1.86 2.77 0.41
1.68 2.5 -0.37
1.9 2.83 0.54
1.69 2.51 -0.26
1.68 2.51 -0.16
1.69 2.52 -0.05
1.6 2.36 -0.76
1.7 2.51 0.05
1.62 2.39 -0.67
1.71 2.52 0.16
1.61 2.38 -0.56
1.71 2.53 0.27
1.65 2.44 -0.47
1.87 2.76 0.41
1.7 2.51 -0.37
1.93 2.85 0.54
1.7 2.51 -0.26
1.7 2.51 -0.16
1.7 2.51 -0.05
1.66 2.43 -0.79
1.71 2.51 0.05
1.62 2.38 -0.66
1.72 2.52 0.16
1.62 2.38 -0.56
1.72 2.53 0.27
1.64 2.41 -0.46
1.92 2.81 0.42
1.72 2.52 -0.37
1.93 2.83 0.54
1.71 2.51 -0.27
1.71 2.51 -0.16
2.13 3.13 0.87
1.72 2.52 -0.05
1.72 2.51 -0.82
1.72 2.51 0.05
1.63 2.37 -0.66
1.73 2.53 0.16
1.63 2.37 -0.56
1.74 2.53 0.27
1.65 2.4 -0.46
1.92 2.8 0.42
1.73 2.52 -0.37
1.93 2.81 0.54
1.73 2.51 -0.27
2.12 3.09 0.73
1.72 2.51 -0.16
2.13 3.1 0.87
1.73 2.53 -0.05
1.73 2.5 -0.82
1.74 2.51 0.05
1.64 2.37 -0.67
1.74 2.52 0.16
1.65 2.38 -0.56
1.76 2.54 0.27
1.66 2.4 -0.46
1.95 2.82 0.42
1.73 2.51 -0.37
1.94 2.8 0.54
1.74 2.51 -0.27
2.1 3.04 0.72
1.74 2.51 -0.16
2.13 3.09 0.87
1.75 2.53 -0.05
1.74 2.49 -0.81
1.75 2.52 0.05
1.66 2.38 -0.67
1.76 2.52 0.16
1.65 2.37 -0.56
1.77 2.54 0.27
1.68 2.41 -0.46
1.75 2.51 -0.38
1.99 2.86 0.55
1.75 2.51 -0.27
2.1 3.02 0.71
1.76 2.53 -0.16
1.76 2.52 -0.05
1.85 2.66 0.87
1.74 2.47 -0.81
1.76 2.51 0.05
1.67 2.38 -0.67
1.77 2.52 0.16
1.66 2.36 -0.56
1.78 2.53 0.27
1.69 2.4 -0.46
1.77 2.52 -0.38
2.13 3.04 0.59
1.76 2.51 -0.27
1.77 2.53 -0.16
1.87 2.67 0.75
1.77 2.52 -0.05
1.85 2.63 0.86
1.74 2.46 -0.81
1.77 2.5 0.05
1.75 2.47 -0.7
1.79 2.53 0.16
1.68 2.37 -0.56
1.8 2.54 0.27
1.69 2.39 -0.46
1.79 2.53 -0.38
1.77 2.5 -0.27
1.84 2.61 0.62
1.78 2.52 -0.16
1.87 2.65 0.75
1.79 2.53 -0.05
1.86 2.63 0.86
1.75 2.45 -0.81
1.79 2.51 0.05
1.84 2.59 -0.73
1.8 2.53 0.16
1.69 2.38 -0.57
1.81 2.55 0.27
1.7 2.39 -0.46
1.87 2.62 0.4
1.8 2.53 -0.38
1.86 2.62 0.51
1.79 2.51 -0.27
1.85 2.6 0.62
1.78 2.5 -0.16
1.89 2.66 0.75
1.8 2.53 -0.05
1.85 2.6 0.85
1.76 2.45 -0.81
1.81 2.52 0.05
1.85 2.58 -0.73
1.81 2.53 0.16
1.7 2.37 -0.57
1.83 2.55 0.27
1.72 2.4 -0.47
1.85 2.58 0.39
1.8 2.51 -0.38
1.87 2.61 0.51
1.8 2.51 -0.27
1.87 2.61 0.62
1.8 2.51 -0.16
1.88 2.62 0.74
1.82 2.53 -0.05
1.87 2.61 0.86
1.77 2.45 -0.81
1.82 2.52 0.05
1.85 2.56 -0.73
1.83 2.53 0.16
1.71 2.37 -0.57
1.85 2.56 0.28
1.73 2.4 -0.47
1.87 2.58 0.39
1.82 2.52 -0.38
1.88 2.61 0.51
1.81 2.51 -0.27
1.88 2.6 0.62
1.81 2.51 -0.16
1.89 2.61 0.74
1.83 2.53 -0.05
1.89 2.61 0.86
1.77 2.44 -0.81
1.84 2.53 0.05
1.87 2.56 -0.73
1.85 2.54 0.16
1.72 2.37 -0.57
1.85 2.55 0.28
1.74 2.4 -0.47
1.87 2.57 0.39
1.82 2.51 -0.38
1.87 2.57 0.5
1.83 2.51 -0.27
1.83 2.51 -0.16
1.9 2.61 0.75
1.84 2.53 -0.05
1.9 2.61 0.87
1.78 2.43 -0.81
1.84 2.52 0.05
1.86 2.54 -0.73
1.86 2.54 0.16
1.74 2.37 -0.57
1.87 2.55 0.28
1.75 2.39 -0.47
1.88 2.57 0.39
1.84 2.51 -0.38
1.9 2.59 0.51
1.84 2.5 -0.27
1.9 2.59 0.62
1.84 2.51 -0.16
1.92 2.62 0.75
1.86 2.54 -0.06
1.92 2.61 0.87
1.8 2.44 -0.81
1.87 2.53 0.05
1.86 2.52 -0.72
1.88 2.54 0.17
1.75 2.37 -0.57
1.89 2.56 0.28
1.76 2.39 -0.47
1.9 2.57 0.39
1.85 2.5 -0.38
1.91 2.59 0.51
1.86 2.52 -0.27
1.92 2.6 0.63
1.87 2.53 -0.16
1.94 2.62 0.75
1.87 2.53 -0.06
1.93 2.62 0.87
1.82 2.44 -0.81
1.88 2.53 0.05
1.87 2.52 -0.72
1.88 2.53 0.17
1.76 2.37 -0.57
1.91 2.57 0.28
1.78 2.39 -0.47
1.91 2.57 0.39
1.85 2.48 -0.38
1.93 2.6 0.51
1.88 2.53 -0.28
1.94 2.6 0.63
1.88 2.53 -0.17
1.95 2.62 0.75
1.89 2.54 -0.06
1.95 2.62 0.88
1.82 2.43 -0.81
1.9 2.53 0.06
1.88 2.51 -0.72
1.9 2.53 0.17
1.77 2.37 -0.58
1.92 2.56 0.28
1.8 2.4 -0.47
1.93 2.57 0.39
1.86 2.47 -0.38
1.95 2.6 0.51
1.89 2.52 -0.28
1.95 2.6 0.63
1.9 2.53 -0.17
1.97 2.62 0.76
1.9 2.53 -0.06
1.97 2.62 0.88
1.83 2.42 -0.81
1.91 2.53 0.06
1.89 2.5 -0.72
1.92 2.54 0.17
1.79 2.37 -0.58
1.93 2.56 0.28
1.81 2.4 -0.48
1.94 2.58 0.4
1.86 2.47 -0.38
1.96 2.59 0.51
1.9 2.52 -0.28
1.96 2.6 0.63
1.92 2.54 -0.17
1.98 2.62 0.76
1.92 2.54 -0.06
1.98 2.62 0.88
1.84 2.42 -0.82
1.92 2.52 0.06
1.89 2.49 -0.72
1.94 2.55 0.17
1.8 2.37 -0.58
1.95 2.56 0.28
1.82 2.39 -0.48
1.96 2.58 0.4
1.88 2.47 -0.38
1.97 2.59 0.52
1.92 2.52 -0.28
1.97 2.59 0.63
1.9 2.5 -0.16
2 2.63 0.76
1.93 2.54 -0.06
1.99 2.62 0.88
1.86 2.42 -0.82
1.94 2.53 0.06
1.9 2.48 -0.72
1.95 2.55 0.17
2.36 3.08 -0.75
1.96 2.56 0.28
1.83 2.39 -0.48
1.97 2.57 0.4
1.88 2.45 -0.38
1.99 2.6 0.52
1.94 2.53 -0.28
1.99 2.6 0.64
1.93 2.52 -0.17
2.02 2.63 0.77
1.95 2.54 -0.06
2.01 2.63 0.89
1.87 2.42 -0.82
1.96 2.54 0.06
1.91 2.47 -0.72
1.96 2.54 0.17
2.49 3.23 -0.79
1.97 2.56 0.28
1.84 2.39 -0.48
1.99 2.57 0.4
1.88 2.44 -0.38
2 2.6 0.52
1.96 2.54 -0.28
2 2.6 0.64
1.97 2.55 -0.17
2.02 2.62 0.76
1.97 2.55 -0.06
2.03 2.63 0.89
1.88 2.43 -0.82
1.97 2.54 0.06
1.91 2.46 -0.72
1.97 2.54 0.17
2.51 3.23 -0.79
1.99 2.56 0.28
1.86 2.4 -0.48
2 2.58 0.4
1.9 2.44 -0.38
2.01 2.59 0.52
1.98 2.55 -0.28
2.02 2.6 0.64
1.99 2.56 -0.17
2.04 2.62 0.77
1.97 2.53 -0.06
2.04 2.63 0.89
1.89 2.42 -0.82
1.99 2.54 0.06
1.93 2.47 -0.72
1.99 2.54 0.17
2.53 3.23 -0.8
2 2.55 0.28
1.88 2.4 -0.48
2.02 2.58 0.4
1.91 2.44 -0.38
2.03 2.6 0.52
1.98 2.53 -0.28
2.03 2.59 0.64
2 2.56 -0.17
2.06 2.63 0.77
1.99 2.54 -0.06
2.05 2.62 0.89
1.9 2.42 -0.82
1.99 2.53 0.06
1.94 2.47 -0.72
2.01 2.55 0.17
2.55 3.24 -0.8
2.01 2.56 0.28
1.88 2.39 -0.48
2.04 2.58 0.4
1.92 2.44 -0.38
2.05 2.6 0.52
1.99 2.53 -0.28
2.04 2.59 0.64
2.01 2.54 -0.17
2.07 2.63 0.77
2 2.54 -0.06
2.07 2.63 0.9
1.93 2.43 -0.83
2.01 2.53 0.06
1.95 2.46 -0.73
2.03 2.55 0.17
2.57 3.24 -0.8
2.03 2.56 0.29
1.89 2.39 -0.48
2.04 2.57 0.4
1.94 2.44 -0.38
2.06 2.59 0.52
2.01 2.53 -0.28
2.05 2.59 0.64
2.02 2.54 -0.17
2.09 2.63 0.78
2.02 2.54 -0.06
2.09 2.64 0.9
1.94 2.43 -0.83
2.03 2.54 0.06
1.97 2.46 -0.73
2.03 2.54 0.17
2.59 3.24 -0.81
2.05 2.56 0.29
1.91 2.39 -0.48
2.06 2.58 0.4
1.94 2.43 -0.38
2.07 2.59 0.53
2.03 2.54 -0.28
2.07 2.59 0.65
2.03 2.54 -0.17
2.1 2.63 0.78
2.03 2.54 -0.06
2.11 2.64 0.91
1.96 2.43 -0.84
2.04 2.54 0.06
1.98 2.46 -0.73
2.05 2.55 0.17
2.61 3.24 -0.81
2.06 2.56 0.29
1.93 2.39 -0.49
2.07 2.57 0.41
1.96 2.43 -0.38
2.08 2.58 0.53
2.04 2.54 -0.28
2.09 2.6 0.65
2.05 2.55 -0.17
2.12 2.63 0.78
2.04 2.53 -0.06
2.13 2.64 0.91
1.96 2.42 -0.84
2.05 2.53 0.06
2 2.46 -0.73
2.07 2.55 0.17
2.62 3.23 -0.81
2.07 2.56 0.29
1.93 2.38 -0.49
2.09 2.58 0.41
1.98 2.44 -0.39
2.1 2.59 0.53
2.05 2.53 -0.28
2.11 2.6 0.65
2.07 2.55 -0.17
2.14 2.64 0.78
2.05 2.53 -0.06
2.15 2.65 0.91
1.98 2.42 -0.84
2.07 2.53 0.06
2.01 2.46 -0.73
2.09 2.56 0.17
2.65 3.24 -0.81
2.09 2.56 0.29
1.94 2.38 -0.49
2.1 2.58 0.41
1.99 2.44 -0.39
2.12 2.59 0.53
2.07 2.53 -0.29
2.12 2.6 0.65
2.08 2.55 -0.17
2.16 2.65 0.79
2.08 2.54 -0.06
2.5 3.06 1.06
2 2.43 -0.84
2.09 2.54 0.06
2.02 2.45 -0.73
2.1 2.55 0.17
2.67 3.24 -0.82
2.11 2.57 0.29
1.96 2.39 -0.49
2.11 2.57 0.41
2 2.44 -0.39
2.14 2.6 0.53
2.08 2.53 -0.29
2.14 2.6 0.65
2.1 2.55 -0.17
2.23 2.71 0.81
2.09 2.55 -0.06
2.52 3.06 1.06
2.03 2.45 -0.85
2.11 2.54 0.06
2.04 2.46 -0.74
2.11 2.55 0.17
2.69 3.25 -0.82
2.13 2.58 0.29
1.99 2.4 -0.49
2.13 2.57 0.41
2.02 2.43 -0.39
2.15 2.6 0.53
2.11 2.54 -0.29
2.17 2.62 0.66
2.12 2.55 -0.17
2.52 3.05 0.91
2.11 2.55 -0.06
2.52 3.05 1.06
2.04 2.44 -0.85
2.12 2.54 0.06
2.05 2.46 -0.74
2.13 2.56 0.17
2.7 3.24 -0.82
2.15 2.58 0.29
1.99 2.39 -0.49
2.15 2.57 0.41
2.03 2.43 -0.39
2.16 2.59 0.54
2.12 2.54 -0.29
2.48 2.98 0.75
2.13 2.56 -0.17
2.52 3.03 0.91
2.12 2.54 -0.06
2.52 3.02 1.05
2.04 2.43 -0.85
2.14 2.55 0.06
2.08 2.47 -0.75
2.15 2.56 0.18
2.71 3.23 -0.82
2.16 2.57 0.29
2.01 2.4 -0.5
2.17 2.58 0.41
2.05 2.44 -0.39
2.2 2.62 0.54
2.13 2.53 -0.29
2.52 3 0.76
2.15 2.56 -0.18
2.53 3.01 0.91
2.14 2.55 -0.06
2.51 2.99 1.05
2.06 2.44 -0.86
2.15 2.54 0.06
2.09 2.47 -0.75
2.16 2.56 0.18
2.73 3.23 -0.82
2.18 2.58 0.3
2.02 2.39 -0.49
2.2 2.6 0.42
2.07 2.44 -0.39
2.53 2.99 0.62
2.15 2.54 -0.29
2.51 2.97 0.76
2.16 2.56 -0.18
2.53 3 0.91
2.16 2.56 -0.06
2.52 2.97 1.04
2.09 2.45 -0.86
2.17 2.55 0.06
2.1 2.47 -0.75
2.19 2.56 0.18
2.72 3.19 -0.82
2.22 2.61 0.3
2.03 2.39 -0.5
2.52 2.95 0.48
2.08 2.44 -0.39
2.53 2.97 0.62
2.17 2.55 -0.29
2.52 2.96 0.75
2.18 2.55 -0.18
2.54 2.98 0.9
2.18 2.56 -0.06
2.52 2.95 1.04
2.09 2.44 -0.86
2.2 2.56 0.06
2.11 2.47 -0.75
2.21 2.58 0.18
2.7 3.15 -0.81
2.54 2.96 0.34
2.05 2.39 -0.5
2.53 2.96 0.48
2.09 2.43 -0.39
2.53 2.96 0.62
2.19 2.55 -0.29
2.52 2.94 0.75
2.19 2.55 -0.18
2.52 2.94 0.9
2.2 2.57 -0.06
2.52 2.94 1.04
2.11 2.44 -0.87
2.25 2.6 0.06
2.13 2.47 -0.75
2.54 2.94 0.2
2.7 3.13 -0.8
2.54 2.94 0.34
2.08 2.4 -0.5
2.54 2.94 0.48
2.1 2.44 -0.4
2.53 2.93 0.61
2.2 2.55 -0.29
2.52 2.92 0.75
2.21 2.56 -0.18
2.53 2.93 0.89
2.23 2.58 -0.06
2.52 2.91 1.03
2.12 2.43 -0.86
2.43 2.8 0.06
2.16 2.48 -0.76
2.54 2.92 0.2
2.71 3.11 -0.8
2.54 2.92 0.34
2.09 2.41 -0.5
2.54 2.93 0.48
2.12 2.44 -0.4
2.53 2.91 0.61
2.24 2.57 -0.3
2.52 2.9 0.75
2.48 2.86 -0.2
2.53 2.91 0.89
2.43 2.8 -0.06
2.52 2.89 1.03
2.14 2.44 -0.87
2.42 2.76 0.06
2.17 2.48 -0.76
2.54 2.9 0.2
2.71 3.1 -0.8
2.54 2.9 0.34
2.1 2.4 -0.5
2.54 2.9 0.47
2.14 2.44 -0.4
2.53 2.89 0.61
2.51 2.86 -0.33
2.52 2.88 0.74
2.51 2.86 -0.2
2.53 2.89 0.89
2.43 2.77 -0.06
2.51 2.87 1.02
2.16 2.45 -0.87
2.42 2.75 0.06
2.18 2.47 -0.76
2.54 2.88 0.2
2.7 3.06 -0.79
2.54 2.88 0.34
2.12 2.4 -0.51
2.54 2.87 0.47
2.16 2.45 -0.4
2.53 2.87 0.61
2.51 2.85 -0.33
2.52 2.86 0.74
2.5 2.84 -0.2
2.53 2.87 0.88
2.44 2.76 -0.06
2.52 2.86 1.02
2.17 2.44 -0.87
2.43 2.74 0.06
2.2 2.48 -0.77
2.53 2.85 0.2
2.6 2.93 -0.76
2.54 2.86 0.33
2.14 2.41 -0.51
2.53 2.85 0.47
2.16 2.44 -0.4
2.53 2.85 0.6
2.51 2.83 -0.33
2.52 2.84 0.74
2.51 2.82 -0.2
2.53 2.84 0.88
2.44 2.74 -0.06
2.53 2.84 1.02
2.19 2.45 -0.88
2.42 2.71 0.06
2.22 2.48 -0.77
2.54 2.84 0.2
2.6 2.9 -0.76
2.54 2.84 0.33
2.16 2.41 -0.51
2.54 2.84 0.47
2.18 2.44 -0.4
2.53 2.83 0.6
2.51 2.81 -0.33
2.53 2.82 0.74
2.54 2.84 -0.2
2.53 2.83 0.88
2.43 2.72 -0.06
2.52 2.82 1.01
2.19 2.44 -0.88
2.43 2.69 0.06
2.24 2.48 -0.77
2.54 2.82 0.2
2.62 2.9 -0.76
2.53 2.81 0.33
2.16 2.4 -0.51
2.54 2.82 0.47
2.2 2.45 -0.4
2.54 2.82 0.6
2.5 2.78 -0.33
2.52 2.8 0.73
2.54 2.82 -0.2
2.53 2.81 0.87
2.43 2.7 -0.06
2.52 2.8 1.01
2.21 2.44 -0.88
2.42 2.67 0.06
2.25 2.48 -0.77
2.54 2.8 0.2
2.63 2.9 -0.76
2.54 2.8 0.33
2.17 2.4 -0.51
2.53 2.79 0.46
2.22 2.45 -0.41
2.54 2.8 0.6
2.5 2.76 -0.33
2.52 2.78 0.73
2.53 2.79 -0.2
2.53 2.79 0.87
2.43 2.68 -0.06
2.52 2.78 1.01
2.23 2.45 -0.89
2.42 2.66 0.06
2.26 2.47 -0.77
2.54 2.78 0.2
2.64 2.89 -0.76
2.54 2.78 0.33
2.2 2.4 -0.52
2.53 2.77 0.46
2.24 2.45 -0.41
2.54 2.78 0.6
2.5 2.74 -0.32
2.52 2.76 0.73
2.54 2.78 -0.2
2.53 2.77 0.87
2.44 2.67 -0.06
2.52 2.76 1
2.25 2.45 -0.89
2.44 2.65 0.06
2.29 2.49 -0.78
2.54 2.76 0.2
2.64 2.87 -0.76
2.54 2.76 0.33
2.21 2.4 -0.52
2.53 2.75 0.46
2.25 2.44 -0.41
2.54 2.76 0.59
2.51 2.73 -0.32
2.53 2.75 0.73
2.48 2.7 -0.19
2.53 2.75 0.86
2.44 2.65 -0.06
2.52 2.74 1
2.27 2.45 -0.89
2.44 2.64 0.06
2.58 2.79 -0.88
2.53 2.73 0.2
2.63 2.84 -0.75
2.54 2.74 0.33
2.23 2.41 -0.52
2.54 2.74 0.46
2.26 2.44 -0.41
2.53 2.74 0.59
2.51 2.71 -0.32
2.53 2.73 0.72
2.55 2.76 -0.2
2.53 2.73 0.86
2.44 2.63 -0.06
2.52 2.73 1
2.28 2.44 -0.9
2.45 2.63 0.06
2.64 2.83 -0.89
2.54 2.72 0.19
2.64 2.83 -0.75
2.54 2.72 0.33
2.24 2.4 -0.52
2.55 2.73 0.46
2.28 2.44 -0.41
2.53 2.72 0.59
2.51 2.69 -0.32
2.52 2.71 0.72
2.51 2.69 -0.19
2.53 2.72 0.86
2.45 2.62 -0.06
2.52 2.7 0.99
2.3 2.45 -0.9
2.46 2.62 0.06
2.64 2.81 -0.89
2.54 2.71 0.19
2.64 2.81 -0.75
2.54 2.7 0.32
2.25 2.4 -0.52
2.55 2.71 0.46
2.3 2.45 -0.41
2.54 2.7 0.59
2.51 2.67 -0.32
2.52 2.68 0.72
2.56 2.73 -0.2
2.54 2.7 0.86
2.45 2.61 -0.06
2.52 2.68 0.98
2.32 2.46 -0.91
2.44 2.58 0.06
2.63 2.78 -0.88
2.54 2.68 0.19
2.64 2.79 -0.75
2.54 2.69 0.32
2.27 2.4 -0.52
2.54 2.69 0.45
2.32 2.45 -0.41
2.54 2.69 0.59
2.52 2.66 -0.32
2.52 2.67 0.71
2.55 2.7 -0.19
2.54 2.69 0.85
2.45 2.6 -0.06
2.52 2.66 0.98
2.35 2.47 -0.91
2.48 2.6 0.06
2.63 2.76 -0.88
2.53 2.66 0.19
2.64 2.77 -0.74
2.54 2.67 0.32
2.29 2.4 -0.52
2.54 2.67 0.45
2.33 2.45 -0.41
2.54 2.67 0.58
2.52 2.64 -0.32
2.53 2.65 0.71
2.53 2.66 -0.19
2.53 2.66 0.85
2.46 2.59 -0.06
2.52 2.64 0.98
2.37 2.47 -0.92
2.47 2.58 0.06
2.64 2.75 -0.88
2.53 2.64 0.19
2.63 2.74 -0.74
2.54 2.65 0.32
2.31 2.41 -0.53
2.55 2.66 0.45
2.34 2.45 -0.42
2.53 2.64 0.58
2.53 2.63 -0.32
2.53 2.64 0.71
2.54 2.65 -0.19
2.53 2.64 0.84
2.45 2.56 -0.06
2.52 2.63 0.98
2.38 2.46 -0.92
2.47 2.56 0.06
2.65 2.75 -0.88
2.53 2.62 0.19
2.63 2.73 -0.74
2.54 2.63 0.32
2.33 2.41 -0.53
2.55 2.64 0.45
2.36 2.45 -0.42
2.54 2.63 0.58
2.53 2.62 0.71
2.56 2.65 -0.19
2.53 2.62 0.84
2.45 2.54 -0.06
2.5 2.59 0.96
2.4 2.47 -0.92
2.46 2.53 0.06
2.65 2.72 -0.88
2.52 2.59 0.19
2.64 2.71 -0.74
2.54 2.62 0.32
2.35 2.41 -0.53
2.55 2.62 0.45
2.39 2.46 -0.42
2.53 2.61 0.58
2.53 2.61 -0.32
2.52 2.59 0.7
2.53 2.6 -0.19
2.51 2.58 0.83
2.45 2.52 -0.06
2.49 2.56 0.96
2.45 2.5 -0.94
2.44 2.49 0.06
2.63 2.69 -0.87
2.51 2.56 0.19
2.64 2.7 -0.73
2.54 2.6 0.32
2.37 2.42 -0.54
2.54 2.59 0.45
2.46 2.52 -0.43
2.53 2.58 0.57
2.55 2.61 -0.32
2.49 2.54 0.69
2.55 2.61 -0.19
2.5 2.56 0.83
2.46 2.51 -0.06
2.49 2.54 0.95
2.62 2.66 -1
2.44 2.48 0.06
2.64 2.68 -0.87
2.5 2.54 0.19
2.64 2.68 -0.73
2.54 2.57 0.32
2.39 2.42 -0.54
2.5 2.54 0.44
2.56 2.6 -0.45
2.51 2.54 0.57
2.56 2.6 -0.32
2.49 2.53 0.69
2.54 2.57 -0.19
2.5 2.53 0.82
2.45 2.49 -0.06
2.49 2.53 0.95
2.64 2.66 -1.01
2.44 2.46 0.06
2.64 2.66 -0.87
2.5 2.52 0.19
2.61 2.63 -0.72
2.51 2.53 0.31
2.4 2.42 -0.54
2.5 2.52 0.44
2.57 2.59 -0.45
2.5 2.52 0.56
2.56 2.57 -0.32
2.49 2.51 0.69
2.55 2.57 -0.19
2.5 2.52 0.82
2.44 2.46 -0.06
2.5 2.52 0.95
2.63 2.63 -1
2.48 2.48 0.06
2.65 2.65 -0.86
2.5 2.5 0.19
2.42 2.42 -0.66
2.5 2.5 0.31
2.42 2.43 -0.54
2.51 2.51 0.44
2.56 2.56 -0.45
2.5 2.5 0.56
2.56 2.56 -0.32
2.5 2.5 0.69
2.55 2.55 -0.19
2.52 2.52 0.82
2.46 2.46 -0.06
2.52 2.52 0.95
2.64 2.62 -1
2.51 2.49 0.06
2.65 2.63 -0.86
2.51 2.49 0.19
2.44 2.42 -0.67
2.5 2.48 0.31
3.32 3.3 -0.74
2.51 2.49 0.43
2.56 2.54 -0.44
2.51 2.49 0.56
2.55 2.54 -0.31
2.51 2.49 0.69
2.55 2.54 -0.19
2.54 2.52 0.83
2.51 2.5 -0.06
2.51 2.5 0.95
2.64 2.61 -0.99
2.52 2.49 0.06
2.64 2.6 -0.86
2.51 2.47 0.18
2.46 2.43 -0.67
2.52 2.49 0.31
3.33 3.29 -0.74
2.52 2.49 0.43
2.56 2.53 -0.44
2.53 2.5 0.56
2.56 2.52 -0.31
2.53 2.49 0.69
2.55 2.52 -0.19
2.54 2.51 0.83
2.52 2.48 -0.06
2.52 2.49 0.95
2.64 2.59 -0.99
2.55 2.49 0.06
2.62 2.57 -0.85
2.51 2.46 0.18
2.48 2.43 -0.68
2.54 2.49 0.31
3.36 3.29 -0.74
2.53 2.48 0.44
2.56 2.51 -0.44
2.55 2.5 0.57
2.56 2.5 -0.31
2.53 2.48 0.69
2.55 2.5 -0.19
2.53 2.48 0.82
2.53 2.48 -0.06
2.52 2.47 0.95
2.64 2.57 -0.99
2.55 2.48 0.06
2.52 2.45 -0.81
2.54 2.47 0.19
2.48 2.41 -0.67
2.55 2.48 0.31
3.38 3.29 -0.75
2.54 2.47 0.43
2.56 2.49 -0.44
2.54 2.47 0.56
2.55 2.48 -0.31
2.53 2.46 0.69
2.55 2.49 -0.19
2.53 2.47 0.82
2.54 2.47 -0.06
2.53 2.46 0.94
2.63 2.54 -0.98
2.54 2.46 0.06
2.53 2.45 -0.81
2.55 2.47 0.19
2.5 2.42 -0.68
2.55 2.46 0.31
3.41 3.3 -0.75
2.54 2.45 0.43
2.57 2.48 -0.44
2.54 2.46 0.56
2.55 2.46 -0.31
2.52 2.44 0.68
2.56 2.47 -0.19
2.55 2.46 0.82
2.55 2.46 -0.06
2.53 2.45 0.94
2.59 2.49 -0.96
2.53 2.43 0.06
2.55 2.45 -0.82
2.55 2.45 0.19
2.53 2.43 -0.68
2.54 2.44 0.31
3.42 3.29 -0.75
2.53 2.43 0.43
2.56 2.46 -0.44
2.55 2.45 0.56
2.56 2.46 -0.31
2.53 2.43 0.68
2.54 2.43 -0.18
2.57 2.46 0.82
2.55 2.44 -0.06
2.56 2.46 0.95
2.54 2.42 -0.94
2.54 2.42 0.06
2.56 2.44 -0.82
2.54 2.42 0.18
2.56 2.44 -0.69
2.53 2.42 0.31
3.45 3.29 -0.76
2.53 2.41 0.43
2.56 2.44 -0.43
2.56 2.44 0.56
2.56 2.44 -0.31
2.56 2.45 0.69
2.55 2.43 -0.18
2.59 2.47 0.83
2.55 2.43 -0.06
2.56 2.45 0.95
2.56 2.43 -0.95
2.54 2.4 0.06
2.58 2.44 -0.82
2.54 2.4 0.18
2.59 2.45 -0.69
2.57 2.43 0.31
3.49 3.3 -0.76
2.56 2.42 0.43
2.55 2.41 -0.43
2.58 2.45 0.56
2.55 2.42 -0.31
2.58 2.45 0.69
2.55 2.42 -0.18
2.6 2.46 0.83
2.54 2.41 -0.06
2.6 2.46 0.96
2.58 2.42 -0.95
2.56 2.41 0.06
2.6 2.44 -0.82
2.56 2.4 0.18
2.6 2.45 -0.69
2.59 2.44 0.31
2.71 2.55 -0.59
2.59 2.44 0.44
2.56 2.4 -0.43
2.59 2.43 0.56
2.55 2.4 -0.31
2.6 2.45 0.69
2.56 2.41 -0.18
2.62 2.47 0.83
2.55 2.4 -0.06
2.61 2.46 0.96
2.59 2.42 -0.95
2.58 2.41 0.06
2.61 2.44 -0.83
2.59 2.42 0.19
2.62 2.44 -0.7
2.59 2.42 0.31
2.73 2.55 -0.59
2.61 2.43 0.44
2.56 2.39 -0.43
2.61 2.44 0.57
2.56 2.39 -0.31
2.62 2.45 0.7
2.57 2.4 -0.18
2.63 2.46 0.83
2.59 2.41 -0.06
2.64 2.46 0.97
2.61 2.42 -0.95
2.6 2.41 0.06
2.63 2.44 -0.83
2.6 2.41 0.19
2.64 2.44 -0.7
2.61 2.42 0.31
2.73 2.53 -0.59
2.63 2.44 0.44
2.58 2.4 -0.43
2.64 2.45 0.57
2.59 2.4 -0.31
2.65 2.45 0.7
2.59 2.4 -0.18
2.66 2.47 0.84
2.61 2.42 -0.06
2.66 2.46 0.97
2.63 2.42 -0.96
2.61 2.41 0.06
2.65 2.44 -0.83
2.62 2.41 0.19
2.83 2.61 -0.75
2.64 2.43 0.31
3.6 3.31 -0.77
2.64 2.43 0.44
2.6 2.4 -0.43
2.67 2.46 0.58
2.61 2.4 -0.31
2.67 2.45 0.7
2.61 2.4 -0.19
2.69 2.47 0.84
2.62 2.41 -0.06
2.68 2.47 0.98
2.65 2.42 -0.96
2.64 2.41 0.06
2.7 2.47 -0.84
2.64 2.41 0.19
2.93 2.67 -0.77
2.67 2.44 0.32
3.63 3.32 -0.78
2.66 2.43 0.44
2.68 2.45 0.58
2.62 2.4 -0.31
2.69 2.46 0.71
2.63 2.41 -0.19
2.7 2.47 0.84
2.65 2.42 -0.06
2.71 2.47 0.98
3.34 3.03 -1.21
2.67 2.42 0.06
2.72 2.47 -0.85
2.66 2.42 0.19
2.93 2.66 -0.77
2.68 2.44 0.32
3.66 3.32 -0.78
2.68 2.44 0.45
2.69 2.45 0.58
2.71 2.46 0.71
2.65 2.41 -0.19
2.72 2.47 0.85
2.66 2.41 -0.06
2.72 2.47 0.98
3.33 3 -1.2
2.68 2.42 0.06
2.75 2.48 -0.85
2.68 2.42 0.19
2.94 2.65 -0.77
2.69 2.43 0.32
3.68 3.32 -0.78
2.71 2.44 0.45
2.66 2.4 -0.44
2.72 2.45 0.58
2.64 2.38 -0.31
2.73 2.46 0.71
2.68 2.41 -0.19
2.75 2.48 0.85
2.68 2.42 -0.06
2.74 2.47 0.99
3.34 2.99 -1.2
2.7 2.41 0.06
2.8 2.51 -0.87
2.71 2.42 0.19
2.97 2.66 -0.78
2.71 2.43 0.32
3.69 3.3 -0.78
2.73 2.44 0.45
2.7 2.41 -0.44
2.75 2.46 0.58
2.67 2.39 -0.31
2.74 2.45 0.72
2.69 2.41 -0.19
2.77 2.48 0.86
2.7 2.42 -0.06
2.76 2.47 0.99
3.34 2.97 -1.2
2.71 2.41 0.06
2.95 2.62 -0.91
2.73 2.42 0.19
3 2.67 -0.78
2.74 2.43 0.32
3.72 3.31 -0.79
2.75 2.44 0.45
2.71 2.41 -0.44
2.77 2.46 0.59
2.71 2.41 -0.32
2.76 2.46 0.72
2.7 2.4 -0.19
2.79 2.48 0.86
2.72 2.42 -0.06
2.79 2.48 1
3.35 2.96 -1.2
2.73 2.41 0.06
3.02 2.67 -0.93
2.74 2.42 0.19
3.01 2.66 -0.78
2.76 2.44 0.32
3.73 3.3 -0.79
2.76 2.44 0.45
2.71 2.39 -0.44
2.79 2.46 0.59
2.74 2.42 -0.32
2.78 2.46 0.72
2.72 2.4 -0.19
2.81 2.48 0.86
2.74 2.42 -0.06
2.82 2.49 1.01
3.36 2.94 -1.2
2.76 2.42 0.06
3.04 2.67 -0.93
2.76 2.42 0.19
3.02 2.65 -0.78
2.78 2.44 0.32
3.75 3.29 -0.79
2.79 2.45 0.46
2.73 2.4 -0.45
2.81 2.46 0.59
2.75 2.41 -0.32
2.81 2.46 0.73
2.75 2.41 -0.19
2.83 2.48 0.87
2.75 2.41 -0.06
2.84 2.49 1.01
3.35 2.92 -1.19
2.79 2.43 0.06
3.08 2.68 -0.94
2.78 2.42 0.19
3.05 2.66 -0.79
2.8 2.44 0.32
3.76 3.27 -0.79
2.82 2.45 0.46
2.76 2.4 -0.45
2.83 2.46 0.59
2.76 2.41 -0.32
2.83 2.46 0.73
2.78 2.42 -0.19
2.85 2.48 0.87
2.77 2.41 -0.06
2.85 2.48 1.01
3.36 2.9 -1.19
2.79 2.41 0.06
3.1 2.68 -0.94
2.81 2.43 0.19
3.06 2.64 -0.79
2.82 2.44 0.33
3.76 3.25 -0.79
2.83 2.45 0.46
2.79 2.41 -0.45
2.85 2.46 0.6
2.78 2.41 -0.32
2.84 2.46 0.73
2.8 2.42 -0.19
2.87 2.49 0.88
2.8 2.42 -0.06
2.88 2.49 1.02
3.36 2.89 -1.19
2.82 2.42 0.06
3.11 2.67 -0.95
2.83 2.43 0.2
2.96 2.54 -0.76
2.85 2.45 0.33
3.79 3.26 -0.79
2.85 2.45 0.46
2.79 2.4 -0.45
2.87 2.46 0.6
2.81 2.41 -0.32
2.87 2.46 0.73
2.82 2.42 -0.19
2.89 2.49 0.88
2.82 2.42 -0.06
2.9 2.49 1.02
3.37 2.87 -1.19
2.84 2.42 0.07
3.13 2.67 -0.95
2.85 2.43 0.2
2.93 2.5 -0.75
2.88 2.46 0.33
3.9 3.33 -0.81
2.87 2.45 0.46
2.81 2.4 -0.45
2.89 2.47 0.6
2.84 2.42 -0.33
2.9 2.48 0.74
2.84 2.42 -0.2
2.91 2.48 0.88
2.85 2.43 -0.07
2.92 2.49 1.03
3.38 2.86 -1.19
2.87 2.43 0.07
3.16 2.67 -0.95
2.87 2.43 0.2
2.93 2.48 -0.75
2.9 2.45 0.33
3.9 3.3 -0.81
2.89 2.45 0.47
2.84 2.41 -0.46
2.91 2.47 0.6
2.86 2.42 -0.33
2.93 2.48 0.75
2.86 2.43 -0.2
2.95 2.5 0.89
2.86 2.42 -0.07
2.94 2.49 1.03
3.38 2.84 -1.18
2.89 2.43 0.07
3.19 2.69 -0.96
2.89 2.43 0.2
2.94 2.47 -0.75
2.91 2.45 0.33
3.86 3.25 -0.8
2.92 2.45 0.47
2.86 2.4 -0.46
2.94 2.47 0.61
2.87 2.42 -0.33
2.95 2.48 0.75
2.89 2.43 -0.2
2.97 2.5 0.9
2.88 2.43 -0.07
2.96 2.49 1.04
3.38 2.82 -1.18
2.9 2.42 0.07
3.43 2.87 -1.03
2.92 2.44 0.2
2.97 2.48 -0.75
2.94 2.45 0.33
3.92 3.28 -0.81
2.94 2.46 0.47
2.89 2.41 -0.46
2.96 2.48 0.61
2.96 2.47 0.75
2.9 2.42 -0.2
2.99 2.5 0.9
2.91 2.43 -0.07
2.99 2.49 1.04
3.4 2.82 -1.18
2.93 2.43 0.07
3.42 2.84 -1.03
2.95 2.44 0.2
2.99 2.48 -0.75
2.96 2.46 0.34
4.03 3.34 -0.83
2.96 2.45 0.47
2.91 2.41 -0.46
2.99 2.48 0.62
2.92 2.42 -0.33
2.98 2.48 0.75
2.91 2.42 -0.2
3.02 2.5 0.91
2.94 2.44 -0.07
3.01 2.5 1.05
3.41 2.8 -1.18
2.96 2.43 0.07
3.44 2.83 -1.03
2.96 2.44 0.2
3.02 2.49 -0.76
2.98 2.45 0.34
2.98 2.46 0.47
2.93 2.41 -0.47
3.01 2.48 0.62
2.94 2.42 -0.33
3.01 2.47 0.76
2.94 2.42 -0.2
3.04 2.5 0.91
2.96 2.43 -0.07
3.04 2.5 1.06
3.42 2.79 -1.18
2.98 2.43 0.07
3.44 2.81 -1.03
2.98 2.44 0.2
3.03 2.48 -0.76
3.01 2.46 0.34
3.25 2.66 -0.66
3.01 2.46 0.48
2.95 2.41 -0.47
3.03 2.47 0.62
2.96 2.42 -0.33
3.04 2.48 0.76
2.96 2.42 -0.2
3.06 2.5 0.91
2.97 2.43 -0.07
3.06 2.5 1.06
3.42 2.77 -1.18
3 2.43 0.07
3.45 2.8 -1.03
3.01 2.44 0.2
3.07 2.49 -0.77
3.02 2.45 0.34
3.25 2.64 -0.66
3.04 2.47 0.48
2.98 2.42 -0.47
3.06 2.48 0.62
2.98 2.42 -0.34
3.06 2.49 0.77
3 2.43 -0.2
3.08 2.5 0.92
2.99 2.43 -0.07
3.08 2.5 1.06
3.41 2.75 -1.17
3.02 2.43 0.07
3.46 2.79 -1.03
3.03 2.45 0.2
3.1 2.5 -0.78
3.05 2.46 0.34
3.24 2.61 -0.66
3.06 2.47 0.48
3 2.42 -0.47
3.08 2.48 0.63
3 2.42 -0.34
3.08 2.48 0.77
3.02 2.43 -0.2
3.1 2.5 0.92
3.03 2.44 -0.07
3.1 2.5 1.07
3.15 2.52 -1.08
3.04 2.43 0.07
3.46 2.77 -1.02
3.06 2.45 0.21
3.12 2.5 -0.78
3.08 2.46 0.34
3.24 2.59 -0.66
3.07 2.46 0.48
3.03 2.42 -0.48
3.1 2.48 0.63
3.02 2.42 -0.34
3.11 2.49 0.78
3.04 2.43 -0.2
3.14 2.51 0.93
3.05 2.44 -0.07
3.14 2.51 1.08
3.13 2.49 -1.07
3.07 2.44 0.07
3.46 2.75 -1.02
3.08 2.45 0.21
3.15 2.5 -0.78
3.11 2.47 0.35
3.24 2.58 -0.66
3.11 2.47 0.49
3.04 2.42 -0.48
3.13 2.49 0.63
3.04 2.42 -0.34
3.13 2.49 0.78
3.07 2.44 -0.21
3.16 2.51 0.93
3.08 2.45 -0.07
3.17 2.52 1.08
3.14 2.48 -1.07
3.1 2.44 0.07
3.26 2.58 -0.96
3.1 2.45 0.21
3.15 2.48 -0.78
3.13 2.47 0.35
3.25 2.56 -0.66
3.14 2.47 0.49
3.07 2.42 -0.48
3.15 2.48 0.64
3.06 2.42 -0.34
3.16 2.49 0.78
3.09 2.44 -0.21
3.18 2.51 0.94
3.09 2.44 -0.07
3.19 2.51 1.09
3.17 2.48 -1.08
3.12 2.44 0.07
3.26 2.55 -0.96
3.13 2.45 0.21
3.19 2.5 -0.79
3.15 2.47 0.35
3.25 2.55 -0.65
3.16 2.48 0.49
3.1 2.43 -0.48
3.17 2.49 0.64
3.08 2.42 -0.34
3.19 2.5 0.79
3.12 2.44 -0.21
3.21 2.52 0.94
3.12 2.44 -0.07
3.2 2.51 1.09
3.19 2.48 -1.08
3.14 2.44 0.07
3.26 2.54 -0.95
3.16 2.46 0.21
3.2 2.49 -0.79
3.17 2.47 0.35
3.25 2.53 -0.65
3.18 2.47 0.49
3.13 2.43 -0.49
3.2 2.49 0.64
3.11 2.42 -0.35
3.2 2.49 0.79
3.14 2.44 -0.21
3.24 2.52 0.95
3.15 2.45 -0.07
3.23 2.51 1.1
3.22 2.48 -1.09
3.17 2.45 0.07
3.28 2.53 -0.96
3.18 2.46 0.21
3.23 2.5 -0.79
3.2 2.47 0.35
3.27 2.53 -0.66
3.2 2.47 0.5
3.15 2.43 -0.49
3.24 2.5 0.65
3.15 2.43 -0.35
3.23 2.49 0.79
3.15 2.43 -0.21
3.27 2.52 0.95
3.17 2.45 -0.07
3.27 2.52 1.11
3.25 2.49 -1.1
3.19 2.45 0.07
3.51 2.69 -1.02
3.2 2.45 0.21
3.26 2.5 -0.8
3.23 2.47 0.36
3.9 2.99 -0.78
3.22 2.47 0.5
3.17 2.43 -0.49
3.26 2.5 0.65
3.18 2.43 -0.35
3.26 2.5 0.8
3.17 2.43 -0.21
3.28 2.52 0.96
3.19 2.45 -0.07
3.29 2.53 1.11
3.28 2.49 -1.1
3.22 2.45 0.07
3.53 2.69 -1.02
3.22 2.45 0.21
3.28 2.5 -0.8
3.25 2.47 0.36
3.9 2.97 -0.78
3.26 2.48 0.5
3.19 2.43 -0.49
3.28 2.49 0.65
3.2 2.44 -0.35
3.29 2.5 0.8
3.2 2.44 -0.21
3.31 2.52 0.96
3.21 2.44 -0.07
3.32 2.53 1.12
3.31 2.5 -1.11
3.25 2.46 0.07
3.55 2.68 -1.03
3.25 2.45 0.21
3.31 2.5 -0.81
3.27 2.47 0.36
3.89 2.94 -0.77
3.28 2.48 0.51
3.23 2.44 -0.5
3.31 2.5 0.66
3.22 2.43 -0.35
3.32 2.51 0.81
3.24 2.45 -0.21
3.33 2.52 0.96
3.24 2.45 -0.07
3.34 2.52 1.12
3.33 2.49 -1.11
3.26 2.45 0.07
3.56 2.67 -1.03
3.28 2.46 0.21
3.34 2.5 -0.81
3.3 2.47 0.36
3.87 2.9 -0.77
3.31 2.48 0.51
3.26 2.44 -0.5
3.33 2.5 0.66
3.24 2.43 -0.35
3.33 2.5 0.81
3.27 2.45 -0.21
3.37 2.53 0.97
3.28 2.46 -0.07
3.37 2.53 1.13
3.35 2.5 -1.12
3.29 2.45 0.07
3.56 2.65 -1.03
3.31 2.46 0.22
3.36 2.5 -0.81
3.34 2.49 0.36
3.89 2.9 -0.77
3.34 2.48 0.51
4.57 3.41 -0.7
3.36 2.5 0.66
3.27 2.43 -0.36
3.36 2.5 0.81
3.29 2.45 -0.21
3.4 2.53 0.98
3.31 2.47 -0.07
3.4 2.53 1.14
3.37 2.49 -1.12
3.32 2.46 0.07
3.58 2.65 -1.03
3.33 2.46 0.22
3.38 2.5 -0.82
3.36 2.49 0.37
3.92 2.9 -0.77
3.36 2.48 0.51
4.59 3.4 -0.7
3.39 2.51 0.67
3.29 2.43 -0.36
3.39 2.51 0.82
3.32 2.45 -0.22
3.42 2.53 0.98
3.33 2.47 -0.07
3.43 2.54 1.14
3.39 2.49 -1.13
3.36 2.46 0.07
3.6 2.64 -1.03
3.36 2.46 0.22
3.4 2.49 -0.82
3.39 2.49 0.37
3.99 2.93 -0.78
3.39 2.49 0.52
4.61 3.38 -0.7
3.41 2.5 0.67
3.32 2.44 -0.36
3.42 2.51 0.82
3.35 2.46 -0.22
3.46 2.54 0.99
3.35 2.46 -0.07
3.46 2.54 1.15
3.43 2.5 -1.14
3.39 2.47 0.07
3.61 2.63 -1.03
3.39 2.47 0.22
3.44 2.51 -0.83
3.41 2.49 0.37
4.03 2.93 -0.79
3.43 2.5 0.52
4.67 3.4 -0.71
3.44 2.5 0.67
3.34 2.44 -0.36
3.45 2.52 0.83
3.38 2.46 -0.22
3.48 2.54 0.99
3.37 2.46 -0.07
3.48 2.54 1.15
3.44 2.49 -1.14
3.4 2.46 0.07
3.64 2.63 -1.04
3.42 2.47 0.22
3.47 2.51 -0.83
3.44 2.48 0.37
4.07 2.94 -0.79
3.45 2.5 0.52
4.71 3.41 -0.71
3.47 2.51 0.68
3.38 2.44 -0.36
3.47 2.51 0.83
3.4 2.46 -0.22
3.52 2.54 1
3.4 2.46 -0.07
3.51 2.54 1.16
3.48 2.5 -1.15
3.43 2.46 0.07
3.65 2.62 -1.04
3.44 2.47 0.22
3.56 2.56 -0.85
3.47 2.49 0.37
4.09 2.94 -0.8
3.48 2.5 0.53
4.73 3.4 -0.72
3.51 2.52 0.68
3.41 2.45 -0.37
3.5 2.51 0.84
3.41 2.45 -0.22
3.55 2.55 1.01
3.43 2.47 -0.07
3.54 2.54 1.17
3.52 2.51 -1.16
3.46 2.47 0.07
3.67 2.62 -1.04
3.46 2.47 0.22
4.19 2.99 -1
3.5 2.49 0.38
4.76 3.39 -0.93
3.5 2.49 0.53
4.77 3.4 -0.72
3.52 2.51 0.69
3.44 2.45 -0.37
3.53 2.52 0.84
3.45 2.46 -0.22
3.56 2.54 1.01
3.46 2.47 -0.07
3.58 2.55 1.18
3.59 2.54 -1.18
3.49 2.47 0.07
3.69 2.61 -1.04
3.49 2.47 0.22
4.18 2.96 -0.99
3.53 2.5 0.38
4.8 3.4 -0.93
3.54 2.5 0.53
4.82 3.41 -0.72
3.55 2.51 0.69
3.48 2.46 -0.37
3.57 2.52 0.85
3.48 2.46 -0.22
3.6 2.55 1.02
3.49 2.47 -0.07
3.6 2.55 1.18
3.66 2.57 -1.2
3.52 2.47 0.08
3.71 2.61 -1.05
3.53 2.48 0.23
4.18 2.94 -0.99
3.55 2.5 0.38
4.83 3.4 -0.94
3.57 2.51 0.54
4.87 3.43 -0.73
3.58 2.52 0.69
3.49 2.45 -0.37
3.6 2.53 0.85
3.51 2.47 -0.23
3.63 2.55 1.02
3.52 2.48 -0.08
3.63 2.55 1.19
3.69 2.57 -1.21
3.54 2.47 0.08
3.74 2.61 -1.05
3.56 2.48 0.23
4.16 2.91 -0.99
3.58 2.5 0.38
4.87 3.4 -0.94
3.59 2.51 0.54
4.91 3.43 -0.74
3.61 2.52 0.7
3.52 2.45 -0.38
3.62 2.52 0.86
3.55 2.47 -0.23
3.66 2.56 1.03
3.55 2.48 -0.08
3.66 2.55 1.19
3.71 2.57 -1.21
3.57 2.47 0.08
3.74 2.59 -1.05
3.59 2.49 0.23
6.54 4.53 -1.55
3.62 2.51 0.39
4.91 3.4 -0.95
3.62 2.5 0.54
4.94 3.42 -0.74
3.65 2.53 0.7
3.55 2.46 -0.38
3.65 2.53 0.86
3.56 2.47 -0.23
3.7 2.56 1.04
3.58 2.48 -0.08
3.69 2.55 1.2
3.74 2.57 -1.22
3.61 2.48 0.08
3.77 2.59 -1.06
3.61 2.48 0.23
6.58 4.52 -1.55
3.65 2.51 0.39
4.96 3.41 -0.95
3.65 2.51 0.54
4.96 3.41 -0.74
3.68 2.53 0.71
3.59 2.47 -0.38
3.69 2.53 0.87
3.6 2.47 -0.23
3.72 2.55 1.04
3.61 2.48 -0.08
3.73 2.56 1.21
3.76 2.57 -1.22
3.64 2.48 0.08
3.79 2.59 -1.06
3.65 2.49 0.23
6.62 4.52 -1.56
3.68 2.51 0.39
5.7 3.89 -1.09
3.68 2.51 0.55
5.01 3.42 -0.74
3.71 2.53 0.71
3.62 2.47 -0.38
3.73 2.54 0.88
3.62 2.47 -0.23
3.75 2.56 1.05
3.63 2.48 -0.08
3.76 2.56 1.22
3.78 2.56 -1.22
3.67 2.49 0.08
3.82 2.59 -1.06
3.67 2.49 0.23
6.67 4.51 -1.57
3.7 2.5 0.39
3.78 2.56 -0.72
3.71 2.51 0.55
5.07 3.43 -0.75
3.74 2.53 0.71
3.64 2.46 -0.38
3.75 2.54 0.88
3.65 2.47 -0.23
3.78 2.56 1.05
3.66 2.48 -0.08
3.78 2.56 1.22
3.81 2.56 -1.23
3.69 2.48 0.08
3.81 2.56 -1.06
3.71 2.49 0.23
6.72 4.52 -1.57
3.74 2.51 0.39
3.8 2.55 -0.73
3.75 2.52 0.55
5.1 3.43 -0.75
3.78 2.54 0.72
3.67 2.47 -0.39
3.78 2.54 0.88
3.69 2.48 -0.23
3.82 2.57 1.06
3.7 2.48 -0.08
3.82 2.57 1.23
3.85 2.57 -1.24
3.72 2.48 0.08
3.8 2.54 -1.06
3.74 2.5 0.24
6.79 4.53 -1.59
3.77 2.51 0.4
3.81 2.54 -0.73
3.77 2.51 0.56
5.14 3.43 -0.76
3.8 2.54 0.72
3.7 2.47 -0.39
3.81 2.54 0.89
3.71 2.48 -0.23
3.85 2.57 1.07
3.73 2.49 -0.08
3.86 2.58 1.24
5.32 3.52 -1.71
3.76 2.49 0.08
3.82 2.53 -1.06
3.76 2.49 0.24
6.84 4.53 -1.59
3.8 2.52 0.4
3.84 2.55 -0.73
3.81 2.52 0.56
5.18 3.43 -0.76
3.84 2.54 0.73
3.74 2.47 -0.39
3.85 2.55 0.9
3.75 2.48 -0.24
3.88 2.57 1.07
3.75 2.49 -0.08
3.89 2.57 1.25
5.33 3.5 -1.71
3.79 2.49 0.08
3.87 2.54 -1.07
3.8 2.5 0.24
6.88 4.52 -1.6
3.84 2.52 0.4
3.87 2.55 -0.73
3.84 2.53 0.56
5.23 3.44 -0.77
3.86 2.54 0.73
3.77 2.48 -0.39
3.88 2.55 0.9
3.79 2.49 -0.24
3.91 2.57 1.08
3.78 2.49 -0.08
3.93 2.58 1.26
5.33 3.47 -1.7
3.82 2.49 0.08
3.91 2.55 -1.08
3.84 2.5 0.24
6.94 4.52 -1.61
3.86 2.52 0.4
3.9 2.54 -0.74
3.88 2.53 0.57
5.28 3.44 -0.77
3.9 2.54 0.74
3.8 2.48 -0.4
3.92 2.55 0.91
3.82 2.49 -0.24
3.95 2.58 1.09
3.82 2.49 -0.08
3.96 2.58 1.27
5.34 3.46 -1.71
3.85 2.49 0.08
3.94 2.55 -1.08
3.88 2.51 0.24
7.01 4.54 -1.62
3.9 2.52 0.41
3.93 2.54 -0.74
3.91 2.53 0.57
5.32 3.44 -0.78
3.94 2.55 0.74
3.83 2.48 -0.4
3.94 2.55 0.91
3.85 2.49 -0.24
3.99 2.58 1.1
3.86 2.5 -0.08
3.99 2.58 1.27
5.35 3.44 -1.7
3.89 2.5 0.08
3.95 2.54 -1.08
3.9 2.5 0.24
7.12 4.57 -1.65
3.93 2.52 0.41
3.97 2.55 -0.75
3.93 2.53 0.57
5.37 3.45 -0.78
3.97 2.55 0.75
3.86 2.48 -0.4
3.98 2.55 0.92
3.87 2.48 -0.24
4.03 2.59 1.11
3.9 2.5 -0.08
4.03 2.59 1.28
5.37 3.42 -1.71
3.92 2.5 0.08
3.99 2.55 -1.09
3.92 2.5 0.24
7.47 4.76 -1.72
3.97 2.53 0.41
4 2.55 -0.75
3.97 2.53 0.58
5.41 3.45 -0.79
4 2.55 0.75
3.9 2.48 -0.4
4.02 2.56 0.93
3.9 2.49 -0.24
4.06 2.59 1.11
3.92 2.5 -0.08
4.06 2.59 1.29
5.37 3.4 -1.7
3.96 2.5 0.08
4.04 2.56 -1.1
3.96 2.51 0.25
7.47 4.73 -1.72
4.01 2.54 0.41
4.05 2.56 -0.76
4.02 2.54 0.58
5.46 3.45 -0.79
4.03 2.55 0.76
3.93 2.48 -0.41
4.06 2.57 0.93
3.95 2.5 -0.24
4.09 2.59 1.12
3.94 2.5 -0.08
4.1 2.59 1.3
5.37 3.37 -1.7
3.99 2.5 0.08
4.08 2.56 -1.11
4.01 2.52 0.25
7.48 4.7 -1.72
4.03 2.53 0.42
4.07 2.56 -0.76
4.05 2.54 0.59
5.51 3.46 -0.8
4.08 2.56 0.76
3.96 2.48 -0.41
4.09 2.57 0.94
3.99 2.5 -0.25
4.13 2.59 1.13
3.98 2.5 -0.08
4.13 2.59 1.31
5.39 3.36 -1.7
4.02 2.5 0.08
4.1 2.56 -1.12
4.05 2.52 0.25
7.49 4.67 -1.72
4.07 2.53 0.42
4.11 2.56 -0.77
4.08 2.54 0.59
5.56 3.46 -0.8
4.11 2.56 0.77
3.99 2.49 -0.41
4.12 2.57 0.94
4.03 2.51 -0.25
4.16 2.59 1.13
4.03 2.51 -0.08
4.17 2.6 1.32
5.39 3.33 -1.7
4.06 2.51 0.08
4.12 2.55 -1.12
4.08 2.52 0.25
7.5 4.64 -1.71
4.11 2.54 0.42
4.14 2.56 -0.77
4.11 2.54 0.59
5.6 3.46 -0.81
4.15 2.56 0.77
4.04 2.49 -0.42
4.16 2.57 0.95
4.05 2.5 -0.25
4.21 2.6 1.14
4.06 2.51 -0.08
4.21 2.6 1.33
5.41 3.32 -1.7
4.1 2.51 0.08
4.17 2.56 -1.13
4.11 2.52 0.25
7.52 4.61 -1.71
4.14 2.54 0.43
4.18 2.56 -0.78
4.15 2.55 0.6
5.65 3.46 -0.81
4.19 2.57 0.78
4.2 2.57 0.96
4.08 2.5 -0.25
4.25 2.6 1.15
4.1 2.51 -0.08
4.25 2.61 1.34
5.41 3.29 -1.7
4.14 2.52 0.08
4.21 2.56 -1.14
4.14 2.52 0.25
7.52 4.58 -1.71
4.18 2.54 0.43
4.22 2.57 -0.78
4.2 2.56 0.6
4.53 2.75 -0.65
4.22 2.57 0.78
4.1 2.49 -0.42
4.24 2.58 0.96
4.11 2.5 -0.25
4.28 2.6 1.16
4.13 2.51 -0.08
4.28 2.6 1.34
