# .PCD v0.7 - Point Cloud Data file format
VERSION 0.7
FIELDS x y z
SIZE 4 4 4
TYPE F F F
COUNT 1 1 1
WIDTH 2742
HEIGHT 1
VIEWPOINT 0 0 0 1 0 0 0
POINTS 2742
DATA ascii
-1.09 0.48 -0.27
-49.04 21.67 2.81
-9.31 4.11 -1.98
-21.38 9.45 2.05
-11 4.86 -1.9
-1.26 0.56 -0.17
-24.9 11 4.31
-20.91 9.24 -2
-21.05 9.3 4.47
-41.71 18.43 -2.39
-23.26 10.28 5.87
-41.98 18.55 -0.8
-22.89 10.12 6.71
-1.03 0.46 -0.3
-1.09 0.49 -0.28
-9.3 4.15 -1.98
-22.36 9.98 2.14
-11.02 4.92 -1.91
-20.6 9.19 2.77
-1.25 0.56 -0.17
-20.76 9.26 3.6
-20.84 9.3 -2
-20.95 9.35 4.46
-41.19 18.37 -2.36
-23.96 10.69 6.06
-22.68 10.12 6.65
-1.03 0.46 -0.3
-7.63 3.44 -1.93
-9.29 4.18 -1.98
-23.17 10.44 2.22
-1.19 0.54 -0.21
-26.37 11.88 3.55
-1.24 0.56 -0.17
-20.49 9.23 3.56
-20.77 9.36 -1.99
-20.39 9.19 4.35
-23.95 10.79 6.06
-1.02 0.46 -0.3
-7.61 3.46 -1.93
-9.27 4.21 -1.98
-22.4 10.19 2.15
-1.19 0.54 -0.21
-26.51 12.05 3.58
-1.24 0.57 -0.17
-21.28 9.68 3.7
-20.71 9.42 -1.99
-20.41 9.28 4.36
-40.15 18.26 -2.31
-24.53 11.15 7.22
-1.03 0.47 -0.3
-49.61 22.76 0.95
-7.62 3.49 -1.93
-9.27 4.25 -1.98
-22.8 10.46 2.19
-1.2 0.55 -0.21
-26.44 12.13 3.57
-1.24 0.57 -0.17
-21.68 9.95 3.78
-20.65 9.47 -1.99
-20.22 9.27 4.32
-39.62 18.17 -2.28
-44.51 20.41 -0.85
-1.02 0.47 -0.3
-7.59 3.51 -1.93
-21.79 10.09 1.26
-9.25 4.28 -1.98
-22.43 10.38 2.16
-1.19 0.55 -0.21
-25.52 11.81 3.45
-1.22 0.57 -0.17
-21.27 9.84 3.71
-13.5 6.25 -1.3
-20.49 9.49 4.39
-39.3 18.19 -2.27
-24.33 11.26 6.19
-1.03 0.48 -0.3
-7.58 3.54 -1.93
-21.88 10.22 1.27
-9.25 4.32 -1.98
-22.55 10.54 2.18
-1.2 0.56 -0.21
-21.81 10.2 2.96
-1.21 0.56 -0.16
-20.84 9.74 3.64
-13.42 6.27 -1.3
-24.63 11.51 5.29
-38.92 18.19 -2.25
-24.24 11.33 6.18
-43.88 20.51 -0.85
-9.17 4.29 2.71
-1.03 0.49 -0.31
-7.58 3.58 -1.94
-9.23 4.35 -1.98
-22.49 10.61 2.18
-1.2 0.57 -0.21
-21.84 10.3 2.96
-1.21 0.57 -0.16
-23.79 11.22 4.17
-13.41 6.32 -1.3
-20.37 9.61 4.38
-38.57 18.19 -2.24
-30.01 14.15 7.66
-37.73 17.8 -0.73
-9.14 4.31 2.71
-1.02 0.48 -0.3
-7.57 3.6 -1.94
-19.86 9.45 1.15
-9.22 4.39 -1.98
-1.19 0.57 -0.21
-1.2 0.57 -0.16
-23.84 11.34 4.18
-20.29 9.65 4.37
-37.59 17.88 -2.18
-25.24 12.01 6.45
-37.28 17.73 -0.72
-9.13 4.34 2.71
-6.39 3.07 -1.9
-24.78 11.89 0.48
-7.56 3.63 -1.94
-19.86 9.53 1.15
-9.21 4.42 -1.99
-23.3 11.18 2.26
-1.17 0.56 -0.2
-22.72 10.9 3.09
-1.21 0.58 -0.16
-21.39 10.27 3.76
-20.46 9.82 -1.99
-20.07 9.63 4.33
-37.12 17.81 -2.16
-23.02 11.05 5.89
-36.91 17.72 -0.71
-9.13 4.38 2.72
-6.37 3.09 -1.9
-7.55 3.65 -1.94
-23.44 11.35 1.37
-9.21 4.46 -1.99
-23.23 11.25 2.26
-1.15 0.56 -0.2
-23.44 11.35 3.2
-1.2 0.58 -0.16
-23.85 11.55 4.2
-20.42 9.89 -1.98
-20.2 9.78 4.36
-36.8 17.82 -2.14
-23.04 11.16 5.91
-36.36 17.61 -0.71
-9.14 4.43 2.72
-6.38 3.11 -1.9
-20.03 9.79 0.39
-7.54 3.69 -1.94
-23.4 11.43 1.36
-9.2 4.49 -1.99
-23.28 11.38 2.27
-1.15 0.56 -0.2
-23.23 11.35 3.17
-1.19 0.58 -0.16
-26.32 12.86 4.64
-20.38 9.96 -1.98
-20.06 9.8 4.34
-36.51 17.84 -2.13
-21.06 10.29 5.41
-36.16 17.67 -0.7
-9.14 4.46 2.72
-6.36 3.14 -1.9
-23.6 11.64 0.46
-7.54 3.72 -1.94
-23.37 11.53 1.37
-9.19 4.53 -1.99
-22.58 11.13 2.2
-1.14 0.56 -0.2
-23.18 11.43 3.17
-1.18 0.58 -0.16
-23.27 11.48 4.11
-20.34 10.03 -1.98
-19.9 9.81 4.31
-36.21 17.86 -2.12
-29.06 14.33 7.48
-35.61 17.56 -0.69
-9.15 4.51 2.73
-6.35 3.16 -1.9
-23.44 11.66 0.46
-7.53 3.75 -1.94
-21.62 10.75 1.27
-9.21 4.58 -2
-23.13 11.51 2.26
-1.13 0.56 -0.2
-23.22 11.55 3.18
-1.17 0.58 -0.16
-23.2 11.54 4.1
-20.29 10.1 -1.98
-20.16 10.03 4.38
-23.21 11.54 5.98
-23.5 11.69 -0.46
-9.12 4.54 2.73
-6.34 3.18 -1.9
-23.24 11.66 0.45
-7.52 3.77 -1.94
-23.27 11.68 1.36
-9.23 4.63 -2.01
-23.13 11.61 2.26
-1.12 0.56 -0.2
-23.17 11.63 3.18
-1.16 0.58 -0.16
-23.18 11.63 4.11
-20.26 10.17 -1.98
-23.14 11.61 5.03
-23.52 11.8 -1.38
-22.19 11.14 5.73
-23.42 11.75 -0.46
-6.33 3.2 -1.9
-23.15 11.72 0.45
-7.5 3.8 -1.94
-23.25 11.77 1.37
-9.23 4.67 -2.01
-20.68 10.47 2.03
-1.11 0.56 -0.2
-23.11 11.7 3.18
-1.13 0.57 -0.16
-20.21 10.23 -1.98
-23.34 11.82 5.09
-23.4 11.85 -1.37
-22.89 11.59 5.92
-23.37 11.83 -0.46
-28.95 14.66 8.69
-6.32 3.23 -1.9
-23.32 11.91 0.46
-7.5 3.83 -1.94
-23.2 11.85 1.37
-9.21 4.7 -2.01
-22.65 11.56 2.22
-1.11 0.57 -0.2
-23.1 11.79 3.18
-1.13 0.58 -0.16
-27.63 14.11 4.91
-20.19 10.31 -1.98
-9.74 4.98 2.13
-23.34 11.92 -1.37
-23.41 11.95 -0.46
-8.92 4.55 2.68
-6.32 3.25 -1.9
-40.83 21.03 0.8
-7.49 3.86 -1.94
-23.13 11.91 1.36
-9.18 4.73 -2.01
-22.7 11.69 2.23
-1.11 0.57 -0.2
-20.1 10.35 2.78
-1.13 0.58 -0.16
-22.9 11.79 4.08
-20.14 10.38 -1.98
-9.92 5.11 2.17
-23.35 12.03 -1.38
-22.25 11.46 5.78
-33.81 17.41 -0.66
-6.3 3.27 -1.9
-7.48 3.89 -1.95
-19.22 9.98 1.13
-9.15 4.75 -2
-20.48 10.63 2.02
-1.1 0.57 -0.2
-23.18 12.03 3.21
-1.12 0.58 -0.16
-22.81 11.85 4.07
-20.1 10.44 -1.98
-9.88 5.13 2.16
-23.34 12.12 -1.38
-10.66 5.53 2.77
-33.37 17.33 -0.66
-8.6 4.47 2.6
-6.29 3.29 -1.9
-7.47 3.91 -1.95
-19.08 9.99 1.13
-9.09 4.76 -1.99
-21.54 11.28 2.13
-1.08 0.57 -0.19
-19.9 10.42 2.76
-1.15 0.6 -0.16
-22.72 11.9 4.06
-20.06 10.5 -1.98
-9.64 5.05 2.11
-33.24 17.41 -1.97
-21.97 11.5 5.73
-23.44 12.28 -0.46
-8.69 4.55 2.63
-6.29 3.32 -1.91
-7.45 3.94 -1.95
-19.14 10.11 1.13
-9.02 4.76 -1.98
-22 11.62 2.18
-1.08 0.57 -0.19
-27.15 14.34 3.77
-1.16 0.61 -0.16
-22.85 12.07 4.09
-19.95 10.54 -1.97
-9.85 5.2 2.17
-32.83 17.34 -1.95
-23.49 12.4 6.13
-32.66 17.25 -0.64
-21.75 11.49 6.59
-6.28 3.35 -1.91
-23.6 12.57 0.47
-7.45 3.97 -1.95
-21.32 11.36 1.27
-8.97 4.78 -1.97
-21.62 11.51 2.14
-1.07 0.57 -0.19
-21.01 11.19 2.92
-14.13 7.53 -1.97
-31.17 16.6 5.59
-19.87 10.58 -1.97
-9.76 5.2 2.15
-32.45 17.28 -1.93
-23.65 12.6 6.19
-32.44 17.28 -0.64
-21.72 11.57 6.59
-6.27 3.37 -1.91
-23.54 12.64 0.47
-7.44 3.99 -1.95
-19.29 10.36 1.15
-8.89 4.78 -1.96
-21.77 11.69 2.16
-1.07 0.57 -0.19
-21.04 11.3 2.93
-14.09 7.57 -1.96
-30.89 16.59 5.55
-19.79 10.63 -1.97
-32.21 17.3 -1.92
-22.78 12.24 5.97
-32 17.19 -0.63
-22.86 12.28 6.95
-6.25 3.39 -1.91
-23.6 12.78 0.47
-7.43 4.02 -1.95
-21.26 11.51 1.27
-8.82 4.78 -1.95
-21.6 11.7 2.15
-1.06 0.58 -0.19
-19.64 10.64 2.74
-1.14 0.62 -0.16
-20.98 11.37 3.78
-19.74 10.69 -1.96
-9.57 5.18 2.12
-32.27 17.48 -1.92
-22.71 12.3 5.96
-31.6 17.12 -0.63
-8.27 4.48 2.52
-6.24 3.41 -1.91
-7.41 4.05 -1.95
-21.17 11.56 1.26
-8.76 4.79 -1.94
-27.15 14.83 2.71
-1.04 0.57 -0.19
-19.32 10.55 2.7
-1.12 0.61 -0.16
-21 11.47 3.79
-19.73 10.78 -1.97
-9.52 5.2 2.11
-31.52 17.21 -1.88
-31.22 17.05 -0.62
-6.24 3.44 -1.91
-7.39 4.07 -1.95
-21.38 11.77 1.28
-8.71 4.8 -1.93
-21.32 11.74 2.13
-1.03 0.57 -0.19
-19.51 10.74 2.73
-1.1 0.61 -0.15
-26.34 14.5 4.76
-19.79 10.9 -1.98
-9.57 5.27 2.12
-31.34 17.26 -1.87
-28.08 15.46 7.4
-30.92 17.03 -0.62
-8.83 4.86 2.7
-6.24 3.47 -1.91
-7.39 4.1 -1.95
-21.48 11.93 1.29
-8.64 4.8 -1.92
-21.22 11.79 2.12
-1.03 0.57 -0.19
-19.47 10.82 2.73
-1.07 0.59 -0.15
-20.73 11.51 3.76
-19.98 11.1 -2
-9.44 5.25 2.1
-30.77 17.09 -1.84
-10.22 5.68 2.7
-30.53 16.96 -0.61
-8.83 4.91 2.71
-6.23 3.49 -1.91
-7.38 4.13 -1.95
-8.57 4.8 -1.91
-20.22 11.32 2.03
-1.03 0.58 -0.19
-19.45 10.89 2.74
-1.07 0.6 -0.15
-20.4 11.43 3.7
-19.98 11.19 -2
-21.27 11.91 4.74
-30.46 17.06 -1.83
-10.17 5.7 2.69
-30.3 16.97 -0.61
-8.87 4.97 2.72
-6.21 3.5 -1.91
-23.63 13.34 0.47
-7.37 4.16 -1.95
-21.44 12.1 1.29
-8.52 4.81 -1.9
-23.71 13.38 2.38
-1.03 0.58 -0.19
-19.58 11.05 2.76
-1.06 0.6 -0.15
-20.52 11.58 3.73
-19.96 11.27 -2.01
-21.17 11.95 4.72
-30.22 17.06 -1.82
-30.2 17.05 -0.61
-21.41 12.08 6.59
-6.21 3.53 -1.91
-7.36 4.19 -1.96
-8.48 4.83 -1.9
-20.08 11.43 2.02
-1.01 0.57 -0.18
-19.48 11.08 2.75
-1.05 0.6 -0.15
-26.15 14.88 4.77
-19.97 11.36 -2.01
-29.99 17.06 -1.81
-10.32 5.87 2.74
-30 17.07 -0.6
-8.74 4.97 2.7
-6.2 3.56 -1.91
-55.32 31.73 1.11
-7.34 4.21 -1.95
-21.72 12.46 1.31
-8.47 4.86 -1.9
-20.19 11.58 2.04
-1 0.58 -0.18
-19.39 11.12 2.74
-1.06 0.61 -0.15
-26.22 15.04 4.79
-19.94 11.44 -2.01
-9.23 5.3 2.07
-29.85 17.12 -1.8
-10.27 5.89 2.73
-29.43 16.88 -0.59
-7.55 4.33 2.33
-6.19 3.58 -1.92
-54.39 31.45 1.1
-7.33 4.24 -1.95
-8.45 4.89 -1.9
-20.16 11.66 2.04
-1 0.58 -0.18
-21.21 12.27 3.01
-13.76 7.96 -1.95
-28.84 16.68 5.28
-19.89 11.5 -2.01
-19.89 11.5 4.47
-29.67 17.16 -1.8
-10.27 5.94 2.74
-29.23 16.9 -0.59
-7.73 4.47 2.39
-6.18 3.6 -1.92
-53.44 31.15 1.08
-7.33 4.27 -1.96
-21.56 12.57 1.31
-8.42 4.91 -1.9
-39.45 23 4
-0.99 0.58 -0.18
-19.22 11.21 2.73
-13.72 8 -1.95
-28.85 16.82 5.29
-19.85 11.57 -2.01
-29.15 16.99 6.56
-29.52 17.21 -1.79
-10.24 5.97 2.74
-28.83 16.8 -0.58
-7.47 4.36 2.32
-6.16 3.62 -1.92
-52.57 30.89 1.06
-7.31 4.3 -1.96
-21.21 12.47 1.29
-8.39 4.93 -1.89
-19.81 11.64 2.01
-0.98 0.58 -0.18
-23.63 13.89 3.37
-13.67 8.03 -1.95
-22.45 13.19 4.12
-19.92 11.71 -2.02
-19.9 11.69 4.49
-29.21 17.17 -1.78
-10.2 5.99 2.73
-28.7 16.87 -0.58
-6.15 3.64 -1.92
-51.72 30.62 1.05
-7.31 4.33 -1.96
-8.35 4.94 -1.89
-23.84 14.11 2.42
-0.96 0.57 -0.18
-22.31 13.21 3.18
-13.64 8.08 -1.95
-22.45 13.29 4.13
-19.87 11.77 -2.02
-9.38 5.56 2.12
-28.83 17.07 -1.76
-10.12 5.99 2.72
-28.57 16.91 -0.58
-21.22 12.56 6.61
-6.15 3.67 -1.92
-50.87 30.36 1.03
-7.28 4.35 -1.96
-22.67 13.53 1.38
-8.29 4.95 -1.88
-21.04 12.56 2.14
-0.95 0.57 -0.18
-20.11 12 2.88
-13.6 8.12 -1.95
-20.59 12.29 3.8
-19.83 11.83 -2.02
-9.35 5.58 2.12
-28.49 17 -1.74
-8.08 4.82 2.17
-28.51 17.01 -0.58
-20.46 12.21 6.38
-6.14 3.69 -1.92
-50.15 30.17 1.02
-7.27 4.37 -1.96
-8.26 4.97 -1.87
-0.95 0.57 -0.18
-20.02 12.04 2.87
-13.56 8.16 -1.94
-22.37 13.46 4.14
-19.84 11.94 -2.03
-28.33 17.04 -1.73
-8.06 4.85 2.17
-27.88 16.77 -0.57
-6.13 3.71 -1.92
-49.36 29.93 1.01
-7.26 4.4 -1.96
-22.74 13.79 1.39
-8.23 4.99 -1.87
-0.95 0.58 -0.18
-26.41 16.01 3.79
-13.54 8.21 -1.94
-20.27 12.29 3.75
-19.9 12.07 -2.04
-25.88 15.69 5.88
-28.07 17.02 -1.72
-8.03 4.87 2.17
-27.62 16.74 -0.56
-6.11 3.73 -1.92
-48.61 29.72 0.99
-7.26 4.44 -1.97
-8.2 5.01 -1.87
-22.93 14.02 2.35
-0.95 0.58 -0.18
-28.42 17.37 4.09
-13.5 8.25 -1.94
-20.24 12.37 3.76
-19.81 12.11 -2.03
-9.17 5.6 2.09
-27.49 16.8 -1.69
-8.05 4.92 2.18
-27.36 16.72 -0.56
-7.76 4.75 2.44
-6.1 3.76 -1.92
-47.88 29.5 0.98
-7.24 4.46 -1.96
-27.23 16.78 1.68
-8.17 5.04 -1.87
-22.84 14.07 2.35
-0.94 0.58 -0.18
-18.94 11.67 2.73
-13.47 8.3 -1.94
-20.5 12.63 3.81
-19.76 12.18 -2.03
-9.03 5.56 2.06
-27.51 16.95 -1.69
-9.58 5.9 2.6
-27.21 16.76 -0.56
-7.3 4.5 2.3
-6.09 3.78 -1.92
-47.18 29.3 0.97
-7.22 4.48 -1.96
-27.4 17.02 1.69
-8.16 5.07 -1.87
-28.03 17.4 2.89
-0.93 0.58 -0.17
-26.13 16.22 3.78
-13.43 8.34 -1.94
-20.46 12.71 3.81
-19.69 12.23 -2.03
-9.12 5.66 2.09
-27.28 16.94 -1.68
-10.14 6.3 2.76
-26.83 16.66 -0.55
-10.66 6.62 3.36
-6.08 3.81 -1.92
-46.37 29.02 0.95
-7.21 4.51 -1.96
-27.51 17.21 1.7
-8.18 5.12 -1.87
-0.93 0.58 -0.17
-19.13 11.97 2.77
-13.39 8.38 -1.94
-19.91 12.46 3.72
-19.64 12.29 -2.03
-9.41 5.89 2.16
-26.95 16.87 -1.67
-8 5.01 2.18
-26.83 16.79 -0.55
-7.86 4.92 2.48
-6.07 3.83 -1.92
-46.29 29.19 0.96
-7.2 4.54 -1.96
-27.56 17.38 1.71
-8.14 5.13 -1.87
-19.86 12.52 2.05
-0.92 0.58 -0.17
-20.14 12.7 2.92
-13.36 8.42 -1.94
-19.85 12.52 3.72
-19.61 12.36 -2.03
-8.97 5.66 2.06
-26.62 16.78 -1.65
-8.01 5.05 2.19
-26.4 16.64 -0.54
-10.62 6.7 3.36
-6.05 3.84 -1.92
-46.24 29.38 0.96
-7.19 4.57 -1.97
-27.58 17.52 1.71
-8.13 5.17 -1.87
-46.36 29.46 4.81
-0.91 0.58 -0.17
-13.33 8.47 -1.94
-30.82 19.58 5.78
-19.56 12.43 -2.03
-8.85 5.63 2.04
-26.33 16.73 -1.63
-8.46 5.37 2.31
-26.41 16.78 -0.55
-10.11 6.42 3.21
-6.04 3.87 -1.92
-46.17 29.56 0.96
-7.18 4.6 -1.97
-27.56 17.65 1.72
-8.12 5.2 -1.87
-46.28 29.63 4.81
-0.91 0.58 -0.17
-19.6 12.55 2.86
-13.29 8.51 -1.94
-18.98 12.15 3.57
-19.53 12.51 -2.03
-9.96 6.37 2.3
-26.31 16.85 -1.64
-24.34 15.58 6.67
-26.49 16.96 -0.55
-7.93 5.08 2.52
-6.03 3.89 -1.92
-27.45 17.71 0.57
-7.15 4.62 -1.97
-46.17 29.79 2.88
-8.12 5.24 -1.88
-21.1 13.62 2.2
-0.9 0.58 -0.17
-13.26 8.55 -1.94
-19.83 12.79 3.74
-19.48 12.57 -2.03
-10.04 6.48 2.32
-26.3 16.97 -1.64
-7.88 5.08 2.17
-25.97 16.75 -0.54
-10.15 6.55 3.24
-6.03 3.92 -1.93
-27.37 17.8 0.57
-7.14 4.65 -1.97
-46.1 29.98 2.88
-8.07 5.25 -1.87
-46.19 30.04 4.82
-0.89 0.58 -0.17
-18.92 12.31 2.77
-13.21 8.59 -1.93
-19.22 12.5 3.63
-19.46 12.66 -2.03
-9.84 6.4 2.28
-25.87 16.83 -1.62
-30.3 19.71 8.35
-25.79 16.77 -0.54
-10.09 6.56 3.23
-6.01 3.94 -1.93
-46.03 30.17 0.96
-7.16 4.69 -1.98
-46.22 30.29 2.9
-8.05 5.28 -1.87
-46.26 30.32 4.84
-0.89 0.58 -0.17
-27.09 17.76 3.98
-13.17 8.63 -1.93
-25.42 16.66 4.81
-19.42 12.72 -2.03
-8.88 5.82 2.06
-25.74 16.87 -1.61
-8.46 5.54 2.33
-25.68 16.83 -0.54
-9.07 5.94 2.91
-5.99 3.96 -1.92
-45.96 30.35 0.96
-7.17 4.73 -1.98
-27.69 18.29 1.74
-7.98 5.27 -1.86
-46.2 30.51 4.84
-0.88 0.58 -0.17
-27.03 17.85 3.98
-13.13 8.67 -1.93
-10.15 6.7 1.93
-19.36 12.79 -2.03
-9.74 6.43 2.27
-25.48 16.83 -1.6
-8.45 5.58 2.34
-25.42 16.79 -0.53
-8.99 5.94 2.89
-5.98 3.98 -1.93
-45.89 30.54 0.96
-7.16 4.76 -1.98
-19.58 13.03 1.23
-7.98 5.31 -1.86
-19.23 12.79 2.02
-0.87 0.58 -0.17
-26.74 17.79 3.94
-13.09 8.71 -1.93
-18.88 12.56 3.59
-19.32 12.86 -2.03
-24.93 16.59 -1.57
-25.25 16.8 -0.53
-8.95 5.95 2.88
-5.97 4 -1.92
-45.84 30.72 0.96
-7.13 4.78 -1.98
-19.58 13.12 1.24
-7.94 5.32 -1.86
-19.28 12.92 2.03
-0.87 0.58 -0.17
-19.96 13.37 2.95
-13.06 8.75 -1.93
-18.75 12.57 3.58
-19.29 12.93 -2.03
-8.28 5.55 1.94
-24.82 16.63 -1.57
-8.64 5.79 2.4
-25.06 16.8 -0.53
-8.92 5.98 2.88
-5.96 4.02 -1.93
-26.85 18.13 0.57
-7.12 4.81 -1.98
-26.89 18.16 1.7
-7.9 5.33 -1.85
-26.87 18.15 2.84
-0.86 0.58 -0.17
-26.54 17.92 3.93
-13.01 8.78 -1.93
-9.84 6.65 1.88
-19.27 13.01 -2.03
-9.61 6.49 2.25
-24.44 16.51 -1.55
-8.6 5.81 2.4
-20.15 13.6 -0.42
-8.9 6.01 2.88
-5.94 4.04 -1.93
-20.19 13.74 0.43
-7.11 4.84 -1.98
-26.74 18.19 1.7
-7.87 5.35 -1.85
-26.54 18.06 2.81
-0.86 0.58 -0.16
-26.36 17.93 3.91
-12.98 8.83 -1.93
-9.8 6.67 1.88
-19.23 13.08 -2.03
-9.58 6.51 2.25
-24.15 16.43 -1.53
-8.59 5.84 2.4
-20.33 13.83 -0.43
-8.86 6.03 2.87
-5.92 4.06 -1.92
-26.72 18.32 0.57
-7.1 4.86 -1.99
-26.68 18.29 1.7
-0.85 0.58 -0.2
-26.45 18.13 2.81
-0.85 0.59 -0.16
-26.33 18.05 3.92
-12.95 8.87 -1.93
-26.11 17.9 5.01
-19.18 13.15 -2.03
-24.11 16.53 -1.53
-19.84 13.6 -0.42
-8.8 6.03 2.86
-5.91 4.08 -1.93
-20.12 13.89 0.43
-7.06 4.87 -1.98
-20.36 14.06 1.3
-0.84 0.58 -0.2
-19.59 13.53 2.08
-0.85 0.58 -0.16
-19.38 13.38 2.89
-12.91 8.92 -1.93
-26.18 18.08 5.04
-19.12 13.21 -2.03
-9.38 6.48 2.22
-24.11 16.65 -1.54
-25.95 17.92 7.28
-19.64 13.57 -0.42
-5.9 4.11 -1.93
-20.28 14.11 0.43
-7 4.87 -1.97
-27.45 19.1 1.75
-0.84 0.59 -0.2
-24.35 16.94 2.6
-0.83 0.58 -0.16
-25.47 17.72 3.81
-12.87 8.95 -1.93
-19.08 13.28 -2.03
-9.33 6.49 2.21
-23.73 16.51 -1.52
-8.18 5.69 2.3
-19.43 13.52 -0.41
-9.89 6.88 3.23
-5.89 4.13 -1.93
-19.59 13.74 0.42
-6.95 4.87 -1.96
-27.36 19.18 1.75
-0.83 0.58 -0.2
-27.26 19.11 2.91
-0.84 0.59 -0.16
-19.67 13.79 2.95
-12.82 8.99 -1.92
-19.04 13.35 3.68
-19.05 13.35 -2.04
-9.61 6.73 2.28
-19.97 14 -1.28
-8.93 6.26 2.52
-23.54 16.5 -0.5
-9.91 6.95 3.24
-5.88 4.15 -1.93
-19.68 13.9 0.42
-6.91 4.88 -1.95
-27.34 19.31 1.75
-0.81 0.58 -0.19
-20 14.13 2.14
-0.83 0.59 -0.16
-25.74 18.18 3.87
-12.8 9.04 -1.92
-27.22 19.23 5.28
-19.02 13.43 -2.04
-9.97 7.04 2.37
-23.44 16.55 -1.5
-23.42 16.54 -0.5
-8.52 6.02 2.8
-5.86 4.17 -1.93
-26.93 19.16 0.58
-6.87 4.89 -1.95
-19.97 14.21 1.28
-0.81 0.57 -0.19
-18.88 13.44 2.03
-0.82 0.58 -0.16
-27.14 19.31 4.09
-12.75 9.07 -1.92
-9.72 6.92 1.89
-18.98 13.51 -2.04
-8.9 6.33 2.12
-20.18 14.35 -1.3
-9.59 6.82 2.72
-20.19 14.36 -0.43
-8.48 6.03 2.79
-5.85 4.19 -1.93
-19.91 14.27 0.43
-6.83 4.89 -1.94
-19.75 14.16 1.27
-0.8 0.58 -0.19
-19.34 13.86 2.08
-0.82 0.58 -0.16
-19.18 13.75 2.9
-12.72 9.12 -1.92
-9.67 6.93 1.88
-18.95 13.58 -2.04
-8.61 6.17 2.06
-19.51 13.98 -1.26
-19.03 13.64 -0.41
-8.52 6.11 2.81
-5.84 4.22 -1.93
-19.52 14.09 0.42
-6.77 4.88 -1.93
-19.79 14.29 1.28
-0.81 0.58 -0.19
-26.18 18.91 2.83
-0.81 0.59 -0.16
-12.68 9.16 -1.92
-8.37 6.05 1.64
-18.91 13.66 -2.04
-19.95 14.41 -1.29
-9.53 6.88 2.71
-19.08 13.77 -0.41
-8.5 6.14 2.81
-5.83 4.24 -1.93
-45.26 32.92 0.98
-6.72 4.89 -1.92
-21.06 15.32 1.36
-0.8 0.58 -0.19
-26.11 18.99 2.82
-0.81 0.59 -0.16
-8.48 6.17 1.29
-12.63 9.19 -1.92
-8.44 6.14 1.65
-18.9 13.75 -2.05
-8.49 6.17 2.04
-19.71 14.33 -1.28
-8.47 6.16 2.42
-19.04 13.85 -0.41
-8.53 6.2 2.82
-5.82 4.26 -1.93
-45.18 33.11 0.98
-6.68 4.9 -1.91
-18.96 13.89 1.23
-8.41 6.16 0.91
-0.84 0.62 -0.17
-8.42 6.17 1.28
-12.59 9.23 -1.92
-8.43 6.18 1.66
-18.85 13.81 -2.04
-8.45 6.19 2.04
-19.3 14.14 -1.25
-22.36 16.38 -0.48
-5.8 4.28 -1.93
-8.41 6.21 0.18
-6.65 4.91 -1.91
-8.36 6.17 0.54
-8.32 6.14 0.91
-0.82 0.6 -0.16
-8.39 6.19 1.28
-12.55 9.26 -1.92
-8.4 6.2 1.65
-18.12 13.37 -1.97
-8.43 6.22 2.04
-8.4 6.2 -0.55
-8.34 6.16 2.39
-18.16 13.41 -0.39
-27.51 20.3 9.16
-5.79 4.3 -1.93
-8.33 6.19 0.18
-6.6 4.91 -1.9
-8.3 6.17 0.54
-0.79 0.59 -0.19
-8.33 6.19 0.91
-0.81 0.6 -0.16
-8.39 6.23 1.28
-12.54 9.31 -1.92
-8.38 6.23 1.65
-8.36 6.21 -0.91
-8.41 6.25 2.04
-8.38 6.22 -0.55
-8.75 6.5 2.52
-8.34 6.2 -0.18
-8.16 6.07 2.73
-5.78 4.32 -1.93
-8.32 6.22 0.18
-6.55 4.9 -1.89
-8.29 6.2 0.54
-8.34 6.24 0.91
-0.8 0.6 -0.16
-8.32 6.22 -1.28
-8.27 6.19 1.64
-8.3 6.21 -0.91
-8.33 6.23 -0.55
-8.73 6.53 2.52
-8.32 6.22 -0.18
-8.12 6.08 2.72
-5.77 4.35 -1.93
-8.33 6.28 0.18
-6.51 4.91 -1.88
-8.29 6.25 0.54
-0.8 0.6 -0.16
-26.74 20.15 4.11
-8.26 6.23 -1.27
-8.77 6.61 1.74
-8.28 6.24 -0.91
-23.41 17.65 5.7
-8.33 6.28 -0.55
-8.31 6.27 -0.18
-27.97 21.09 9.39
-5.75 4.37 -1.94
-6.48 4.92 -1.88
-0.81 0.61 -0.16
-18.7 14.2 2.88
-8.25 6.26 -1.27
-8.34 6.33 1.66
-8.29 6.3 -0.91
-23.56 17.89 5.75
-8.31 6.31 -0.55
-10.27 7.8 2.98
-8.31 6.31 -0.18
-10.05 7.63 3.38
-5.73 4.38 -1.93
-37.56 28.73 0.83
-6.43 4.92 -1.87
-18.9 14.45 1.25
-18.09 13.84 1.99
-0.81 0.62 -0.16
-26.75 20.46 4.14
-8.25 6.31 -1.27
-8.32 6.36 1.66
-8.28 6.33 -0.91
-8.07 6.17 1.97
-7.83 5.99 2.28
-18.02 13.78 -0.4
-9.86 7.54 3.33
-5.72 4.4 -1.93
-38.21 29.43 0.84
-6.41 4.94 -1.87
-18.86 14.53 1.25
-8.19 6.31 -1.64
-18.61 14.34 -2.06
-8.02 6.18 1.97
-18 13.86 -0.4
-8.03 6.19 2.72
-5.71 4.43 -1.94
-19.29 14.97 0.43
-6.38 4.95 -1.87
-19.38 15.04 1.29
-8.19 6.35 -1.64
-18.93 14.69 2.94
-12.31 9.55 -1.91
-25.56 19.83 5.12
-18.56 14.4 -2.06
-17.95 13.93 -1.19
-17.97 13.94 -0.4
-8.01 6.22 2.72
-5.69 4.45 -1.94
-18.69 14.61 0.41
-6.34 4.96 -1.86
-18.63 14.56 1.24
-0.79 0.62 -0.16
-18.52 14.47 2.89
-12.26 9.58 -1.91
-8.28 6.47 1.66
-18.53 14.48 -2.06
-17.96 14.04 -1.19
-17.94 14.02 -0.4
-10.13 7.92 3.44
-5.68 4.48 -1.94
-6.32 4.97 -1.86
-9.36 7.37 -1.89
-26.34 20.73 4.12
-12.22 9.62 -1.91
-8.19 6.45 1.65
-18.49 14.55 -2.06
-17.91 14.1 -1.19
-8.24 6.48 2.42
-17.92 14.1 -0.4
-5.66 4.49 -1.94
-19.23 15.25 0.43
-6.29 4.98 -1.85
-18 14.27 2.01
-9.5 7.53 -1.92
-26.27 20.83 4.12
-12.17 9.65 -1.91
-8.21 6.51 1.66
-18.44 14.62 -2.06
-19.56 15.51 4.85
-17.89 14.19 -1.2
-7.64 6.06 2.25
-17.9 14.19 -0.4
-24.81 19.67 8.48
-5.65 4.51 -1.94
-19.07 15.23 0.43
-6.28 5.01 -1.85
-19.03 15.2 1.28
-17.92 14.31 2.01
-9.2 7.35 -1.87
-26.2 20.92 4.12
-12.13 9.69 -1.91
-18.4 14.7 -2.06
-8.33 6.66 2.07
-17.85 14.26 -1.2
-7.69 6.14 2.27
-17.87 14.27 -0.4
-22.89 18.28 7.85
-5.64 4.53 -1.94
-19.04 15.31 0.43
-6.24 5.02 -1.85
-19.18 15.43 1.29
-17.9 14.4 2.01
-9.22 7.42 -1.87
-18.87 15.18 2.97
-12.1 9.73 -1.91
-23.68 19.05 4.81
-18.36 14.77 -2.06
-17.82 14.33 -1.2
-7.69 6.19 2.28
-17.85 14.36 -0.4
-9.58 7.71 3.3
-5.63 4.56 -1.94
-6.22 5.04 -1.85
-19.14 15.5 1.29
-17.88 14.49 2.01
-9.43 7.64 -1.92
-19.14 15.5 3.02
-12.05 9.76 -1.9
-18.54 15.02 3.78
-18.33 14.85 -2.06
-22.8 18.47 5.7
-17.82 14.44 -1.2
-7.54 6.11 2.24
-17.83 14.44 -0.4
-24.6 19.93 8.48
-5.61 4.58 -1.94
-18.84 15.37 0.42
-6.2 5.06 -1.85
-18.87 15.39 1.28
-17.85 14.57 2.02
-9.39 7.66 -1.92
-18.05 14.72 2.86
-12.01 9.8 -1.9
-18.9 15.42 3.86
-18.28 14.91 -2.06
-17.79 14.51 -1.2
-17.79 14.52 -0.4
-22.7 18.52 7.85
-5.59 4.59 -1.94
-18.66 15.33 0.42
-6.17 5.07 -1.84
-18.9 15.52 1.28
-17.82 14.64 2.02
-9.34 7.67 -1.91
-18.71 15.37 2.97
-11.97 9.84 -1.9
-24.57 20.19 5.04
-18.21 14.96 -2.06
-18.96 15.57 4.77
-17.76 14.59 -1.2
-7.5 6.16 2.24
-17.78 14.61 -0.4
-7.29 5.99 2.53
-5.58 4.62 -1.94
-44.16 36.53 1
-6.15 5.09 -1.84
-44.26 36.62 3.01
-17.8 14.72 2.02
-9.28 7.68 -1.91
-18.57 15.36 2.96
-11.93 9.87 -1.9
-24.43 20.21 5.02
-18.18 15.04 -2.06
-8.34 6.9 2.11
-17.73 14.67 -1.21
-17.75 14.69 -0.4
-8.98 7.43 3.12
-5.57 4.64 -1.94
-44.11 36.75 1
-6.13 5.11 -1.84
-25.43 21.19 1.73
-9.23 7.69 -1.9
-19.74 16.45 3.15
-6.22 5.18 -0.99
-24.34 20.28 5.02
-18.13 15.1 -2.06
-17.7 14.75 -1.21
-17.74 14.78 -0.4
-9.22 7.68 3.22
-5.56 4.66 -1.94
-44.04 36.95 1
-6.11 5.13 -1.84
-44.13 37.03 3.02
-6.2 5.21 -1.28
-18.48 15.51 2.96
-18.16 15.23 3.75
-18.08 15.17 -2.07
-8.29 6.96 2.1
-17.67 14.83 -1.21
-23.17 19.44 6.98
-9.2 7.72 3.22
-5.55 4.69 -1.95
-18.46 15.6 0.42
-6.1 5.15 -1.84
-18.89 15.96 1.3
-6.18 5.22 -1.28
-18.36 15.52 2.95
-6.2 5.24 -1
-18.04 15.24 3.74
-17.98 15.19 -2.06
-8.26 6.98 2.1
-17.65 14.92 -1.21
-10.25 8.66 3.6
-5.52 4.7 -1.94
-43.93 37.39 1.01
-6.08 5.17 -1.84
-43.99 37.43 3.03
-9.11 7.75 -1.89
-19.26 16.39 3.1
-11.77 10.02 -1.9
-17.93 15.26 3.73
-17.95 15.27 -2.06
-8.3 7.06 2.12
-17.63 15 -1.21
-10.05 8.55 3.05
-7.31 6.22 2.57
-5.51 4.72 -1.94
-43.85 37.59 1.01
-6.05 5.19 -1.84
-18.43 15.8 1.27
-9.08 7.78 -1.89
-18.42 15.78 2.98
-11.74 10.06 -1.9
-18.22 15.62 3.8
-17.89 15.33 -2.06
-9.98 8.55 3.03
-7.26 6.22 2.56
-5.5 4.75 -1.95
-43.81 37.81 1.01
-6.02 5.19 -1.84
-43.85 37.85 3.04
-9.03 7.8 -1.89
-18.44 15.92 2.99
-11.7 10.1 -1.9
-26.39 22.78 5.52
-17.82 15.38 -2.06
-23.14 19.97 5.94
-9.98 8.61 3.04
-7.21 6.22 2.55
-5.51 4.79 -1.96
-43.74 38.02 1.01
-5.99 5.2 -1.83
-43.79 38.06 3.04
-9 7.83 -1.89
-11.65 10.13 -1.9
-18.18 15.81 3.82
-17.75 15.43 -2.06
-5.49 4.8 -1.95
-43.68 38.24 1.01
-5.98 5.24 -1.84
-43.72 38.27 3.05
-8.97 7.85 -1.89
-37.53 32.85 6.12
-11.6 10.16 -1.89
-18.95 16.59 3.99
-17.66 15.46 -2.05
-8.11 7.1 2.09
-22.74 19.91 6.98
-22.09 19.34 7.87
-5.46 4.81 -1.95
-17.61 15.53 0.41
-5.98 5.27 -1.84
-43.68 38.51 3.05
-8.93 7.87 -1.89
-11.56 10.19 -1.89
-26.19 23.09 5.53
-17.55 15.48 -2.05
-8.05 7.1 2.09
-8.67 7.64 2.67
-22.47 19.81 8.03
-5.45 4.84 -1.95
-17.49 15.53 0.41
-5.98 5.31 -1.85
-17.53 15.56 1.23
-17.55 15.58 2.05
-8.89 7.89 -1.88
-18.73 16.63 3.08
-11.53 10.24 -1.89
-18.18 16.14 3.85
-17.45 15.49 -2.04
-17.48 15.52 -1.22
-8.63 7.66 2.66
-17.5 15.54 -0.41
-7.12 6.32 2.55
-5.44 4.86 -1.96
-17.47 15.62 0.41
-5.95 5.32 -1.84
-17.5 15.65 1.23
-17.55 15.69 2.06
-8.85 7.92 -1.88
-37.16 33.22 6.12
-11.49 10.27 -1.89
-19.2 17.17 4.08
-17.46 15.61 -2.05
-17.44 15.59 -1.23
-8.61 7.69 2.67
-17.49 15.63 -0.41
-7.13 6.37 2.56
-5.43 4.89 -1.96
-43.42 39.1 1.02
-5.93 5.34 -1.84
-18.35 16.52 1.29
-43.55 39.22 5.13
-8.83 7.95 -1.88
-23.89 21.51 3.95
-11.45 10.31 -1.89
-29.95 26.97 6.38
-17.56 15.81 -2.07
-8.23 7.41 2.15
-18.27 16.45 -1.29
-18.54 16.69 -0.44
-9 8.1 3.25
-5.41 4.91 -1.96
-29.76 26.98 0.7
-5.92 5.37 -1.85
-29.4 26.66 2.08
-29.04 26.33 3.43
-8.8 7.98 -1.88
-29.57 26.82 4.9
-11.4 10.34 -1.89
-29.77 27 6.37
-13.46 12.2 -1.59
-8.44 7.65 2.21
-18.28 16.57 -1.29
-8.58 7.78 2.67
-18.27 16.57 -0.43
-5.39 4.92 -1.96
-29.7 27.12 0.7
-5.91 5.4 -1.85
-29.05 26.53 2.06
-18.58 16.96 2.2
-8.77 8.01 -1.88
-29.59 27.02 4.92
-11.37 10.38 -1.89
-29.66 27.08 6.36
-8.18 7.47 2.15
-18.63 17.01 -1.32
-18.43 16.83 -0.44
-5.38 4.95 -1.96
-29.16 26.81 0.69
-5.88 5.41 -1.85
-28.75 26.44 2.05
-28.75 26.44 3.42
-8.73 8.03 -1.88
-29.49 27.12 4.92
-11.34 10.42 -1.89
-24.74 22.75 5.32
-13.11 12.06 -1.56
-18.52 17.03 -1.32
-18.3 16.82 -0.43
-21.9 20.14 7.97
-5.37 4.97 -1.96
-28.74 26.61 0.68
-28.66 26.54 2.05
-28.55 26.44 3.4
-8.7 8.05 -1.88
-29.32 27.15 4.91
-11.29 10.46 -1.89
-29.5 27.32 6.37
-13.02 12.06 -1.55
-29.17 27.01 7.73
-18.27 16.92 -1.31
-8.69 8.05 2.73
-18.22 16.87 -0.43
-7.72 7.15 2.82
-5.34 4.98 -1.96
-28.52 26.6 0.68
-18.32 17.08 1.31
-28.69 26.75 3.43
-8.67 8.08 -1.88
-18.44 17.2 3.1
-11.25 10.49 -1.89
-28.74 26.8 6.22
-12.95 12.07 -1.55
-29.02 27.06 7.71
-18.37 17.13 -1.32
-18.24 17.01 -0.44
-5.31 4.98 -1.95
-28.32 26.6 0.68
-28.37 26.64 2.04
-8.64 8.12 -1.88
-29.05 27.28 4.89
-11.21 10.53 -1.89
-28.81 27.06 6.26
-12.87 12.09 -1.54
-28.6 26.86 7.63
-18.33 17.21 -1.32
-18.16 17.05 -0.43
-33.87 31.81 12.45
-5.27 4.98 -1.94
-28.24 26.7 0.68
-28.19 26.65 2.03
-28.81 27.23 3.47
-8.61 8.14 -1.88
-28.12 26.59 4.75
-11.18 10.57 -1.89
-28.44 26.88 6.2
-12.75 12.05 -1.54
-28.46 26.9 7.61
-18.23 17.24 -1.31
-18.12 17.13 -0.44
-7.67 7.26 2.83
-5.24 4.99 -1.94
-28.52 27.15 0.69
-28.16 26.81 2.04
-27.89 26.55 3.37
-8.58 8.17 -1.88
-28.05 26.7 4.76
-11.14 10.61 -1.89
-28.31 26.95 6.19
-12.69 12.08 -1.53
-28.53 27.16 7.66
-18.24 17.36 -1.32
-18.12 17.25 -0.44
-7.66 7.3 2.84
-5.22 5 -1.94
-28.46 27.28 0.69
-28.08 26.92 2.04
-27.75 26.6 3.36
-8.55 8.2 -1.88
-28.27 27.1 4.81
-11.09 10.63 -1.89
-28.15 26.98 6.18
-12.59 12.07 -1.53
-28.49 27.31 7.67
-18.59 17.82 -1.35
-29.01 27.81 9.28
-18.02 17.28 -0.44
-7.64 7.33 2.84
-5.2 5.02 -1.94
-27.84 26.87 0.68
-27.94 26.97 2.04
-27.79 26.82 3.38
-8.52 8.22 -1.88
-28.11 27.13 4.8
-11.05 10.67 -1.89
-29.54 28.51 6.5
-28.52 27.53 7.7
-18.47 17.83 -1.35
-22.65 21.87 7.27
-18 17.37 -0.44
-5.19 5.04 -1.94
-27.8 27.02 0.68
-27.81 27.04 2.03
-27.41 26.64 3.34
-8.49 8.25 -1.88
-27.81 27.03 4.76
-11.01 10.7 -1.88
-27.75 26.98 6.13
-12.43 12.09 -1.52
-28.43 27.64 7.71
-28.74 27.94 9.25
-17.92 17.42 -0.44
-7.64 7.43 2.86
-5.17 5.06 -1.94
-27.62 27.04 0.67
-29.09 28.47 2.13
-27.99 27.4 3.43
-8.47 8.29 -1.88
-27.55 26.97 4.73
-10.97 10.74 -1.88
-27.87 27.28 6.18
-12.32 12.06 -1.51
-28.65 28.04 7.79
-13.41 13.13 -0.98
-28.41 27.81 9.18
-17.93 17.55 -0.44
-7.63 7.47 2.86
-5.15 5.08 -1.94
-27.62 27.23 0.68
-27.39 27 2.02
-28.38 27.98 3.49
-8.43 8.31 -1.88
-28.29 27.89 4.88
-10.92 10.77 -1.88
-28.21 27.81 6.27
-12.28 12.1 -1.51
-27.87 27.47 7.61
-28.49 28.08 9.24
-17.98 17.72 -0.44
-7.63 7.52 2.87
-5.13 5.09 -1.94
-27.45 27.25 0.68
-27.27 27.07 2.01
-18.12 17.98 2.23
-8.4 8.34 -1.87
-27.43 27.23 4.75
-10.88 10.8 -1.88
-28.21 28 6.29
-12.24 12.15 -1.51
-13.11 13.02 -0.97
-22.38 22.22 7.28
-27.47 27.27 -0.68
-7.6 7.54 2.87
-5.12 5.11 -1.94
-27.3 27.29 0.67
-27.22 27.21 2.02
-26.9 26.89 3.33
-8.37 8.36 -1.87
-27.39 27.38 4.76
-10.83 10.83 -1.88
-29.01 29 6.5
-12.19 12.19 -1.51
-28.27 28.26 7.77
-13.02 13.01 -0.96
-22.94 22.93 7.49
-17.87 17.86 -0.44
-7.59 7.59 2.88
-5.1 5.14 -1.94
-27.15 27.34 0.67
-27.69 27.88 2.06
-26.85 27.03 3.33
-8.34 8.4 -1.87
-27.19 27.37 4.74
-10.79 10.87 -1.88
-28.03 28.21 6.3
-12.15 12.23 -1.51
-27.35 27.53 7.54
-12.93 13.02 -0.96
-27.85 28.04 9.12
-17.87 17.99 -0.44
-21.14 21.28 8.04
-5.08 5.15 -1.94
-27.14 27.52 0.67
-27.02 27.39 2.02
-26.94 27.31 3.36
-8.31 8.42 -1.87
-27.05 27.42 4.73
-10.75 10.9 -1.88
-27.48 27.86 6.2
-27.32 27.7 7.56
-12.84 13.02 -0.96
-27.62 28 9.08
-18.55 18.8 -0.46
-21.04 21.33 8.03
-5.06 5.17 -1.94
-26.88 27.44 0.67
-27.44 28.01 2.06
-26.83 27.39 3.35
-8.26 8.43 -1.87
-27.13 27.69 4.76
-10.71 10.93 -1.88
-26.68 27.23 6.04
-27.21 27.77 7.56
-27.5 28.07 9.07
-17.84 18.21 -0.44
-20.97 21.41 8.03
-5.03 5.17 -1.93
-26.48 27.23 0.66
-27.55 28.32 2.07
-26.89 27.64 3.37
-8.24 8.47 -1.87
-27.13 27.89 4.78
-10.66 10.96 -1.88
-26.63 27.37 6.05
-27.01 27.76 7.53
-27.65 28.42 9.15
-20.35 20.92 -0.51
-20.91 21.5 8.04
-5.01 5.19 -1.93
-26.47 27.4 0.67
-27.21 28.16 2.05
-26.78 27.72 3.37
-8.21 8.5 -1.87
-26.62 27.56 4.71
-10.61 10.99 -1.88
-26.56 27.5 6.06
-12.03 12.45 -1.51
-27.89 28.87 7.8
-12.59 13.03 -0.95
-27.31 28.27 9.07
-17.87 18.5 -0.45
-20.8 21.53 8.02
-4.99 5.2 -1.93
-26.36 27.48 0.66
-27.14 28.29 2.05
-26.99 28.14 3.41
-8.18 8.52 -1.87
-26.45 27.57 4.69
-10.57 11.02 -1.87
-26.42 27.54 6.04
-12.01 12.52 -1.52
-26.9 28.04 7.55
-12.52 13.05 -0.95
-23.98 25 8
-17.72 18.47 -0.45
-4.97 5.21 -1.93
-26.4 27.71 0.67
-27.34 28.7 2.08
-26.68 28 3.38
-8.15 8.55 -1.87
-26.12 27.42 4.65
-10.53 11.06 -1.88
-26.95 28.3 6.19
-11.96 12.55 -1.52
-26.57 27.89 7.49
-12.45 13.06 -0.95
-27.05 28.39 9.05
-17.88 18.76 -0.45
-20.57 21.6 7.99
-4.96 5.24 -1.93
-26.61 28.12 0.68
-27.3 28.84 2.08
-26.44 27.94 3.37
-8.11 8.57 -1.87
-26.78 28.3 4.78
-10.49 11.08 -1.87
-27 28.54 6.22
-11.99 12.67 -1.53
-26.73 28.24 7.56
-12.4 13.1 -0.95
-19.92 21.05 6.69
-17.7 18.71 -0.45
-4.95 5.27 -1.94
-26.49 28.19 0.68
-26.55 28.25 2.03
-26.38 28.08 3.37
-8.08 8.6 -1.87
-27.06 28.79 4.85
-10.43 11.1 -1.87
-26.99 28.73 6.24
-12.01 12.78 -1.53
-26.61 28.32 7.55
-12.33 13.12 -0.94
-19.85 21.12 6.69
-19.51 20.76 -0.5
-21.25 22.61 8.31
-4.94 5.29 -1.94
-26.39 28.28 0.68
-26.43 28.33 2.03
-26.31 28.19 3.37
-8.05 8.63 -1.87
-26.86 28.79 4.83
-10.36 11.1 -1.86
-26.65 28.56 6.19
-12.01 12.88 -1.54
-26.61 28.52 7.58
-12.27 13.14 -0.94
-19.83 21.25 6.71
-19.33 20.72 -0.49
-4.93 5.32 -1.94
-26.47 28.57 0.68
-26.89 29.02 2.07
-26.84 28.96 3.45
-8.02 8.65 -1.87
-26.57 28.67 4.8
-10.3 11.11 -1.86
-26.46 28.56 6.17
-12.01 12.96 -1.55
-26.57 28.67 7.6
-12.21 13.18 -0.94
-19.91 21.48 6.76
-18.17 19.61 -0.47
-19.52 21.06 7.69
-4.9 5.33 -1.94
-26.42 28.73 0.68
-26.78 29.12 2.07
-25.92 28.18 3.35
-7.99 8.68 -1.87
-21.51 23.39 3.9
-10.25 11.14 -1.86
-26.36 28.66 6.17
-11.98 13.02 -1.55
-26.46 28.77 7.6
-12.17 13.23 -0.94
-21.47 23.34 7.32
-17.79 19.34 -0.46
-21.2 23.05 8.39
-4.88 5.34 -1.94
-26.33 28.82 0.68
-26.86 29.41 2.09
-26.33 28.82 3.42
-7.95 8.7 -1.87
-26.9 29.45 4.9
-10.2 11.17 -1.86
-26.24 28.72 6.16
-12.03 13.17 -1.56
-26.88 29.43 7.75
-12.12 13.27 -0.94
-20.72 22.68 7.09
-17.44 19.1 -0.45
-4.85 5.35 -1.93
-26.4 29.1 0.69
-26.66 29.39 2.08
-26.2 28.88 3.41
-7.91 8.72 -1.86
-26.58 29.3 4.86
-10.15 11.19 -1.85
-26.95 29.71 6.35
-12 13.23 -1.56
-20.98 23.13 7.21
-17.43 19.22 -0.45
-20.19 22.25 8.05
-4.83 5.36 -1.93
-26.3 29.2 0.69
-26.34 29.25 2.06
-26.5 29.42 3.46
-7.88 8.75 -1.87
-26.5 29.42 4.86
-10.09 11.2 -1.85
-26.3 29.2 6.22
-12.05 13.38 -1.58
-23.08 25.62 6.7
-17.41 19.32 -0.45
-22.56 25.04 9.03
-4.81 5.38 -1.93
-26.17 29.25 0.69
-26.44 29.55 2.08
-26.18 29.26 3.43
-7.85 8.78 -1.87
-20.53 22.95 3.78
-10.06 11.24 -1.85
-26.86 30.02 6.38
-12 13.41 -1.57
-12.02 13.44 -0.95
-17.44 19.49 -0.46
-20.78 23.22 8.35
-4.79 5.39 -1.93
-26.66 30.01 0.7
-26.39 29.7 2.08
-25.98 29.24 3.42
-7.81 8.8 -1.86
-33.51 37.71 6.19
-10.04 11.3 -1.86
-12.01 13.52 -1.58
-17.39 19.57 -0.46
-19.46 21.9 7.85
-4.77 5.41 -1.93
-26.36 29.88 0.7
-26.71 30.27 2.12
-25.82 29.27 3.41
-7.78 8.82 -1.86
-33.17 37.6 6.16
-10.04 11.38 -1.86
-37.51 42.51 8.98
-12.06 13.68 -1.6
-11.96 13.55 -0.95
-22.29 25.27 7.78
-18.74 21.24 -0.49
-19.89 22.54 8.05
-4.77 5.44 -1.94
-26.46 30.2 0.7
-33.07 37.75 2.63
-21.83 24.92 2.9
-7.75 8.84 -1.86
-32.86 37.51 6.12
-10 11.42 -1.86
-11.84 13.52 -0.94
-18.7 21.35 -0.5
-19.43 22.18 7.9
-4.74 5.45 -1.93
-32.53 37.39 0.87
-32.95 37.88 2.63
-32.57 37.44 4.34
-7.72 8.87 -1.86
-32.53 37.39 6.09
-9.94 11.43 -1.86
-17.36 19.96 -0.46
-19.54 22.46 7.98
-4.71 5.46 -1.93
-32.24 37.33 0.86
-32.29 37.39 4.32
-7.68 8.89 -1.86
-32.29 37.38 6.07
-9.98 11.56 -1.88
-19.47 22.54 4.72
-17.25 19.97 -0.46
-20.28 23.48 8.31
-4.69 5.47 -1.93
-27.2 31.71 0.73
-27.22 31.74 2.19
-27.27 31.79 3.66
-7.65 8.92 -1.86
-27.26 31.78 5.14
-9.83 11.46 -1.85
-19.29 22.49 4.69
-39.54 46.1 14.02
-17.19 20.04 -0.46
-19.38 22.6 7.98
-4.68 5.5 -1.93
-27.01 31.72 0.73
-6.29 7.38 0.51
-6.3 7.39 0.85
-7.61 8.94 -1.86
-9.76 11.46 -1.85
-19.44 22.83 4.75
-20.08 23.57 6.02
-17.43 20.47 -0.47
-21.9 25.72 9.05
-4.66 5.51 -1.93
-26.75 31.63 0.72
-7.58 8.96 -1.86
-9.81 11.6 -1.86
-19.06 22.54 4.68
-20.01 23.66 6.02
-18.91 22.36 6.76
-17.62 20.84 -0.48
-19.44 22.99 8.07
-4.64 5.53 -1.93
-26.51 31.57 0.72
-7.55 8.99 -1.86
-9.69 11.54 -1.85
-26.57 31.64 6.54
-19.85 23.64 6
-17.23 20.52 -0.47
-4.63 5.55 -1.94
-26.26 31.5 0.72
-7.52 9.02 -1.86
-6.21 7.44 1.19
-9.63 11.55 -1.85
-26.34 31.59 6.51
-12.09 14.5 -0.99
-20.03 24.02 7.22
-18.53 22.23 -0.51
-4.6 5.56 -1.93
-26.01 31.42 0.71
-6.18 7.46 0.51
-6.19 7.48 0.85
-7.49 9.04 -1.86
-6.18 7.47 1.19
-9.61 11.6 -1.85
-26.04 31.45 6.47
-12.07 14.58 -1.66
-22.99 27.77 7.01
-12.1 14.62 -0.99
-19.46 23.51 7.05
-17.07 20.62 -0.47
-20.92 25.27 8.79
-4.59 5.58 -1.94
-25.77 31.35 0.71
-6.16 7.49 0.51
-6.17 7.5 0.85
-7.44 9.05 -1.86
-6.15 7.49 1.19
-9.58 11.65 -1.85
-25.83 31.42 6.44
-6.17 7.51 -0.85
-6.21 7.56 1.9
-12.09 14.71 -1
-6.22 7.56 2.26
-17.07 20.76 -0.47
-6.2 7.54 2.62
-4.56 5.58 -1.93
-6.13 7.52 0.17
-6.13 7.51 0.51
-6.14 7.52 0.85
-6.11 7.48 -1.53
-6.12 7.5 1.19
-6.12 7.49 -1.19
-6.16 7.55 1.54
-6.12 7.49 -0.85
-6.15 7.54 1.89
-6.13 7.51 -0.51
-6.17 7.56 2.25
-6.15 7.54 -0.17
-6.17 7.56 2.62
-4.55 5.61 -1.93
-6.11 7.54 0.17
-6.09 7.52 0.51
-6.11 7.54 0.85
-6.08 7.51 -1.53
-6.09 7.52 1.19
-6.09 7.51 -1.19
-6.14 7.57 1.54
-6.09 7.52 -0.85
-6.13 7.57 1.89
-6.1 7.52 -0.51
-6.16 7.6 2.26
-6.12 7.55 -0.17
-6.17 7.61 2.62
-4.52 5.62 -1.93
-25.03 31.1 0.7
-6.07 7.54 0.51
-5.95 7.39 -1.84
-6.09 7.56 0.85
-6.07 7.54 -1.53
-6.07 7.55 1.19
-9.5 11.81 -1.86
-25.07 31.16 6.33
-6.1 7.58 -0.85
-12.11 15.05 -1.01
-19.03 23.65 7.01
-16.87 20.96 -0.47
-4.49 5.62 -1.93
-19.61 24.54 0.55
-6.04 7.56 0.51
-5.91 7.4 -1.84
-6.05 7.57 0.85
-7.32 9.16 -1.86
-6.05 7.57 1.19
-9.45 11.82 -1.86
-18.84 23.58 4.78
-12.05 15.08 -1.69
-12.12 15.17 -1.02
-16.82 21.05 -0.47
-4.48 5.64 -1.93
-19.47 24.54 0.55
-6.02 7.59 0.51
-5.91 7.45 -1.85
-6.02 7.59 0.85
-7.28 9.17 -1.85
-6.02 7.59 1.19
-9.39 11.84 -1.86
-24.6 31 6.27
-12.07 15.22 -1.7
-18.3 23.07 6.8
-17.31 21.82 -0.49
-4.46 5.66 -1.93
-19.4 24.62 0.55
-5.99 7.6 0.51
-5.91 7.5 -1.86
-6 7.62 0.85
-7.24 9.19 -1.85
-5.99 7.6 1.19
-9.32 11.83 -1.85
-24.42 30.98 6.25
-12.09 15.35 -1.71
-18.25 23.16 6.81
-17.2 21.83 -0.49
-17.1 21.69 7.4
-4.46 5.7 -1.94
-19.37 24.76 0.55
-5.96 7.62 0.51
-5.86 7.49 -1.85
-5.99 7.65 0.85
-7.21 9.21 -1.85
-5.96 7.62 1.19
-9.25 11.82 -1.84
-19.18 24.51 4.93
-12.1 15.47 -1.72
-19.1 24.41 6.02
-20.05 25.63 7.51
-16.86 21.55 -0.48
-19.07 24.37 8.29
-4.45 5.73 -1.95
-23.92 30.79 0.68
-5.96 7.67 0.51
-5.82 7.5 -1.85
-7.18 9.24 -1.85
-9.23 11.88 -1.85
-23.93 30.81 6.18
-12.08 15.55 -1.72
-19.03 24.49 6.03
-17.99 23.16 6.77
-16.76 21.58 -0.48
-19.01 24.47 8.3
-23.69 30.73 0.68
-5.82 7.55 -1.85
-7.14 9.26 -1.85
-9.17 11.89 -1.84
-17.4 22.56 4.51
-14.35 18.61 -2.06
-17.84 23.14 6.75
-23.65 30.67 -0.68
-18.94 24.56 8.31
-23.46 30.65 0.67
-5.76 7.53 -1.84
-7.1 9.27 -1.85
-19.08 24.92 3.85
-9.11 11.91 -1.84
-19.05 24.88 4.96
-14.28 18.66 -2.06
-16.74 21.87 -1.44
-17.34 22.66 6.59
-23.45 30.63 -0.67
-4.37 5.75 -1.93
-23.26 30.61 0.67
-23.27 30.63 2.02
-5.75 7.57 -1.85
-23.33 30.7 3.37
-7.07 9.3 -1.85
-16.99 22.36 3.45
-9.05 11.92 -1.84
-18.94 24.93 4.96
-14.21 18.71 -2.06
-18.84 24.8 6.05
-16.98 22.35 -1.47
-17.13 22.54 6.54
-17.03 22.42 -0.49
-21.19 27.89 9.39
-4.35 5.77 -1.94
-23.19 30.74 0.67
-23.05 30.55 2.01
-5.68 7.53 -1.83
-23.23 30.79 3.37
-7.03 9.32 -1.85
-18.94 25.11 3.86
-8.97 11.9 -1.83
-18.9 25.05 4.97
-14.14 18.74 -2.05
-17.23 22.83 5.56
-16.91 22.42 -1.47
-17.95 23.79 6.88
-16.84 22.32 -0.49
-4.33 5.78 -1.94
-22.98 30.69 0.67
-22.83 30.49 2
-5.66 7.55 -1.83
-19.86 26.53 2.9
-7 9.35 -1.85
-18.8 25.11 3.85
-8.93 11.92 -1.83
-23.1 30.85 6.11
-14.08 18.8 -2.05
-18.74 25.03 6.08
-16.91 22.58 -1.48
-16.71 22.31 -0.49
-4.31 5.8 -1.94
-22.76 30.61 0.67
-22.62 30.42 1.99
-5.61 7.54 -1.83
-22.81 30.66 3.34
-6.96 9.36 -1.85
-18.72 25.17 3.85
-8.87 11.93 -1.83
-18.77 25.23 4.98
-14.02 18.85 -2.06
-18.65 25.07 6.07
-16.57 22.28 -1.46
-16.33 21.95 6.32
-22.58 30.36 -0.66
-22.55 30.55 0.66
-22.41 30.36 1.98
-5.58 7.55 -1.82
-22.58 30.58 3.33
-6.93 9.38 -1.85
-22.4 30.35 4.63
-8.83 11.96 -1.83
-18.68 25.3 4.98
-13.97 18.92 -2.06
-16.75 22.7 5.48
-16.77 22.72 -1.48
-16.24 21.99 6.31
-22.37 30.3 -0.66
-18.02 24.41 8.13
-22.34 30.48 0.66
-22.2 30.29 1.97
-5.55 7.57 -1.83
-22.37 30.52 3.31
-6.89 9.4 -1.85
-22.18 30.26 4.61
-8.78 11.98 -1.82
-22.43 30.6 6.01
-13.91 18.98 -2.06
-17.11 23.35 5.63
-16.7 22.78 -1.48
-18.58 25.35 7.26
-16.6 22.65 -0.49
-22.14 30.43 0.66
-21.99 30.23 1.96
-5.54 7.61 -1.83
-17.58 24.16 2.61
-6.86 9.42 -1.85
-21.98 30.21 4.59
-8.7 11.97 -1.82
-22.3 30.65 6
-13.88 19.08 -2.06
-16.6 22.81 5.48
-22.02 30.26 -1.96
-18.47 25.38 7.25
-16.54 22.73 -0.49
-21.93 30.37 0.65
-21.78 30.17 1.95
-5.53 7.66 -1.84
-21.95 30.39 3.28
-6.82 9.45 -1.85
-21.76 30.14 4.56
-8.65 11.98 -1.81
-16.07 22.25 4.35
-13.86 19.19 -2.07
-16.47 22.81 -1.47
-16.42 22.74 -0.49
-17.82 24.69 8.16
-21.72 30.31 0.65
-21.57 30.11 1.94
-5.48 7.65 -1.83
-17.17 23.96 2.58
-6.78 9.46 -1.84
-21.56 30.09 4.55
-8.6 12 -1.81
-22.11 30.86 6.01
-13.79 19.24 -2.07
-17.03 23.77 5.68
-16.44 22.94 -1.48
-17.85 24.91 7.08
-16.77 23.4 -0.5
-18.41 25.69 8.47
-21.54 30.26 0.65
-21.39 30.06 1.93
-5.42 7.62 -1.82
-21.54 30.27 3.25
-6.75 9.48 -1.84
-21.37 30.03 4.53
-8.54 12 -1.81
-21.92 30.81 5.99
-13.74 19.31 -2.07
-16.41 23.06 -1.48
-16.52 23.22 -0.5
-19.97 28.05 9.23
-21.3 30.15 0.64
-21.18 29.98 1.92
-5.4 7.64 -1.82
-21.31 30.17 3.23
-6.71 9.5 -1.84
-21.17 29.98 4.51
-8.48 12 -1.8
-15.76 22.32 4.33
-13.68 19.37 -2.07
-18.31 25.92 6.17
-16.32 23.1 -1.48
-16.38 23.19 -0.5
-18.27 25.86 8.48
-21.09 30.08 0.64
-20.98 29.92 1.92
-5.42 7.73 -1.83
-21.1 30.11 3.22
-6.67 9.52 -1.84
-20.96 29.91 4.48
-8.41 12 -1.8
-21.11 30.12 5.83
-13.61 19.42 -2.07
-16.26 23.19 -1.48
-17.75 25.32 7.14
-16.48 23.51 -0.5
-18.15 25.9 8.47
-20.89 30.03 0.64
-20.78 29.87 1.91
-5.39 7.74 -1.83
-20.92 30.07 3.2
-6.64 9.54 -1.84
-20.77 29.86 4.47
-8.36 12.01 -1.8
-20.95 30.11 5.81
-13.53 19.45 -2.07
-17.62 25.33 6
-16.25 23.35 -1.49
-17.66 25.39 7.14
-16.23 23.33 -0.5
-18.12 26.05 8.5
-20.75 30.04 0.64
-20.59 29.81 1.9
-20.8 30.11 3.2
-6.61 9.56 -1.84
-20.58 29.79 4.45
-8.31 12.03 -1.8
-20.85 30.18 5.81
-13.46 19.49 -2.07
-16.2 23.45 -1.49
-16.22 23.47 -0.5
-20.78 30.31 0.64
-20.4 29.75 1.89
-6.56 9.57 -1.84
-20.38 29.73 4.43
-8.25 12.04 -1.79
-15.82 23.07 4.43
-13.39 19.53 -2.07
-17.77 25.92 6.11
-20.44 29.82 -1.89
-16.18 23.59 -0.5
-20.74 30.48 0.64
-20.21 29.71 1.88
-6.53 9.6 -1.84
-20.19 29.67 4.41
-8.2 12.06 -1.79
-15.78 23.2 4.44
-13.3 19.55 -2.07
-20.17 29.65 6.97
-16.42 24.13 -1.53
-16.23 23.86 -0.5
-20.67 30.62 0.64
-20.01 29.64 1.87
-6.49 9.62 -1.84
-19.99 29.61 4.39
-8.15 12.07 -1.79
-20.8 30.81 5.89
-8.32 12.33 -1.3
-20 29.62 6.95
-16.25 24.07 -1.52
-16.19 23.98 -0.51
-20.61 30.73 0.65
-19.84 29.58 1.87
-20.49 30.55 3.22
-6.46 9.64 -1.84
-19.83 29.56 4.37
-8.11 12.09 -1.79
-20.02 29.85 5.69
-8.24 12.28 -1.29
-17.01 25.37 5.94
-19.88 29.63 -1.87
-19.8 29.52 -0.62
-17.77 26.49 8.55
-19.81 29.77 0.62
-19.66 29.53 1.86
-19.84 29.81 3.13
-6.43 9.65 -1.84
-19.63 29.49 4.35
-8.07 12.12 -1.79
-19.86 29.84 5.68
-8.16 12.26 -1.29
-19.7 29.6 -1.86
-16.35 24.57 -0.52
-19.66 29.79 0.62
-19.46 29.48 1.85
-6.38 9.67 -1.83
-19.44 29.45 4.33
-8.02 12.16 -1.79
-8.09 12.25 -1.28
-16.03 24.28 -1.52
-16.38 24.81 6.86
-15.98 24.2 -0.51
-17.63 26.7 8.57
-20.24 30.9 0.64
-19.28 29.43 1.84
-6.34 9.69 -1.83
-19.25 29.39 4.31
-7.98 12.19 -1.79
-17.36 26.5 5.02
-8.02 12.24 -1.28
-16.7 25.49 5.92
-16.02 24.46 -1.53
-19.29 29.44 -0.61
-20.21 31.09 0.65
-19.09 29.36 1.84
-5.09 7.83 -1.81
-6.31 9.7 -1.83
-19.08 29.34 4.3
-7.94 12.21 -1.79
-7.95 12.22 -1.28
-16.69 25.68 5.95
-15.92 24.48 -1.53
-16.02 24.64 -0.51
-20.15 31.23 0.65
-18.91 29.31 1.83
-6.28 9.73 -1.83
-18.9 29.3 4.28
-7.9 12.24 -1.79
-17.02 26.39 4.97
-7.88 12.22 -1.27
-16.58 25.7 5.95
-15.91 24.67 -1.54
-16.13 25 -0.52
-20.09 31.38 0.65
-18.73 29.25 1.82
-18.84 29.42 3.06
-6.24 9.75 -1.83
-18.73 29.25 4.26
-7.86 12.27 -1.79
-18.84 29.42 5.53
-7.82 12.21 -1.27
-16.05 25.06 -1.56
-16.04 25.06 -0.52
-18.65 29.35 0.61
-18.56 29.21 1.81
-18.66 29.37 3.04
-6.2 9.75 -1.83
-18.55 29.19 4.25
-7.82 12.31 -1.79
-18.66 29.37 5.51
-7.82 12.31 -1.28
-15.69 24.7 5.69
-16.29 25.65 -1.59
-18.53 29.17 -0.6
-18.09 28.47 9.04
-18.48 29.29 0.6
-18.39 29.14 1.81
-5.07 8.04 -1.85
-18.51 29.34 3.04
-6.16 9.76 -1.83
-18.36 29.1 4.23
-7.79 12.35 -1.79
-18.54 29.39 5.5
-7.72 12.23 -1.26
-15.46 24.5 5.63
-16.17 25.63 -1.59
-18.39 29.14 -0.6
-18.37 29.34 0.6
-18.21 29.08 1.8
-5.06 8.09 -1.86
-18.41 29.41 3.04
-6.13 9.79 -1.83
-18.2 29.07 4.21
-7.74 12.36 -1.79
-18.44 29.46 5.5
-7.63 12.18 -1.26
-18.23 29.12 6.68
-16.14 25.78 -1.59
-16.04 25.62 -0.53
-16.43 26.24 8.3
-18.41 29.64 0.61
-18.04 29.04 1.79
-18.53 29.83 3.07
-6.1 9.82 -1.83
-18.03 29.03 4.2
-7.71 12.41 -1.79
-18.57 29.9 5.57
-7.57 12.19 -1.26
-18.05 29.06 6.65
-15.91 25.62 -1.58
-18.02 29.02 -0.6
-16.15 26.01 8.2
-18.4 29.87 0.61
-17.87 29 1.78
-6.07 9.84 -1.83
-17.86 28.98 4.18
-7.67 12.45 -1.8
-18.46 29.96 5.57
-7.5 12.17 -1.25
-17.87 29 6.62
-17.91 29.07 -1.79
-16.5 26.77 7.26
-15.63 25.37 -0.52
-16.07 26.08 8.21
-18.37 30.03 0.61
-17.7 28.95 1.78
-6.02 9.85 -1.83
-17.68 28.91 4.16
-7.64 12.49 -1.8
-18.46 30.18 5.6
-7.47 12.21 -1.25
-17.71 28.95 6.6
-17.74 29.01 -1.78
-15.63 25.56 -0.52
-15.95 26.09 8.19
-18.32 30.19 0.62
-17.53 28.89 1.77
-5.99 9.87 -1.83
-17.52 28.87 4.15
-7.61 12.54 -1.8
-15.55 25.63 4.75
-7.46 12.3 -1.26
-17.53 28.89 6.57
-17.56 28.93 -1.77
-14.75 24.31 6.56
-17.54 28.91 -0.59
-15.86 26.13 8.19
-18.27 30.36 0.62
-17.35 28.83 1.76
-4.89 8.13 -1.85
-17.52 29.11 2.97
-5.96 9.91 -1.83
-17.35 28.82 4.13
-7.56 12.56 -1.8
-17.53 29.13 5.38
-7.5 12.47 -1.27
-17.36 28.84 6.54
-8.37 13.91 -0.85
-14.68 24.39 6.57
-17.36 28.84 -0.59
-17.34 29.04 0.59
-17.19 28.79 1.76
-4.86 8.14 -1.84
-17.36 29.08 2.96
-5.94 9.94 -1.83
-17.17 28.76 4.11
-7.52 12.59 -1.8
-17.38 29.12 5.37
-7.42 12.43 -1.27
-17.21 28.83 6.53
-17.18 28.77 -0.58
-15.63 26.18 8.17
-17.25 29.11 0.59
-17.03 28.74 1.75
-4.83 8.15 -1.84
-5.89 9.95 -1.83
-17.02 28.73 4.1
-7.47 12.62 -1.8
-18.29 30.87 5.68
-7.3 12.33 -1.25
-17.03 28.75 6.5
-14.57 24.59 6.6
-15.67 26.45 -0.54
-16.87 28.7 1.74
-4.8 8.17 -1.84
-18.2 30.96 3.14
-5.85 9.95 -1.83
-16.85 28.68 4.08
-7.44 12.67 -1.8
-18.22 31.01 5.7
-7.21 12.27 -1.24
-16.88 28.73 6.48
-14.31 24.36 6.52
-16.83 28.64 -0.58
-16.7 28.64 1.74
-4.77 8.19 -1.84
-5.81 9.96 -1.83
-16.68 28.62 4.07
-7.4 12.69 -1.8
-18.2 31.22 5.72
-7.17 12.3 -1.25
-16.78 28.78 6.48
-14.02 24.05 6.43
-16.68 28.61 -0.58
-17.64 30.51 0.62
-16.53 28.59 1.73
-4.74 8.2 -1.84
-5.77 9.98 -1.83
-16.53 28.58 4.05
-7.34 12.7 -1.8
-16.71 28.89 5.29
-7.15 12.36 -1.25
-14.63 25.3 5.68
-15.27 26.41 -0.53
-15.34 26.54 8.21
-16.37 28.53 1.72
-4.71 8.2 -1.84
-5.74 10.01 -1.83
-16.36 28.53 4.04
-7.31 12.74 -1.8
-16.54 28.83 5.26
-7.1 12.38 -1.25
-13.8 24.05 6.4
-16.36 28.51 -0.57
-15.19 26.48 8.18
-16.35 28.74 0.58
-16.21 28.49 1.72
-4.67 8.21 -1.84
-16.37 28.76 2.9
-5.7 10.02 -1.83
-16.21 28.49 4.02
-7.27 12.77 -1.8
-16.38 28.78 5.24
-7.04 12.38 -1.25
-16.39 28.8 6.44
-16.09 28.27 7.51
-16.19 28.45 -0.57
-15.05 26.46 8.16
-16.21 28.71 0.58
-16.06 28.45 1.71
-4.65 8.24 -1.84
-16.24 28.77 2.89
-5.65 10.01 -1.82
-16.05 28.43 4.01
-7.23 12.8 -1.8
-16.21 28.71 5.22
-6.99 12.39 -1.24
-16.22 28.73 6.41
-15.93 28.21 7.48
-16.04 28.4 -0.57
-15.01 26.59 8.18
-15.9 28.4 1.71
-4.62 8.25 -1.84
-5.62 10.03 -1.82
-15.89 28.37 3.99
-7.19 12.83 -1.81
-16.01 28.58 5.19
-6.95 12.4 -1.24
-16.07 28.69 6.39
-15.77 28.16 7.45
-15.88 28.36 -0.57
-15.75 28.34 1.7
-4.59 8.26 -1.84
-5.59 10.05 -1.82
-15.75 28.34 3.98
-7.14 12.85 -1.8
-15.74 28.33 5.13
-6.9 12.42 -1.24
-15.92 28.66 6.37
-15.64 28.15 7.44
-15.73 28.3 -0.57
-17.36 31.5 0.63
-15.59 28.3 1.69
-4.56 8.27 -1.84
-17.82 32.33 3.23
-5.55 10.07 -1.82
-15.59 28.28 3.97
-7.09 12.87 -1.8
-15.6 28.31 5.12
-6.87 12.46 -1.24
-14.54 26.38 5.85
-15.45 28.04 7.39
-15.58 28.26 -0.56
-15.43 28.25 1.69
-4.53 8.29 -1.84
-5.51 10.08 -1.82
-15.43 28.25 3.95
-7.04 12.89 -1.8
-15.44 28.27 5.1
-6.84 12.52 -1.25
-15.35 28.09 7.39
-15.41 28.2 -0.56
-15.25 28.15 0.56
-15.28 28.21 1.68
-4.5 8.31 -1.84
-15.28 28.21 2.81
-5.47 10.09 -1.82
-15.28 28.21 3.94
-7 12.91 -1.8
-15.3 28.24 5.09
-6.83 12.6 -1.25
-15.29 28.22 6.24
-15.16 27.97 7.35
-15.26 28.16 -0.56
-14.6 26.94 8.21
-15.12 28.13 0.56
-15.13 28.16 1.68
-4.47 8.32 -1.84
-15.13 28.15 2.8
-5.43 10.1 -1.82
-15.12 28.14 3.92
-6.93 12.89 -1.8
-15.14 28.18 5.07
-6.8 12.66 -1.26
-15.14 28.18 6.22
-15.01 27.94 7.32
-15.11 28.12 -0.56
-14.97 28.09 0.56
-14.98 28.1 1.67
-4.44 8.33 -1.83
-14.99 28.12 2.79
-5.4 10.12 -1.82
-14.98 28.12 3.91
-6.87 12.89 -1.79
-15 28.14 5.05
-6.78 12.73 -1.26
-14.99 28.13 6.2
-14.87 27.91 7.3
-14.96 28.08 -0.56
-14.84 28.08 0.55
-14.84 28.07 1.66
-4.41 8.34 -1.83
-14.87 28.14 2.78
-5.36 10.14 -1.82
-14.89 28.18 3.91
-6.82 12.9 -1.79
-14.91 28.2 5.05
-6.8 12.86 -1.27
-14.93 28.24 6.21
-14.83 28.05 -0.55
-14.78 28.19 0.56
-14.79 28.22 1.67
-4.38 8.35 -1.83
-14.83 28.28 2.79
-5.32 10.15 -1.82
-14.85 28.33 3.93
-6.79 12.96 -1.8
-14.87 28.36 5.07
-6.81 12.99 -1.28
-14.88 28.39 6.23
-14.78 28.19 -0.56
-14.73 28.35 0.56
-14.75 28.38 1.68
-4.35 8.37 -1.83
-14.78 28.44 2.8
-5.28 10.16 -1.81
-14.81 28.49 3.94
-6.77 13.02 -1.8
-14.83 28.53 5.09
-6.81 13.11 -1.29
-14.83 28.55 6.25
-14.73 28.35 -0.56
-13.99 26.91 8.13
-14.69 28.5 0.56
-14.71 28.54 1.68
-4.32 8.39 -1.83
-14.74 28.6 2.81
-5.25 10.19 -1.81
-14.76 28.64 3.96
-6.72 13.05 -1.8
-14.78 28.68 5.11
-6.86 13.31 -1.31
-14.79 28.7 6.28
-14.66 28.46 7.39
-14.69 28.5 -0.56
-14.64 28.66 0.56
-14.65 28.68 1.69
-4.29 8.4 -1.83
-14.69 28.76 2.83
-5.21 10.2 -1.81
-14.71 28.8 3.97
-6.67 13.05 -1.8
-14.73 28.84 5.13
-6.82 13.36 -1.31
-14.74 28.86 6.3
-14.65 28.68 7.44
-14.64 28.66 -0.56
-14.6 28.82 0.56
-14.61 28.84 1.69
-4.26 8.41 -1.83
-14.65 28.92 2.84
-5.18 10.22 -1.81
-14.67 28.97 3.99
-6.63 13.09 -1.8
-14.69 29 5.15
-6.84 13.5 -1.32
-14.71 29.03 6.33
-7.13 14.07 -0.83
-14.6 28.82 -0.56
-14.55 28.97 0.57
-14.56 29 1.7
-4.23 8.42 -1.83
-14.6 29.07 2.85
-5.14 10.24 -1.81
-14.62 29.13 4
-6.59 13.13 -1.8
-14.64 29.16 5.17
-6.84 13.63 -1.33
-14.65 29.18 6.35
-7.03 14 -0.82
-14.55 28.97 -0.57
-14.5 29.13 0.57
-14.52 29.17 1.71
-4.2 8.44 -1.83
-14.55 29.23 2.86
-5.1 10.24 -1.81
-14.58 29.28 4.02
-6.55 13.16 -1.8
-14.6 29.32 5.19
-6.85 13.76 -1.34
-14.6 29.33 6.37
-14.5 29.13 -0.57
-14.45 29.28 0.57
-14.47 29.33 1.71
-4.17 8.45 -1.83
-14.5 29.4 2.87
-5.06 10.27 -1.81
-14.53 29.45 4.03
-6.5 13.18 -1.8
-14.55 29.5 5.21
-6.87 13.93 -1.36
-14.56 29.51 6.4
-14.46 29.31 -0.57
-14.41 29.45 0.57
-14.42 29.47 1.72
-4.14 8.46 -1.83
-14.46 29.57 2.88
-5.03 10.27 -1.81
-14.48 29.6 4.05
-6.45 13.18 -1.8
-14.51 29.65 5.23
-6.88 14.07 -1.37
-14.51 29.67 6.42
-14.41 29.46 -0.57
-14.36 29.63 0.57
-14.37 29.65 1.73
-4.11 8.47 -1.83
-14.41 29.73 2.89
-4.99 10.3 -1.81
-14.44 29.78 4.06
-6.4 13.2 -1.8
-14.45 29.82 5.25
-6.88 14.2 -1.38
-14.47 29.85 6.45
-14.36 29.62 -0.57
-14.31 29.78 0.58
-14.32 29.81 1.73
-4.07 8.48 -1.83
-14.36 29.89 2.9
-4.95 10.31 -1.81
-14.39 29.95 4.08
-6.35 13.21 -1.8
-14.41 29.98 5.27
-6.9 14.35 -1.39
-14.42 30.01 6.47
-14.31 29.78 -0.58
-14.26 29.95 0.58
-14.28 29.98 1.74
-4.05 8.5 -1.83
-14.32 30.06 2.91
-4.92 10.32 -1.81
-14.34 30.11 4.1
-6.3 13.23 -1.8
-14.36 30.16 5.29
-6.92 14.54 -1.41
-14.37 30.16 6.49
-14.27 29.95 -0.58
-14.22 30.11 0.58
-14.23 30.14 1.75
-4.02 8.51 -1.83
-14.28 30.23 2.93
-4.88 10.34 -1.81
-14.29 30.28 4.11
-6.25 13.23 -1.8
-14.32 30.32 5.31
-6.95 14.71 -1.42
-14.32 30.34 6.52
-14.23 30.13 -0.58
-14.16 30.28 0.58
-14.17 30.31 1.75
-3.99 8.53 -1.83
-14.22 30.4 2.94
-4.84 10.35 -1.81
-14.24 30.45 4.13
-6.19 13.24 -1.79
-14.26 30.49 5.33
-6.95 14.87 -1.44
-14.27 30.52 6.55
-14.22 30.41 -1.76
-14.17 30.3 -0.58
-14.12 30.46 0.59
-14.13 30.49 1.76
-3.95 8.53 -1.83
-14.17 30.58 2.95
-4.81 10.37 -1.81
-14.19 30.62 4.14
-6.14 13.25 -1.79
-14.21 30.66 5.35
-6.95 15 -1.45
-14.22 30.68 6.57
-14.15 30.53 -1.76
-14.12 30.46 -0.59
-14.07 30.63 0.59
-14.09 30.67 1.77
-3.92 8.54 -1.83
-14.12 30.74 2.96
-4.77 10.38 -1.81
-14.15 30.8 4.16
-6.1 13.27 -1.79
-14.16 30.83 5.37
-6.94 15.12 -1.46
-14.17 30.85 6.6
-14.11 30.71 -1.77
-14.07 30.63 -0.59
-14.01 30.79 0.59
-14.03 30.83 1.78
-3.9 8.56 -1.83
-14.07 30.91 2.97
-4.73 10.39 -1.81
-14.1 30.98 4.18
-6.05 13.29 -1.79
-14.11 31.01 5.4
-7 15.38 -1.48
-14.12 31.02 6.62
-14.06 30.88 -1.78
-14.02 30.81 -0.59
-13.96 30.96 0.59
-13.99 31.02 1.78
-3.87 8.57 -1.83
-14.02 31.1 2.98
-4.69 10.4 -1.81
-14.04 31.13 4.19
-6 13.31 -1.79
-14.06 31.18 5.42
-7 15.51 -1.49
-14.06 31.19 6.65
-14 31.04 -1.78
-13.97 30.98 -0.59
-13.91 31.14 0.6
-13.93 31.18 1.79
-3.84 8.58 -1.83
-13.97 31.28 3
-4.66 10.42 -1.81
-13.99 31.32 4.21
-5.96 13.33 -1.79
-14.02 31.37 5.44
-6.99 15.64 -1.5
-14.02 31.38 6.68
-13.95 31.23 -1.79
-13.92 31.16 -0.6
-13.86 31.33 0.6
-13.87 31.35 1.8
-3.8 8.59 -1.83
-13.91 31.45 3.01
