# .PCD v0.7 - Point Cloud Data file format
VERSION 0.7
FIELDS x y z
SIZE 4 4 4
TYPE F F F
COUNT 1 1 1
WIDTH 2885
HEIGHT 1
VIEWPOINT 0 0 0 1 0 0 0
POINTS 2885
DATA ascii
-8.01 7.99 -1.79
-10.54 10.52 -1.83
-15.12 15.09 -1.87
-19.36 19.32 -1.43
-6.84 6.83 2.23
-5.02 5.04 -1.91
-33.38 33.54 0.83
-7.99 8.03 -1.79
-10.49 10.54 -1.83
-15.11 15.18 -1.87
-7.09 7.12 2.69
-4.98 5.04 -1.9
-33.45 33.85 0.83
-7.77 7.86 -1.75
-10.45 10.57 -1.82
-15.12 15.3 -1.88
-8.21 8.31 2.7
-6.05 6.12 2.31
-4.95 5.04 -1.89
-32.95 33.57 2.47
-7.94 8.09 -1.8
-10.4 10.59 -1.82
-15.11 15.4 -1.89
-6.7 6.83 2.21
-43.4 44.22 -1.08
-4.92 5.04 -1.89
-31.97 32.81 0.8
-7.91 8.11 -1.79
-10.35 10.62 -1.82
-15.11 15.5 -1.89
-7 7.18 1.95
-8.15 8.37 2.7
-43.48 44.62 -1.09
-4.89 5.05 -1.88
-7.87 8.14 -1.79
-10.3 10.65 -1.82
-15.11 15.61 -1.9
-6.96 7.19 1.95
-18.05 18.65 -1.36
-6.67 6.89 2.21
-4.86 5.06 -1.88
-7.85 8.17 -1.79
-10.26 10.68 -1.82
-14.99 15.6 -1.89
-6.94 7.22 1.95
-17.74 18.47 -1.34
-6.64 6.91 2.21
-5.8 6.03 2.24
-4.83 5.07 -1.88
-7.82 8.2 -1.79
-10.21 10.7 -1.82
-14.57 15.27 -1.85
-6.94 7.28 1.96
-17.66 18.51 -1.34
-6.15 6.45 2.06
-5.82 6.1 2.26
-4.8 5.07 -1.87
-7.79 8.22 -1.79
-10.17 10.73 -1.81
-14.82 15.64 -1.89
-6.91 7.3 1.95
-8.27 8.73 2.78
-4.76 5.06 -1.86
-7.75 8.24 -1.79
-10.12 10.76 -1.81
-14.79 15.72 -1.89
-17.4 18.49 -1.33
-6.58 6.99 2.22
-6.13 6.51 2.4
-4.74 5.07 -1.86
-7.72 8.26 -1.79
-10.09 10.8 -1.82
-14.5 15.52 -1.86
-17.28 18.49 -1.33
-6.6 7.07 2.23
-4.71 5.07 -1.85
-7.69 8.29 -1.79
-10.05 10.83 -1.81
-14.44 15.56 -1.86
-17.15 18.47 -1.32
-6.62 7.13 2.25
-6.08 6.56 2.4
-4.68 5.08 -1.85
-7.67 8.32 -1.79
-10 10.85 -1.81
-14.41 15.63 -1.86
-17.02 18.47 -1.32
-6.62 7.18 2.25
-6.08 6.6 2.4
-4.65 5.08 -1.85
-5.72 6.25 -1.34
-9.95 10.88 -1.81
-14.36 15.69 -1.86
-16.93 18.5 -1.31
-4.61 5.08 -1.84
-5.78 6.36 -1.36
-9.9 10.9 -1.81
-14.29 15.73 -1.86
-6.83 7.52 1.98
-16.85 18.55 -1.31
-6.2 6.83 2.47
-4.59 5.09 -1.84
-5.71 6.33 -1.35
-9.86 10.93 -1.81
-14.26 15.8 -1.86
-6.82 7.56 1.98
-16.79 18.61 -1.31
-5.91 6.55 2.36
-4.56 5.09 -1.83
-5.72 6.38 -1.36
-9.81 10.95 -1.8
-14.23 15.89 -1.87
-6.79 7.58 1.98
-16.71 18.66 -1.31
-6.43 7.18 2.23
-4.54 5.1 -1.83
-5.66 6.36 -1.35
-9.76 10.97 -1.8
-14.2 15.96 -1.87
-16.66 18.73 -1.31
-6.41 7.2 2.23
-4.51 5.1 -1.82
-5.69 6.44 -1.36
-9.72 11 -1.8
-14.15 16.02 -1.87
-16.61 18.81 -1.32
-6.77 7.66 2.36
-4.47 5.1 -1.82
-5.67 6.46 -1.36
-9.68 11.03 -1.8
-14.12 16.1 -1.87
-16.55 18.86 -1.31
-6.79 7.74 2.38
-5.97 6.8 2.42
-4.44 5.1 -1.81
-34.96 40.14 4.66
-5.6 6.43 -1.35
-9.63 11.06 -1.8
-14.12 16.21 -1.88
-16.5 18.95 -1.32
-5.97 6.86 2.44
-4.42 5.11 -1.81
-5.63 6.51 -1.36
-9.59 11.09 -1.8
-14.12 16.32 -1.89
-16.46 19.03 -1.32
-4.4 5.12 -1.81
-5.64 6.57 -1.37
-9.54 11.1 -1.8
-14.14 16.46 -1.9
-16.6 19.33 -1.34
-4.38 5.14 -1.81
-5.56 6.52 -1.36
-9.5 11.14 -1.8
-14.14 16.58 -1.91
-16.68 19.55 -1.35
-4.36 5.14 -1.81
-5.57 6.58 -1.37
-9.44 11.15 -1.79
-14.14 16.69 -1.91
-16.47 19.45 -1.34
-5.75 6.79 2.39
-4.33 5.15 -1.8
-5.5 6.54 -1.35
-9.39 11.16 -1.79
-14.14 16.82 -1.92
-16.47 19.59 -1.34
-5.72 6.8 2.38
-4.32 5.17 -1.81
-5.54 6.63 -1.37
-9.33 11.17 -1.79
-14.15 16.94 -1.93
-16.48 19.74 -1.35
-5.73 6.86 2.39
-4.29 5.18 -1.8
-5.5 6.63 -1.36
-9.26 11.17 -1.78
-14.14 17.06 -1.94
-16.49 19.89 -1.35
-5.72 6.9 2.4
-4.28 5.19 -1.8
-33.85 41.11 0.93
-5.41 6.57 -1.35
-9.21 11.19 -1.78
-14.16 17.19 -1.95
-16.5 20.03 -1.36
-5.7 6.92 2.4
-4.26 5.2 -1.8
-33.71 41.23 0.93
-5.45 6.66 -1.36
-9.16 11.2 -1.78
-14.15 17.3 -1.96
-16.5 20.18 -1.37
-5.67 6.93 2.4
-4.23 5.22 -1.8
-33.55 41.34 0.93
-5.4 6.66 -1.36
-9.1 11.22 -1.77
-14.16 17.45 -1.97
-16.5 20.33 -1.37
-4.22 5.24 -1.8
-5.35 6.65 -1.66
-5.43 6.74 -1.37
-9.06 11.24 -1.77
-14.45 17.93 -2.01
-16.49 20.46 -1.38
-4.2 5.25 -1.8
-32.98 41.21 0.92
-5.34 6.68 -1.66
-5.38 6.72 -1.36
-9 11.25 -1.77
-14.39 17.98 -2.01
-16.5 20.61 -1.38
-4.18 5.26 -1.8
-5.3 6.67 -1.66
-5.36 6.74 -1.36
-8.96 11.28 -1.77
-14.29 17.98 -2.01
-16.5 20.77 -1.39
-4.15 5.26 -1.79
-5.31 6.73 -1.67
-5.35 6.79 -1.37
-8.92 11.31 -1.77
-14.19 17.99 -2
-16.51 20.93 -1.4
-4.13 5.27 -1.79
-5.3 6.77 -1.67
-5.34 6.81 -1.37
-8.89 11.35 -1.77
-14.09 17.99 -2
-16.51 21.08 -1.4
-4.11 5.29 -1.8
-5.29 6.81 -1.68
-5.31 6.83 -1.37
-8.84 11.37 -1.77
-13.99 18 -1.99
-16.52 21.24 -1.41
-5.2 6.74 -1.66
-5.24 6.78 -1.36
-8.74 11.33 -1.76
-13.91 18.01 -1.99
-16.53 21.4 -1.42
-4.07 5.31 -1.79
-5.19 6.77 -1.66
-5.24 6.84 -1.36
-8.69 11.33 -1.75
-13.8 18.01 -1.99
-16.52 21.56 -1.42
-4.04 5.3 -1.79
-5.19 6.82 -1.67
-5.19 6.83 -1.36
-8.65 11.36 -1.75
-13.7 18 -1.98
-16.51 21.69 -1.43
-4.02 5.33 -1.79
-5.19 6.86 -1.67
-6.75 8.94 -1.77
-8.68 11.49 -1.77
-13.61 18.01 -1.97
-4 5.34 -1.79
-6.7 8.94 -1.77
-8.64 11.52 -1.77
-13.51 18.02 -1.97
-3.99 5.36 -1.79
-4.42 5.94 -1.44
-6.67 8.96 -1.77
-8.58 11.53 -1.76
-13.42 18.02 -1.97
-3.97 5.37 -1.79
-4.4 5.95 -1.44
-6.64 8.99 -1.77
-8.57 11.6 -1.77
-13.32 18.02 -1.96
-5.27 7.14 2.38
-3.94 5.37 -1.79
-4.36 5.94 -1.43
-6.61 9.01 -1.77
-8.46 11.53 -1.76
-13.22 18.02 -1.96
-5.26 7.17 2.38
-4.26 5.84 -1.41
-6.57 9.02 -1.77
-8.42 11.57 -1.76
-13.13 18.03 -1.95
-4.23 5.85 -1.4
-6.55 9.05 -1.77
-8.41 11.63 -1.76
-13.05 18.03 -1.95
-4.22 5.88 -1.41
-6.51 9.07 -1.77
-8.34 11.62 -1.76
-12.95 18.04 -1.94
-5.2 7.25 2.39
-4.17 5.85 -1.4
-6.48 9.09 -1.77
-8.24 11.56 -1.74
-12.86 18.05 -1.94
-5.2 7.3 2.4
-4.16 5.89 -1.4
-6.44 9.11 -1.77
-8.23 11.65 -1.75
-12.75 18.04 -1.93
-58.56 83.42 1.78
-4.1 5.85 -1.39
-6.4 9.12 -1.76
-8.22 11.71 -1.76
-12.66 18.04 -1.93
-5.3 7.55 2.47
-4.12 5.92 -1.4
-6.38 9.15 -1.77
-8.16 11.72 -1.75
-12.58 18.05 -1.92
-5.27 7.57 2.47
-4.1 5.93 -1.4
-6.34 9.16 -1.76
-8.1 11.72 -1.75
-12.49 18.06 -1.92
-12.96 18.74 -1.19
-5.26 7.6 2.48
-34.29 49.96 1.06
-6.3 9.19 -1.76
-8.06 11.75 -1.75
-12.4 18.07 -1.92
-12.9 18.79 -1.19
-5.22 7.61 2.47
-6.27 9.2 -1.76
-8.05 11.82 -1.76
-12.3 18.05 -1.91
-12.83 18.83 -1.19
-14 20.55 -0.43
-6.23 9.21 -1.76
-7.96 11.77 -1.74
-12.21 18.06 -1.91
-13.93 20.6 -0.43
-6.2 9.23 -1.76
-7.92 11.79 -1.74
-12.13 18.06 -1.9
-6.17 9.25 -1.76
-7.87 11.81 -1.74
-12.04 18.07 -1.9
-5.11 7.67 2.47
-6.13 9.27 -1.76
-7.81 11.81 -1.74
-11.95 18.07 -1.89
-5.1 7.71 2.48
-9.22 14.05 0.29
-3.95 6.01 -1.4
-9.05 13.79 1.44
-6.09 9.29 -1.76
-7.8 11.89 -1.75
-11.86 18.07 -1.89
-12.92 19.69 -1.23
-9.11 13.88 -0.29
-9.11 13.99 0.29
-9.08 13.94 0.87
-3.95 6.07 -1.41
-9.03 13.86 1.45
-6.05 9.29 -1.76
-9.17 14.07 2.06
-7.78 11.94 -1.75
-11.78 18.08 -1.89
-8.99 13.8 -0.29
-9.04 14 0.29
-9.1 14.09 0.88
-3.97 6.15 -1.42
-8.93 13.82 1.44
-6.02 9.32 -1.76
-8.9 13.77 2.01
-7.74 11.97 -1.75
-11.69 18.09 -1.88
-9.07 14.03 -0.88
-8.9 13.78 -0.29
-5.04 7.79 2.49
-8.94 13.93 0.29
-8.98 14 0.87
-3.92 6.11 -1.41
-8.91 13.88 1.44
-5.99 9.34 -1.76
-9.05 14.1 2.06
-7.69 11.99 -1.75
-11.61 18.1 -1.88
-8.88 13.85 -0.86
-8.88 13.84 -0.29
-5.05 7.87 2.51
-8.85 13.92 0.29
-8.87 13.94 0.87
-3.87 6.08 -1.4
-8.97 14.1 1.46
-5.95 9.36 -1.76
-8.92 14.02 2.04
-7.65 12.03 -1.75
-11.53 18.12 -1.88
-8.89 13.96 -0.87
-8.98 14.11 -0.29
-8.78 13.89 0.29
-8.75 13.86 0.86
-3.88 6.15 -1.41
-8.92 14.11 1.46
-5.92 9.37 -1.76
-8.83 13.97 2.03
-7.59 12.01 -1.74
-8.84 13.99 -1.45
-8.81 13.95 -0.86
-8.74 13.83 -0.29
-8.68 13.85 0.29
-8.85 14.13 0.87
-3.9 6.22 -1.43
-8.8 14.05 1.45
-5.88 9.38 -1.75
-8.8 14.04 2.03
-7.55 12.05 -1.75
-8.75 13.96 -1.44
-8.71 13.9 -0.86
-8.61 13.74 -0.28
-8.76 14.08 0.29
-8.79 14.13 0.87
-3.86 6.2 -1.42
-8.94 14.37 1.48
-5.85 9.4 -1.75
-8.73 14.04 2.03
-7.55 12.13 -1.75
-8.72 14.02 -1.44
-8.55 13.75 -0.85
-8.58 13.8 -0.28
-8.59 13.93 0.29
-8.71 14.12 0.87
-8.72 14.14 1.45
-5.81 9.42 -1.75
-8.73 14.15 2.04
-7.48 12.12 -1.75
-8.65 14.02 -1.44
-8.58 13.91 -0.86
-8.65 14.02 -0.29
-8.73 14.26 0.29
-8.61 14.07 1.44
-5.78 9.44 -1.75
-8.59 14.03 2.02
-7.43 12.13 -1.75
-8.59 14.03 -1.44
-8.7 14.21 -0.87
-8.52 13.92 -0.28
-8.49 13.99 0.29
-8.63 14.21 0.87
-4.62 7.61 -1.73
-8.43 13.89 1.42
-5.74 9.46 -1.75
-8.61 14.18 2.04
-7.4 12.19 -1.75
-8.54 14.05 -1.44
-8.59 14.15 -0.87
-8.62 14.19 -0.29
-8.44 14 0.29
-8.44 14 0.86
-4.57 7.58 -1.72
-8.48 14.08 1.44
-5.71 9.47 -1.75
-8.57 14.22 2.04
-7.35 12.2 -1.75
-8.47 14.05 -1.43
-8.51 14.12 -0.86
-8.52 14.14 -0.29
-8.41 14.07 0.29
-8.33 13.92 0.85
-3.73 6.23 -1.41
-8.41 14.07 1.43
-5.67 9.48 -1.75
-8.49 14.2 2.03
-7.31 12.23 -1.75
-8.44 14.11 -1.44
-8.46 14.15 -0.86
-8.43 14.09 -0.29
-8.36 14.1 0.29
-8.4 14.16 0.86
-4.52 7.62 -1.72
-8.38 14.12 1.44
-5.64 9.5 -1.75
-8.41 14.17 2.02
-7.25 12.22 -1.74
-8.34 14.06 -1.43
-8.38 14.12 -0.86
-8.31 14 -0.28
-8.32 14.14 0.29
-8.31 14.12 0.86
-3.68 6.24 -1.41
-8.38 14.23 1.45
-5.6 9.52 -1.75
-8.41 14.29 2.04
-7.23 12.28 -1.75
-8.39 14.26 -1.45
-8.32 14.13 -0.86
-8.27 14.04 -0.28
-8.22 14.08 0.28
-8.29 14.2 0.86
-4.48 7.67 -1.73
-8.32 14.26 1.44
-5.57 9.54 -1.75
-8.32 14.24 2.03
-7.17 12.29 -1.75
-8.34 14.28 -1.45
-8.42 14.42 -0.88
-8.23 14.1 -0.28
-8.4 14.5 0.29
-4.46 7.7 -1.73
-8.28 14.29 1.45
-5.53 9.55 -1.75
-8.28 14.29 2.03
-7.12 12.29 -1.74
-10.52 18.17 -1.84
-8.35 14.42 -0.87
-8.21 14.17 -0.29
-8.39 14.61 0.29
-8.24 14.35 0.87
-4.44 7.72 -1.73
-8.33 14.49 1.46
-5.49 9.56 -1.75
-7.07 12.31 -1.74
-10.45 18.18 -1.83
-8.26 14.37 -0.87
-8.19 14.25 -0.29
-8.15 14.3 0.29
-8.32 14.6 0.88
-4.42 7.76 -1.74
-8.21 14.41 1.45
-5.46 9.58 -1.75
-7.03 12.34 -1.74
-10.38 18.21 -1.83
-8.2 14.39 -0.87
-8.14 14.29 -0.29
-8.09 14.32 0.29
-4.37 7.74 -1.73
-8.18 14.48 1.45
-5.43 9.61 -1.75
-7.03 12.44 -1.75
-10.31 18.23 -1.83
-8.21 14.52 -0.29
-8.23 14.67 0.88
-4.36 7.78 -1.73
-5.39 9.62 -1.75
-6.96 12.41 -1.75
-10.23 18.24 -1.83
-10.54 18.81 -1.13
-8.2 14.63 -0.29
-4.33 7.78 -1.73
-5.36 9.63 -1.75
-6.93 12.46 -1.75
-10.21 18.35 -1.84
-10.48 18.84 -1.13
-4.28 7.75 -1.72
-5.32 9.64 -1.74
-6.89 12.49 -1.75
-10.17 18.44 -1.84
-10.37 18.8 -1.13
-4.22 7.7 -1.71
-5.29 9.66 -1.74
-6.82 12.46 -1.74
-10.11 18.47 -1.84
-10.27 18.76 -1.12
-4.19 7.73 -1.71
-5.26 9.68 -1.74
-6.77 12.48 -1.74
-10.05 18.52 -1.84
-4.18 7.77 -1.72
-5.22 9.7 -1.74
-6.77 12.59 -1.76
-9.99 18.57 -1.84
-10.22 18.99 -1.13
-4.15 7.79 -1.72
-5.18 9.7 -1.74
-8.89 16.66 -2.32
-9.88 18.51 -1.84
-10.15 19.03 -1.13
-3.9 7.32 2.22
-4.12 7.78 -1.71
-5.15 9.72 -1.74
-8.83 16.68 -2.32
-9.85 18.6 -1.84
-3.88 7.32 2.22
-4.01 7.64 -1.68
-5.11 9.74 -1.74
-8.74 16.66 -2.31
-9.8 18.67 -1.84
-10.04 19.14 -1.13
-3.85 7.33 2.22
-3.75 7.21 -1.58
-5.08 9.76 -1.74
-8.68 16.69 -2.31
-9.72 18.68 -1.84
-3.79 7.29 2.2
-3.7 7.17 -1.57
-5.04 9.77 -1.74
-8.62 16.71 -2.31
-9.65 18.7 -1.84
-3.75 7.26 2.19
-42.55 83.19 1.63
-3.76 7.36 -1.61
-5 9.77 -1.74
-8.54 16.7 -2.3
-9.45 18.47 -1.82
-42.49 83.78 1.64
-3.58 7.06 -1.54
-4.97 9.8 -1.74
-8.47 16.7 -2.3
-9.47 18.68 -1.83
-42.37 84.29 1.65
-3.64 7.24 -1.58
-4.93 9.81 -1.74
-8.4 16.7 -2.3
-9.33 18.56 -1.82
-3.54 7.04 2.11
-3.56 7.15 -1.55
-4.9 9.82 -1.74
-8.32 16.7 -2.29
-9.32 18.7 -1.83
-3.54 7.09 2.12
-3.53 7.15 -1.55
-4.87 9.85 -1.74
-8.26 16.72 -2.29
-9.04 18.3 -1.79
-3.49 7.07 2.11
-3.52 7.2 -1.56
-3.45 7.04 -1.24
-8.19 16.73 -2.29
-9.01 18.4 -1.79
-3.48 7.18 -1.55
-3.48 7.16 -1.26
-8.13 16.75 -2.29
-9.17 18.89 -1.84
-3.44 7.16 -1.54
-3.45 7.17 -1.26
-8.06 16.76 -2.28
-9.08 18.88 -1.83
-3.43 7.18 -1.55
-3.44 7.2 -1.26
-8 16.77 -2.28
-8.95 18.75 -1.82
-3.4 7.18 -1.54
-3.43 7.25 -1.27
-7.93 16.77 -2.28
-8.81 18.63 -1.8
-3.36 7.16 -1.54
-3.34 7.12 -1.25
-7.88 16.82 -2.28
-8.72 18.61 -1.8
-3.35 7.22 -1.55
-3.36 7.24 -1.26
-7.8 16.81 -2.28
-8.59 18.51 -1.79
-3.31 7.19 -1.54
-3.37 7.33 -1.28
-7.73 16.81 -2.27
-8.49 18.46 -1.78
-8.78 19.09 -1.1
-3.28 7.19 -1.54
-3.37 7.38 -1.29
-7.67 16.81 -2.27
-8.39 18.4 -1.77
-8.65 18.97 -1.09
-3.28 7.27 -1.55
-34.68 76.81 7.37
-3.34 7.4 -1.29
-7.61 16.85 -2.27
-8.29 18.36 -1.76
-3.22 7.13 2.09
-3.26 7.28 -1.55
-3.32 7.43 -1.29
-7.54 16.86 -2.27
-8.2 18.34 -1.76
-3.17 7.09 2.08
-3.21 7.25 -1.54
-3.3 7.44 -1.29
-7.47 16.86 -2.26
-8.11 18.31 -1.75
-3.14 7.09 2.08
-3.19 7.26 -1.54
-3.29 7.49 -1.3
-7.4 16.86 -2.26
-8.04 18.32 -1.75
-3.06 6.98 2.04
-3.16 7.27 -1.54
-3.26 7.49 -1.29
-7.33 16.86 -2.26
-33.12 76.18 13.16
-7.98 18.34 -1.75
-3.04 7 2.04
-3.15 7.31 -1.55
-3.24 7.53 -1.3
-7.26 16.87 -2.26
-7.9 18.34 -1.75
-8.05 18.7 -1.07
-3.12 7.3 -1.54
-4.26 9.99 -1.72
-7.2 16.88 -2.25
-7.83 18.35 -1.75
-2.99 7.01 2.04
-3.1 7.33 -1.55
-4.23 10 -1.72
-7.14 16.91 -2.25
-7.76 18.36 -1.74
-2.85 6.75 1.96
-3.07 7.35 -1.55
-3.21 7.66 -1.32
-7.07 16.91 -2.25
-7.7 18.4 -1.74
-2.81 6.71 1.95
-3.05 7.36 -1.55
-4.16 10.05 -1.72
-32.09 77.47 10.3
-7.02 16.94 -2.25
-7.63 18.43 -1.75
-7.79 18.81 -1.07
-2.78 6.7 1.94
-19.05 46.43 0.88
-3.05 7.43 -1.56
-4.13 10.05 -1.72
-31.79 77.48 10.28
-6.95 16.95 -2.25
-7.56 18.42 -1.74
-7.73 18.84 -1.07
-2.79 6.79 1.69
-2.74 6.69 1.94
-18.85 46.39 0.87
-31.49 77.51 4.38
-2.75 6.76 -1.42
-2.76 6.78 0.64
-4.08 10.05 -1.72
-2.73 6.73 0.89
-6.89 16.97 -2.25
-2.73 6.72 1.15
-7.5 18.47 -1.74
-7.65 18.84 -1.07
-2.73 6.72 1.94
-18.67 46.41 0.87
-2.59 6.43 -1.6
-2.68 6.67 -1.4
-2.67 6.64 -1.13
-2.69 6.69 0.89
-2.7 6.71 1.15
-2.67 6.64 -0.63
-2.68 6.66 -0.38
-2.69 6.7 -0.13
-2.71 6.74 1.95
-2.65 6.66 0.13
-2.58 6.49 -1.61
-2.64 6.63 -1.39
-2.67 6.7 0.63
-2.64 6.62 -1.13
-2.67 6.7 0.89
-2.63 6.6 -0.87
-2.68 6.72 1.15
-2.64 6.62 -0.62
-2.68 6.74 1.41
-2.64 6.63 -0.37
-2.69 6.76 1.68
-2.69 6.76 1.95
-2.62 6.64 0.12
-2.54 6.45 -1.6
-2.62 6.65 0.37
-2.61 6.63 -1.38
-2.64 6.71 0.63
-2.61 6.63 -1.13
-2.64 6.69 0.88
-2.6 6.61 -0.87
-2.65 6.74 1.15
-2.61 6.63 -0.62
-2.65 6.74 1.41
-2.62 6.65 -0.37
-2.67 6.78 1.68
-2.68 6.8 1.96
-2.59 6.65 0.12
-2.53 6.49 -1.61
-2.6 6.67 0.38
-2.58 6.61 -1.38
-2.63 6.73 0.63
-2.59 6.63 -1.13
-2.63 6.73 0.89
-2.59 6.63 -0.87
-2.64 6.77 1.15
-2.59 6.65 -0.62
-2.64 6.77 1.41
-2.6 6.67 -0.38
-2.6 6.65 -0.12
-2.57 6.67 0.12
-2.51 6.5 -1.61
-2.59 6.72 0.38
-2.56 6.63 -1.38
-2.61 6.76 0.63
-2.56 6.64 -1.13
-2.61 6.76 0.89
-2.57 6.66 -0.88
-2.58 6.67 -0.63
-2.62 6.79 1.42
-2.58 6.69 -0.38
-2.58 6.69 -0.13
-2.56 6.7 0.13
-2.58 6.75 0.38
-2.54 6.65 -1.38
-2.54 6.66 -1.13
-2.56 6.69 -0.88
-2.56 6.69 -0.38
-2.57 6.72 -0.13
-2.53 6.69 -1.39
-2.54 6.71 -1.14
-7.12 18.82 -1.76
-3.1 8.29 -1.72
-3.79 10.11 -1.71
-6.36 16.99 -2.23
-7.08 18.91 -1.77
-17.23 46.54 0.87
-3.07 8.3 -1.72
-3.75 10.14 -1.71
-6.28 16.98 -2.22
-7.04 19.02 -1.77
-17.06 46.58 0.87
-3.71 10.14 -1.71
-6.23 17.01 -2.22
-7.03 19.19 -1.79
-16.87 46.58 0.86
-3.02 8.33 -1.72
-3.68 10.15 -1.71
-6.17 17.03 -2.22
-6.91 19.07 -1.77
-16.69 46.57 0.86
-2.99 8.34 -1.72
-3.64 10.16 -1.71
-6.11 17.05 -2.22
-6.84 19.09 -1.77
-16.51 46.6 0.86
-3.6 10.17 -1.71
-6.04 17.06 -2.22
-6.78 19.14 -1.78
-2.68 7.55 2.15
-16.33 46.6 0.86
-2.92 8.34 -1.72
-3.57 10.17 -1.71
-5.97 17.04 -2.22
-6.66 19 -1.76
-2.76 7.87 2.23
-16.14 46.58 0.86
-2.9 8.36 -1.72
-3.53 10.19 -1.71
-5.91 17.06 -2.22
-6.6 19.05 -1.76
-2.71 7.82 2.22
-15.97 46.6 0.86
-2.87 8.39 -1.72
-3.49 10.2 -1.71
-5.84 17.06 -2.21
-6.57 19.16 -1.77
-2.66 7.76 2.2
-15.8 46.64 0.86
-2.84 8.39 -1.72
-3.45 10.2 -1.7
-5.77 17.05 -2.21
-6.48 19.14 -1.77
-2.65 7.83 2.21
-15.62 46.64 0.86
-2.81 8.38 -1.72
-3.42 10.2 -1.7
-5.72 17.09 -2.21
-6.33 18.89 -1.74
-2.68 8 2.26
-15.44 46.64 0.86
-2.78 8.39 -1.72
-3.38 10.21 -1.7
-5.66 17.1 -2.21
-6.22 18.79 -1.73
-15.27 46.64 0.86
-2.75 8.4 -1.72
-3.34 10.21 -1.7
-5.6 17.11 -2.21
-6.15 18.78 -1.73
-7.33 22.38 -1.23
-2.67 8.16 2.3
-15.08 46.64 0.86
-2.71 8.39 -1.71
-3.3 10.21 -1.7
-5.53 17.1 -2.21
-6.06 18.75 -1.72
-2.64 8.17 2.3
-2.69 8.41 -1.72
-3.27 10.22 -1.7
-5.47 17.11 -2.21
-6.14 19.22 -1.77
-6.12 19.13 -1.05
-2.62 8.2 2.31
-14.72 46.61 0.85
-2.66 8.42 -1.72
-3.23 10.23 -1.7
-5.39 17.09 -2.2
-5.88 18.63 -1.71
-6.02 19.07 -1.05
-2.61 8.26 2.32
-14.59 46.76 0.86
-2.63 8.42 -1.72
-3.19 10.23 -1.7
-5.34 17.11 -2.2
-5.8 18.61 -1.71
-5.94 19.06 -1.05
-10.74 34.41 -0.63
-2.59 8.3 2.33
-14.41 46.78 0.85
-2.6 8.43 -1.71
-3.15 10.24 -1.7
-5.27 17.12 -2.2
-5.72 18.57 -1.7
-2.56 8.31 2.33
-14.24 46.78 0.85
-2.57 8.44 -1.71
-3.12 10.27 -1.7
-5.21 17.13 -2.2
-5.63 18.51 -1.69
-14.06 46.79 0.85
-2.54 8.45 -1.71
-3.08 10.27 -1.7
-5.14 17.11 -2.19
-5.56 18.49 -1.69
-13.88 46.81 0.85
-22.99 77.5 4.24
-2.37 7.99 -1.62
-3.05 10.29 -1.7
-5.08 17.13 -2.19
-5.48 18.47 -1.69
-13.67 46.69 0.85
-22.67 77.44 4.23
-2.4 8.2 -1.66
-3.01 10.28 -1.7
-5.01 17.1 -2.19
-5.41 18.47 -1.68
-13.5 46.71 0.85
-22.37 77.4 4.22
-2.42 8.37 -1.69
-2.97 10.29 -1.7
-4.96 17.15 -2.19
-5.35 18.5 -1.69
-13.42 47.03 0.85
-2.41 8.46 -1.71
-2.93 10.29 -1.69
-4.89 17.14 -2.19
-5.27 18.49 -1.68
-13.28 47.19 0.86
-2.38 8.47 -1.71
-2.9 10.3 -1.7
-4.82 17.13 -2.18
-5.21 18.5 -1.68
-13.15 47.34 0.86
-2.86 10.31 -1.69
-4.76 17.13 -2.18
-5.14 18.5 -1.68
-13 47.47 0.86
-2.32 8.48 -1.71
-2.83 10.32 -1.69
-4.7 17.14 -2.18
-5.07 18.52 -1.68
-12.88 47.61 0.86
-2.25 8.31 -1.67
-2.79 10.32 -1.69
-4.64 17.15 -2.18
-5.02 18.54 -1.68
-12.75 47.78 0.86
-2.22 8.33 -1.68
-2.75 10.32 -1.69
-4.58 17.16 -2.18
-4.96 18.57 -1.68
-5.03 18.84 -1.02
-12.6 47.92 0.86
-2.15 8.18 -1.64
-2.72 10.33 -1.69
-4.51 17.15 -2.18
-4.89 18.6 -1.68
-4.97 18.92 -1.03
-12.45 48.05 0.87
-1.94 7.49 -1.5
-2.68 10.34 -1.69
-4.44 17.15 -2.18
-4.83 18.63 -1.68
-2.16 8.33 2.3
-12.31 48.19 0.87
-15.25 59.68 3.23
-2.17 8.48 -1.7
-2.64 10.35 -1.69
-4.38 17.16 -2.17
-4.77 18.67 -1.69
-4.86 19.01 -1.03
-2.15 8.4 2.32
-12.17 48.34 0.87
-2.14 8.51 -1.71
-2.61 10.35 -1.69
-4.32 17.15 -2.17
-4.71 18.72 -1.69
-4.8 19.08 -1.03
-12.03 48.45 0.87
-2.11 8.51 -1.7
-2.57 10.36 -1.69
-4.26 17.15 -2.17
-4.66 18.78 -1.69
-4.73 19.05 -1.03
-2.11 8.51 2.35
-11.87 48.56 0.87
-2.54 10.37 -1.69
-4.2 17.16 -2.17
-4.6 18.8 -1.69
-4.68 19.14 -1.03
-1.59 6.63 -1.57
-1.58 6.59 -1.32
-2.5 10.38 -1.69
-4.13 17.15 -2.17
-4.53 18.82 -1.69
-1.56 6.6 -1.57
-1.57 6.64 -1.33
-2.46 10.38 -1.69
-4.07 17.17 -2.17
-4.48 18.91 -1.7
-13.85 59.32 3.19
-1.99 8.52 -1.7
-2.42 10.39 -1.69
-4.01 17.16 -2.16
-4.46 19.11 -1.72
-18.04 78.51 1.41
-1.55 6.74 -1.34
-2.39 10.39 -1.69
-3.94 17.15 -2.16
-4.39 19.1 -1.71
-17.94 79.35 1.42
-1.49 6.61 -1.56
-1.77 7.84 -1.56
-2.35 10.4 -1.69
-3.88 17.15 -2.16
-4.32 19.1 -1.71
-17.88 80.39 1.44
-1.42 6.4 -1.51
-1.9 8.53 -1.7
-2.32 10.41 -1.69
-3.82 17.16 -2.16
-4.27 19.19 -1.72
-5.43 24.42 -1.31
-17.72 80.95 1.45
-1.36 6.22 -1.47
-1.42 6.51 -1.29
-2.28 10.42 -1.69
-3.76 17.18 -2.16
-4.2 19.18 -1.72
-17.59 81.68 1.46
-1.38 6.4 -1.27
-2.24 10.42 -1.69
-3.7 17.18 -2.16
-4.11 19.09 -1.71
-1.4 6.62 -1.56
-1.81 8.57 -1.7
-2.21 10.43 -1.69
-3.63 17.18 -2.16
-4.07 19.25 -1.72
-17.39 83.67 1.49
-1.28 6.15 -1.45
-1.35 6.51 -1.29
-2.17 10.44 -1.69
-3.57 17.19 -2.16
-4 19.24 -1.72
-4.61 22.21 -1.19
-17.23 84.41 1.5
-1.27 6.2 -1.46
-1.31 6.42 -1.27
-2.13 10.45 -1.69
-3.51 17.19 -2.15
-3.92 19.22 -1.72
-17.1 85.25 1.52
-1.36 6.8 -1.6
-1.3 6.46 -1.28
-2.1 10.45 -1.69
-3.46 17.26 -2.16
-3.86 19.25 -1.72
-6.51 32.45 -1.73
-16.95 86.17 1.53
-1.23 6.25 -1.47
-1.27 6.46 -1.28
-2.06 10.46 -1.69
-3.4 17.28 -2.16
-3.77 19.15 -1.71
-6.39 32.46 -1.73
-16.81 87.06 1.55
-1.2 6.24 -1.47
-1.24 6.4 -1.27
-2.02 10.46 -1.69
-3.34 17.28 -2.16
-3.68 19.05 -1.7
-6.26 32.4 -1.73
-1.26 6.62 -1.55
-1.22 6.43 -1.27
-1.23 6.48 -1.04
-3.28 17.25 -2.16
-3.61 19.01 -1.69
-6.16 32.47 -1.73
-1.2 6.47 -1.52
-1.19 6.39 -1.26
-1.95 10.47 -1.69
-3.22 17.27 -2.16
-3.53 18.96 -1.69
-1.17 6.4 -1.5
-1.17 6.42 -1.27
-1.19 6.54 -1.05
-3.15 17.25 -2.15
-3.46 18.94 -1.68
-1.13 6.31 -1.48
-1.15 6.41 -1.27
-1.18 6.58 -1.06
-3.09 17.25 -2.15
-3.46 19.3 -1.72
-3.44 19.22 -1.02
-1.1 6.28 -1.47
-1.12 6.39 -1.26
-1.14 6.54 -1.05
-3.02 17.26 -2.15
-3.3 18.86 -1.68
-3.36 19.19 -1.02
-1.07 6.22 -1.46
-1.1 6.4 -1.26
-1.12 6.52 -1.05
-2.97 17.29 -2.15
-3.22 18.79 -1.67
-1.06 6.32 -1.48
-1.06 6.32 -1.25
-1.13 6.74 -1.08
-2.91 17.3 -2.15
-3.15 18.72 -1.66
-1.05 6.39 -1.49
-1.08 6.53 -1.29
-1.1 6.7 -1.08
-2.85 17.28 -2.15
-3.08 18.69 -1.66
-1.04 6.5 -1.52
-1.05 6.56 -1.29
-1.05 6.56 -1.05
-2.78 17.28 -2.15
-3 18.64 -1.65
-3.32 20.64 -0.36
-1.01 6.42 -1.5
-0.99 6.32 -1.24
-1.65 10.47 -1.68
-2.72 17.28 -2.15
-2.93 18.65 -1.65
-3.24 20.64 -0.36
-1.01 6.55 -1.53
-0.99 6.42 -1.26
-1.03 6.7 -1.07
-2.65 17.27 -2.15
-2.87 18.68 -1.65
-3.17 20.63 -0.36
-0.98 6.51 -1.52
-0.98 6.52 -1.28
-1.57 10.48 -1.68
-2.59 17.29 -2.15
-2.8 18.67 -1.65
-3.1 20.64 -0.36
-0.96 6.52 -1.52
-0.95 6.49 -1.28
-0.98 6.7 -1.07
-2.54 17.29 -2.15
-2.74 18.65 -1.65
-2.79 19.02 -1.01
-0.93 6.5 -1.52
-0.92 6.44 -1.26
-0.96 6.72 -1.08
-2.48 17.28 -2.14
-2.67 18.65 -1.65
-2.72 19.01 -1.01
-0.91 6.55 -1.53
-0.92 6.6 -1.3
-1.46 10.49 -1.68
-2.41 17.3 -2.14
-2.6 18.65 -1.65
-2.65 18.99 -1
-0.9 6.59 -1.54
-0.88 6.49 -1.27
-1.43 10.5 -1.68
-2.35 17.28 -2.14
-2.53 18.61 -1.64
-2.58 18.98 -1
-0.89 6.7 -1.56
-0.87 6.57 -1.29
-1.39 10.51 -1.68
-2.29 17.25 -2.14
-2.48 18.72 -1.65
-0.86 6.7 -1.56
-0.85 6.58 -1.29
-1.35 10.5 -1.68
-2.22 17.23 -2.13
-2.42 18.76 -1.66
-2.46 19.05 -1.01
-0.86 6.82 -1.59
-0.82 6.56 -1.29
-0.91 7.29 -1.16
-2.17 17.29 -2.14
-2.35 18.74 -1.65
-0.83 6.77 -1.58
-0.81 6.64 -1.3
-1.28 10.48 -1.67
-2.11 17.28 -2.14
-2.29 18.8 -1.66
-0.8 6.76 -1.57
-0.79 6.65 -1.3
-1.24 10.49 -1.67
-2.05 17.28 -2.14
-2.23 18.82 -1.66
-2.27 19.18 -1.01
-0.78 6.82 -1.58
-0.76 6.63 -1.3
-0.86 7.51 -1.2
-1.99 17.29 -2.14
-2.16 18.83 -1.66
-2.21 19.25 -1.02
-0.76 6.82 -1.58
-0.74 6.68 -1.31
-0.83 7.46 -1.19
-1.91 17.23 -2.13
-2.09 18.83 -1.66
-2.14 19.25 -1.02
-6.69 62.22 1.09
-0.75 6.93 -1.61
-0.73 6.75 -1.32
-0.81 7.51 -1.2
-6.4 59.51 7.35
-1.86 17.29 -2.13
-2.03 18.86 -1.66
-2.07 19.28 -1.02
-0.72 6.93 -1.61
-0.72 6.9 -1.35
-0.78 7.47 -1.19
-1.8 17.27 -2.13
-1.97 18.92 -1.66
-6.08 60.27 1.06
-0.7 6.92 -1.61
-0.69 6.86 -1.34
-0.75 7.47 -1.19
-1.74 17.29 -2.13
-1.91 18.98 -1.67
-5.87 60.31 1.06
-0.67 6.92 -1.6
-0.66 6.83 -1.33
-0.74 7.57 -1.21
-1.68 17.27 -2.13
-1.86 19.09 -1.68
-5.65 60.24 1.06
-0.64 6.8 -1.58
-0.64 6.86 -1.34
-0.7 7.51 -1.19
-1.62 17.3 -2.13
-1.79 19.1 -1.68
-5.44 60.23 1.06
-0.64 7.07 -1.64
-5.39 59.68 3.14
-0.62 6.86 -1.34
-5.36 59.36 5.21
-0.67 7.45 -1.18
-1.56 17.27 -2.13
-1.73 19.1 -1.68
-5.22 60.19 1.05
-0.62 7.09 -1.64
-0.6 6.94 -1.35
-0.66 7.64 -1.21
-1.5 17.23 -2.12
-1.66 19.15 -1.68
-2.38 27.41 -0.48
-0.59 7.15 -1.66
-0.61 7.38 -1.44
-0.62 7.44 -1.18
-1.43 17.25 -2.13
-1.58 18.97 -1.67
-2.28 27.41 -0.48
-0.57 7.17 -1.66
-0.59 7.38 -1.44
-0.6 7.5 -1.19
-1.37 17.25 -2.12
-1.53 19.18 -1.68
-2.72 34.17 -0.6
-0.55 7.17 -1.66
-0.56 7.39 -1.44
-0.58 7.59 -1.21
-1.31 17.24 -2.12
-1.46 19.14 -1.68
-2.4 31.51 -1.66
-0.53 7.22 -1.67
-0.55 7.52 -1.47
-0.54 7.44 -1.18
-1.26 17.26 -2.12
-1.39 19.06 -1.67
-2.29 31.53 -1.66
-0.5 7.22 -1.67
-0.52 7.5 -1.46
-0.52 7.51 -1.19
-1.2 17.3 -2.13
-1.31 18.96 -1.66
-2.18 31.49 -1.65
-0.42 6.32 -1.7
-0.48 7.24 -1.67
-0.48 7.37 -1.44
-0.5 7.58 -1.2
-1.13 17.26 -2.12
-1.25 19.04 -1.67
-2.06 31.42 -1.65
-3.63 55.16 -0.96
-0.39 6.33 -1.7
-0.45 7.19 -1.66
-0.45 7.33 -1.43
-0.46 7.34 -1.16
-1.07 17.25 -2.12
-1.18 18.99 -1.66
-1.95 31.44 -1.65
-3.42 55.12 -0.96
-0.37 6.34 -1.7
-0.42 7.19 -1.66
-0.44 7.5 -1.46
-0.44 7.54 -1.2
-1.01 17.27 -2.12
-1.11 18.92 -1.66
-1.14 19.51 -1.02
-0.35 6.37 -1.71
-0.4 7.21 -1.67
-0.42 7.68 -1.5
-0.42 7.57 -1.2
-4.78 86.5 10.64
-0.95 17.26 -2.12
-1.05 18.95 -1.66
-1.07 19.35 -1.02
-0.33 6.42 -1.72
-0.37 7.22 -1.67
-0.39 7.49 -1.46
-0.38 7.45 -1.18
-0.89 17.26 -2.12
-0.98 18.94 -1.66
-1 19.27 -1.01
-0.31 6.42 -1.72
-0.35 7.22 -1.67
-0.37 7.61 -1.48
-0.36 7.49 -1.19
-0.83 17.26 -2.12
-0.91 18.9 -1.66
-0.93 19.2 -1.01
-0.99 20.56 -0.36
-0.29 6.44 -1.73
-0.32 7.27 -1.68
-0.34 7.69 -1.5
-0.34 7.68 -1.22
-0.77 17.24 -2.12
-0.84 18.85 -1.65
-0.86 19.21 -1.01
-0.26 6.39 -1.71
-4.7 114.52 2
-0.3 7.27 -1.68
-0.31 7.53 -1.47
-0.31 7.65 -1.21
-0.71 17.23 -2.12
-0.77 18.79 -1.65
-0.79 19.23 -1.01
-0.24 6.42 -1.72
-0.27 7.27 -1.68
-0.29 7.69 -1.5
-0.29 7.7 -1.22
-0.65 17.26 -2.12
-0.7 18.75 -1.64
-0.78 20.69 -0.36
-0.22 6.4 -1.71
-3.03 89.09 1.56
-0.25 7.26 -1.68
-0.26 7.58 -1.47
-0.26 7.59 -1.2
-3.06 90.02 11.06
-0.59 17.2 -2.11
-0.64 18.77 -1.64
-0.7 20.69 -0.36
-0.2 6.47 -1.73
-0.22 7.24 -1.67
-0.23 7.51 -1.46
-0.24 7.76 -1.23
-0.53 17.25 -2.12
-0.57 18.72 -1.64
-0.59 19.19 -1.01
-0.63 20.66 -0.36
-0.18 6.46 -1.73
-2.1 77.23 1.35
-0.2 7.27 -1.68
-0.21 7.53 -1.46
-0.21 7.59 -1.2
-0.47 17.18 -2.11
-0.51 18.74 -1.64
-0.52 19.2 -1.01
-0.56 20.63 -0.36
-0.15 6.45 -1.73
-1.83 77.24 1.35
-0.17 7.22 -1.67
-0.18 7.59 -1.48
-0.18 7.74 -1.23
-0.41 17.2 -2.11
-0.44 18.66 -1.63
-0.46 19.2 -1.01
-0.13 6.43 -1.72
-0.15 7.28 -1.68
-0.16 7.66 -1.49
-0.16 7.83 -1.24
-0.35 17.07 -2.1
-0.38 18.65 -1.63
-0.39 19.2 -1.01
-0.11 6.45 -1.73
-1.29 77.18 1.35
-0.12 7.27 -1.68
-1.29 76.79 4.03
-0.13 7.62 -1.48
-0.13 7.77 -1.23
-0.29 17.08 -2.1
-0.31 18.66 -1.63
-0.32 19.17 -1
-0.09 6.46 -1.73
-1.04 77.05 1.35
-0.1 7.3 -1.69
-1.03 76.82 4.03
-0.1 7.62 -1.48
-0.1 7.55 -1.2
-0.23 17.19 -2.11
-0.25 18.7 -1.64
-0.26 18.99 -1
-0.28 20.73 -0.36
-0.06 6.46 -1.73
-0.77 77.03 1.34
-0.07 7.3 -1.69
-0.77 77.07 4.04
-0.08 7.6 -1.48
-0.11 10.57 -1.67
-0.17 17.22 -2.11
-0.19 18.7 -1.64
-0.04 6.45 -1.73
-0.5 77 1.34
-0.05 7.31 -1.69
-0.5 77.01 4.04
-0.05 7.61 -1.48
-0.07 10.53 -1.67
-0.11 17.18 -2.11
-0.12 18.68 -1.63
-0.12 19.2 -1.01
-0.02 6.44 -1.73
-0.23 76.93 1.34
-0.02 7.33 -1.69
-0.23 76.99 4.03
-0.03 8.6 -1.67
-0.03 10.52 -1.67
-0.05 17.15 -2.11
-0.06 18.69 -1.63
-0.06 19.2 -1.01
0 6.45 -1.73
0.05 76.93 1.34
0.01 7.28 -1.68
0.05 76.94 4.03
0.01 8.6 -1.67
0.01 10.52 -1.67
0.01 17.2 -2.11
0.01 18.68 -1.63
0.01 19.21 -1.01
0.03 6.48 -1.74
0.32 76.91 1.34
0.03 7.23 -1.67
0.32 76.9 4.03
0.04 8.6 -1.67
0.04 10.53 -1.67
0.07 17.16 -2.11
0.08 18.7 -1.64
0.08 19.22 -1.01
0.05 6.49 -1.74
0.06 7.34 -1.7
0.58 76.87 4.03
0.06 8.59 -1.67
0.08 10.53 -1.67
0.13 17.15 -2.11
0.14 18.66 -1.63
0.14 19.2 -1.01
0.07 6.48 -1.74
0.08 7.34 -1.7
0.84 76.84 4.03
0.09 8.59 -1.67
0.12 10.53 -1.67
0.19 17.13 -2.1
0.21 18.71 -1.64
0.09 6.51 -1.74
0.11 7.31 -1.69
1.11 76.82 4.03
0.12 8.58 -1.67
0.15 10.52 -1.67
0.25 17.15 -2.11
0.27 18.69 -1.64
0.28 19.17 -1
0.12 6.51 -1.74
0.13 7.28 -1.68
0.15 8.59 -1.67
0.19 10.53 -1.67
0.31 17.1 -2.1
0.34 18.66 -1.63
0.34 19.16 -1
0.37 20.59 -0.36
0.14 6.51 -1.74
0.15 7.2 -1.66
0.18 8.59 -1.67
0.23 10.53 -1.67
0.37 17.1 -2.1
0.4 18.67 -1.63
0.41 19.21 -1.01
0.44 20.62 -0.36
0.16 6.5 -1.74
0.18 7.2 -1.66
0.21 8.57 -1.67
0.26 10.56 -1.67
1.28 51.31 6.3
0.43 17.09 -2.1
0.47 18.81 -1.65
0.48 19.29 -1.01
0.18 6.5 -1.74
0.2 7.24 -1.67
0.24 8.57 -1.67
0.3 10.55 -1.67
0.48 17.08 -2.1
0.53 18.75 -1.64
0.54 19.34 -1.01
0.21 6.5 -1.74
0.23 7.26 -1.68
0.27 8.57 -1.67
0.33 10.54 -1.67
0.54 17.09 -2.1
0.59 18.72 -1.64
0.23 6.5 -1.74
0.26 7.28 -1.68
0.3 8.57 -1.67
0.37 10.55 -1.67
1.73 49.39 6.07
0.6 17.05 -2.09
0.66 18.71 -1.64
1.08 30.79 -1.61
0.25 6.5 -1.74
0.28 7.35 -1.7
0.33 8.57 -1.67
0.41 10.56 -1.67
0.66 17.04 -2.09
0.72 18.69 -1.64
1.19 30.78 -1.61
0.27 6.47 -1.74
3.22 76.59 1.34
0.31 7.32 -1.69
0.36 8.56 -1.66
0.44 10.56 -1.67
1.79 42.44 5.22
0.72 17.07 -2.1
0.79 18.67 -1.63
1.3 30.78 -1.61
0.29 6.46 -1.73
3.49 76.51 1.34
0.34 7.35 -1.7
0.39 8.56 -1.67
1.92 42.1 3.69
0.48 10.56 -1.67
0.78 17.05 -2.1
0.85 18.63 -1.63
1.04 22.71 4.42
0.32 6.48 -1.74
3.75 76.42 1.34
0.36 7.38 -1.71
0.42 8.56 -1.67
0.52 10.55 -1.67
1.22 24.78 3.05
0.84 17.06 -2.1
1.31 26.62 4.22
0.91 18.61 -1.63
1.13 23.02 4.48
0.34 6.5 -1.74
0.39 7.38 -1.71
2.19 41.71 2.19
0.45 8.57 -1.67
2.19 41.63 3.65
0.55 10.54 -1.67
1.31 24.85 3.06
0.9 17.04 -2.09
1.24 23.63 3.75
0.98 18.6 -1.63
0.37 6.53 -1.75
0.41 7.39 -1.71
0.48 8.56 -1.67
0.59 10.54 -1.67
2.4 42.75 5.26
0.96 17.04 -2.09
1.32 23.51 3.73
1.04 18.59 -1.63
1.41 25.11 -1.32
0.39 6.52 -1.75
0.44 7.42 -1.72
0.51 8.55 -1.66
1.43 24.08 2.11
0.63 10.56 -1.68
1.01 17.03 -2.09
2.95 49.43 7.84
1.11 18.58 -1.63
1.5 25.11 -1.32
0.41 6.51 -1.75
0.47 7.42 -1.72
2.23 35.36 1.86
0.54 8.54 -1.66
2.23 35.29 3.09
0.67 10.57 -1.68
1.57 24.92 3.07
1.07 17.01 -2.09
1.46 23.21 3.68
1.17 18.56 -1.63
0.43 6.53 -1.75
4.01 60.22 1.05
0.49 7.41 -1.71
2.35 35.34 1.86
0.57 8.55 -1.67
2.36 35.38 3.1
0.7 10.57 -1.68
1.66 24.89 3.06
1.13 16.99 -2.09
1.55 23.24 3.69
1.24 18.56 -1.63
0.46 6.53 -1.76
4.23 60.17 1.05
0.52 7.4 -1.71
0.6 8.55 -1.67
2.47 35.21 3.09
0.74 10.59 -1.68
1.75 24.89 3.06
1.19 16.99 -2.09
1.76 25.06 3.98
1.3 18.57 -1.63
1.61 22.91 4.46
0.48 6.55 -1.76
3.68 49.92 0.87
0.55 7.42 -1.72
3.22 43.64 2.29
0.63 8.54 -1.66
2.6 35.26 3.09
0.78 10.57 -1.68
1.85 25.05 3.08
1.25 16.97 -2.09
2.42 32.79 5.21
1.37 18.57 -1.63
1.73 23.38 4.56
0.5 6.54 -1.76
5.88 76.19 1.33
0.57 7.41 -1.72
0.66 8.53 -1.66
2.56 33.14 2.91
0.82 10.57 -1.68
1.92 24.95 3.07
1.31 16.94 -2.09
1.93 25.06 3.98
1.43 18.57 -1.63
2.02 26.21 5.11
2.01 26.07 6.04
0.53 6.53 -1.76
6.13 76.08 1.33
0.6 7.41 -1.72
3.42 42.43 2.23
0.69 8.53 -1.66
2.83 35.14 3.08
0.85 10.57 -1.68
2.01 24.94 3.07
1.36 16.85 -2.08
2.04 25.26 4.01
1.5 18.57 -1.63
2.09 25.88 5.05
1.84 22.85 6.14
0.55 6.51 -1.75
6.4 76.04 1.33
0.62 7.41 -1.72
3.57 42.43 2.23
0.72 8.53 -1.66
2.16 25.64 2.25
0.89 10.56 -1.68
1.93 22.91 2.82
1.42 16.85 -2.08
1.86 22.05 3.5
1.56 18.57 -1.63
1.88 22.36 4.36
1.93 22.91 6.16
0.57 6.51 -1.75
4.5 51.36 0.9
0.65 7.4 -1.72
3.01 34.33 1.81
0.75 8.53 -1.66
2 22.82 2
0.93 10.55 -1.68
2.08 23.73 2.93
1.48 16.83 -2.07
3.63 41.37 6.58
1.63 18.57 -1.63
2.19 24.95 4.87
2 22.86 6.15
0.6 6.53 -1.76
4.68 51.36 0.9
0.67 7.39 -1.71
3.05 33.47 1.76
0.78 8.53 -1.66
3.04 33.39 2.93
0.96 10.56 -1.68
2.16 23.74 2.93
1.53 16.81 -2.07
3 32.85 5.22
1.7 18.59 -1.63
2.26 24.84 4.85
1.9 20.83 -0.37
0.62 6.52 -1.76
0.7 7.39 -1.71
3.17 33.43 1.76
0.81 8.52 -1.66
3.22 33.97 2.99
1 10.56 -1.68
2.5 26.4 3.26
1.58 16.7 -2.06
2.08 22 3.5
1.76 18.59 -1.63
2.14 22.57 4.41
2.21 23.34 5.41
1.97 20.77 -0.36
0.64 6.53 -1.76
7.7 78.38 1.37
0.73 7.4 -1.72
3.29 33.47 1.76
0.84 8.51 -1.66
2.25 22.91 2.01
1.04 10.56 -1.68
2.64 26.91 3.32
1.6 16.29 -2.01
2.27 23.07 3.67
1.83 18.59 -1.63
2.21 22.47 4.39
2.5 25.49 5.91
2.04 20.74 -0.36
0.66 6.52 -1.76
0.75 7.38 -1.71
4.32 42.48 2.24
0.87 8.51 -1.66
3.68 36.13 3.18
1.07 10.56 -1.68
2.53 24.83 3.06
1.64 16.12 -1.99
2.31 22.68 3.61
1.89 18.58 -1.63
2.46 24.21 4.73
2.6 25.51 5.92
2.11 20.75 -0.36
0.69 6.52 -1.76
4.48 42.55 0.75
0.77 7.34 -1.7
3.62 34.41 1.81
0.89 8.49 -1.66
2.34 22.26 1.96
1.11 10.55 -1.68
3.89 36.99 4.57
1.69 16.04 -1.98
2.37 22.54 3.59
1.96 18.6 -1.64
2.44 23.2 5.39
2.18 20.74 -0.36
2.59 24.57 6.62
0.71 6.53 -1.76
4.63 42.52 0.75
0.8 7.33 -1.7
4.64 42.6 2.25
0.93 8.51 -1.66
2.66 24.46 2.15
1.15 10.56 -1.68
2.43 22.31 2.75
1.73 15.88 -1.96
2.45 22.49 3.58
2.02 18.61 -1.64
2.78 25.56 5.94
2.53 23.25 6.27
0.73 6.5 -1.75
0.82 7.33 -1.7
0.95 8.46 -1.66
2.74 24.41 2.15
1.18 10.55 -1.68
2.48 22.15 2.74
1.77 15.79 -1.95
2.89 25.76 4.11
2.09 18.61 -1.64
2.81 25.07 4.9
2.66 23.68 5.5
2.77 24.7 6.66
0.75 6.49 -1.75
8.67 74.93 1.32
0.85 7.33 -1.7
4.89 42.29 2.23
0.98 8.49 -1.66
2.86 24.68 2.17
1.22 10.55 -1.68
3.08 26.64 3.29
1.82 15.75 -1.95
2.74 23.66 3.77
2.15 18.6 -1.64
2.68 23.15 4.53
3.99 34.5 8.02
2.62 22.63 6.1
0.77 6.49 -1.75
0.87 7.33 -1.7
4.85 40.68 2.15
1.01 8.49 -1.66
3.15 26.4 2.33
1.26 10.56 -1.68
2.86 23.95 2.96
1.87 15.68 -1.94
2.72 22.77 3.63
2.22 18.6 -1.64
1.1 9.2 1.8
3.05 25.6 5.95
2.7 22.61 6.1
0.8 6.5 -1.75
0.9 7.35 -1.71
1.04 8.5 -1.66
3.14 25.57 2.25
1.3 10.57 -1.69
3.03 24.68 3.05
1.93 15.74 -1.95
2.88 23.49 3.75
2.29 18.61 -1.64
1.12 9.15 1.79
2.87 23.36 5.43
3 24.43 6.6
0.82 6.5 -1.76
0.93 7.32 -1.7
1.07 8.48 -1.66
3.23 25.56 2.25
1.34 10.56 -1.69
3.11 24.62 3.05
1.99 15.72 -1.95
3.08 24.32 3.88
2.36 18.62 -1.64
1.16 9.15 1.79
2.96 23.39 5.44
1.14 8.98 2.42
0.85 6.51 -1.76
0.95 7.31 -1.7
4.77 36.67 1.94
1.1 8.47 -1.66
3.27 25.17 2.22
1.37 10.56 -1.69
4.58 35.22 4.36
2.04 15.67 -1.94
3.13 24.06 3.84
2.42 18.62 -1.64
1.17 8.97 2.09
1.16 8.92 2.41
0.87 6.5 -1.76
0.97 7.29 -1.7
4.35 32.6 1.72
1.13 8.47 -1.66
3.19 23.88 2.11
1.41 10.56 -1.69
3.4 25.49 3.16
2.06 15.47 -1.92
3.16 23.72 3.79
2.48 18.61 -1.64
1.18 8.86 1.74
1.19 8.93 2.08
1.19 8.89 2.4
0.89 6.5 -1.76
1 7.29 -1.7
4.72 34.48 1.82
1.16 8.47 -1.66
4.38 31.98 2.82
1.44 10.55 -1.69
3.48 25.42 3.15
2.11 15.38 -1.91
3.04 22.17 3.54
2.55 18.62 -1.64
1.21 8.84 1.73
1.22 8.94 2.08
1.22 8.92 2.41
0.91 6.5 -1.76
4.82 34.29 0.6
1.02 7.26 -1.69
4.82 34.32 1.82
1.19 8.47 -1.66
3.38 24.05 2.12
1.48 10.55 -1.69
3.57 25.38 3.15
2.15 15.31 -1.9
3.21 22.87 3.66
2.62 18.62 -1.65
1.24 8.82 1.73
1.23 8.74 2.04
1.23 8.73 2.36
0.94 6.51 -1.76
4.93 34.22 0.6
1.04 7.24 -1.69
4.93 34.25 1.81
1.22 8.46 -1.66
3.44 23.9 2.11
1.52 10.55 -1.69
3.65 25.34 3.14
2.18 15.11 -1.87
2.68 18.63 -1.65
1.25 8.69 2.03
3.55 24.67 6.68
0.96 6.5 -1.76
1.07 7.27 -1.7
5.06 34.29 1.82
1.25 8.44 -1.66
3.85 26.09 2.31
1.56 10.55 -1.69
3.74 25.3 3.14
2.2 14.92 -1.85
3.39 22.92 3.67
2.75 18.62 -1.65
1.27 8.59 1.69
1.27 8.63 2.01
1.27 8.58 2.32
0.98 6.48 -1.76
11.59 76.69 1.35
1.1 7.29 -1.7
1.28 8.44 -1.66
3.92 25.91 2.29
1.59 10.55 -1.69
3.6 23.8 2.96
2.21 14.65 -1.82
3.44 22.73 3.64
2.81 18.62 -1.65
1.29 8.54 1.68
1.28 8.48 1.98
1.27 8.41 2.28
1 6.49 -1.76
1.12 7.26 -1.7
1.31 8.44 -1.66
4.03 26.05 2.31
1.63 10.54 -1.69
3.63 23.45 2.91
2.18 14.1 -1.75
3.44 22.25 3.57
2.88 18.62 -1.65
1.31 8.47 1.67
1.3 8.4 1.96
1.29 8.35 2.26
1.03 6.49 -1.76
1.15 7.26 -1.7
5.25 33.15 1.76
1.34 8.45 -1.66
1.67 10.55 -1.69
3.99 25.19 3.13
2.21 13.96 -1.74
3.78 23.86 3.83
2.95 18.62 -1.65
1.31 8.3 1.63
1.32 8.33 1.95
4.45 28.14 -0.5
1.31 8.3 2.25
1.05 6.48 -1.76
4.55 28.09 0.5
1.18 7.27 -1.7
4.55 28.08 1.49
1.37 8.45 -1.66
3.59 22.16 1.96
1.71 10.54 -1.69
4.08 25.18 3.13
2.25 13.86 -1.72
3.87 23.87 3.83
3.02 18.64 -1.65
1.35 8.31 1.64
1.34 8.29 1.94
1.33 8.2 2.23
1.07 6.48 -1.76
1.2 7.26 -1.7
5.49 33.17 1.76
1.39 8.38 -1.65
4.21 25.42 2.25
1.74 10.53 -1.69
4.3 25.97 3.23
2.29 13.82 -1.72
1.36 8.24 1.32
3.08 18.64 -1.65
1.37 8.26 1.93
1.35 8.14 2.21
1.09 6.46 -1.75
1.23 7.25 -1.7
1.39 8.23 0.44
1.39 8.22 -1.62
1.39 8.23 0.73
1.78 10.51 -1.69
1.38 8.18 1.02
2.33 13.79 -1.72
1.38 8.18 1.31
3.15 18.64 -1.65
4.89 28.91 -1.54
1.35 7.99 2.17
1.11 6.46 -1.76
1.25 7.24 -1.7
1.4 8.13 0.43
1.42 8.2 -1.62
1.4 8.12 0.72
1.81 10.49 -1.69
1.39 8.08 1.01
2.37 13.75 -1.71
1.39 8.04 1.29
3.22 18.65 -1.66
3.72 21.53 4.25
4.99 28.88 -1.54
1.14 6.46 -1.76
1.27 7.22 -1.69
1.41 8.02 0.43
1.45 8.21 -1.62
1.41 8.02 0.71
1.85 10.49 -1.69
1.4 7.96 0.99
2.42 13.74 -1.71
1.4 7.96 1.28
3.29 18.65 -1.66
4.3 24.4 4.82
5.08 28.83 -1.53
1.4 7.94 1.86
1.4 7.97 2.17
1.16 6.46 -1.76
2.87 15.95 0.28
1.3 7.23 -1.7
1.42 7.92 0.42
1.48 8.2 -1.62
1.42 7.9 0.7
1.89 10.49 -1.69
1.41 7.84 0.98
2.47 13.72 -1.71
1.41 7.86 1.26
1.41 7.86 1.55
2.87 15.97 -0.85
1.41 7.87 1.85
2.87 15.98 -0.28
1.41 7.86 2.14
1.19 6.47 -1.76
1.45 7.9 0.14
1.32 7.21 -1.69
1.44 7.83 0.42
1.5 8.19 -1.62
1.44 7.84 0.7
1.93 10.49 -1.69
1.42 7.71 0.96
2.52 13.71 -1.71
1.41 7.7 1.24
1.44 7.86 -0.7
1.44 7.86 1.55
2.88 15.67 -0.83
1.44 7.85 1.84
1.46 7.95 -0.14
1.44 7.85 2.14
1.21 6.46 -1.76
1.46 7.83 0.14
1.35 7.21 -1.69
1.46 7.83 0.42
1.5 8 -1.58
1.45 7.75 0.69
1.47 7.84 -1.26
1.42 7.58 0.95
1.46 7.83 -0.98
1.42 7.58 1.22
1.46 7.81 -0.7
1.47 7.85 1.55
1.47 7.84 -0.42
1.47 7.83 -0.14
4.29 22.93 6.25
1.23 6.46 -1.76
1.49 7.81 0.14
1.38 7.21 -1.7
1.49 7.82 0.42
1.49 7.79 -1.54
1.49 7.79 -1.26
1.49 7.82 -0.98
1.49 7.8 -0.69
4.37 22.92 4.54
1.49 7.83 -0.42
4.31 22.61 5.32
1.49 7.83 -0.14
4.69 24.58 6.7
1.26 6.47 -1.77
1.53 7.89 0.14
1.4 7.19 -1.69
1.53 7.87 0.42
1.51 7.79 -1.54
1.52 7.83 0.7
1.51 7.79 -1.26
1.51 7.76 0.97
1.52 7.81 -0.98
1.51 7.77 1.25
1.52 7.83 -0.7
4.69 24.13 4.78
1.52 7.83 -0.42
4.6 23.68 5.57
1.53 7.86 -0.14
4.76 24.51 6.69
1.28 6.49 -1.77
1.42 7.2 -1.69
7.06 35.67 1.91
1.54 7.79 -1.54
1.54 7.81 -1.26
1.51 7.64 0.96
2.65 13.4 -1.68
1.51 7.64 1.23
3.7 18.69 -1.67
4.51 22.82 4.52
5.61 28.35 -1.51
4.43 22.39 5.27
4.49 22.71 6.2
1.31 6.49 -1.77
1.45 7.2 -1.7
7.19 35.69 1.91
1.52 7.53 0.67
2.11 10.49 -1.69
1.51 7.52 0.94
2.69 13.38 -1.68
1.51 7.52 1.21
3.76 18.66 -1.67
4.61 22.89 4.54
5.69 28.27 -1.51
4.92 24.42 5.75
4.56 22.66 6.19
1.33 6.48 -1.77
7.72 37.65 0.67
1.48 7.19 -1.7
1.69 8.23 -1.63
4.97 24.23 2.16
2.15 10.48 -1.7
4.96 24.16 3.03
2.74 13.35 -1.67
4.65 22.69 3.67
3.82 18.65 -1.67
4.99 24.31 4.82
5.82 28.4 -1.52
4.91 23.95 5.64
5.04 24.59 6.73
1.35 6.49 -1.78
1.5 7.19 -1.7
5.05 24.2 1.3
1.66 7.95 -1.58
5.04 24.14 2.16
2.18 10.47 -1.69
4.77 22.87 2.87
2.78 13.32 -1.67
4.7 22.52 3.64
3.89 18.65 -1.67
4.63 22.21 4.41
5.97 28.63 -1.53
4.65 22.27 5.25
4.64 22.23 6.08
1.38 6.51 -1.78
5.13 24.13 0.43
1.52 7.15 -1.69
5.13 24.12 1.29
1.73 8.15 -1.62
5.11 24.05 2.15
2.22 10.47 -1.69
4.74 22.29 2.8
2.82 13.27 -1.67
4.71 22.16 3.59
3.95 18.58 -1.66
4.71 22.14 4.4
6.1 28.68 -1.54
4.71 22.15 5.23
5.17 24.32 -0.43
4.7 22.11 6.06
1.41 6.52 -1.79
5.21 24.09 0.43
1.54 7.13 -1.68
5.22 24.13 1.29
4.78 22.11 1.98
2.26 10.46 -1.69
4.78 22.1 2.78
2.87 13.27 -1.67
4.78 22.11 3.58
4 18.52 -1.66
4.78 22.1 4.39
5.22 24.17 -1.3
4.81 22.24 5.25
5.22 24.15 -0.43
5.03 23.26 6.38
1.43 6.53 -1.79
4.85 22.08 0.39
1.57 7.16 -1.69
4.85 22.07 1.18
1.75 7.99 -1.59
2.3 10.46 -1.7
5.26 23.95 3.01
2.93 13.34 -1.68
5.29 24.07 3.9
4.07 18.53 -1.66
4.89 22.27 4.43
4.85 22.1 -1.19
4.55 20.72 4.9
4.85 22.08 -0.39
4.5 20.5 5.62
1.46 6.53 -1.79
1.59 7.14 -1.69
5.93 26.54 1.43
1.62 7.25 -1.44
5.59 25.05 2.25
2.33 10.46 -1.7
6.11 27.35 3.44
2.99 13.38 -1.68
4.65 20.83 3.38
4.11 18.42 -1.65
4.62 20.71 4.12
5.37 24.06 -1.29
4.61 20.66 4.89
4.85 21.73 -0.39
4.55 20.39 5.6
1.49 6.55 -1.8
7.16 31.52 0.56
1.62 7.13 -1.69
5.68 25.03 2.25
2.37 10.44 -1.7
5.35 23.59 2.97
3.05 13.45 -1.69
4.71 20.76 3.37
4.16 18.32 -1.64
4.68 20.61 4.11
5.47 24.1 -1.3
4.59 20.21 4.78
4.88 21.48 -0.38
4.58 20.16 5.54
1.51 6.56 -1.8
1.64 7.12 -1.69
1.68 7.29 -1.45
5.76 25 2.24
2.41 10.47 -1.7
5.42 23.51 2.96
3.1 13.46 -1.7
4.76 20.63 3.35
4.24 18.37 -1.65
4.65 20.17 4.02
6.79 29.44 -1.58
4.65 20.18 4.78
4.9 21.25 -0.38
4.65 20.16 5.54
1.54 6.57 -1.81
1.67 7.11 -1.69
6.22 26.56 1.43
4.73 20.18 1.81
2.45 10.47 -1.7
4.72 20.14 2.54
3.14 13.41 -1.69
4.72 20.15 3.28
4.29 18.29 -1.64
4.72 20.13 4.02
6.84 29.18 -1.57
4.89 20.86 -0.37
5.32 22.69 6.25
1.57 6.59 -1.81
4.79 20.15 0.36
1.69 7.11 -1.69
4.78 20.11 1.08
1.75 7.34 -1.47
4.78 20.1 1.81
1.78 7.49 -1.22
4.79 20.12 2.54
3.19 13.42 -1.69
4.84 20.36 3.31
4.34 18.25 -1.64
4.85 20.38 4.07
7.37 30.95 -1.67
6.15 25.84 6.13
4.9 20.6 -0.37
5.87 24.67 6.8
1.59 6.59 -1.82
4.86 20.09 0.36
1.72 7.11 -1.69
4.86 20.1 1.08
1.86 7.69 -1.54
1.76 7.29 -1.19
5.62 23.27 2.94
3.24 13.42 -1.7
4.94 20.44 3.33
4.39 18.18 -1.64
5.72 23.64 4.73
4.86 20.12 -1.08
4.86 20.1 -0.36
5.96 24.65 6.8
1.62 6.59 -1.82
1.74 7.1 -1.69
1.85 7.54 -1.51
1.81 7.36 -1.2
6.35 25.86 3.27
3.29 13.4 -1.69
4.42 18.03 -1.62
5.82 23.72 4.75
6.26 25.52 6.07
4.93 20.11 -0.36
1.64 6.6 -1.82
1.76 7.08 -1.68
1.84 7.37 -1.48
5.53 22.19 2
1.82 7.32 -1.19
5.8 23.29 2.95
3.34 13.4 -1.7
5.71 22.91 3.74
4.46 17.88 -1.61
5.89 23.64 4.74
5.75 23.08 5.49
4.95 19.86 -0.36
5.79 23.25 6.42
1.67 6.61 -1.83
1.78 7.05 -1.68
1.83 7.23 -1.45
6.41 25.37 2.29
1.86 7.38 -1.2
6.37 25.22 3.19
3.38 13.38 -1.69
4.46 17.65 -1.59
6.02 23.82 4.78
6.77 26.77 -1.45
5.83 23.05 5.49
4.95 19.58 -0.35
1.7 6.63 -1.83
1.81 7.06 -1.68
1.83 7.14 -1.43
5.88 22.93 2.07
1.9 7.4 -1.21
5.7 22.2 2.81
3.44 13.4 -1.7
4.51 17.57 -1.59
5.9 22.98 5.48
4.95 19.29 -0.35
1.73 6.63 -1.84
1.84 7.08 -1.69
1.86 7.14 -1.43
6.01 23.11 2.09
1.91 7.32 -1.2
5.8 22.29 2.83
3.5 13.46 -1.71
6.09 23.41 3.83
4.54 17.43 -1.58
4.77 18.33 3.68
4.75 18.27 4.36
4.96 19.06 -0.34
4.74 18.22 5.04
1.75 6.64 -1.84
1.87 7.07 -1.69
1.9 7.18 -1.44
6.09 23.05 2.09
1.9 7.19 -1.18
6.08 23.04 2.93
3.56 13.48 -1.71
4.86 18.39 3.01
4.59 17.39 -1.57
4.81 18.21 3.66
4.8 18.19 4.34
4.98 18.87 -0.34
4.79 18.16 5.03
1.78 6.67 -1.85
1.89 7.07 -1.69
1.94 7.25 -1.46
5.21 19.47 1.76
1.96 7.34 -1.2
6.8 25.39 3.23
3.61 13.49 -1.71
4.88 18.23 2.99
4.65 17.39 -1.57
4.85 18.12 3.65
4.99 18.65 -1.01
4.86 18.14 4.34
7.06 26.37 -0.48
4.85 18.11 5.02
1.81 6.67 -1.85
4.94 18.18 0.33
1.91 7.04 -1.68
4.92 18.11 0.98
1.95 7.18 -1.45
4.92 18.1 1.64
1.98 7.28 -1.19
4.91 18.08 2.3
3.66 13.47 -1.71
4.92 18.11 2.97
4.71 17.33 -1.57
4.92 18.11 3.65
4.93 18.16 4.34
4.93 18.15 -0.33
4.96 18.27 5.07
1.84 6.67 -1.85
4.97 18.05 0.33
1.94 7.06 -1.69
4.97 18.05 0.98
2.01 7.29 -1.47
4.98 18.09 1.64
2.05 7.46 -1.23
3.71 13.47 -1.72
6.2 22.54 3.7
4.77 17.34 -1.57
4.97 18.06 -0.98
6.1 22.15 5.3
4.97 18.05 -0.33
5.06 18.4 5.11
1.86 6.65 -1.85
1.98 7.08 -1.7
5.47 19.59 1.07
2.03 7.26 -1.47
2.04 7.29 -1.2
7.11 25.47 3.25
3.76 13.46 -1.72
6.04 21.64 3.56
4.8 17.2 -1.56
5.04 18.03 -0.98
7.02 25.14 6.03
1.88 6.64 -1.85
2 7.08 -1.7
5.54 19.58 1.07
2.02 7.13 -1.44
2.08 7.36 -1.21
6.58 23.26 2.97
3.8 13.44 -1.72
5.97 21.12 3.48
4.89 17.28 -1.57
7.12 25.16 5.08
6.5 22.99 5.51
6.51 23.03 6.41
1.9 6.63 -1.85
2.03 7.07 -1.7
5.61 19.57 1.07
2.1 7.32 -1.48
5.58 19.47 1.77
2.09 7.3 -1.2
7.43 25.93 3.31
3.85 13.43 -1.72
6.51 22.72 3.74
4.94 17.25 -1.57
7.21 25.16 5.09
6.7 23.38 5.62
1.92 6.62 -1.85
5.71 19.68 0.36
2.06 7.09 -1.7
5.67 19.54 1.07
2.08 7.18 -1.45
5.65 19.46 1.77
2.13 7.34 -1.21
6.59 22.72 2.9
3.89 13.42 -1.72
6.58 22.68 3.74
5.01 17.27 -1.57
7.31 25.2 5.1
9.38 32.33 -1.76
6.86 23.64 5.68
6.81 23.46 6.55
1.94 6.62 -1.85
5.75 19.55 0.36
2.09 7.1 -1.71
5.73 19.48 1.06
2.1 7.13 -1.44
5.73 19.48 1.78
2.2 7.49 -1.24
6.82 23.22 2.97
3.95 13.42 -1.72
5.09 17.32 -1.58
7.39 25.13 5.09
5.76 19.58 -1.07
6.45 21.93 5.28
5.75 19.55 -0.36
6.75 22.95 6.41
1.96 6.6 -1.84
5.81 19.52 0.36
2.12 7.11 -1.71
5.81 19.53 1.07
2.14 7.19 -1.46
5.8 19.48 1.78
2.18 7.33 -1.21
3.99 13.42 -1.72
6.42 21.58 3.57
5.16 17.34 -1.58
6.88 23.13 4.69
7.13 23.96 5.77
7.01 23.54 6.58
1.98 6.57 -1.84
5.86 19.43 0.35
2.15 7.12 -1.72
5.89 19.53 1.07
2.16 7.15 -1.45
5.88 19.48 1.78
2.27 7.51 -1.24
7.12 23.6 3.03
4.05 13.42 -1.72
6.84 22.66 3.75
5.25 17.4 -1.59
7.56 25.05 5.09
6.63 21.99 5.3
7.09 23.5 6.58
2.01 6.58 -1.84
2.17 7.11 -1.72
5.96 19.51 1.07
2.2 7.21 -1.47
5.95 19.49 1.78
2.28 7.46 -1.23
4.1 13.41 -1.72
5.32 17.41 -1.59
7.67 25.1 5.1
6.69 21.89 5.28
7.21 23.58 6.61
2.02 6.54 -1.84
2.2 7.12 -1.72
6.03 19.5 1.07
2.22 7.17 -1.46
6.03 19.49 1.78
2.3 7.45 -1.23
6.62 21.41 2.75
4.14 13.39 -1.72
5.41 17.48 -1.6
6.65 21.49 5.19
6.55 21.19 5.94
2.04 6.52 -1.83
2.23 7.12 -1.72
6.1 19.49 1.07
2.24 7.16 -1.46
6.11 19.49 1.79
2.34 7.47 -1.24
6.74 21.5 2.77
4.19 13.38 -1.72
5.49 17.54 -1.61
6.89 21.98 6.17
2.06 6.5 -1.83
2.26 7.14 -1.73
2.29 7.22 -1.47
6.17 19.49 1.79
2.35 7.41 -1.23
4.24 13.38 -1.72
5.56 17.55 -1.61
6.7 21.16 4.31
7.02 22.17 5.37
6.69 21.11 5.93
2.08 6.49 -1.83
2.29 7.14 -1.73
2.35 7.33 -1.5
2.35 7.32 -1.22
4.29 13.38 -1.72
5.64 17.59 -1.62
2.1 6.48 -1.83
2.31 7.13 -1.73
2.37 7.31 -1.49
2.37 7.31 -1.22
4.34 13.37 -1.73
5.7 17.56 -1.62
7.25 22.35 5.42
2.13 6.49 -1.83
2.34 7.12 -1.73
2.41 7.34 -1.5
2.43 7.4 -1.23
7.86 23.93 3.09
4.39 13.35 -1.73
5.78 17.6 -1.62
7.33 22.31 5.42
2.15 6.48 -1.83
2.37 7.12 -1.73
2.5 7.52 -1.54
2.5 7.53 -1.26
7.96 23.95 3.1
4.43 13.35 -1.73
5.88 17.69 -1.63
7.14 21.48 4.4
7.11 21.39 6.04
2.17 6.45 -1.82
2.4 7.13 -1.74
2.54 7.55 -1.55
2.48 7.38 -1.23
8.07 24.02 3.11
4.49 13.36 -1.73
5.94 17.67 -1.63
2.19 6.44 -1.82
2.43 7.13 -1.74
2.62 7.72 -1.58
2.54 7.46 -1.25
4.54 13.35 -1.73
6.04 17.75 -1.64
2.21 6.44 -1.82
2.45 7.12 -1.74
2.65 7.7 -1.58
2.65 7.72 -1.29
8.23 23.93 3.11
4.59 13.35 -1.73
6.11 17.77 -1.64
14.91 43.36 -0.8
2.24 6.43 -1.82
2.48 7.13 -1.74
2.69 7.74 -1.59
2.66 7.65 -1.28
4.63 13.32 -1.73
6.19 17.81 -1.65
7.55 21.71 5.31
15.05 43.27 -0.8
7.9 22.71 6.44
2.26 6.42 -1.82
2.51 7.14 -1.75
2.77 7.87 -1.62
2.71 7.7 -1.29
4.69 13.33 -1.73
7.94 22.58 3.79
6.27 17.83 -1.65
15.22 43.25 -0.8
7.88 22.39 6.36
2.27 6.39 -1.82
2.54 7.14 -1.75
2.78 7.82 -1.61
2.78 7.82 -1.31
4.74 13.31 -1.74
6.35 17.85 -1.66
7.99 22.46 5.5
15.38 43.24 -0.8
7.75 21.8 6.2
2.3 6.39 -1.82
2.57 7.14 -1.75
2.82 7.84 -1.62
2.83 7.86 -1.32
4.8 13.34 -1.74
6.41 17.82 -1.66
15.54 43.2 -0.8
2.32 6.38 -1.82
2.59 7.12 -1.75
2.85 7.83 -1.62
8.7 23.93 2.23
2.85 7.83 -1.32
4.85 13.33 -1.74
6.47 17.8 -1.66
15.73 43.27 -0.8
2.35 6.38 -1.82
2.61 7.11 -1.75
2.9 7.88 -1.63
2.92 7.94 -1.34
2.99 8.15 -1.07
6.53 17.78 -1.66
15.88 43.21 -0.8
2.36 6.36 -1.82
2.64 7.12 -1.75
2.94 7.91 -1.64
2.93 7.89 -1.33
4.95 13.32 -1.74
6.59 17.74 -1.66
2.38 6.35 -1.82
2.67 7.11 -1.75
2.98 7.95 -1.65
2.94 7.83 -1.33
3.19 8.49 -1.11
6.64 17.69 -1.65
2.4 6.34 -1.82
2.7 7.11 -1.76
3.02 7.96 -1.65
3.03 7.99 -1.35
5.05 13.31 -1.75
6.7 17.68 -1.65
2.43 6.33 -1.82
2.72 7.11 -1.76
3.05 7.96 -1.66
3.16 8.24 -1.4
5.1 13.31 -1.75
6.76 17.66 -1.65
2.45 6.33 -1.82
2.76 7.11 -1.76
3.07 7.93 -1.65
3.16 8.16 -1.39
5.15 13.29 -1.75
6.83 17.64 -1.66
2.47 6.31 -1.82
2.79 7.13 -1.77
3.08 7.88 -1.64
3.21 8.21 -1.4
5.2 13.3 -1.75
6.9 17.62 -1.66
12.04 30.76 -1.73
2.49 6.3 -1.81
2.83 7.15 -1.78
3.17 8.02 -1.68
3.23 8.17 -1.39
5.26 13.29 -1.75
6.96 17.59 -1.65
2.51 6.29 -1.81
18.97 47.51 0.89
2.86 7.16 -1.78
3.21 8.03 -1.68
3.27 8.18 -1.4
5.3 13.28 -1.76
7.02 17.59 -1.66
19.04 47.67 -0.9
2.53 6.29 -1.82
18.94 46.97 0.88
2.89 7.17 -1.79
3.23 8.02 -1.68
3.29 8.16 -1.39
5.36 13.29 -1.76
7.09 17.57 -1.66
12.17 30.17 -1.71
2.56 6.28 -1.82
2.93 7.2 -1.79
19.22 47.22 2.67
3.27 8.03 -1.69
3.32 8.14 -1.39
5.4 13.26 -1.76
7.15 17.55 -1.66
12.23 30.04 -1.7
2.58 6.27 -1.82
2.97 7.22 -1.8
3.29 8 -1.68
3.35 8.15 -1.4
5.46 13.26 -1.76
7.22 17.54 -1.66
2.6 6.25 -1.81
3.01 7.24 -1.81
3.32 7.99 -1.68
3.39 8.15 -1.4
5.51 13.26 -1.76
7.28 17.52 -1.66
2.62 6.24 -1.81
3.05 7.26 -1.82
3.36 8.01 -1.69
3.4 8.11 -1.39
5.57 13.27 -1.77
7.33 17.48 -1.66
2.64 6.23 -1.81
18.41 43.48 0.82
3.08 7.27 -1.82
3.39 8.01 -1.69
3.4 8.04 -1.38
5.62 13.27 -1.77
7.39 17.46 -1.66
2.67 6.23 -1.82
3.12 7.29 -1.83
3.42 7.99 -1.69
3.48 8.12 -1.4
5.67 13.25 -1.77
7.46 17.44 -1.66
12.64 29.54 -1.68
2.68 6.22 -1.81
18.69 43.27 0.82
3.16 7.32 -1.84
3.45 7.99 -1.69
3.5 8.1 -1.4
5.72 13.25 -1.77
7.52 17.41 -1.66
2.7 6.2 -1.81
18.85 43.22 0.82
3.19 7.32 -1.84
3.48 7.98 -1.69
3.55 8.13 -1.41
5.78 13.25 -1.77
7.58 17.38 -1.66
2.72 6.19 -1.81
3.22 7.31 -1.84
3.51 7.98 -1.7
3.59 8.15 -1.41
5.84 13.26 -1.78
7.64 17.35 -1.66
12.99 29.5 -1.69
2.75 6.18 -1.81
3.25 7.3 -1.84
3.54 7.95 -1.69
3.61 8.11 -1.41
5.9 13.26 -1.78
7.7 17.33 -1.66
2.77 6.17 -1.81
3.27 7.28 -1.84
3.57 7.96 -1.7
3.66 8.15 -1.42
5.94 13.25 -1.78
7.76 17.29 -1.66
13.1 29.2 -1.68
2.79 6.16 -1.81
17.51 38.66 0.74
3.3 7.28 -1.84
3.6 7.94 -1.69
3.65 8.06 -1.4
5.98 13.21 -1.78
7.83 17.28 -1.66
13.22 29.18 -1.68
2.81 6.14 -1.81
17.65 38.63 0.74
3.32 7.27 -1.85
3.65 7.98 -1.71
3.65 7.99 -1.39
6.04 13.21 -1.78
7.88 17.25 -1.66
13.27 29.05 -1.67
2.83 6.14 -1.81
17.81 38.59 0.74
3.35 7.26 -1.85
3.69 7.99 -1.71
4.69 10.16 -1.77
6.09 13.2 -1.78
7.95 17.22 -1.66
13.38 29 -1.67
2.85 6.13 -1.81
17.95 38.55 0.74
3.35 7.19 -1.83
3.74 8.04 -1.72
4.74 10.18 -1.78
6.14 13.19 -1.79
8.41 18.06 -1.74
13.45 28.91 -1.67
2.87 6.12 -1.81
18.11 38.56 0.74
3.36 7.16 -1.83
3.78 8.06 -1.73
4.78 10.17 -1.78
6.19 13.17 -1.79
8.47 18.03 -1.74
13.54 28.82 -1.67
2.89 6.11 -1.81
18.26 38.55 0.74
3.39 7.15 -1.83
3.82 8.05 -1.73
4.82 10.16 -1.78
6.23 13.16 -1.79
8.52 17.99 -1.74
13.61 28.73 -1.67
2.91 6.09 -1.81
18.46 38.58 0.75
3.41 7.14 -1.83
3.85 8.05 -1.74
4.86 10.15 -1.78
6.29 13.15 -1.79
8.58 17.93 -1.74
13.74 28.72 -1.67
2.93 6.07 -1.81
18.56 38.45 0.75
3.44 7.13 -1.83
3.89 8.07 -1.74
4.9 10.15 -1.78
6.34 13.15 -1.79
8.64 17.9 -1.74
13.79 28.58 -1.66
2.95 6.07 -1.81
18.48 37.94 0.74
3.46 7.1 -1.82
3.93 8.07 -1.75
4.94 10.14 -1.79
6.39 13.13 -1.79
8.7 17.85 -1.74
13.9 28.53 -1.66
18.8 38.6 -0.75
2.97 6.06 -1.81
3.48 7.09 -1.82
3.96 8.06 -1.75
4.98 10.14 -1.79
6.44 13.11 -1.79
8.76 17.82 -1.74
13.96 28.43 -1.66
18.49 37.65 -0.73
3 6.05 -1.81
3.51 7.07 -1.82
3.99 8.05 -1.75
5.03 10.14 -1.79
6.49 13.1 -1.8
8.81 17.77 -1.73
14.06 28.36 -1.66
18.59 37.49 -0.73
3.01 6.02 -1.8
18.65 37.31 0.73
3.53 7.07 -1.82
4.02 8.05 -1.75
5.06 10.13 -1.79
6.55 13.1 -1.8
8.85 17.71 -1.73
14.14 28.28 -1.66
19.27 38.54 -0.75
3.03 6.01 -1.8
19.06 37.81 0.74
3.55 7.05 -1.82
4.06 8.05 -1.75
5.08 10.09 -1.79
6.6 13.09 -1.8
8.9 17.65 -1.73
14.23 28.23 -1.66
19.41 38.51 -0.75
3.05 6.01 -1.81
3.57 7.03 -1.82
4.08 8.03 -1.75
5.06 9.95 -1.77
6.64 13.07 -1.8
8.95 17.61 -1.73
14.31 28.16 -1.66
19.09 37.55 -0.74
3.08 6 -1.81
3.6 7.01 -1.82
18.83 36.69 2.16
4.11 8.01 -1.75
4.98 9.7 -1.73
6.71 13.07 -1.8
9.02 17.56 -1.73
14.4 28.06 -1.65
19.78 38.54 -0.76
3.1 5.98 -1.81
19.18 37.06 0.73
3.63 7.01 -1.82
4.14 8 -1.75
28.31 54.7 5.39
5.07 9.8 -1.75
6.75 13.05 -1.8
9.05 17.5 -1.72
