# .PCD v0.7 - Point Cloud Data file format
VERSION 0.7
FIELDS x y z
SIZE 4 4 4
TYPE F F F
COUNT 1 1 1
WIDTH 2953
HEIGHT 1
VIEWPOINT 0 0 0 1 0 0 0
POINTS 2953
DATA ascii
0.95 37.4 -0.65
0.47 18.69 5.01
0.19 6.72 -1.8
0.9 31.32 0.55
0.23 7.89 -1.82
0.9 31.21 1.64
0.28 9.69 -1.88
0.9 31.24 2.73
0.34 11.85 -1.88
0.9 31.33 3.85
0.44 15.28 -1.88
0.9 31.27 4.95
0.46 16.08 -1.41
0.3 10.31 2
0.69 24.08 -1.26
0.24 8.33 1.92
0.9 31.34 -0.55
0.9 31.29 8.39
0.22 6.71 -1.8
1.01 31.32 0.55
0.25 7.88 -1.82
1 31.17 1.63
0.31 9.68 -1.88
1.01 31.21 2.73
0.38 11.86 -1.88
1.09 33.79 4.15
0.49 15.26 -1.87
1.01 31.24 4.95
0.52 16.05 -1.4
1.01 31.24 6.07
0.78 24.09 -1.26
0.27 8.33 1.93
0.52 16.23 4.35
0.24 6.74 -1.81
0.28 7.86 -1.82
1.11 31.15 1.63
0.35 9.66 -1.88
1.12 31.18 2.73
0.42 11.86 -1.88
1.21 33.77 4.15
0.55 15.27 -1.88
1.12 31.21 4.95
0.58 16.09 -1.41
0.41 11.43 2.22
0.86 24.02 -1.26
0.59 16.41 3.79
1.35 37.63 -0.66
0.35 9.87 2.65
0.26 6.69 -1.79
1.45 36.91 0.64
0.31 7.87 -1.82
1.22 31.14 1.63
0.38 9.63 -1.87
1.22 31.14 2.73
0.46 11.86 -1.88
1.32 33.74 4.15
0.6 15.26 -1.87
1.22 31.18 4.94
0.63 16.08 -1.41
0.42 10.61 2.06
0.94 23.99 -1.26
1.22 31.23 7.21
1.45 36.94 -0.65
0.38 9.66 2.59
0.29 6.71 -1.8
1.58 36.87 0.64
0.34 7.86 -1.82
1.33 31.11 1.63
0.41 9.61 -1.87
1.33 31.12 2.73
0.51 11.84 -1.88
1.44 33.72 4.14
0.65 15.25 -1.87
1.33 31.17 4.94
0.69 16.09 -1.41
0.84 19.57 3.81
1.03 23.99 -1.26
0.36 8.34 1.93
1.58 36.89 -0.64
0.41 9.68 2.6
0.31 6.7 -1.8
1.7 36.85 0.64
0.36 7.82 -1.81
1.44 31.09 1.63
0.44 9.61 -1.87
1.44 31.11 2.72
0.55 11.84 -1.88
1.56 33.69 4.14
0.7 15.22 -1.87
1.44 31.14 4.94
0.74 16.11 -1.41
0.91 19.64 3.82
1.11 23.97 -1.26
0.38 8.25 1.91
1.7 36.86 -0.64
0.45 9.67 2.59
0.33 6.69 -1.8
1.84 37.04 0.65
0.39 7.82 -1.81
1.55 31.05 1.63
0.48 9.58 -1.86
1.55 31.08 2.72
0.59 11.84 -1.88
1.68 33.67 4.14
0.76 15.2 -1.87
1.55 31.11 4.93
0.8 16.11 -1.41
0.82 16.55 3.22
1.19 23.99 -1.26
1.55 31.14 7.2
0.72 14.5 3.89
0.36 6.68 -1.79
1.67 31.48 0.55
0.42 7.83 -1.81
1.65 31.03 1.63
0.51 9.56 -1.86
1.65 31.06 2.72
0.63 11.84 -1.88
1.79 33.64 4.14
0.81 15.19 -1.87
1.65 31.08 4.93
0.85 16.07 -1.41
0.57 10.74 2.09
1.27 23.95 -1.26
1.66 31.11 7.19
1.67 31.48 -0.55
0.52 9.79 2.63
0.38 6.69 -1.79
1.79 31.44 0.55
0.44 7.83 -1.81
1.76 30.99 1.63
0.54 9.56 -1.86
1.76 31.03 2.72
0.67 11.83 -1.88
1.91 33.61 4.13
0.86 15.17 -1.87
1.76 31.06 4.93
0.91 16.01 -1.4
1.76 31.07 6.05
1.36 23.96 -1.26
0.51 8.9 2.06
1.78 31.4 -0.55
0.55 9.7 2.6
0.4 6.65 -1.79
1.89 31.38 0.55
0.47 7.81 -1.81
1.86 30.97 1.63
0.57 9.51 -1.85
1.87 31 2.72
0.71 11.82 -1.88
1.14 18.99 2.34
0.91 15.17 -1.87
1.87 31.03 4.92
0.96 16.02 -1.4
1.44 23.94 -1.26
0.53 8.87 2.05
1.89 31.38 -0.55
0.96 15.98 4.29
0.42 6.68 -1.79
2 31.37 0.55
0.5 7.82 -1.81
1.97 30.94 1.63
0.61 9.51 -1.85
1.97 30.98 2.72
0.75 11.82 -1.88
1.21 18.99 2.34
0.96 15.16 -1.86
1.97 31 4.92
1.02 16.02 -1.4
0.56 8.83 1.72
1.52 23.88 -1.25
0.75 11.85 2.74
2 31.37 -0.55
0.61 9.65 2.59
0.45 6.66 -1.79
2.08 31.07 0.54
0.52 7.83 -1.81
2.07 30.9 1.62
0.64 9.5 -1.85
2.07 30.95 2.71
0.79 11.82 -1.88
2.08 30.96 3.81
1.01 15.14 -1.86
1.26 18.84 2.99
1.08 16.06 -1.41
0.6 8.94 1.74
1.6 23.88 -1.25
0.79 11.85 2.74
2.09 31.22 -0.55
2.08 31.03 8.33
0.47 6.65 -1.79
2.18 30.89 0.54
0.55 7.82 -1.81
2.18 30.89 1.62
0.67 9.54 -1.86
2.18 30.92 2.71
0.83 11.82 -1.88
2.18 30.93 3.81
1.07 15.13 -1.86
1.3 18.44 2.93
1.13 16.03 -1.41
0.64 9.12 1.78
1.68 23.89 -1.26
0.71 10.12 2.34
2.18 30.87 -0.54
0.68 9.67 2.6
0.49 6.63 -1.78
2.28 30.86 0.54
0.58 7.82 -1.81
2.28 30.87 1.62
0.7 9.52 -1.86
2.28 30.88 2.71
0.87 11.81 -1.88
2.28 30.9 3.8
1.12 15.13 -1.86
2.28 30.91 4.91
1.18 16 -1.4
0.68 9.27 1.81
1.77 23.89 -1.26
0.75 10.18 2.36
2.28 30.85 -0.54
0.72 9.74 2.62
0.51 6.64 -1.78
2.39 30.82 0.54
0.6 7.79 -1.81
2.39 30.85 1.62
0.74 9.52 -1.86
2.39 30.86 2.71
0.91 11.79 -1.87
2.39 30.86 3.8
1.17 15.11 -1.86
2.39 30.89 4.91
1.24 16.02 -1.41
0.71 9.12 1.78
0.66 8.46 1.96
2.39 30.83 -0.54
0.75 9.73 2.61
0.54 6.62 -1.78
2.49 30.8 0.54
0.63 7.78 -1.8
2.49 30.82 1.62
0.77 9.53 -1.86
2.5 30.84 2.71
0.95 11.79 -1.87
2.5 30.85 3.8
1.22 15.11 -1.86
1.5 18.59 2.95
1.3 16.02 -1.41
0.71 8.73 1.7
1.94 23.95 -1.26
0.69 8.58 1.99
2.49 30.81 -0.54
1.24 15.38 4.13
0.56 6.65 -1.79
2.61 30.86 0.54
0.66 7.78 -1.8
2.6 30.79 1.62
0.81 9.54 -1.86
2.6 30.82 2.71
1 11.78 -1.87
2.61 30.85 3.8
1.28 15.09 -1.86
2.61 30.85 4.9
1.35 16.02 -1.41
0.75 8.84 1.72
0.72 8.55 1.98
2.61 30.87 -0.54
2.61 30.87 8.3
0.58 6.65 -1.79
2.72 30.95 0.54
0.69 7.82 -1.81
2.7 30.76 1.62
0.83 9.49 -1.85
2.71 30.79 2.7
1.04 11.78 -1.87
2.71 30.84 3.8
1.33 15.08 -1.86
2.71 30.82 4.9
1.41 16.03 -1.41
0.77 8.79 1.72
0.87 9.94 2.3
2.74 31.16 -0.55
2.71 30.85 8.3
0.6 6.63 -1.78
2.84 31.15 0.55
0.71 7.83 -1.82
2.8 30.75 1.62
0.86 9.49 -1.85
2.81 30.76 2.7
1.07 11.76 -1.87
2.81 30.81 3.8
1.37 15.07 -1.86
1.74 19.03 3.03
1.47 16.1 -1.41
1.52 16.7 3.26
0.91 9.97 2.31
2.84 31.19 -0.55
0.96 10.58 2.85
0.63 6.64 -1.79
2.94 31.12 0.55
0.74 7.84 -1.82
2.91 30.71 1.62
0.89 9.44 -1.84
2.91 30.74 2.7
1.11 11.75 -1.87
2.91 30.79 3.8
1.43 15.07 -1.86
2.91 30.77 4.9
1.52 16.03 -1.41
1.05 11.07 2.16
2.6 27.46 -1.45
2.91 30.81 7.14
2.94 31.12 -0.55
1 10.6 2.85
0.65 6.64 -1.79
3.06 31.11 0.55
0.77 7.82 -1.81
3.01 30.69 1.62
0.93 9.47 -1.85
3.02 30.71 2.7
1.15 11.74 -1.87
3.02 30.76 3.79
1.48 15.05 -1.86
3.02 30.74 4.89
1.58 16.05 -1.41
1.01 10.33 2.02
2.69 27.42 -1.44
3.02 30.77 7.14
1.64 16.7 4.5
0.67 6.63 -1.78
3.16 31.08 0.55
0.79 7.79 -1.81
3.12 30.66 1.61
0.97 9.5 -1.86
3.12 30.7 2.7
1.19 11.74 -1.87
3.12 30.73 3.79
1.53 15.04 -1.86
1.93 19.01 3.03
1.64 16.16 -1.42
1.04 10.21 2
2.77 27.23 -1.43
3.12 30.73 7.13
0.93 9.16 2.47
0.7 6.6 -1.78
3.27 31.06 0.55
0.82 7.78 -1.81
3.22 30.63 1.61
1 9.47 -1.85
3.23 30.67 2.7
1.24 11.74 -1.87
3.23 30.71 3.79
1.58 15.03 -1.86
3.23 30.68 4.89
1.7 16.13 -1.42
1.08 10.25 2
2.86 27.19 -1.43
3.24 30.73 7.13
2.87 27.3 -0.48
3.24 30.73 8.28
0.72 6.63 -1.79
3.37 31.04 0.54
0.85 7.81 -1.81
3.33 30.61 1.61
1.04 9.52 -1.86
3.33 30.63 2.7
1.28 11.73 -1.87
3.34 30.69 3.79
1.63 15.03 -1.86
3.33 30.66 4.89
1.75 16.11 -1.42
2.96 27.2 -1.43
1.3 11.93 2.77
2.97 27.33 -0.48
3.34 30.7 8.27
0.74 6.61 -1.78
3.48 30.99 0.54
0.87 7.77 -1.8
3.43 30.59 1.61
1.06 9.49 -1.86
3.43 30.6 2.69
1.11 9.91 -1.58
3.44 30.67 3.79
1.68 15 -1.85
3.44 30.63 4.88
1.82 16.2 -1.43
1.17 10.43 2.04
3.05 27.21 -1.43
1.39 12.38 2.88
3.06 27.27 -0.48
1.03 9.15 2.47
0.76 6.61 -1.78
3.58 30.95 0.54
0.9 7.76 -1.8
3.53 30.56 1.61
1.09 9.47 -1.85
3.54 30.58 2.69
3.54 30.63 3.79
1.73 15 -1.85
3.54 30.62 4.88
1.86 16.11 -1.42
1.3 11.21 2.19
2.82 24.39 -1.29
1.11 9.57 2.22
3.15 27.27 -0.48
1.06 9.17 2.47
0.79 6.62 -1.79
3.69 30.94 0.54
0.93 7.78 -1.81
3.64 30.53 1.61
1.13 9.46 -1.85
3.64 30.56 2.69
1.39 11.68 -1.86
3.65 30.61 3.78
1.79 14.98 -1.85
3.65 30.6 4.88
1.94 16.24 -1.43
2.9 24.31 -1.28
3.65 30.61 7.12
3.25 27.22 -0.48
3.65 30.62 8.26
0.81 6.62 -1.79
3.77 30.73 0.54
0.95 7.77 -1.81
3.74 30.51 1.61
1.16 9.42 -1.85
3.75 30.53 2.69
1.43 11.69 -1.87
3.75 30.57 3.78
1.84 14.98 -1.85
3.75 30.57 4.88
1.99 16.2 -1.43
1.37 11.17 2.19
2.98 24.29 -1.28
3.75 30.6 7.12
3.51 28.59 -0.5
3.76 30.6 8.26
0.83 6.6 -1.78
3.87 30.6 0.54
0.98 7.77 -1.81
3.85 30.49 1.61
1.19 9.39 -1.84
3.85 30.51 2.69
1.48 11.68 -1.87
3.86 30.52 3.78
1.25 9.88 -1.22
2.43 19.24 3.07
2.04 16.13 -1.42
1.41 11.16 2.19
3.07 24.28 -1.28
3.86 30.57 7.11
3.44 27.22 -0.48
3.86 30.57 8.26
0.86 6.61 -1.78
4 30.83 0.54
1 7.72 -1.8
3.95 30.47 1.61
1.22 9.41 -1.84
3.96 30.48 2.69
1.51 11.66 -1.86
3.96 30.49 3.77
1.28 9.87 -1.22
3.96 30.52 4.87
2.09 16.1 -1.42
1.43 11 2.16
3.15 24.25 -1.28
1.44 11.12 2.59
3.53 27.18 -0.48
3.96 30.54 8.25
0.88 6.61 -1.79
4.11 30.83 0.54
1.02 7.69 -1.79
4.06 30.45 1.61
1.25 9.39 -1.84
4.06 30.46 2.69
1.55 11.67 -1.86
4.06 30.45 3.77
1.32 9.88 -1.22
1.38 10.38 1.66
2.15 16.13 -1.42
1.48 11.07 2.17
3.23 24.21 -1.28
1.59 11.95 2.78
4.07 30.52 8.25
0.9 6.61 -1.79
4.21 30.8 0.54
1.05 7.7 -1.79
4.16 30.41 1.61
1.28 9.36 -1.84
4.16 30.45 2.69
1.36 9.94 -1.59
4.16 30.43 3.77
1.35 9.87 -1.22
1.42 10.36 1.66
2.2 16.12 -1.42
4.17 30.47 5.98
3.31 24.2 -1.28
2.2 16.11 3.75
4.17 30.5 8.25
0.93 6.62 -1.79
4.32 30.79 0.54
1.08 7.7 -1.8
4.26 30.38 1.61
1.31 9.35 -1.84
4.27 30.41 2.69
1.39 9.93 -1.59
4.27 30.42 3.77
1.38 9.85 -1.22
1.45 10.33 1.65
2.27 16.15 -1.43
1.55 11.03 2.17
3.39 24.17 -1.28
2.26 16.08 3.75
4.28 30.47 8.25
0.96 6.64 -1.8
4.42 30.76 0.54
1.11 7.69 -1.79
4.37 30.36 1.61
1.34 9.34 -1.83
4.37 30.38 2.69
1.43 9.95 -1.59
4.37 30.39 3.77
4.37 30.4 4.86
2.32 16.12 -1.42
1.33 9.26 1.82
3.48 24.17 -1.28
1.36 9.46 2.21
4.38 30.44 8.24
0.98 6.65 -1.8
4.53 30.74 0.54
1.13 7.67 -1.79
4.47 30.34 1.61
1.37 9.31 -1.83
4.47 30.36 2.68
1.71 11.63 -1.86
4.47 30.37 3.77
1.46 9.89 -1.23
4.48 30.39 4.87
2.37 16.11 -1.42
1.6 10.88 2.14
3.56 24.15 -1.28
1.39 9.42 2.2
1.32 8.96 2.43
1.01 6.67 -1.81
4.63 30.71 0.54
1.16 7.67 -1.79
4.57 30.31 1.61
1.4 9.27 -1.82
4.57 30.34 2.68
1.5 9.93 -1.59
4.58 30.34 3.77
1.49 9.89 -1.23
4.58 30.36 4.86
2.43 16.1 -1.42
1.49 9.87 1.94
3.64 24.13 -1.28
1.42 9.4 2.19
1.37 9.09 2.46
1.03 6.7 -1.82
4.74 30.68 0.54
1.18 7.67 -1.79
4.68 30.27 1.61
1.42 9.22 -1.81
4.68 30.31 2.68
1.53 9.92 -1.59
4.68 30.31 3.77
1.52 9.87 -1.23
4.69 30.35 4.86
2.49 16.14 -1.43
1.52 9.87 1.94
3.73 24.13 -1.28
1.46 9.43 2.2
1.39 8.99 2.44
1.06 6.71 -1.82
4.84 30.67 0.54
1.21 7.65 -1.79
4.78 30.25 1.6
1.46 9.21 -1.81
4.78 30.28 2.68
1.57 9.92 -1.59
4.78 30.29 3.77
1.56 9.88 -1.23
1.5 9.51 1.53
1.55 9.84 -0.87
1.56 9.85 1.94
3.81 24.13 -1.28
2.49 15.8 3.69
4.79 30.36 8.24
1.08 6.71 -1.82
4.95 30.63 0.54
1.23 7.64 -1.79
4.88 30.22 1.6
1.49 9.2 -1.81
4.89 30.25 2.68
1.6 9.93 -1.59
4.89 30.27 3.76
1.59 9.87 -1.23
1.54 9.56 1.53
1.58 9.78 -0.87
1.56 9.64 1.9
3.9 24.11 -1.28
1.78 10.98 2.57
1.44 8.92 2.42
1.11 6.73 -1.83
5.01 30.32 0.54
1.26 7.63 -1.79
4.99 30.2 1.6
1.53 9.26 -1.82
4.99 30.22 2.68
1.65 9.97 -1.6
4.99 30.25 3.76
1.65 10.02 -1.25
1.58 9.56 1.53
1.61 9.78 -0.87
1.62 9.82 1.94
3.98 24.14 -1.28
1.57 9.54 2.23
1.14 6.75 -1.83
5.08 30.16 0.53
1.29 7.63 -1.79
5.09 30.18 1.6
1.56 9.25 -1.82
5.09 30.2 2.68
1.67 9.93 -1.6
5.09 30.21 3.76
1.66 9.87 -1.23
1.61 9.58 1.54
1.66 9.82 -0.87
4.07 24.12 -1.28
1.86 11.06 2.59
5.09 30.2 -0.53
1.51 8.96 2.43
1.16 6.76 -1.84
5.19 30.13 0.53
1.3 7.56 -1.77
5.19 30.14 1.6
1.59 9.22 -1.82
5.19 30.18 2.68
5.2 30.19 3.76
1.69 9.84 -1.23
1.65 9.6 1.54
1.69 9.85 -0.87
5.2 30.21 5.96
4.14 24.06 -1.28
5.2 30.24 7.08
5.19 30.14 -0.53
1.54 8.94 2.43
1.19 6.78 -1.84
5.29 30.12 0.53
1.33 7.54 -1.77
5.29 30.11 1.6
1.61 9.16 -1.81
5.3 30.15 2.68
5.3 30.17 3.76
1.69 9.61 1.54
1.73 9.86 -0.88
5.31 30.19 5.96
4.23 24.05 -1.28
1.66 9.44 2.21
5.29 30.1 -0.53
1.57 8.92 2.43
1.22 6.78 -1.84
5.4 30.09 0.53
1.35 7.52 -1.76
5.4 30.09 1.6
1.64 9.15 -1.81
5.4 30.13 2.68
1.77 9.89 -1.59
5.41 30.18 3.77
2.65 14.78 -1.84
1.72 9.62 1.55
2.89 16.15 -1.44
5.58 31.14 6.15
4.32 24.08 -1.28
5.39 30.08 -0.53
1.24 6.79 -1.85
5.51 30.16 0.54
1.37 7.51 -1.76
1.67 9.14 -1.81
2.1 11.52 -1.85
5.89 32.24 4.02
2.69 14.75 -1.84
1.76 9.65 1.55
2.96 16.21 -1.44
6.02 32.94 6.51
5.5 30.09 -1.6
1.72 9.42 2.21
5.52 30.21 -0.54
5.97 32.69 8.9
1.27 6.8 -1.85
6.09 32.71 0.58
1.4 7.53 -1.77
6.13 32.93 1.76
1.7 9.13 -1.8
6.24 33.51 2.98
1.84 9.9 -1.59
6.41 34.46 4.3
2.74 14.72 -1.84
1.8 9.67 1.56
3.01 16.15 -1.44
6.43 34.54 6.83
6.06 32.56 -1.74
6.44 34.59 8.12
6.07 32.63 -0.58
6.08 32.65 8.9
1.29 6.79 -1.85
6.29 33.11 0.59
1.43 7.53 -1.77
6.25 32.94 1.76
1.73 9.1 -1.8
6.54 34.47 3.07
1.87 9.86 -1.59
6.54 34.46 4.31
2.79 14.7 -1.84
1.89 9.98 1.61
3.08 16.22 -1.44
6.55 34.5 6.83
6.25 32.94 -1.76
1.82 9.57 2.25
6.29 33.13 -0.59
6.18 32.57 8.88
1.31 6.79 -1.85
7.06 36.48 0.65
1.45 7.51 -1.77
6.37 32.92 1.76
1.76 9.09 -1.8
6.66 34.44 3.07
1.91 9.9 -1.6
6.66 34.44 4.31
2.84 14.7 -1.84
1.94 10.06 1.62
3.14 16.23 -1.45
1.88 9.72 1.92
6.38 32.97 -1.76
6.41 33.13 -0.59
1.34 6.77 -1.85
7.19 36.46 0.65
1.48 7.52 -1.77
6.49 32.89 1.76
1.79 9.07 -1.8
6.79 34.4 3.07
2.26 11.48 -1.85
6.79 34.41 4.31
2.9 14.69 -1.84
1.98 10.03 1.62
3.2 16.24 -1.45
1.92 9.72 1.93
6.5 32.94 -1.76
1.91 9.66 2.27
6.54 33.13 -0.59
1.88 9.52 2.6
1.36 6.76 -1.85
7.31 36.42 0.65
1.51 7.52 -1.77
6.6 32.87 1.76
1.81 9.01 -1.79
6.9 34.37 3.07
2.3 11.46 -1.85
6.9 34.38 4.31
2.95 14.68 -1.84
1.77 8.82 1.42
3.26 16.25 -1.45
1.95 9.7 1.92
6.61 32.92 -1.76
1.94 9.68 2.28
6.64 33.07 -0.59
1.92 9.57 2.62
1.39 6.77 -1.85
2.01 9.84 0.18
1.54 7.52 -1.77
2.01 9.85 0.53
1.84 8.99 -1.78
1.99 9.74 0.87
2 9.76 -1.58
1.99 9.75 1.22
2.01 9.84 -1.23
1.84 8.99 1.45
2 9.77 -0.87
2.01 9.82 1.95
2 9.78 -0.52
2.01 9.84 2.32
2 9.8 -0.17
2.01 9.83 2.69
1.41 6.79 -1.86
2.04 9.78 0.17
1.56 7.52 -1.77
2.04 9.79 0.52
1.88 9.02 -1.79
2.02 9.72 0.87
2.02 9.72 -1.57
2.03 9.75 1.22
2.03 9.74 -1.22
1.86 8.95 1.45
2.03 9.74 -0.87
2.03 9.75 -0.52
2.04 9.79 2.31
2.03 9.76 -0.17
2.05 9.84 2.69
1.44 6.78 -1.86
2.07 9.78 0.17
1.59 7.52 -1.77
2.07 9.77 0.52
1.91 9 -1.79
2.06 9.73 0.87
2.06 9.73 -1.58
2.06 9.73 1.22
2.05 9.7 -1.22
1.89 8.91 1.44
2.06 9.73 -0.87
2.07 9.79 1.95
2.06 9.76 -0.52
2.08 9.81 2.31
2.06 9.74 -0.17
1.45 6.76 -1.85
2.11 9.81 0.18
1.62 7.51 -1.77
2.11 9.82 0.53
1.93 8.99 -1.79
2.1 9.75 0.87
2.09 9.72 -1.57
2.1 9.78 1.23
2.09 9.73 -1.22
1.9 8.81 1.43
2.09 9.71 -0.87
2.11 9.78 1.95
2.1 9.75 -0.52
2.1 9.74 -0.17
8.11 37.69 10.33
1.48 6.76 -1.85
2.15 9.83 0.18
1.64 7.52 -1.78
2.15 9.84 0.53
1.96 8.97 -1.78
7.49 34.24 3.07
2.13 9.73 -1.58
2.56 11.69 1.47
2.13 9.73 -1.22
7.52 34.39 6.84
2.13 9.74 -0.52
7.5 34.3 8.11
2.14 9.78 -0.17
1.5 6.76 -1.85
8.06 36.24 0.65
1.68 7.54 -1.78
7.27 32.71 1.76
2 8.98 -1.79
7.61 34.21 3.07
2.16 9.72 -1.58
7.61 34.21 4.3
1.95 8.76 1.42
2.16 9.71 -0.87
7.65 34.43 6.86
7.28 32.75 -1.76
7.62 34.27 8.11
7.31 32.9 -0.59
8.04 36.18 9.93
1.53 6.75 -1.85
7.42 32.83 0.59
1.71 7.57 -1.79
7.39 32.67 1.76
2.02 8.95 -1.78
7.73 34.18 3.07
7.73 34.18 4.3
2.24 9.93 -1.25
1.99 8.81 1.43
3.67 16.24 -1.46
7.78 34.4 6.86
7.39 32.7 -1.76
7.74 34.24 8.11
7.43 32.85 -0.59
8.15 36.07 9.91
1.55 6.73 -1.85
7.54 32.83 0.59
1.74 7.6 -1.8
7.5 32.64 1.76
2.05 8.92 -1.78
7.84 34.15 3.07
7.84 34.16 4.3
7.85 34.17 5.55
3.75 16.33 -1.47
2.38 10.36 2.07
7.52 32.74 -1.76
2.24 9.75 2.31
7.56 32.91 -0.59
8.2 35.71 9.82
1.57 6.73 -1.85
8.44 36.16 0.65
1.78 7.63 -1.81
7.61 32.62 1.76
2.08 8.9 -1.78
7.96 34.11 3.06
2.65 11.36 -1.85
7.96 34.13 4.3
2.3 9.87 -1.24
7.96 34.14 5.55
3.82 16.36 -1.47
2.17 9.31 1.86
7.62 32.67 -1.76
2.27 9.72 2.3
7.67 32.88 -0.59
8.34 35.74 9.83
1.6 6.74 -1.86
8.55 36.12 0.65
1.81 7.65 -1.82
7.72 32.6 1.76
2.1 8.89 -1.77
8.07 34.08 3.06
8.08 34.11 4.3
2.34 9.86 -1.24
2.27 9.6 1.56
3.87 16.36 -1.47
2.19 9.26 1.85
7.73 32.63 -1.76
2.32 9.78 2.32
7.77 32.81 -0.59
8.49 35.83 9.87
1.62 6.71 -1.85
8.68 36.09 0.65
1.84 7.66 -1.82
7.84 32.57 1.76
2.13 8.87 -1.77
8.2 34.06 3.07
2.41 10.01 -1.63
8.2 34.06 4.3
2.36 9.81 -1.24
2.3 9.56 1.56
3.92 16.29 -1.47
2.37 9.85 1.97
7.83 32.52 -1.75
3.01 12.5 2.97
8.97 37.3 10.28
1.64 6.71 -1.85
8.81 36.06 0.65
1.88 7.68 -1.83
7.95 32.53 1.76
2.16 8.86 -1.77
8.31 34.03 3.07
2.45 10.02 -1.63
8.31 34.04 4.3
2.39 9.8 -1.24
2.34 9.59 1.56
3.97 16.26 -1.46
2.41 9.85 1.97
7.95 32.56 -1.76
8.33 34.09 8.1
8.01 32.79 -0.59
9.09 37.24 10.27
1.66 6.71 -1.85
8.93 36.03 0.65
1.91 7.69 -1.83
8.06 32.5 1.76
2.19 8.84 -1.77
8.43 34.01 3.07
2.47 9.96 -1.63
8.43 34.02 4.3
2.43 9.82 -1.24
8.43 34.03 5.55
4.04 16.3 -1.47
8.05 32.5 -1.75
8.44 34.05 8.1
8.12 32.78 -0.59
8.92 35.98 9.93
1.68 6.69 -1.85
9.05 36 0.65
1.94 7.72 -1.84
8.17 32.48 1.76
2.2 8.76 -1.76
8.54 33.96 3.06
2.5 9.92 -1.62
8.55 33.99 4.3
3.63 14.42 -1.83
8.55 34.01 5.55
4.09 16.25 -1.47
2.62 10.41 2.09
2.26 8.97 2.14
8.23 32.74 -0.59
8.99 35.76 9.88
1.71 6.68 -1.85
9.18 35.97 0.65
1.97 7.74 -1.84
8.29 32.46 1.76
2.23 8.72 -1.75
8.66 33.94 3.06
2.55 9.98 -1.63
8.67 33.96 4.3
8.67 33.98 5.55
4.14 16.24 -1.47
8.67 33.96 6.81
2.28 8.94 2.13
8.35 32.72 -0.59
2.22 8.71 2.41
1.73 6.7 -1.85
9.31 35.94 0.65
2 7.72 -1.84
8.4 32.43 1.76
2.27 8.75 -1.76
8.78 33.92 3.07
2.56 9.89 -1.62
8.78 33.92 4.3
8.79 33.95 5.55
4.2 16.24 -1.47
8.79 33.94 6.81
6.06 23.39 -1.27
2.64 10.21 2.43
8.47 32.72 -0.59
8.43 32.55 9.01
1.76 6.7 -1.86
9.43 35.91 0.65
2.02 7.71 -1.84
8.51 32.4 1.76
2.3 8.74 -1.76
8.9 33.89 3.07
2.59 9.87 -1.62
8.53 32.45 4.12
2.56 9.73 -1.24
3.03 11.54 1.89
4.26 16.22 -1.47
6.15 23.41 -1.27
8.54 32.51 7.76
8.6 32.74 -0.59
8.54 32.51 9.01
1.78 6.68 -1.85
8.64 32.43 0.59
2.05 7.71 -1.84
8.62 32.38 1.76
2.32 8.72 -1.75
8.63 32.4 2.93
2.62 9.84 -1.61
8.63 32.41 4.12
3.83 14.38 -1.83
8.64 32.42 5.31
4.33 16.25 -1.47
3 11.26 2.26
2.59 9.73 2.33
8.65 32.49 9.01
1.8 6.66 -1.85
8.74 32.35 0.58
2.08 7.71 -1.84
8.74 32.35 1.76
2.35 8.71 -1.75
8.75 32.37 2.93
3.01 11.16 -1.83
8.75 32.39 4.12
3.87 14.32 -1.82
8.75 32.39 5.31
4.39 16.23 -1.47
3.03 11.21 2.26
8.77 32.44 7.76
2.34 8.66 2.4
1.82 6.65 -1.85
8.85 32.32 0.58
2.11 7.71 -1.85
8.86 32.34 1.76
2.38 8.69 -1.75
8.86 32.34 2.93
8.86 32.36 4.12
3.92 14.31 -1.82
8.87 32.37 5.32
4.45 16.23 -1.47
8.87 32.39 6.53
8.88 32.44 7.76
2.38 8.7 2.42
1.85 6.65 -1.85
8.97 32.29 0.59
2.14 7.7 -1.85
8.97 32.3 1.76
2.41 8.69 -1.75
8.98 32.32 2.93
2.71 9.77 -1.61
8.98 32.32 4.12
3.97 14.28 -1.82
8.99 32.36 5.32
4.52 16.27 -1.48
8.99 32.36 6.53
6.38 22.99 -1.25
9 32.4 7.76
2.42 8.7 2.42
1.87 6.65 -1.85
9.08 32.27 0.59
2.17 7.7 -1.85
9.08 32.28 1.76
2.44 8.68 -1.75
9.09 32.29 2.93
3.17 11.26 -1.85
9.09 32.3 4.12
4.01 14.25 -1.82
3.07 10.91 1.79
4.58 16.26 -1.48
9.1 32.33 6.53
9.11 32.37 7.76
9.11 32.38 9.01
1.89 6.65 -1.85
9.19 32.24 0.59
2.19 7.69 -1.85
9.18 32.22 1.76
2.47 8.68 -1.75
9.2 32.26 2.94
3.21 11.24 -1.85
9.2 32.28 4.12
4.06 14.24 -1.82
9.2 32.29 5.32
4.63 16.23 -1.48
6.6 23.14 -1.26
2.51 8.8 2.11
9.22 32.36 9.02
1.92 6.64 -1.85
9.3 32.22 0.59
2.21 7.67 -1.84
9.25 32.04 1.75
2.5 8.67 -1.75
9.31 32.23 2.93
3.24 11.24 -1.85
9.32 32.27 4.12
4.11 14.23 -1.82
5.41 18.73 3.09
4.68 16.21 -1.48
2.68 9.27 1.88
6.67 23.11 -1.26
9.33 32.32 7.77
9.33 32.31 9.01
1.94 6.65 -1.86
9.41 32.19 0.59
2.24 7.65 -1.84
9.36 32.02 1.75
2.53 8.65 -1.75
9.41 32.21 2.94
3.26 11.16 -1.84
9.42 32.24 4.12
4.15 14.2 -1.82
5.53 18.94 3.12
4.74 16.22 -1.48
9.42 32.24 6.53
6.75 23.09 -1.26
2.64 9.02 2.17
9.44 32.29 9.01
1.96 6.63 -1.85
9.52 32.16 0.59
2.26 7.64 -1.84
9.47 32 1.75
2.55 8.61 -1.74
9.52 32.19 2.94
3.3 11.17 -1.84
9.53 32.21 4.12
4.2 14.19 -1.82
5.6 18.91 3.12
4.81 16.24 -1.48
3.18 10.74 2.18
6.82 23.06 -1.26
3.26 11 2.65
9.55 32.27 9.02
1.98 6.61 -1.85
9.64 32.13 0.59
2.29 7.62 -1.84
9.59 31.96 1.75
2.58 8.61 -1.75
9.65 32.17 2.94
3.33 11.11 -1.84
9.65 32.17 4.12
4.25 14.15 -1.81
2.99 9.97 1.65
4.87 16.24 -1.48
3.23 10.77 2.19
6.91 23.04 -1.26
9.67 32.24 9.02
2.01 6.61 -1.85
9.75 32.11 0.59
2.32 7.63 -1.84
9.7 31.94 1.75
2.61 8.59 -1.75
9.76 32.14 2.94
3.39 11.15 -1.84
9.77 32.15 4.13
4.29 14.13 -1.81
3.03 9.96 1.65
4.94 16.25 -1.49
3.29 10.82 2.2
6.99 23.01 -1.26
2.77 9.11 2.2
9.78 32.21 9.02
2.03 6.59 -1.85
9.86 32.08 0.59
2.34 7.62 -1.84
9.82 31.93 1.75
2.64 8.6 -1.75
9.87 32.11 2.94
3.42 11.13 -1.84
9.88 32.13 4.13
4.34 14.12 -1.81
3.07 9.97 1.65
5.01 16.3 -1.49
3.32 10.81 2.2
7.07 23 -1.26
9.89 32.17 7.77
9.89 32.18 9.02
2.05 6.58 -1.85
9.97 32.04 0.59
2.38 7.63 -1.85
9.93 31.91 1.75
2.68 8.61 -1.75
9.98 32.08 2.94
3.46 11.11 -1.84
9.99 32.1 4.13
4.39 14.09 -1.81
3.11 9.98 1.66
5.05 16.23 -1.49
9.99 32.1 6.53
7.15 22.99 -1.26
2.81 9.05 2.19
10 32.15 9.02
2.08 6.59 -1.85
10.09 32.02 0.59
2.39 7.6 -1.84
10.05 31.9 1.75
2.71 8.6 -1.75
10.1 32.06 2.94
3.49 11.07 -1.84
10.1 32.06 4.13
4.43 14.07 -1.81
3.15 10 1.66
5.11 16.22 -1.49
10.11 32.07 6.54
5.51 17.48 -0.96
10.12 32.12 7.78
10.12 32.12 9.02
2.1 6.58 -1.85
10.2 32 0.59
2.42 7.58 -1.84
10.16 31.86 1.75
2.74 8.59 -1.75
10.21 32.03 2.94
3.54 11.11 -1.85
10.21 32.03 4.13
4.48 14.04 -1.81
3.19 10.01 1.66
5.17 16.22 -1.49
5.77 18.08 3.69
3.28 10.28 2.49
5.8 18.19 5.12
2.13 6.59 -1.86
10.31 31.97 0.59
2.45 7.58 -1.84
10.27 31.83 1.75
2.76 8.57 -1.75
10.33 32.01 2.94
3.57 11.07 -1.84
10.33 32.01 4.13
4.52 14.02 -1.81
10.33 32.02 5.33
5.23 16.22 -1.49
10.34 32.04 6.54
2.89 8.97 2.18
10.32 31.98 -0.59
10.35 32.08 9.03
2.15 6.57 -1.85
10.42 31.94 0.59
2.48 7.59 -1.84
10.38 31.81 1.75
2.79 8.55 -1.75
10.44 31.98 2.94
3.61 11.07 -1.84
10.44 31.99 4.13
4.57 14 -1.81
3.73 11.42 1.9
5.3 16.24 -1.49
5.87 17.98 3.68
5.76 17.65 -0.97
2.92 8.94 2.17
10.43 31.94 -0.59
10.46 32.04 9.03
2.16 6.55 -1.85
10.53 31.91 0.59
2.5 7.59 -1.85
10.49 31.78 1.75
2.82 8.55 -1.75
10.54 31.95 2.94
3.61 10.95 -1.83
10.55 31.96 4.13
4.61 13.98 -1.81
5.93 17.97 3
5.36 16.24 -1.5
6.09 18.44 3.78
7.6 23.03 -1.27
2.98 9.02 2.19
10.53 31.92 -0.59
2.87 8.71 2.46
2.19 6.56 -1.85
10.64 31.88 0.59
2.52 7.56 -1.84
10.6 31.75 1.75
2.85 8.53 -1.75
10.66 31.93 2.95
3.66 10.97 -1.83
10.66 31.93 4.13
4.66 13.96 -1.81
3.57 10.69 1.79
5.42 16.25 -1.5
5.68 17.03 3.49
7.66 22.96 -1.27
3 9 2.19
10.65 31.91 -0.59
10.68 31.99 9.04
2.21 6.54 -1.85
10.76 31.86 0.59
2.55 7.55 -1.84
10.71 31.71 1.75
2.88 8.52 -1.75
10.78 31.9 2.95
3.7 10.95 -1.83
10.78 31.9 4.13
4.71 13.93 -1.81
10.79 31.93 5.34
5.48 16.23 -1.5
6.27 18.55 3.81
10.46 30.96 -1.71
3.05 9.04 2.2
10.77 31.88 -0.59
2.95 8.72 2.47
2.23 6.54 -1.85
10.88 31.83 0.59
2.58 7.56 -1.84
10.83 31.69 1.75
2.9 8.5 -1.75
10.89 31.88 2.95
3.73 10.92 -1.83
10.89 31.87 4.14
4.76 13.93 -1.81
3.59 10.51 1.76
5.57 16.29 -1.51
6.57 19.24 3.95
10.54 30.84 -1.71
3.07 8.99 2.19
10.88 31.84 -0.59
2.96 8.66 2.45
2.25 6.52 -1.85
10.98 31.8 0.59
2.61 7.55 -1.84
10.93 31.67 1.76
2.93 8.48 -1.74
10.99 31.84 2.95
3.76 10.89 -1.83
11 31.85 4.14
4.81 13.92 -1.81
3.97 11.49 1.93
5.61 16.26 -1.5
6.29 18.21 3.74
3.1 8.98 2.19
10.99 31.81 -0.59
2.97 8.61 2.44
2.27 6.51 -1.85
11.09 31.76 0.59
2.63 7.53 -1.84
11.04 31.63 1.76
2.95 8.46 -1.74
11.11 31.81 2.95
3.8 10.87 -1.82
11.11 31.82 4.14
4.85 13.88 -1.81
11.12 31.84 5.34
5.68 16.27 -1.51
6.55 18.77 3.86
3.21 9.2 2.25
11.1 31.81 -0.59
11.13 31.89 9.05
2.3 6.52 -1.85
11.21 31.75 0.59
2.65 7.51 -1.84
11.15 31.59 1.76
2.99 8.47 -1.75
11.23 31.79 2.95
3.83 10.84 -1.82
11.22 31.78 4.14
4.89 13.86 -1.8
6.44 18.24 3.06
5.74 16.26 -1.51
5.93 16.78 3.46
11.25 31.87 7.8
11.22 31.77 -0.59
4.05 11.46 3.26
2.33 6.52 -1.86
11.33 31.73 0.59
2.68 7.51 -1.84
11.26 31.55 1.76
3.02 8.46 -1.75
11.34 31.77 2.95
3.85 10.8 -1.82
11.34 31.76 4.14
4.93 13.82 -1.8
6.32 17.71 2.98
5.81 16.27 -1.51
5.96 16.71 3.45
3.91 10.96 2.69
11.36 31.84 9.06
2.35 6.51 -1.85
11.45 31.7 0.59
2.71 7.51 -1.84
11.38 31.52 1.76
3.05 8.44 -1.75
11.46 31.74 2.95
3.9 10.79 -1.82
11.47 31.74 4.14
4.98 13.79 -1.8
11.47 31.76 5.35
5.87 16.26 -1.51
6.78 18.77 3.88
3.4 9.41 2.31
11.49 31.8 9.06
2.36 6.47 -1.85
11.56 31.67 0.59
2.73 7.49 -1.84
11.5 31.5 1.76
3.08 8.44 -1.75
11.57 31.7 2.95
3.93 10.76 -1.81
6.13 16.8 2.2
5.03 13.78 -1.8
6.37 17.46 2.94
5.93 16.25 -1.51
6.79 18.59 3.85
8.94 24.49 -1.37
3.96 10.84 2.67
11.6 31.77 9.06
2.39 6.48 -1.85
11.67 31.64 0.59
2.76 7.48 -1.84
11.61 31.48 1.76
3.11 8.42 -1.75
11.68 31.67 2.95
3.96 10.72 -1.81
6.89 18.68 2.44
5.08 13.76 -1.8
6.45 17.48 2.95
6 16.26 -1.52
6.17 16.73 3.47
3.63 9.83 2.42
3.87 10.5 3
2.41 6.46 -1.85
11.79 31.62 0.59
2.78 7.47 -1.84
3.14 8.42 -1.75
11.8 31.65 2.96
3.97 10.64 -1.8
6.19 16.61 2.18
5.12 13.74 -1.8
3.83 10.28 1.74
6.07 16.27 -1.52
11.81 31.68 6.57
6.47 17.35 4.27
11.82 31.71 9.07
2.43 6.46 -1.85
11.9 31.59 0.59
2.8 7.44 -1.84
11.85 31.47 1.76
3.17 8.41 -1.75
11.92 31.63 2.96
4.01 10.66 -1.8
6.3 16.74 2.2
5.16 13.71 -1.8
7.02 18.64 3.15
6.11 16.22 -1.52
7.15 18.99 3.94
3.7 9.83 2.43
3.2 8.5 2.43
2.46 6.45 -1.85
12.01 31.57 0.59
2.83 7.43 -1.84
11.96 31.43 1.76
3.2 8.4 -1.75
6.6 17.35 1.62
4.05 10.65 -1.81
6.47 17.01 2.23
5.21 13.69 -1.8
7.19 18.89 3.2
6.18 16.25 -1.52
7.12 18.71 3.89
3.74 9.84 2.43
3.22 8.47 2.43
2.48 6.44 -1.85
12.13 31.54 0.59
2.85 7.41 -1.83
12.08 31.39 1.76
3.23 8.41 -1.75
6.67 17.33 1.62
4.09 10.62 -1.8
6.49 16.88 2.22
5.26 13.67 -1.8
7.29 18.96 3.22
6.25 16.25 -1.52
6.76 17.58 3.66
3.78 9.83 2.43
3.25 8.45 2.43
2.5 6.44 -1.85
12.24 31.5 0.59
2.89 7.43 -1.84
12.19 31.37 1.76
3.27 8.41 -1.75
12.26 31.54 2.96
4.12 10.61 -1.8
7.01 18.03 2.37
5.3 13.64 -1.8
7.23 18.62 3.16
6.32 16.26 -1.53
7.01 18.04 3.76
9.19 23.66 -1.33
3.98 10.25 2.54
3.36 8.64 2.48
2.53 6.43 -1.85
12.36 31.47 0.59
2.91 7.4 -1.84
12.31 31.35 1.76
3.3 8.41 -1.76
7.05 17.96 1.69
4.13 10.52 -1.79
6.67 17 2.24
5.35 13.62 -1.8
3.91 9.97 1.7
6.41 16.32 -1.53
7.05 17.95 3.75
9.26 23.58 -1.33
12.4 31.57 7.83
3.39 8.64 2.49
2.55 6.43 -1.85
12.47 31.45 0.59
2.93 7.39 -1.84
12.42 31.31 1.77
3.34 8.42 -1.76
12.49 31.5 2.96
4.16 10.5 -1.79
6.7 16.89 2.23
5.39 13.6 -1.8
6.82 17.19 2.93
6.46 16.28 -1.53
6.97 17.57 3.67
9.33 23.53 -1.33
4.03 10.16 2.52
4.39 11.06 3.19
2.57 6.41 -1.85
12.59 31.42 0.59
2.96 7.39 -1.84
12.53 31.27 1.77
3.37 8.41 -1.76
12.61 31.47 2.97
4.19 10.46 -1.78
12.61 31.47 4.16
5.44 13.58 -1.8
4.22 10.54 1.8
6.52 16.27 -1.53
6.69 16.7 3.5
9.43 23.52 -1.33
12.63 31.51 7.84
12.63 31.52 9.1
2.59 6.39 -1.85
12.71 31.39 0.59
2.99 7.38 -1.84
12.65 31.25 1.77
3.41 8.41 -1.76
12.72 31.43 2.97
4.23 10.44 -1.78
7.27 17.96 2.38
5.49 13.56 -1.8
7.53 18.6 3.18
6.58 16.26 -1.53
6.76 16.71 3.5
7.79 19.26 4.8
12.74 31.49 9.1
2.61 6.39 -1.85
12.82 31.36 0.59
3.01 7.37 -1.84
7.6 18.6 1.05
3.45 8.43 -1.77
12.84 31.41 2.97
4.25 10.4 -1.78
7.15 17.49 2.32
5.54 13.55 -1.8
7.01 17.16 2.94
6.64 16.25 -1.54
12.84 31.42 6.6
9.59 23.45 -1.33
7.85 19.2 4.79
3.52 8.61 2.49
2.64 6.39 -1.85
12.93 31.33 0.59
3.03 7.34 -1.83
7.63 18.5 1.05
3.48 8.44 -1.78
7.37 17.87 1.69
4.28 10.37 -1.78
7.2 17.46 2.32
5.58 13.52 -1.8
4.09 9.92 1.7
6.71 16.27 -1.54
12.95 31.4 6.6
9.67 23.43 -1.33
3.95 9.59 2.39
12.96 31.42 9.11
2.66 6.38 -1.85
13.04 31.31 0.59
3.06 7.35 -1.84
12.99 31.19 1.77
3.52 8.44 -1.78
13.06 31.37 2.97
4.32 10.37 -1.78
13.06 31.36 4.17
5.62 13.49 -1.79
4.14 9.94 1.71
6.78 16.28 -1.54
13.06 31.37 6.61
9.75 23.42 -1.33
3.99 9.59 2.4
7.56 18.15 5.27
2.69 6.4 -1.86
13.15 31.28 0.59
3.08 7.33 -1.84
13.16 31.3 1.78
3.55 8.44 -1.78
7.58 18.04 1.71
4.34 10.33 -1.77
13.17 31.33 4.17
5.66 13.47 -1.79
4.16 9.9 1.7
6.84 16.27 -1.54
7.7 18.32 3.86
9.84 23.4 -1.33
4.05 9.63 2.41
12.14 28.88 -0.55
7.43 17.67 5.14
2.7 6.36 -1.85
13.28 31.27 0.59
3.11 7.33 -1.84
13.28 31.28 1.78
3.59 8.44 -1.78
13.3 31.31 2.98
4.37 10.28 -1.77
13.29 31.29 4.17
5.72 13.46 -1.8
13.3 31.32 5.39
6.9 16.25 -1.54
7.75 18.25 3.85
9.94 23.4 -1.33
7.67 18.07 4.53
12.3 28.95 -0.55
7.55 17.77 5.17
2.72 6.35 -1.85
7.57 17.66 0.34
3.13 7.3 -1.83
7.59 17.72 1.01
3.62 8.45 -1.79
7.6 17.72 1.69
4.39 10.24 -1.77
8.01 18.68 2.5
5.76 13.44 -1.8
14.61 34.09 5.87
6.97 16.27 -1.55
7.85 18.32 3.87
7.36 17.17 4.31
7.57 17.66 -0.34
7.57 17.67 5.15
2.75 6.35 -1.85
7.63 17.63 0.34
3.15 7.28 -1.83
7.65 17.68 1.01
3.66 8.45 -1.79
7.67 17.73 1.69
4.44 10.25 -1.77
7.37 17.04 2.28
5.8 13.41 -1.79
7.79 18.01 3.11
7.04 16.28 -1.55
14.73 34.04 7.21
7.59 17.54 -1
4.28 9.88 2.49
7.63 17.63 -0.34
14.76 34.11 9.96
2.77 6.33 -1.85
13.63 31.2 0.59
3.17 7.25 -1.83
14.82 33.94 1.94
3.69 8.44 -1.79
7.79 17.83 1.7
4.46 10.22 -1.77
7.4 16.95 2.27
5.84 13.38 -1.79
4.34 9.94 1.72
7.11 16.28 -1.55
7.35 16.84 3.57
7.65 17.52 -1
7.92 18.14 4.57
7.7 17.63 -0.34
7.59 17.39 5.09
2.79 6.33 -1.85
13.74 31.15 0.59
3.19 7.24 -1.83
14.95 33.9 1.94
3.72 8.44 -1.79
14.97 33.94 3.25
4.48 10.15 -1.76
7.41 16.8 2.25
5.89 13.36 -1.79
4.38 9.93 1.72
7.18 16.29 -1.56
7.43 16.84 3.58
7.73 17.53 -1
7.66 17.37 4.38
12.46 28.26 -0.54
7.66 17.36 5.08
2.81 6.3 -1.85
13.85 31.13 0.59
3.22 7.24 -1.83
15.08 33.88 1.94
3.75 8.42 -1.79
15.09 33.9 3.25
4.52 10.15 -1.76
7.58 17.04 2.29
5.93 13.34 -1.79
7.23 16.26 2.82
7.24 16.28 -1.56
15.11 33.96 7.22
7.91 17.78 4.49
12.57 28.24 -0.54
7.47 16.8 4.93
2.83 6.3 -1.85
13.97 31.09 0.59
3.26 7.25 -1.83
15.21 33.84 1.94
3.79 8.43 -1.8
15.22 33.87 3.25
4.54 10.1 -1.75
7.72 17.19 2.31
5.99 13.32 -1.79
7.3 16.25 2.82
7.31 16.26 -1.56
8.16 18.17 3.87
12.87 28.64 -1.65
7.86 17.5 4.43
12.68 28.21 -0.54
7.53 16.76 4.92
2.86 6.31 -1.86
14.08 31.06 0.6
3.27 7.22 -1.83
8.29 18.28 1.05
3.83 8.44 -1.8
15.35 33.86 3.25
4.58 10.11 -1.76
7.72 17.02 2.3
6.03 13.3 -1.79
7.36 16.22 2.82
7.37 16.25 -1.56
7.63 16.83 3.59
12.94 28.55 -1.64
15.38 33.93 8.6
15.33 33.81 -0.65
7.6 16.76 4.93
2.88 6.3 -1.86
14.21 31.03 0.6
3.3 7.21 -1.83
15.46 33.77 1.95
3.86 8.43 -1.8
15.48 33.81 3.25
4.63 10.1 -1.76
15.47 33.8 4.56
6.07 13.26 -1.79
15.49 33.84 5.9
7.45 16.28 -1.57
7.58 16.56 3.54
12.78 27.92 -1.61
15.52 33.89 8.61
15.47 33.79 -0.65
15.52 33.91 9.99
2.9 6.29 -1.86
14.32 31.01 0.6
3.32 7.2 -1.83
15.55 33.68 1.94
3.88 8.4 -1.8
15.6 33.78 3.26
4.65 10.08 -1.76
8.16 17.67 2.39
6.11 13.24 -1.79
8.18 17.72 3.09
7.53 16.31 -1.57
7.65 16.56 3.55
13.18 28.54 -1.65
15.64 33.87 8.61
15.6 33.77 -0.65
7.7 16.66 4.92
2.92 6.26 -1.85
14.44 30.97 0.6
3.35 7.19 -1.83
8.41 18.05 1.04
3.92 8.41 -1.8
15.73 33.75 3.26
4.68 10.04 -1.75
8.14 17.46 2.36
6.16 13.22 -1.79
8.29 17.79 3.11
7.61 16.32 -1.58
7.81 16.76 3.59
13.27 28.46 -1.65
15.77 33.83 8.62
7.85 16.84 4.98
2.94 6.25 -1.85
14.55 30.94 0.6
3.37 7.17 -1.83
15.77 33.54 1.94
3.95 8.41 -1.81
15.86 33.72 3.26
4.7 10.01 -1.75
8.26 17.58 2.38
6.21 13.21 -1.79
8.25 17.55 3.07
7.68 16.33 -1.58
15.87 33.77 7.25
13.37 28.44 -1.65
15.89 33.8 8.62
17.38 36.96 -0.71
15.9 33.81 10.01
2.96 6.24 -1.85
14.67 30.91 0.6
3.39 7.15 -1.83
15.91 33.51 1.94
3.99 8.41 -1.81
15.99 33.69 3.26
4.74 9.98 -1.75
8.33 17.54 2.38
6.26 13.18 -1.79
16 33.72 5.91
7.75 16.33 -1.58
4.67 9.84 2.12
13.47 28.39 -1.65
16.03 33.76 8.63
17.52 36.91 -0.71
16.03 33.78 10.02
2.98 6.23 -1.85
14.79 30.89 0.6
3.42 7.15 -1.83
16.02 33.47 1.94
4.02 8.4 -1.81
16.12 33.67 3.27
4.77 9.96 -1.75
16.12 33.67 4.58
6.3 13.15 -1.79
16.13 33.69 5.92
7.79 16.27 -1.58
16.12 33.68 7.26
13.36 27.91 -1.62
16.14 33.72 8.63
17.66 36.88 -0.71
16.16 33.75 10.03
3 6.22 -1.85
15.69 32.49 0.63
3.45 7.14 -1.83
16.16 33.46 1.95
4.05 8.38 -1.81
16.25 33.64 3.27
4.8 9.94 -1.75
16.25 33.64 4.59
6.34 13.13 -1.79
16.25 33.64 5.92
7.85 16.25 -1.58
16.26 33.66 7.27
13.64 28.25 -1.64
16.28 33.7 8.64
17.78 36.82 -0.71
16.29 33.73 10.04
3.02 6.2 -1.85
15.8 32.45 0.63
3.47 7.13 -1.83
16.29 33.44 1.95
4.07 8.35 -1.81
16.37 33.6 3.27
4.83 9.91 -1.75
16.37 33.62 4.59
6.39 13.11 -1.79
16.37 33.62 5.92
7.95 16.31 -1.59
8.96 18.39 3.98
13.75 28.22 -1.65
16.4 33.68 8.65
17.92 36.79 -0.71
16.41 33.69 10.04
3.04 6.19 -1.85
15.93 32.4 0.63
3.5 7.11 -1.83
16.42 33.4 1.95
4.1 8.35 -1.81
16.5 33.56 3.27
4.86 9.89 -1.74
16.51 33.58 4.59
6.44 13.09 -1.79
16.51 33.59 5.93
8.02 16.31 -1.59
9.03 18.37 3.98
13.84 28.15 -1.64
16.54 33.65 8.66
16.57 33.71 -0.66
16.54 33.65 10.05
3.06 6.18 -1.85
16.05 32.38 0.63
3.52 7.09 -1.83
16.54 33.36 1.95
4.15 8.36 -1.81
16.62 33.53 3.27
4.89 9.85 -1.74
16.63 33.54 4.6
6.48 13.07 -1.79
16.64 33.56 5.93
8.1 16.34 -1.6
9.01 18.17 3.94
13.92 28.07 -1.64
16.67 33.63 8.67
16.68 33.65 -0.66
16.67 33.62 10.05
3.09 6.17 -1.85
16.19 32.35 0.63
3.54 7.08 -1.83
16.69 33.35 1.95
4.18 8.35 -1.81
16.76 33.5 3.28
4.92 9.83 -1.74
16.77 33.51 4.6
6.52 13.03 -1.79
16.77 33.52 5.94
8.18 16.34 -1.6
8.67 17.33 3.77
13.98 27.95 -1.64
16.8 33.57 8.67
16.83 33.63 -0.66
16.8 33.58 10.06
3.11 6.16 -1.85
16.32 32.34 0.63
3.57 7.07 -1.83
16.79 33.29 1.95
4.19 8.31 -1.81
16.89 33.47 3.28
4.95 9.81 -1.74
16.89 33.48 4.6
6.56 13.01 -1.79
16.89 33.48 5.94
8.25 16.35 -1.6
8.7 17.24 3.75
14.01 27.78 -1.63
16.92 33.53 8.67
16.93 33.56 -0.66
16.93 33.55 10.07
3.12 6.13 -1.84
16.44 32.29 0.63
3.6 7.08 -1.83
16.94 33.27 1.96
4.23 8.3 -1.81
17.02 33.42 3.28
4.98 9.79 -1.74
17.03 33.45 4.61
6.62 13 -1.79
17.03 33.45 5.94
8.32 16.35 -1.61
8.83 17.34 3.78
14.12 27.74 -1.63
17.06 33.5 8.68
17.07 33.54 -0.66
17.06 33.51 10.08
3.14 6.13 -1.84
16.57 32.28 0.63
3.63 7.07 -1.84
17.07 33.25 1.96
4.24 8.27 -1.81
17.15 33.41 3.29
5 9.75 -1.74
17.15 33.42 4.61
6.66 12.98 -1.79
17.16 33.43 5.95
8.39 16.34 -1.61
8.81 17.16 3.75
14.21 27.68 -1.63
17.18 33.48 8.69
17.19 33.49 10.09
3.17 6.13 -1.85
16.69 32.26 0.63
3.65 7.05 -1.83
17.18 33.2 1.96
4.27 8.25 -1.81
17.27 33.38 3.29
5.03 9.72 -1.73
17.27 33.38 4.61
6.7 12.95 -1.79
17.28 33.4 5.96
8.46 16.34 -1.61
17.29 33.41 7.31
14.33 27.68 -1.63
17.31 33.45 8.7
18.92 36.55 -0.72
17.31 33.45 10.09
3.2 6.13 -1.85
16.84 32.27 0.64
3.66 7.02 -1.83
17.31 33.18 1.96
4.3 8.25 -1.81
17.4 33.36 3.29
5.06 9.7 -1.73
17.4 33.35 4.62
6.74 12.92 -1.79
17.41 33.37 5.96
8.57 16.43 -1.62
17.41 33.37 7.32
14.43 27.66 -1.63
17.44 33.42 8.7
17.44 33.43 10.1
3.22 6.12 -1.85
3.69 7 -1.83
17.45 33.14 1.96
4.34 8.25 -1.81
17.54 33.32 3.29
5.1 9.68 -1.73
17.54 33.32 4.62
6.79 12.9 -1.79
17.54 33.32 5.96
8.63 16.39 -1.62
17.55 33.33 7.32
14.54 27.61 -1.64
17.58 33.38 8.71
17.58 33.38 10.11
3.24 6.11 -1.85
3.71 7 -1.83
17.57 33.1 1.96
4.37 8.23 -1.81
17.66 33.28 3.3
5.12 9.65 -1.73
17.67 33.29 4.63
6.84 12.88 -1.79
17.67 33.29 5.97
8.66 16.31 -1.62
17.68 33.31 7.33
14.64 27.58 -1.64
17.7 33.35 8.72
17.7 33.34 10.11
3.28 6.12 -1.86
3.73 6.97 -1.83
4.39 8.2 -1.81
17.79 33.24 3.3
5.15 9.62 -1.73
17.8 33.26 4.63
6.88 12.85 -1.79
17.8 33.27 5.98
8.73 16.31 -1.62
17.8 33.26 7.33
14.74 27.55 -1.64
17.83 33.32 8.72
17.83 33.32 10.13
3.3 6.12 -1.86
17.97 33.31 0.66
3.75 6.96 -1.83
4.41 8.18 -1.81
17.92 33.23 3.3
5.18 9.6 -1.73
17.91 33.22 4.63
6.92 12.83 -1.79
17.92 33.23 5.98
8.81 16.33 -1.62
17.92 33.23 7.34
14.84 27.51 -1.64
17.96 33.29 8.73
17.96 33.3 10.14
3.32 6.1 -1.86
18.05 33.17 0.66
3.79 6.96 -1.83
18.03 33.15 1.98
4.45 8.17 -1.81
18.06 33.19 3.31
5.21 9.57 -1.73
18.06 33.18 4.64
6.96 12.79 -1.79
18.06 33.2 5.99
8.88 16.33 -1.63
18.06 33.2 7.35
14.95 27.48 -1.64
18.09 33.25 8.74
18.05 33.18 -0.66
18.1 33.26 10.15
3.34 6.08 -1.86
18.15 33.1 0.66
3.81 6.96 -1.83
18.16 33.11 1.98
4.47 8.15 -1.81
18.18 33.16 3.31
5.24 9.56 -1.73
18.18 33.15 4.64
7 12.77 -1.79
18.19 33.16 5.99
8.95 16.32 -1.63
18.2 33.18 7.36
15.06 27.46 -1.64
18.22 33.22 8.75
18.15 33.1 -0.66
18.22 33.23 10.16
3.35 6.06 -1.86
18.28 33.05 0.66
3.84 6.94 -1.83
18.3 33.09 1.98
4.51 8.14 -1.81
18.32 33.11 3.31
5.27 9.53 -1.72
18.32 33.12 4.65
7.05 12.74 -1.79
18.32 33.13 6
9.02 16.3 -1.63
18.33 33.14 7.36
15.17 27.43 -1.64
18.36 33.19 8.76
18.29 33.06 -0.66
18.35 33.18 10.16
3.37 6.05 -1.86
18.41 33.02 0.66
3.86 6.92 -1.83
18.36 32.92 1.98
4.54 8.15 -1.81
18.45 33.09 3.31
5.29 9.49 -1.72
18.45 33.09 4.65
7.09 12.72 -1.79
18.45 33.1 6
9.1 16.32 -1.63
18.46 33.1 7.37
15.28 27.41 -1.64
18.49 33.16 8.76
18.42 33.03 -0.66
18.48 33.15 10.17
3.4 6.04 -1.86
18.64 33.13 0.66
3.88 6.9 -1.83
18.48 32.86 1.98
4.57 8.12 -1.81
18.59 33.05 3.32
5.33 9.47 -1.72
18.59 33.04 4.65
7.14 12.68 -1.79
18.6 33.06 6.01
9.16 16.28 -1.63
18.6 33.07 7.37
15.4 27.37 -1.65
18.63 33.11 8.77
18.63 33.12 10.18
3.42 6.04 -1.86
3.91 6.89 -1.83
18.61 32.83 1.98
4.59 8.09 -1.81
18.72 33.03 3.32
5.35 9.44 -1.72
18.71 33.01 4.66
7.18 12.66 -1.79
18.73 33.03 6.01
9.21 16.25 -1.63
18.73 33.03 7.38
15.54 27.41 -1.65
18.75 33.08 8.78
18.77 33.1 10.2
3.45 6.03 -1.86
3.94 6.9 -1.84
18.75 32.81 1.98
4.61 8.07 -1.81
18.85 32.98 3.32
5.39 9.42 -1.72
18.85 32.98 4.66
7.22 12.63 -1.79
18.85 32.99 6.02
9.27 16.22 -1.63
18.87 33.01 7.39
15.66 27.4 -1.65
18.89 33.05 8.79
19.18 33.56 -0.67
18.89 33.05 10.2
3.46 6 -1.86
3.97 6.89 -1.83
18.88 32.77 1.98
4.64 8.06 -1.81
18.97 32.94 3.33
5.42 9.4 -1.72
18.98 32.96 4.67
7.27 12.63 -1.79
18.98 32.96 6.02
9.31 16.16 -1.63
18.99 32.98 7.4
15.76 27.36 -1.65
19.02 33.03 8.8
19.02 33.02 10.21
3.48 5.99 -1.86
25.5 43.92 0.89
3.99 6.87 -1.83
19.01 32.74 1.98
4.67 8.04 -1.81
19.11 32.91 3.33
5.45 9.38 -1.72
19.12 32.92 4.67
7.31 12.6 -1.79
19.12 32.93 6.03
9.46 16.3 -1.65
19.13 32.95 7.41
19.15 32.99 8.81
19.16 32.99 10.22
3.49 5.97 -1.85
22.45 38.38 0.78
4 6.84 -1.83
19.13 32.7 1.99
4.7 8.03 -1.81
19.24 32.89 3.33
5.48 9.36 -1.72
19.24 32.89 4.68
7.34 12.55 -1.78
19.25 32.91 6.04
9.54 16.3 -1.65
19.25 32.91 7.41
19.28 32.96 8.82
19.29 32.97 10.23
3.5 5.94 -1.85
22.56 38.25 0.78
4.03 6.83 -1.83
19.28 32.7 1.99
4.72 8.01 -1.81
19.38 32.86 3.34
5.51 9.34 -1.72
19.37 32.85 4.68
7.38 12.51 -1.78
19.38 32.86 6.04
9.63 16.32 -1.66
19.39 32.87 7.42
19.41 32.92 8.82
19.42 32.93 10.24
3.52 5.92 -1.84
22.71 38.22 0.78
4.05 6.82 -1.83
19.4 32.66 1.99
4.75 7.99 -1.81
19.51 32.83 3.34
5.54 9.32 -1.72
19.51 32.83 4.69
7.42 12.49 -1.78
19.51 32.83 6.05
9.68 16.29 -1.66
19.52 32.85 7.43
16.13 27.15 -1.65
19.54 32.89 8.83
19.55 32.9 10.26
3.52 5.88 -1.84
19.68 32.85 0.67
4.08 6.8 -1.83
19.55 32.63 1.99
4.77 7.96 -1.8
19.64 32.78 3.34
5.57 9.29 -1.72
19.65 32.8 4.69
7.47 12.46 -1.78
19.66 32.8 6.06
9.75 16.28 -1.66
19.66 32.81 7.43
16.16 26.97 -1.65
19.69 32.87 8.85
19.68 32.85 10.26
3.54 5.87 -1.84
19.81 32.82 0.67
4.11 6.8 -1.84
19.67 32.59 1.99
4.78 7.92 -1.8
19.78 32.76 3.35
5.59 9.26 -1.71
19.78 32.76 4.7
7.5 12.43 -1.78
19.78 32.77 6.06
9.83 16.29 -1.66
19.79 32.77 7.44
10.81 17.91 -1.1
19.81 32.82 8.85
19.82 32.83 10.27
3.57 5.86 -1.84
4.13 6.78 -1.83
19.81 32.54 2
4.81 7.91 -1.8
19.92 32.72 3.35
5.63 9.24 -1.71
19.91 32.72 4.7
7.55 12.4 -1.78
19.93 32.74 6.07
9.91 16.27 -1.67
19.93 32.73 7.45
10.86 17.85 -1.09
19.96 32.79 8.86
19.97 32.8 10.29
3.59 5.85 -1.84
22.27 36.31 0.74
4.14 6.76 -1.83
19.94 32.51 2
4.84 7.89 -1.8
20.06 32.7 3.36
5.66 9.23 -1.72
20.05 32.69 4.71
7.58 12.36 -1.78
20.06 32.71 6.08
9.98 16.28 -1.67
20.06 32.71 7.46
10.87 17.73 -1.09
20.08 32.74 8.87
20.09 32.76 10.3
3.61 5.83 -1.84
22.17 35.86 0.74
4.17 6.75 -1.83
20.09 32.49 2
4.88 7.89 -1.8
20.2 32.66 3.36
5.68 9.19 -1.71
20.19 32.65 4.71
7.62 12.33 -1.78
20.19 32.66 6.08
10.06 16.27 -1.67
20.2 32.67 7.47
10.91 17.65 -1.09
20.23 32.71 8.88
20.23 32.72 10.31
3.62 5.81 -1.83
4.2 6.74 -1.83
20.22 32.45 2
4.91 7.88 -1.81
20.32 32.61 3.36
5.71 9.16 -1.71
20.33 32.63 4.72
7.66 12.3 -1.78
20.33 32.63 6.09
10.13 16.26 -1.68
20.34 32.64 7.48
10.91 17.51 -1.08
20.37 32.69 8.89
20.36 32.68 10.32
3.64 5.8 -1.83
4.22 6.73 -1.83
20.35 32.41 2.01
4.93 7.86 -1.8
20.46 32.59 3.37
5.73 9.13 -1.71
20.46 32.59 4.73
7.71 12.28 -1.78
20.47 32.61 6.1
10.2 16.25 -1.68
20.47 32.61 7.48
10.93 17.41 -1.08
20.5 32.65 8.9
20.5 32.66 10.33
3.67 5.79 -1.84
4.23 6.69 -1.83
20.47 32.36 2.01
4.96 7.84 -1.8
20.6 32.56 3.37
5.76 9.1 -1.71
20.59 32.55 4.73
7.75 12.25 -1.78
20.61 32.58 6.11
10.27 16.24 -1.68
20.6 32.57 7.49
10.93 17.28 -1.07
20.63 32.62 8.91
20.64 32.63 10.35
3.68 5.77 -1.83
4.26 6.68 -1.83
20.61 32.33 2.01
4.98 7.82 -1.8
20.74 32.53 3.38
5.79 9.08 -1.71
20.73 32.52 4.73
7.78 12.21 -1.78
20.74 32.54 6.11
10.35 16.23 -1.68
20.74 32.54 7.5
11.01 17.27 -1.07
20.77 32.57 8.92
20.78 32.59 10.36
3.7 5.75 -1.83
20.92 32.57 0.68
4.28 6.66 -1.83
20.75 32.3 2.01
5 7.79 -1.8
20.87 32.49 3.38
5.84 9.08 -1.71
20.87 32.49 4.74
7.82 12.17 -1.78
20.88 32.5 6.12
10.42 16.22 -1.69
20.88 32.51 7.51
11.09 17.27 -1.08
20.91 32.55 8.93
20.91 32.55 10.37
3.71 5.73 -1.83
20.97 32.4 0.67
4.31 6.65 -1.83
20.89 32.27 2.01
5.03 7.77 -1.8
21.01 32.45 3.38
5.88 9.08 -1.71
21.01 32.45 4.75
7.86 12.15 -1.78
21.02 32.47 6.13
10.48 16.19 -1.69
21.03 32.48 7.52
11.16 17.24 -1.08
21.05 32.51 8.94
21.05 32.52 10.38
3.73 5.72 -1.83
21.1 32.35 0.67
4.34 6.65 -1.83
21.1 32.35 2.02
5.06 7.76 -1.8
21.14 32.41 3.39
5.91 9.06 -1.71
21.15 32.42 4.75
7.9 12.11 -1.78
21.16 32.44 6.13
10.54 16.16 -1.69
21.15 32.43 7.53
11.22 17.2 -1.08
21.18 32.48 8.95
21.19 32.49 10.39
3.75 5.71 -1.83
21.23 32.32 0.67
4.36 6.63 -1.83
21.24 32.33 2.03
5.1 7.76 -1.8
21.28 32.4 3.39
5.94 9.04 -1.71
21.27 32.38 4.76
7.94 12.09 -1.78
21.33 32.47 6.15
10.6 16.13 -1.69
21.29 32.41 7.54
11.28 17.17 -1.08
21.32 32.46 10.41
3.77 5.7 -1.83
21.36 32.28 0.68
4.38 6.62 -1.83
21.3 32.18 2.02
5.11 7.72 -1.8
21.54 32.56 3.42
5.97 9.02 -1.71
21.4 32.34 4.76
7.98 12.05 -1.77
25.91 39.16 7.44
10.65 16.1 -1.69
21.43 32.38 7.55
11.36 17.16 -1.08
21.64 32.7 9.05
21.45 32.42 10.42
3.78 5.67 -1.83
4.4 6.59 -1.83
21.44 32.14 2.02
5.13 7.69 -1.8
26.01 38.98 4.1
6 9 -1.71
21.56 32.32 4.77
8.01 12.01 -1.77
25.84 38.73 7.37
10.71 16.06 -1.69
21.58 32.35 7.56
11.42 17.12 -1.08
21.61 32.39 10.43
3.8 5.65 -1.82
25.21 37.51 0.79
4.42 6.57 -1.83
21.59 32.12 2.03
5.16 7.67 -1.8
6.04 8.99 -1.72
21.7 32.29 4.78
8.05 11.98 -1.77
25.75 38.32 7.31
10.77 16.03 -1.69
21.72 32.31 7.57
11.49 17.1 -1.08
21.74 32.35 10.44
3.81 5.64 -1.82
25.41 37.54 0.79
4.44 6.56 -1.83
21.71 32.08 2.03
5.19 7.67 -1.8
6.07 8.96 -1.71
21.83 32.25 4.78
8.09 11.96 -1.77
24.66 36.43 6.97
10.82 15.98 -1.69
21.83 32.26 7.57
11.58 17.1 -1.08
22.09 32.64 9.1
21.88 32.32 10.46
3.84 5.63 -1.82
25.57 37.51 0.79
4.46 6.55 -1.83
21.85 32.05 2.03
5.22 7.65 -1.8
6.09 8.93 -1.71
21.97 32.22 4.79
8.13 11.93 -1.77
24.56 36.02 6.91
10.88 15.96 -1.69
21.98 32.25 7.59
11.15 16.36 -1.04
11.17 16.39 -0.35
22.01 32.28 10.47
3.86 5.61 -1.82
29.41 42.81 0.91
4.48 6.52 -1.83
21.99 32.01 2.04
5.25 7.64 -1.8
6.09 8.87 -1.7
22.11 32.18 4.79
8.16 11.88 -1.77
24.55 35.73 6.87
10.95 15.94 -1.69
22.13 32.21 7.6
11.19 16.29 -1.04
11.19 16.28 -0.34
22.16 32.25 10.48
3.88 5.6 -1.82
29.6 42.77 0.91
4.5 6.5 -1.83
22.13 31.98 2.04
5.27 7.62 -1.8
22.36 32.31 3.44
6.11 8.83 -1.7
22.25 32.15 4.8
8.2 11.85 -1.77
24.7 35.69 6.88
11 15.9 -1.69
22.26 32.16 7.6
11.2 16.18 -1.03
11.19 16.17 -0.34
22.3 32.22 10.5
3.89 5.57 -1.82
4.53 6.49 -1.83
22.27 31.94 2.04
5.3 7.6 -1.8
22.49 32.24 3.44
6.14 8.81 -1.7
22.39 32.11 4.81
8.24 11.82 -1.77
22.46 32.21 6.22
11.05 15.84 -1.69
22.4 32.13 7.61
11.22 16.09 -1.03
22.5 32.27 9.08
11.22 16.09 -0.34
22.44 32.18 10.51
3.9 5.56 -1.82
22.61 32.19 0.69
4.56 6.49 -1.83
22.41 31.91 2.04
5.33 7.59 -1.8
22.61 32.18 3.44
6.16 8.77 -1.7
22.53 32.07 4.81
8.29 11.8 -1.77
22.61 32.19 6.23
11.09 15.79 -1.69
22.54 32.09 7.62
11.3 16.08 -1.03
11.3 16.09 -0.34
22.57 32.13 10.52
3.92 5.54 -1.82
22.71 32.1 0.69
4.57 6.46 -1.83
22.55 31.87 2.05
5.35 7.56 -1.8
22.83 32.27 3.46
6.2 8.76 -1.7
22.66 32.03 4.82
8.31 11.75 -1.77
25 35.34 6.86
11.14 15.75 -1.69
22.68 32.06 7.63
11.38 16.08 -1.03
11.39 16.1 -0.34
22.72 32.11 10.54
3.94 5.53 -1.82
4.59 6.44 -1.82
22.69 31.84 2.05
5.36 7.52 -1.79
6.24 8.76 -1.7
22.81 32 4.83
8.37 11.74 -1.77
22.9 32.13 6.25
11.19 15.71 -1.69
22.83 32.04 7.65
11.46 16.09 -1.04
11.49 16.12 -0.35
22.86 32.08 10.55
3.96 5.52 -1.82
4.6 6.41 -1.82
22.84 31.81 2.05
5.38 7.49 -1.79
6.29 8.76 -1.71
22.95 31.97 4.83
8.37 11.66 -1.76
23.01 32.05 6.25
11.25 15.66 -1.69
22.97 31.99 7.65
11.56 16.09 -1.04
23.33 32.49 9.23
11.57 16.11 -0.35
23.01 32.05 10.57
3.97 5.49 -1.82
29.18 40.34 0.87
4.63 6.4 -1.82
22.98 31.77 2.05
5.41 7.48 -1.79
6.34 8.77 -1.71
23.1 31.94 4.84
8.42 11.64 -1.76
23.15 32.01 6.26
11.29 15.61 -1.69
23.12 31.97 7.67
11.65 16.1 -1.04
23.44 32.41 9.23
11.66 16.12 -0.35
23.15 32 10.58
3.99 5.47 -1.81
24.14 33.13 0.72
4.64 6.37 -1.82
23.13 31.74 2.06
5.45 7.48 -1.8
6.38 8.76 -1.72
23.25 31.91 4.85
8.49 11.65 -1.77
23.3 31.98 6.27
11.34 15.56 -1.68
23.26 31.92 7.68
11.74 16.11 -1.04
11.76 16.13 -0.35
23.3 31.97 10.6
4.01 5.46 -1.82
24.02 32.73 0.71
4.66 6.35 -1.82
23.26 31.7 2.06
5.49 7.48 -1.8
6.43 8.76 -1.72
23.38 31.86 4.85
8.51 11.59 -1.77
23.44 31.94 6.28
11.37 15.5 -1.68
23.4 31.88 7.69
11.83 16.11 -1.05
23.61 32.16 9.21
11.85 16.14 -0.35
23.44 31.94 10.62
4.03 5.45 -1.82
4.69 6.35 -1.82
23.42 31.68 2.06
5.49 7.43 -1.8
23.71 32.08 3.49
6.48 8.76 -1.73
23.52 31.82 4.86
8.54 11.55 -1.76
23.6 31.93 6.29
11.41 15.44 -1.68
23.55 31.86 7.7
11.91 16.12 -1.05
23.66 32.01 9.19
11.94 16.15 -0.35
23.58 31.9 10.63
4.04 5.43 -1.81
4.72 6.34 -1.82
23.54 31.63 2.07
5.51 7.4 -1.79
23.74 31.9 3.48
6.54 8.78 -1.73
23.67 31.8 4.87
8.54 11.47 -1.76
23.71 31.85 6.29
11.45 15.39 -1.68
23.68 31.82 7.71
12.83 17.23 -1.13
23.71 31.85 9.17
23.73 31.88 10.65
4.05 5.41 -1.81
23.83 31.8 0.69
4.75 6.34 -1.83
23.69 31.61 2.07
5.53 7.38 -1.79
23.8 31.76 3.47
6.59 8.79 -1.74
23.81 31.77 4.87
8.6 11.47 -1.76
23.82 31.78 6.29
11.49 15.33 -1.68
23.82 31.78 7.72
12.91 17.23 -1.13
23.85 31.82 9.18
23.86 31.83 10.66
4.07 5.4 -1.81
23.89 31.66 0.69
4.78 6.33 -1.83
23.83 31.58 2.07
5.56 7.36 -1.79
23.95 31.73 3.48
6.63 8.78 -1.74
23.94 31.72 4.88
8.65 11.46 -1.76
23.96 31.75 6.3
11.54 15.29 -1.68
23.96 31.75 7.73
12.98 17.2 -1.13
24.01 31.81 9.2
24 31.8 10.68
4.1 5.38 -1.81
24.05 31.61 0.69
4.81 6.32 -1.83
24.08 31.65 2.08
5.59 7.35 -1.79
24.1 31.68 3.48
6.67 8.77 -1.75
24.09 31.67 4.89
8.66 11.38 -1.76
24.12 31.71 6.31
11.59 15.24 -1.67
24.12 31.7 7.74
13.03 17.13 -1.13
24.15 31.75 9.21
24.17 31.77 10.69
4.11 5.37 -1.81
24.2 31.59 0.69
4.83 6.31 -1.83
24.12 31.49 2.08
5.62 7.34 -1.8
24.25 31.66 3.49
6.71 8.76 -1.75
24.24 31.65 4.9
8.71 11.37 -1.76
24.26 31.68 6.32
11.64 15.2 -1.67
24.26 31.67 7.75
13.12 17.13 -1.13
24.28 31.71 9.22
24.31 31.73 10.71
4.13 5.35 -1.81
4.87 6.31 -1.84
24.26 31.44 2.08
5.64 7.31 -1.79
24.39 31.61 3.49
6.75 8.75 -1.75
24.39 31.61 4.9
8.76 11.36 -1.76
24.4 31.63 6.33
11.69 15.15 -1.67
24.42 31.65 7.77
13.22 17.13 -1.13
24.44 31.68 9.24
24.44 31.68 10.72
4.14 5.32 -1.81
24.66 31.75 0.7
4.88 6.29 -1.84
24.41 31.42 2.09
5.63 7.25 -1.78
24.53 31.58 3.5
6.78 8.73 -1.75
24.53 31.58 4.91
8.79 11.32 -1.76
24.55 31.6 6.34
11.73 15.09 -1.67
24.56 31.62 7.78
12.62 16.25 -1.08
24.59 31.65 9.25
12.77 16.44 -0.36
24.59 31.66 10.74
4.16 5.31 -1.81
24.78 31.65 0.7
4.91 6.27 -1.84
24.57 31.38 2.09
5.67 7.25 -1.79
24.69 31.53 3.5
6.81 8.7 -1.75
24.7 31.54 4.92
8.84 11.3 -1.76
24.72 31.57 6.35
11.78 15.05 -1.67
24.71 31.55 7.79
12.67 16.19 -1.08
24.74 31.6 9.26
12.78 16.32 -0.36
24.76 31.62 10.76
4.17 5.29 -1.81
4.92 6.24 -1.84
24.71 31.34 2.09
5.71 7.24 -1.79
24.84 31.51 3.51
6.85 8.69 -1.75
24.84 31.51 4.93
8.91 11.31 -1.77
24.85 31.52 6.36
11.82 15 -1.67
24.85 31.53 7.8
12.77 16.2 -1.08
24.9 31.58 9.28
12.79 16.22 -0.36
24.89 31.58 10.77
4.19 5.28 -1.81
25.06 31.56 0.7
4.95 6.23 -1.84
24.87 31.33 2.1
5.73 7.21 -1.79
24.99 31.48 3.52
6.89 8.68 -1.76
24.98 31.46 4.93
8.96 11.28 -1.77
25 31.49 6.37
11.88 14.96 -1.67
25.01 31.49 7.82
12.79 16.11 -1.08
25.04 31.54 9.3
12.79 16.11 -0.36
25.05 31.55 10.8
4.21 5.26 -1.81
25.23 31.55 0.71
4.96 6.21 -1.83
24.99 31.26 2.1
5.75 7.19 -1.79
25.12 31.43 3.52
6.93 8.67 -1.76
25.14 31.44 4.94
8.96 11.2 -1.76
25.16 31.47 6.38
11.91 14.9 -1.67
25.16 31.47 7.83
12.83 16.04 -1.08
25.18 31.49 9.31
12.84 16.07 -0.36
25.2 31.52 10.81
4.22 5.24 -1.8
25.38 31.52 0.71
4.99 6.2 -1.84
25.15 31.24 2.1
5.77 7.17 -1.79
25.28 31.39 3.53
6.97 8.65 -1.76
25.28 31.4 4.95
9.02 11.2 -1.77
25.3 31.42 6.39
11.95 14.85 -1.67
25.31 31.43 7.84
12.93 16.05 -1.08
25.34 31.47 9.33
12.94 16.08 -0.36
25.33 31.46 10.82
4.24 5.23 -1.8
25.5 31.46 0.71
4.98 6.15 -1.83
25.28 31.18 2.1
5.8 7.16 -1.79
25.42 31.36 3.53
6.99 8.63 -1.76
25.42 31.36 4.96
9.05 11.17 -1.76
25.43 31.37 6.4
12 14.8 -1.67
25.45 31.39 7.86
13.01 16.05 -1.08
25.48 31.44 9.34
13.02 16.07 -0.36
25.49 31.44 10.85
4.25 5.2 -1.8
25.68 31.44 0.71
4.98 6.1 -1.82
25.44 31.15 2.11
5.85 7.16 -1.8
25.58 31.32 3.54
7.03 8.6 -1.76
25.58 31.32 4.96
9.12 11.17 -1.77
25.61 31.36 6.41
12.04 14.75 -1.67
25.61 31.36 7.87
13.11 16.05 -1.09
25.63 31.38 9.35
13.13 16.07 -0.36
25.65 31.41 10.87
4.27 5.19 -1.8
25.79 31.36 0.71
5 6.08 -1.82
25.57 31.1 2.11
5.87 7.13 -1.8
25.73 31.29 3.54
7.07 8.59 -1.76
25.73 31.29 4.97
9.15 11.13 -1.77
25.74 31.31 6.42
12.09 14.7 -1.67
25.75 31.31 7.88
13.21 16.06 -1.09
25.78 31.35 9.37
13.21 16.07 -0.36
25.79 31.36 10.88
4.29 5.18 -1.8
25.99 31.38 0.71
5.02 6.06 -1.82
25.74 31.07 2.11
5.88 7.1 -1.79
25.88 31.24 3.55
7.11 8.58 -1.76
25.88 31.24 4.98
9.16 11.06 -1.76
25.89 31.26 6.43
12.13 14.64 -1.66
25.92 31.29 7.9
13.31 16.06 -1.09
25.93 31.3 9.38
13.31 16.07 -0.36
25.96 31.34 10.9
4.29 5.15 -1.8
26.13 31.33 0.71
5.04 6.04 -1.82
25.9 31.05 2.12
5.9 7.07 -1.79
26.02 31.19 3.55
7.12 8.53 -1.76
26.04 31.22 4.99
9.22 11.05 -1.77
26.04 31.22 6.44
12.18 14.6 -1.66
26.05 31.23 7.91
13.4 16.07 -1.1
26.08 31.27 9.4
13.4 16.07 -0.37
26.1 31.29 10.92
4.31 5.13 -1.8
26.24 31.24 0.71
5.06 6.02 -1.81
26.04 31 2.12
5.93 7.05 -1.79
26.18 31.16 3.56
7.15 8.51 -1.76
26.19 31.18 5
9.2 10.95 -1.76
26.19 31.18 6.45
12.23 14.56 -1.66
26.2 31.19 7.92
13.51 16.09 -1.1
26.24 31.24 9.42
13.5 16.08 -0.37
26.25 31.25 10.94
4.33 5.12 -1.8
5.07 5.99 -1.81
26.19 30.98 2.13
5.95 7.04 -1.79
26.33 31.14 3.57
7.18 8.49 -1.76
16.26 19.23 3.09
9.24 10.93 -1.76
16.42 19.42 4.03
12.28 14.52 -1.66
26.36 31.17 7.94
13.6 16.08 -1.1
26.39 31.2 9.43
13.62 16.1 -0.37
26.4 31.22 10.96
4.34 5.1 -1.79
5.09 5.97 -1.81
26.34 30.92 2.13
