# .PCD v0.7 - Point Cloud Data file format
VERSION 0.7
FIELDS x y z
SIZE 4 4 4
TYPE F F F
COUNT 1 1 1
WIDTH 2918
HEIGHT 1
VIEWPOINT 0 0 0 1 0 0 0
POINTS 2918
DATA ascii
7.34 4.36 -1.66
6.02 3.57 -1.11
6.3 3.74 0.9
6.01 3.57 -0.86
6.31 3.74 1.16
6.09 3.62 -0.62
17.43 10.34 3.94
6.44 3.82 -0.39
5.35 3.15 -1.66
6.2 3.65 -1.66
7.35 4.33 -1.66
6.02 3.55 -1.11
6.29 3.7 0.9
6.02 3.55 -0.86
6.31 3.72 1.16
6.11 3.59 -0.62
6.43 3.78 -0.39
26.29 15.47 7.04
6.56 3.86 -0.13
5.34 3.12 -1.66
6.21 3.63 -1.66
7.36 4.3 -1.66
6.03 3.52 -1.11
6.3 3.68 0.9
6.03 3.52 -0.86
6.12 3.57 -0.62
6.43 3.75 -0.39
6.55 3.83 -0.13
5.36 3.1 -1.66
6.22 3.6 -1.66
7.37 4.27 -1.66
6.01 3.48 -1.1
6.3 3.65 0.89
6.04 3.5 -0.86
6.13 3.55 -0.62
6.43 3.73 -0.39
6.58 3.81 -0.13
5.37 3.08 -1.66
6.22 3.57 -1.66
7.39 4.24 -1.66
6.02 3.46 -1.1
6.31 3.62 0.89
6.04 3.47 -0.86
6.32 3.63 1.15
6.14 3.53 -0.62
6.47 3.72 -0.39
6.66 3.83 -0.13
5.38 3.07 -1.66
7.86 4.48 0.16
6.22 3.55 -1.65
7.86 4.48 0.47
7.4 4.22 -1.65
6.02 3.43 -1.1
6.34 3.62 0.9
6.04 3.44 -0.85
6.33 3.61 1.15
6.16 3.51 -0.62
27.7 15.78 6.2
6.32 3.6 -0.38
6.65 3.79 -0.13
5.38 3.04 -1.66
7.9 4.47 0.16
6.24 3.53 -1.65
7.4 4.18 -1.65
6.49 3.67 0.65
6.02 3.4 -1.1
6.36 3.59 0.9
6.04 3.42 -0.85
6.28 3.55 1.14
6.17 3.49 -0.62
6.09 3.44 -0.37
6.67 3.77 -0.13
5.38 3.02 -1.65
6.25 3.51 -1.65
7.4 4.15 -1.65
6.42 3.6 0.64
6.03 3.38 -1.09
6.37 3.57 0.9
6.04 3.39 -0.85
6.32 3.54 1.15
6.18 3.47 -0.62
6.1 3.42 -0.37
26.74 15 7.08
6.67 3.74 -0.13
5.39 3 -1.65
6.26 3.49 -1.65
7.42 4.13 -1.65
6.42 3.57 0.64
6.02 3.35 -1.09
6.33 3.52 0.89
6.05 3.37 -0.85
6.3 3.51 1.14
6.13 3.41 -0.61
27.17 15.12 6.05
6.17 3.44 -0.37
6.71 3.73 -0.13
5.41 2.98 -1.65
6.26 3.46 -1.65
7.42 4.1 -1.65
6.42 3.55 0.64
6.03 3.33 -1.09
6.34 3.5 0.89
6.05 3.34 -0.85
6.33 3.5 1.15
6.12 3.38 -0.61
6.23 3.44 -0.37
27.17 15 7.17
6.7 3.7 -0.13
5.42 2.96 -1.65
9.52 5.21 0.19
6.27 3.43 -1.65
9.55 5.23 0.57
7.43 4.06 -1.65
6.43 3.51 0.64
6.03 3.3 -1.09
6.34 3.47 0.89
6.05 3.31 -0.85
6.31 3.45 1.14
6.13 3.35 -0.61
6.31 3.45 -0.38
6.72 3.68 -0.13
10.15 5.55 3.1
5.43 2.94 -1.65
6.28 3.41 -1.65
7.44 4.04 -1.65
6.43 3.49 0.64
6.04 3.28 -1.09
6.35 3.44 0.89
6.05 3.28 -0.85
6.31 3.42 1.14
6.14 3.33 -0.61
6.26 3.4 -0.37
10.24 5.56 3.12
5.42 2.92 -1.65
6.29 3.39 -1.65
7.45 4.01 -1.64
6.42 3.45 0.64
6.04 3.25 -1.09
6.34 3.41 0.88
6.06 3.26 -0.84
6.31 3.4 1.14
6.22 3.35 -0.37
5.43 2.9 -1.65
6.3 3.36 -1.65
7.45 3.98 -1.64
6.42 3.43 0.64
6.05 3.23 -1.09
6.38 3.4 0.89
6.06 3.24 -0.84
6.31 3.37 1.13
6.26 3.34 -0.37
26.35 14.06 6.9
5.45 2.88 -1.65
6.3 3.34 -1.65
7.47 3.95 -1.64
6.43 3.4 0.64
6.05 3.2 -1.08
6.06 3.21 -0.84
6.3 3.33 1.13
6.26 3.32 -0.62
6.18 3.27 -0.37
5.45 2.86 -1.65
6.31 3.31 -1.65
7.48 3.92 -1.64
6.43 3.38 0.64
6.05 3.18 -1.08
21.69 11.38 3.01
6.06 3.18 -0.84
6.31 3.31 1.13
6.16 3.23 -0.61
6.22 3.27 -0.37
5.46 2.84 -1.65
8.82 4.59 0.17
6.33 3.29 -1.65
8.9 4.63 0.53
7.48 3.89 -1.64
6.42 3.34 0.63
6.06 3.15 -1.08
21.81 11.35 3.02
6.06 3.15 -0.84
6.31 3.28 1.13
6.15 3.2 -0.61
6.18 3.22 -0.37
5.45 2.81 -1.64
8.83 4.56 0.17
6.34 3.27 -1.65
8.87 4.58 0.52
7.49 3.86 -1.64
6.41 3.31 0.63
6.06 3.13 -1.08
6.07 3.13 -0.84
6.3 3.25 1.12
6.1 3.15 -0.6
6.22 3.21 -0.37
5.47 2.8 -1.65
8.83 4.52 0.17
6.34 3.24 -1.64
8.94 4.57 0.53
7.5 3.84 -1.64
6.42 3.28 0.63
6.06 3.1 -1.08
6.32 3.23 0.87
6.07 3.11 -0.84
6.31 3.23 1.12
6.12 3.13 -0.6
6.23 3.19 -0.37
5.48 2.78 -1.65
8.89 4.51 0.17
6.34 3.22 -1.64
7.52 3.81 -1.64
6.43 3.26 0.63
6.06 3.07 -1.08
6.33 3.21 0.87
6.07 3.08 -0.84
6.31 3.2 1.12
6.13 3.11 -0.6
6.24 3.16 -0.37
5.49 2.76 -1.65
6.36 3.2 -1.64
7.53 3.79 -1.64
6.44 3.24 0.63
6.07 3.05 -1.08
6.34 3.19 0.87
6.07 3.05 -0.83
6.32 3.18 1.12
6.15 3.1 -0.6
6.25 3.14 -0.37
5.5 2.74 -1.65
6.37 3.18 -1.64
7.52 3.75 -1.63
6.43 3.21 0.63
6.08 3.03 -1.08
6.33 3.16 0.87
6.08 3.03 -0.83
6.31 3.15 1.12
6.16 3.07 -0.6
6.2 3.09 -0.36
5.49 2.71 -1.64
6.38 3.15 -1.64
7.54 3.73 -1.63
6.42 3.17 0.63
6.08 3.01 -1.08
6.31 3.12 0.86
6.08 3 -0.83
6.31 3.12 1.11
6.17 3.05 -0.6
6.21 3.07 -0.36
28.13 13.9 7.24
5.49 2.69 -1.64
7.45 3.65 0.14
6.39 3.13 -1.64
7.55 3.7 -1.63
6.42 3.14 0.63
6.34 3.1 0.87
6.09 2.98 -0.83
6.31 3.09 1.11
6.19 3.03 -0.36
5.51 2.68 -1.64
7.41 3.6 0.14
6.39 3.1 -1.64
7.45 3.62 0.43
7.56 3.67 -1.63
6.42 3.12 0.62
6.13 2.98 -1.08
6.31 3.06 0.86
6.09 2.96 -0.83
6.32 3.07 1.11
6.19 3.01 -0.36
5.52 2.66 -1.64
6.4 3.08 -1.64
7.43 3.58 0.43
7.57 3.64 -1.63
6.43 3.1 0.62
6.34 3.05 0.86
6.08 2.93 -0.83
6.32 3.04 1.11
6.17 2.97 -0.6
6.19 2.98 -0.36
5.53 2.64 -1.64
6.4 3.05 -1.64
7.57 3.61 -1.63
6.43 3.07 0.62
6.17 2.94 -1.08
6.31 3.01 0.86
6.09 2.9 -0.83
6.31 3.01 1.11
6.2 2.96 -0.36
5.52 2.61 -1.64
7.48 3.54 0.14
6.42 3.03 -1.64
7.52 3.55 0.44
7.58 3.58 -1.63
6.43 3.04 0.62
6.18 2.92 -1.08
6.3 2.98 0.86
6.1 2.88 -0.83
6.31 2.98 1.11
6.23 2.94 -0.6
6.23 2.94 -0.36
5.53 2.59 -1.64
7.64 3.58 0.15
6.43 3.01 -1.64
7.59 3.56 -1.63
6.43 3.01 0.62
6.21 2.91 -1.09
6.32 2.96 0.86
6.1 2.86 -0.83
6.31 2.96 1.1
6.22 2.91 -0.36
5.54 2.57 -1.64
6.43 2.98 -1.64
7.6 3.53 -1.63
6.43 2.98 0.62
6.15 2.85 -1.07
6.32 2.93 0.86
6.11 2.84 -0.83
6.33 2.94 1.1
6.22 2.89 -0.36
5.56 2.56 -1.64
6.43 2.96 -1.63
7.61 3.5 -1.63
6.44 2.96 0.62
6.2 2.85 -1.08
6.33 2.91 0.86
6.11 2.81 -0.83
6.32 2.91 1.1
6.26 2.88 -0.6
6.22 2.86 -0.36
5.56 2.53 -1.64
6.45 2.94 -1.64
7.6 3.46 -1.62
6.41 2.92 0.62
6.18 2.82 -1.08
6.32 2.88 0.85
6.13 2.8 -0.83
6.32 2.88 1.1
6.27 2.86 -0.6
6.23 2.84 -0.36
5.56 2.51 -1.63
7.19 3.25 0.14
6.45 2.91 -1.63
7.61 3.44 -1.62
6.39 2.89 0.61
6.17 2.79 -1.07
6.32 2.86 0.85
6.12 2.77 -0.82
6.32 2.86 1.1
6.23 2.81 -0.36
5.56 2.49 -1.63
7.14 3.2 0.14
6.46 2.89 -1.63
7.63 3.41 -1.62
6.42 2.87 0.62
6.17 2.76 -1.07
6.34 2.84 0.85
6.13 2.74 -0.83
6.32 2.83 1.1
6.2 2.77 -0.59
6.27 2.81 -0.36
5.57 2.47 -1.63
7.11 3.15 0.14
6.45 2.86 -1.63
7.63 3.38 -1.62
6.43 2.85 0.62
6.17 2.74 -1.07
6.14 2.72 -0.83
6.29 2.79 1.09
6.17 2.73 -0.59
6.28 2.78 -0.36
5.59 2.45 -1.63
7.13 3.13 0.14
6.46 2.84 -1.63
7.63 3.35 -1.62
6.42 2.82 0.61
6.17 2.71 -1.07
6.32 2.77 0.85
6.15 2.7 -0.83
6.31 2.77 1.09
6.27 2.75 -0.36
5.59 2.43 -1.63
6.24 2.71 0.12
6.47 2.81 -1.63
7.64 3.32 -1.62
6.42 2.79 0.61
6.19 2.69 -1.07
6.31 2.75 0.85
6.16 2.68 -0.82
6.15 2.68 -0.59
6.2 2.7 -0.35
6.21 2.7 -0.12
5.58 2.41 -1.63
6.17 2.66 0.12
6.48 2.79 -1.63
6.2 2.67 0.35
7.64 3.29 -1.62
6.24 2.69 0.59
6.18 2.66 -1.07
6.28 2.71 0.84
6.16 2.65 -0.82
6.15 2.65 -0.59
6.18 2.66 -0.35
5.59 2.39 -1.63
6.18 2.64 0.12
6.48 2.77 -1.63
6.21 2.65 0.35
7.65 3.27 -1.62
6.25 2.67 0.59
6.16 2.63 -1.06
6.3 2.69 0.84
6.17 2.63 -0.82
6.35 2.71 1.09
6.15 2.62 -0.58
6.17 2.63 -0.35
6.18 2.64 -0.12
5.6 2.37 -1.63
6.2 2.62 0.12
6.48 2.74 -1.62
6.22 2.63 0.35
7.66 3.24 -1.62
6.27 2.65 0.6
6.17 2.61 -1.06
6.31 2.67 0.84
6.18 2.61 -0.82
6.36 2.69 1.09
6.17 2.61 -0.59
6.19 2.62 -0.35
6.19 2.62 -0.12
5.61 2.35 -1.63
6.48 2.71 -1.62
7.67 3.21 -1.62
6.19 2.59 -1.06
6.32 2.64 0.84
6.2 2.59 -0.82
6.37 2.67 1.09
6.2 2.59 -0.59
5.62 2.33 -1.63
7.28 3.02 0.14
6.5 2.69 -1.62
7.66 3.17 -1.61
6.21 2.57 -1.06
6.22 2.58 -0.83
6.38 2.64 1.09
6.22 2.58 -0.59
5.61 2.3 -1.63
6.43 2.64 0.12
6.51 2.67 -1.63
6.45 2.65 0.37
7.66 3.14 -1.61
6.22 2.55 -1.07
6.25 2.56 -0.83
6.4 2.63 1.1
6.24 2.56 -0.59
7.02 2.88 -0.13
5.62 2.28 -1.63
6.52 2.65 0.12
6.52 2.65 -1.62
7.67 3.12 -1.61
6.24 2.54 -1.07
6.28 2.55 -0.83
6.43 2.61 1.1
6.27 2.55 -0.59
5.64 2.27 -1.63
6.51 2.62 -1.62
7.68 3.09 -1.61
6.29 2.53 -1.07
6.31 2.54 -0.83
6.31 2.54 -0.6
5.65 2.25 -1.63
6.51 2.59 -1.62
6.43 2.56 0.36
7.69 3.06 -1.61
6.44 2.56 0.61
6.33 2.52 -1.08
6.34 2.53 -0.84
6.59 2.62 1.12
6.35 2.53 -0.6
5.66 2.23 -1.63
6.53 2.57 -1.62
6.43 2.53 0.36
7.68 3.03 -1.6
6.44 2.54 0.61
6.38 2.52 -1.09
6.4 2.52 -0.84
6.64 2.62 1.13
6.41 2.53 -0.6
5.65 2.21 -1.63
6.53 2.55 -1.62
6.45 2.52 0.36
7.69 3 -1.61
6.44 2.51 0.6
6.43 2.51 -1.09
6.45 2.52 -0.85
6.79 2.65 1.15
6.46 2.52 -0.61
5.66 2.19 -1.63
6.54 2.52 -1.62
6.45 2.49 0.36
7.7 2.97 -1.6
6.45 2.49 0.61
6.51 2.51 -1.1
6.56 2.53 -0.86
6.85 2.65 1.16
6.56 2.53 -0.62
5.68 2.17 -1.63
6.53 2.5 -1.61
6.45 2.47 0.36
7.71 2.95 -1.61
6.47 2.47 0.61
6.61 2.53 -1.12
6.64 2.54 -0.87
6.93 2.65 1.18
6.65 2.54 -0.62
5.69 2.15 -1.63
7.65 2.9 0.14
6.54 2.47 -1.61
6.45 2.44 0.36
7.71 2.92 -1.6
6.48 2.45 0.61
6.69 2.53 -1.13
6.94 2.63 0.91
6.7 2.54 -0.88
7.06 2.67 1.2
6.74 2.55 -0.63
5.7 2.13 -1.63
7.64 2.86 0.14
6.55 2.45 -1.61
6.47 2.42 0.36
7.72 2.89 -1.6
6.48 2.43 0.61
6.78 2.54 -1.15
7.03 2.63 0.92
6.79 2.54 -0.89
7.22 2.7 1.22
6.81 2.55 -0.64
6.96 2.61 -0.13
5.69 2.11 -1.63
6.56 2.43 -1.62
6.47 2.4 0.36
7.72 2.86 -1.6
6.48 2.4 0.6
6.86 2.54 -1.16
7.13 2.64 0.93
6.9 2.56 -0.9
6.9 2.55 -0.64
7.01 2.59 -0.13
5.7 2.09 -1.63
7.17 2.63 0.13
6.57 2.41 -1.62
6.5 2.38 0.36
7.73 2.83 -1.6
6.51 2.39 0.61
6.95 2.55 -1.17
7.23 2.65 0.95
6.98 2.56 -0.91
6.99 2.56 -0.65
7.1 2.6 -0.13
5.71 2.07 -1.63
7.18 2.6 0.13
6.57 2.38 -1.61
6.52 2.36 0.36
7.74 2.8 -1.6
6.55 2.38 0.61
7.04 2.55 -1.19
7.31 2.65 0.95
7.08 2.57 -0.92
43.6 15.8 7.35
7.08 2.57 -0.66
5.72 2.05 -1.63
6.58 2.36 -1.61
7.74 2.78 -1.6
7.14 2.56 -1.2
7.42 2.66 0.97
7.16 2.56 -0.93
7.19 2.58 -0.67
5.73 2.03 -1.63
6.59 2.34 -1.61
7.74 2.75 -1.6
7.25 2.57 -1.22
7.52 2.67 0.98
7.27 2.58 -0.95
7.29 2.59 -0.68
5.72 2.01 -1.63
6.6 2.32 -1.62
7.75 2.72 -1.6
7.34 2.57 -1.23
7.63 2.68 0.99
7.36 2.58 -0.96
7.38 2.59 -0.68
5.73 1.99 -1.62
46.81 16.24 0.86
6.61 2.29 -1.61
7.76 2.69 -1.6
7.44 2.58 -1.25
7.73 2.68 1.01
7.47 2.59 -0.97
7.49 2.6 -0.69
5.75 1.97 -1.63
6.6 2.27 -1.61
7.77 2.67 -1.6
7.84 2.69 0.72
7.53 2.58 -1.26
7.85 2.69 1.02
7.57 2.6 -0.98
7.59 2.6 -0.7
5.76 1.95 -1.63
7.8 2.64 0.14
6.62 2.24 -1.61
7.85 2.66 0.43
7.77 2.64 -1.6
7.95 2.69 0.73
7.65 2.59 -1.28
7.96 2.7 1.03
7.68 2.6 -1
7.69 2.61 -0.71
7.73 2.62 -0.43
7.84 2.66 -0.14
5.76 1.93 -1.63
7.88 2.64 0.15
6.64 2.23 -1.62
7.93 2.66 0.44
7.77 2.6 -1.59
7.79 2.61 -1.3
8.08 2.71 1.05
7.78 2.61 -1.01
7.8 2.62 -0.72
7.82 2.62 -0.43
7.86 2.64 -0.14
5.77 1.91 -1.63
6.65 2.2 -1.62
7.77 2.58 -1.59
8.43 2.8 -1.41
8.19 2.71 1.06
7.9 2.62 -1.02
7.9 2.62 -0.73
7.95 2.63 -0.44
5.76 1.89 -1.62
46.94 15.38 0.86
6.64 2.18 -1.61
7.78 2.55 -1.59
8.44 2.77 -1.41
8.33 2.73 1.08
8 2.62 -1.03
8.02 2.63 -0.74
8.05 2.64 -0.44
8.76 2.87 -0.16
5.78 1.87 -1.63
47.2 15.28 0.87
6.64 2.15 -1.61
7.79 2.52 -1.59
8.45 2.73 -1.41
8.45 2.73 1.09
8.13 2.63 -1.05
8.15 2.64 -0.75
8.16 2.64 -0.45
8.75 2.83 -0.16
5.79 1.85 -1.63
6.65 2.13 -1.61
7.79 2.49 -1.59
8.62 2.76 0.79
8.47 2.71 -1.41
8.25 2.64 -1.06
8.25 2.64 -0.76
8.28 2.65 -0.46
8.75 2.8 -0.16
5.8 1.83 -1.63
6.66 2.1 -1.61
7.79 2.46 -1.59
8.72 2.75 0.8
8.57 2.71 -1.42
8.54 2.7 -1.1
8.37 2.64 -0.77
8.41 2.66 -0.46
11.71 3.7 -0.21
5.8 1.81 -1.63
6.68 2.08 -1.62
7.8 2.44 -1.59
8.67 2.7 -1.44
8.63 2.69 -1.11
8.86 2.76 -0.81
8.55 2.67 -0.47
11.67 3.64 -0.21
5.8 1.79 -1.63
6.68 2.06 -1.61
7.81 2.41 -1.59
8.8 2.71 -1.46
8.63 2.66 -1.11
8.96 2.76 -0.82
8.64 2.66 -0.47
11.73 3.62 -0.21
5.81 1.77 -1.63
6.67 2.03 -1.61
7.81 2.38 -1.59
8.95 2.72 -1.48
8.9 2.71 -1.14
9.05 2.75 -0.83
8.77 2.67 -0.48
11.68 3.55 -0.21
5.82 1.75 -1.63
6.69 2.01 -1.61
7.83 2.36 -1.59
9.45 2.84 -1.56
8.95 2.69 -1.15
9.33 2.81 -0.85
8.91 2.68 -0.49
5.84 1.73 -1.63
6.7 1.99 -1.61
7.83 2.33 -1.59
9.45 2.81 -1.56
9.49 2.82 1.22
9.05 2.69 -1.16
9.36 2.78 -0.85
9.06 2.69 -0.5
5.82 1.71 -1.63
6.71 1.97 -1.62
7.84 2.3 -1.59
9.46 2.77 -1.56
9.65 2.83 1.24
9.28 2.72 -0.85
9.22 2.7 -0.5
5.84 1.69 -1.63
9.59 2.78 0.17
6.71 1.94 -1.61
7.86 2.27 -1.59
9.45 2.74 -1.56
9.39 2.72 -1.2
9.36 2.71 -0.85
9.39 2.72 -0.51
9.6 2.78 -0.17
5.85 1.67 -1.63
83.33 23.81 1.51
6.71 1.92 -1.61
7.87 2.25 -1.59
9.46 2.7 -1.56
9.54 2.73 -1.22
9.52 2.72 -0.87
9.55 2.73 -0.52
9.66 2.76 -0.18
5.86 1.65 -1.63
6.73 1.9 -1.61
13.69 3.86 0.75
7.87 2.22 -1.59
9.46 2.67 -1.56
9.68 2.73 -1.24
9.7 2.74 -0.88
9.7 2.74 -0.53
5.86 1.63 -1.63
6.74 1.87 -1.62
7.87 2.19 -1.59
9.47 2.63 -1.56
9.86 2.74 -1.26
9.88 2.75 -0.9
9.87 2.75 -0.54
5.86 1.61 -1.63
6.75 1.85 -1.62
7.89 2.16 -1.59
9.48 2.6 -1.56
10.06 2.76 -1.28
10.04 2.76 -0.91
10.05 2.76 -0.55
11.65 3.2 -0.21
5.87 1.59 -1.63
6.76 1.83 -1.62
7.9 2.14 -1.59
9.48 2.57 -1.56
12.05 3.26 -1.53
10.23 2.77 -0.93
10.24 2.77 -0.56
11.66 3.15 -0.21
5.88 1.57 -1.63
83.73 22.35 1.51
6.75 1.8 -1.61
7.9 2.11 -1.59
10.78 2.88 0.98
9.5 2.53 -1.56
12.06 3.22 -1.53
10.42 2.78 -0.94
10.4 2.78 -0.56
5.88 1.55 -1.63
6.76 1.78 -1.61
7.91 2.08 -1.59
10.96 2.89 0.99
9.5 2.5 -1.56
12.04 3.17 -1.53
10.62 2.8 -0.96
10.6 2.79 -0.57
5.89 1.53 -1.63
6.77 1.76 -1.61
11.1 2.88 0.6
7.91 2.05 -1.59
11.15 2.9 1.01
9.5 2.47 -1.56
12.05 3.13 -1.53
10.81 2.81 -0.98
10.79 2.8 -0.58
5.89 1.51 -1.63
83.93 21.49 1.51
6.78 1.74 -1.62
7.92 2.03 -1.59
11.38 2.91 1.03
9.51 2.44 -1.56
12.05 3.08 -1.53
11 2.82 -0.99
10.99 2.81 -0.59
11.12 2.85 -0.2
5.89 1.49 -1.63
6.79 1.71 -1.62
7.93 2 -1.59
11.61 2.93 1.05
9.52 2.4 -1.56
12.06 3.04 -1.53
11.22 2.83 -1.01
11.22 2.83 -0.61
5.9 1.47 -1.63
6.78 1.68 -1.61
7.95 1.98 -1.59
11.85 2.95 1.07
9.53 2.37 -1.55
12.05 2.99 -1.52
11.45 2.85 -1.03
11.46 2.85 -0.62
5.91 1.45 -1.63
6.79 1.66 -1.61
7.95 1.95 -1.59
12.1 2.96 1.09
9.54 2.34 -1.56
12.04 2.95 -1.52
11.69 2.86 -1.05
11.69 2.86 -0.63
5.91 1.43 -1.63
6.8 1.64 -1.61
7.95 1.92 -1.59
12.33 2.97 1.11
9.54 2.3 -1.55
12.05 2.91 -1.52
11.93 2.88 -1.07
11.93 2.88 -0.64
5.91 1.4 -1.63
6.81 1.62 -1.62
7.96 1.89 -1.59
12.61 3 1.13
9.56 2.27 -1.56
12.04 2.86 -1.52
12.16 2.89 -1.09
12.16 2.89 -0.66
5.92 1.39 -1.63
12.92 3.02 0.23
6.81 1.59 -1.61
7.97 1.86 -1.59
12.89 3.01 1.16
9.56 2.23 -1.55
12.05 2.82 -1.52
12.42 2.9 -1.12
12.4 2.9 -0.67
5.92 1.36 -1.63
6.81 1.57 -1.61
7.98 1.84 -1.59
9.56 2.2 -1.55
12.04 2.77 -1.52
12.69 2.92 -1.14
12.67 2.92 -0.68
49.74 11.45 -0.89
5.94 1.34 -1.63
6.82 1.54 -1.61
7.99 1.81 -1.59
9.58 2.17 -1.56
12.05 2.73 -1.52
12.97 2.93 -1.16
12.95 2.93 -0.7
5.94 1.32 -1.63
75.6 16.84 1.35
6.83 1.52 -1.62
7.99 1.78 -1.59
9.59 2.14 -1.56
12.06 2.69 -1.52
13.27 2.96 -1.19
13.24 2.95 -0.71
5.94 1.3 -1.63
75.77 16.6 1.35
6.84 1.5 -1.62
8 1.75 -1.59
9.59 2.1 -1.56
12.08 2.65 -1.52
13.57 2.97 -1.22
13.54 2.97 -0.73
5.94 1.28 -1.63
75.76 16.33 1.35
6.84 1.48 -1.62
8 1.73 -1.59
14.48 3.12 1.3
9.6 2.07 -1.55
12.09 2.61 -1.52
14.29 3.08 -1.28
13.84 2.98 -0.74
5.95 1.26 -1.63
6.84 1.45 -1.61
8.01 1.7 -1.59
15.01 3.18 1.34
9.6 2.03 -1.55
12.1 2.56 -1.52
14.38 3.05 -1.29
14.32 3.03 -0.77
5.97 1.24 -1.63
85.12 17.73 1.52
6.84 1.43 -1.61
8.02 1.67 -1.59
16.31 3.4 1.46
9.62 2 -1.56
12.09 2.52 -1.52
14.74 3.07 -1.32
14.87 3.1 -0.8
14.63 3.05 -0.26
5.97 1.22 -1.63
6.85 1.4 -1.61
8.02 1.64 -1.59
16.36 3.35 1.46
9.63 1.97 -1.56
12.1 2.48 -1.52
14.9 3.05 -1.33
15.18 3.11 -0.81
15 3.07 -0.27
5.96 1.2 -1.63
6.87 1.38 -1.62
8.02 1.61 -1.59
16.58 3.33 1.48
9.63 1.94 -1.56
12.12 2.43 -1.52
16.22 3.26 -1.45
15.24 3.06 -0.81
32.22 6.47 -0.57
5.97 1.18 -1.63
6.87 1.36 -1.62
8.03 1.58 -1.59
16.93 3.34 1.51
9.63 1.9 -1.55
12.12 2.39 -1.52
16.23 3.2 -1.45
15.67 3.09 -0.84
32.21 6.35 -0.57
5.98 1.16 -1.63
6.86 1.33 -1.61
8.04 1.56 -1.59
17.35 3.36 1.55
9.63 1.87 -1.55
12.12 2.35 -1.52
16.22 3.14 -1.45
16.12 3.12 -0.86
32.25 6.25 -0.57
5.98 1.14 -1.63
6.87 1.31 -1.62
8.05 1.53 -1.59
9.66 1.84 -1.56
12.13 2.3 -1.52
16.22 3.08 -1.44
16.56 3.15 -0.88
16.68 3.17 -0.3
5.99 1.12 -1.63
17.62 3.29 0.31
6.89 1.28 -1.62
8.05 1.5 -1.59
9.66 1.8 -1.56
12.14 2.26 -1.52
16.21 3.02 -1.44
17.04 3.18 -0.91
17.14 3.19 -0.3
5.99 1.09 -1.63
6.9 1.26 -1.62
8.06 1.47 -1.59
9.67 1.77 -1.56
12.16 2.22 -1.52
16.2 2.96 -1.44
17.59 3.22 -0.94
17.65 3.23 -0.31
5.99 1.07 -1.63
6.9 1.24 -1.62
8.06 1.44 -1.59
9.67 1.73 -1.56
12.17 2.18 -1.52
16.22 2.91 -1.44
24.95 4.47 -1.33
6 1.05 -1.63
6.9 1.21 -1.62
8.07 1.42 -1.59
9.68 1.7 -1.56
12.17 2.14 -1.52
16.24 2.85 -1.44
6.01 1.03 -1.63
6.91 1.19 -1.62
8.07 1.39 -1.59
9.68 1.67 -1.56
12.17 2.09 -1.52
16.24 2.79 -1.44
24.79 4.26 -1.32
6.01 1.01 -1.63
6.92 1.17 -1.62
8.07 1.36 -1.59
9.7 1.63 -1.56
12.18 2.05 -1.52
16.25 2.74 -1.44
24.8 4.18 -1.32
6.01 0.99 -1.63
6.93 1.14 -1.62
8.08 1.33 -1.59
9.7 1.6 -1.56
12.19 2.01 -1.52
16.26 2.68 -1.44
24.82 4.09 -1.32
6.02 0.97 -1.63
6.94 1.12 -1.62
8.09 1.31 -1.59
9.7 1.57 -1.56
12.21 1.97 -1.52
16.26 2.63 -1.44
24.83 4.01 -1.32
6.02 0.95 -1.63
6.93 1.09 -1.62
8.1 1.28 -1.59
9.71 1.53 -1.56
12.21 1.93 -1.52
16.27 2.57 -1.44
24.77 3.91 -1.31
6.03 0.93 -1.63
6.94 1.07 -1.62
8.11 1.25 -1.6
9.71 1.5 -1.56
12.19 1.88 -1.51
16.28 2.51 -1.44
24.73 3.82 -1.31
6.03 0.91 -1.63
6.94 1.05 -1.62
8.12 1.22 -1.6
9.73 1.47 -1.56
12.22 1.84 -1.52
16.29 2.46 -1.44
24.67 3.72 -1.31
6.02 0.89 -1.63
6.95 1.02 -1.62
8.12 1.19 -1.6
9.73 1.43 -1.56
12.23 1.8 -1.52
16.3 2.4 -1.44
24.59 3.62 -1.3
6.03 0.87 -1.63
6.96 1 -1.62
8.13 1.17 -1.6
9.73 1.4 -1.56
12.24 1.76 -1.52
16.31 2.34 -1.44
24.58 3.53 -1.3
6.03 0.84 -1.63
6.95 0.97 -1.62
8.14 1.14 -1.6
9.73 1.36 -1.56
12.25 1.72 -1.52
16.32 2.28 -1.44
24.59 3.44 -1.3
6.04 0.82 -1.63
6.95 0.95 -1.62
8.15 1.11 -1.6
9.76 1.33 -1.56
12.25 1.67 -1.52
16.35 2.23 -1.44
24.56 3.35 -1.3
6.04 0.8 -1.63
6.95 0.92 -1.62
8.14 1.08 -1.6
9.77 1.3 -1.56
12.25 1.63 -1.52
16.34 2.17 -1.44
24.6 3.27 -1.3
6.04 0.78 -1.63
6.96 0.9 -1.62
8.15 1.05 -1.6
9.77 1.26 -1.56
12.27 1.59 -1.52
16.37 2.12 -1.44
24.6 3.18 -1.3
6.04 0.76 -1.63
6.96 0.88 -1.62
8.16 1.03 -1.6
9.77 1.23 -1.56
12.28 1.54 -1.52
16.37 2.06 -1.44
24.63 3.1 -1.3
6.05 0.74 -1.63
6.94 0.85 -1.61
8.15 1 -1.6
9.77 1.19 -1.56
12.29 1.5 -1.52
16.38 2 -1.44
24.62 3.01 -1.3
6.06 0.72 -1.63
6.94 0.82 -1.61
8.16 0.97 -1.6
9.78 1.16 -1.56
12.29 1.46 -1.52
16.4 1.95 -1.44
24.65 2.93 -1.3
6.05 0.7 -1.63
6.96 0.8 -1.62
8.14 0.94 -1.59
9.79 1.13 -1.56
12.3 1.42 -1.52
15.5 1.79 -1.37
14.95 1.72 -0.79
6.05 0.67 -1.63
6.96 0.78 -1.62
8.14 0.91 -1.59
9.78 1.09 -1.56
12.3 1.37 -1.52
15.48 1.73 -1.36
14.85 1.66 -0.78
6.05 0.65 -1.63
6.97 0.75 -1.62
8.15 0.88 -1.59
9.77 1.06 -1.56
12.31 1.33 -1.52
15.48 1.67 -1.36
14.86 1.61 -0.78
15.58 1.68 -0.27
6.06 0.64 -1.63
6.96 0.73 -1.62
8.15 0.85 -1.59
9.78 1.03 -1.56
12.32 1.29 -1.52
15.49 1.62 -1.36
14.83 1.56 -0.78
6.07 0.62 -1.63
6.96 0.71 -1.62
8.15 0.83 -1.59
9.78 0.99 -1.56
12.31 1.25 -1.52
15.55 1.58 -1.37
14.84 1.5 -0.78
6.06 0.59 -1.63
6.97 0.68 -1.62
8.15 0.8 -1.59
9.79 0.96 -1.56
12.31 1.21 -1.52
16.44 1.61 -1.44
14.83 1.45 -0.78
6.05 0.57 -1.63
6.98 0.66 -1.62
8.16 0.77 -1.59
9.79 0.92 -1.56
12.33 1.16 -1.52
16.44 1.55 -1.44
14.84 1.4 -0.78
6.06 0.55 -1.63
6.98 0.63 -1.62
8.16 0.74 -1.59
9.78 0.89 -1.56
12.34 1.12 -1.52
16.44 1.49 -1.44
14.82 1.35 -0.78
6.07 0.53 -1.63
6.97 0.61 -1.61
8.17 0.71 -1.59
9.79 0.85 -1.56
12.33 1.08 -1.52
16.44 1.44 -1.44
14.81 1.29 -0.78
6.07 0.51 -1.63
6.97 0.58 -1.61
8.17 0.68 -1.59
9.8 0.82 -1.56
12.33 1.03 -1.52
16.47 1.38 -1.45
14.85 1.24 -0.78
6.06 0.49 -1.63
6.98 0.56 -1.62
8.16 0.66 -1.59
9.81 0.79 -1.56
12.34 0.99 -1.52
16.46 1.32 -1.44
14.86 1.19 -0.78
14.93 1.2 -0.26
6.07 0.47 -1.63
6.99 0.54 -1.62
8.17 0.63 -1.59
9.8 0.75 -1.56
12.35 0.95 -1.52
16.47 1.26 -1.45
14.86 1.14 -0.78
14.89 1.14 -0.26
6.07 0.44 -1.63
7 0.51 -1.62
8.17 0.6 -1.59
9.8 0.72 -1.56
12.36 0.91 -1.52
16.48 1.21 -1.45
14.83 1.09 -0.78
14.87 1.09 -0.26
6.07 0.42 -1.63
6.99 0.49 -1.62
8.19 0.57 -1.6
9.81 0.68 -1.56
12.36 0.86 -1.52
16.49 1.15 -1.45
14.81 1.03 -0.78
14.88 1.04 -0.26
6.08 0.4 -1.63
6.98 0.46 -1.62
8.18 0.54 -1.59
9.81 0.65 -1.56
12.35 0.82 -1.52
16.5 1.09 -1.45
14.82 0.98 -0.78
14.88 0.99 -0.26
6.08 0.38 -1.63
7 0.44 -1.62
8.18 0.51 -1.59
9.83 0.62 -1.56
12.36 0.78 -1.52
16.5 1.04 -1.45
14.81 0.93 -0.78
14.86 0.93 -0.26
6.07 0.36 -1.63
7.01 0.42 -1.62
8.18 0.48 -1.59
9.83 0.58 -1.56
12.37 0.73 -1.52
16.5 0.98 -1.45
14.83 0.88 -0.78
14.82 0.88 -0.26
6.08 0.34 -1.63
7.01 0.39 -1.62
8.19 0.46 -1.59
9.82 0.55 -1.56
12.37 0.69 -1.52
16.51 0.92 -1.45
14.82 0.83 -0.78
14.83 0.83 -0.26
6.08 0.32 -1.63
7 0.37 -1.62
8.2 0.43 -1.6
9.83 0.51 -1.56
12.39 0.65 -1.52
16.51 0.86 -1.45
14.82 0.77 -0.78
14.87 0.78 -0.26
6.08 0.3 -1.63
7 0.34 -1.62
8.2 0.4 -1.6
9.84 0.48 -1.56
12.38 0.61 -1.52
16.52 0.81 -1.45
14.82 0.72 -0.78
14.88 0.73 -0.26
6.08 0.28 -1.63
7.01 0.32 -1.62
8.19 0.37 -1.59
9.84 0.45 -1.56
12.38 0.56 -1.52
16.52 0.75 -1.45
14.85 0.67 -0.78
14.87 0.68 -0.26
6.08 0.25 -1.63
7.01 0.29 -1.62
8.2 0.34 -1.59
9.84 0.41 -1.56
12.39 0.52 -1.52
16.53 0.69 -1.45
14.85 0.62 -0.78
14.9 0.62 -0.26
6.08 0.23 -1.63
7.01 0.27 -1.62
8.2 0.32 -1.6
9.83 0.38 -1.56
12.4 0.48 -1.52
16.52 0.63 -1.45
14.88 0.57 -0.78
14.9 0.57 -0.26
6.1 0.21 -1.63
74.46 2.6 1.3
7 0.24 -1.62
8.21 0.29 -1.6
9.84 0.34 -1.56
12.4 0.43 -1.52
16.54 0.58 -1.45
14.88 0.52 -0.78
14.93 0.52 -0.26
6.1 0.19 -1.63
7.01 0.22 -1.62
8.2 0.26 -1.6
9.85 0.31 -1.56
12.4 0.39 -1.52
16.56 0.52 -1.45
14.91 0.47 -0.78
14.94 0.47 -0.26
6.1 0.17 -1.63
7.01 0.2 -1.62
8.2 0.23 -1.59
9.85 0.28 -1.56
12.41 0.35 -1.52
16.56 0.46 -1.45
14.93 0.42 -0.78
15.07 0.42 -0.26
6.09 0.15 -1.63
74.43 1.82 1.3
7.03 0.17 -1.62
8.2 0.2 -1.59
9.85 0.24 -1.56
12.41 0.3 -1.52
16.55 0.4 -1.45
14.97 0.37 -0.78
6.09 0.13 -1.63
7.02 0.15 -1.62
8.2 0.17 -1.6
9.85 0.21 -1.56
12.41 0.26 -1.52
16.56 0.35 -1.45
14.97 0.31 -0.78
6.1 0.11 -1.63
7.01 0.12 -1.62
8.21 0.14 -1.6
9.84 0.17 -1.56
12.41 0.22 -1.52
16.56 0.29 -1.45
14.97 0.26 -0.78
6.11 0.09 -1.64
7.01 0.1 -1.62
8.21 0.11 -1.6
9.86 0.14 -1.56
12.41 0.17 -1.52
16.56 0.23 -1.45
14.95 0.21 -0.78
6.1 0.06 -1.64
7.02 0.07 -1.62
8.2 0.09 -1.59
9.85 0.1 -1.56
12.41 0.13 -1.52
15.74 0.16 -1.38
14.93 0.16 -0.78
6.09 0.04 -1.63
7.02 0.05 -1.62
8.21 0.06 -1.6
9.86 0.07 -1.56
12.42 0.09 -1.53
15.61 0.11 -1.37
14.93 0.1 -0.78
6.09 0.02 -1.63
7.02 0.02 -1.62
8.21 0.03 -1.6
9.85 0.03 -1.56
12.43 0.04 -1.53
15.61 0.05 -1.37
14.96 0.05 -0.78
6.1 0 -1.64
7.01 0 -1.62
8.21 0 -1.6
9.86 0 -1.56
12.42 0 -1.53
15.63 0 -1.37
14.96 0 -0.78
6.11 -0.02 -1.64
7.02 -0.02 -1.62
8.22 -0.03 -1.6
9.86 -0.03 -1.56
12.41 -0.04 -1.52
15.65 -0.05 -1.37
14.95 -0.05 -0.78
6.1 -0.04 -1.64
7.02 -0.05 -1.62
8.2 -0.06 -1.59
9.86 -0.07 -1.56
12.41 -0.09 -1.52
16.57 -0.12 -1.45
14.94 -0.1 -0.78
6.1 -0.06 -1.63
7.03 -0.07 -1.62
8.21 -0.09 -1.6
9.86 -0.1 -1.56
12.42 -0.13 -1.53
16.56 -0.17 -1.45
14.94 -0.16 -0.78
6.1 -0.08 -1.63
7.03 -0.1 -1.62
8.21 -0.11 -1.6
9.85 -0.14 -1.56
12.42 -0.17 -1.53
16.57 -0.23 -1.45
6.1 -0.11 -1.64
7.02 -0.12 -1.62
8.21 -0.14 -1.6
9.86 -0.17 -1.56
12.42 -0.21 -1.53
16.59 -0.29 -1.45
23.59 -0.41 -1.24
6.11 -0.13 -1.64
7.02 -0.15 -1.62
8.21 -0.17 -1.6
9.86 -0.2 -1.56
12.42 -0.26 -1.53
16.6 -0.34 -1.45
23.41 -0.49 -1.23
6.11 -0.15 -1.64
7.02 -0.17 -1.62
8.21 -0.2 -1.6
9.86 -0.24 -1.56
12.41 -0.3 -1.52
16.59 -0.4 -1.45
23.5 -0.57 -1.23
6.1 -0.17 -1.64
7.03 -0.2 -1.62
8.21 -0.23 -1.6
9.86 -0.27 -1.56
12.41 -0.34 -1.52
16.59 -0.46 -1.45
23.47 -0.65 -1.23
6.09 -0.19 -1.63
7.03 -0.22 -1.62
8.21 -0.26 -1.6
9.85 -0.31 -1.56
12.41 -0.39 -1.53
16.6 -0.52 -1.45
23.47 -0.73 -1.23
6.1 -0.21 -1.64
76.98 -2.67 1.34
7.02 -0.24 -1.62
8.21 -0.29 -1.6
9.85 -0.34 -1.56
12.42 -0.43 -1.53
16.64 -0.58 -1.46
23.43 -0.81 -1.23
41.28 -1.43 -0.72
6.11 -0.23 -1.64
7.02 -0.27 -1.62
8.21 -0.31 -1.6
9.85 -0.38 -1.56
12.42 -0.47 -1.53
16.65 -0.64 -1.46
23.33 -0.89 -1.22
41.12 -1.57 -0.72
6.11 -0.25 -1.64
76.8 -3.21 1.34
7.02 -0.29 -1.62
8.21 -0.34 -1.6
9.85 -0.41 -1.56
12.41 -0.52 -1.53
16.68 -0.7 -1.46
23.25 -0.97 -1.22
6.1 -0.28 -1.64
7.03 -0.32 -1.62
8.2 -0.37 -1.6
9.85 -0.45 -1.56
12.41 -0.56 -1.53
16.66 -0.75 -1.46
23.06 -1.04 -1.21
24.58 -1.11 -0.43
6.1 -0.3 -1.64
7.03 -0.34 -1.62
8.21 -0.4 -1.6
9.84 -0.48 -1.56
12.43 -0.61 -1.53
16.44 -0.8 -1.44
22.93 -1.12 -1.2
24.64 -1.2 -0.43
6.11 -0.32 -1.64
7.01 -0.37 -1.62
8.21 -0.43 -1.6
9.85 -0.51 -1.56
12.42 -0.65 -1.53
16.4 -0.86 -1.44
22.87 -1.19 -1.2
6.1 -0.34 -1.64
7.01 -0.39 -1.62
8.21 -0.46 -1.6
9.85 -0.55 -1.56
12.43 -0.69 -1.53
16.39 -0.91 -1.44
22.86 -1.27 -1.2
23.4 -1.3 -0.41
6.11 -0.36 -1.64
7.02 -0.41 -1.62
8.2 -0.48 -1.6
9.84 -0.58 -1.56
12.43 -0.73 -1.53
16.36 -0.96 -1.43
22.92 -1.35 -1.2
40.47 -2.39 -0.71
6.09 -0.38 -1.64
7.02 -0.44 -1.62
8.2 -0.51 -1.6
9.84 -0.62 -1.56
12.44 -0.78 -1.53
16.3 -1.02 -1.43
22.93 -1.43 -1.2
40.49 -2.53 -0.71
6.1 -0.4 -1.64
7.02 -0.46 -1.63
8.2 -0.54 -1.6
9.84 -0.65 -1.56
12.45 -0.82 -1.53
16.27 -1.07 -1.43
22.91 -1.51 -1.2
6.1 -0.42 -1.64
7 -0.49 -1.62
8.2 -0.57 -1.6
9.84 -0.68 -1.56
12.47 -0.87 -1.54
16.25 -1.13 -1.43
22.94 -1.6 -1.2
6.11 -0.45 -1.64
101.33 -7.4 1.77
7.01 -0.51 -1.62
8.2 -0.6 -1.6
9.84 -0.72 -1.56
12.46 -0.91 -1.53
16.23 -1.18 -1.42
22.92 -1.67 -1.2
6.1 -0.47 -1.64
99.37 -7.61 1.74
7.01 -0.54 -1.62
8.19 -0.63 -1.6
9.84 -0.75 -1.56
12.47 -0.95 -1.54
16.18 -1.24 -1.42
22.99 -1.76 -1.21
6.09 -0.49 -1.64
7.02 -0.56 -1.63
8.19 -0.66 -1.6
9.84 -0.79 -1.56
12.46 -1 -1.53
16.15 -1.29 -1.42
23.21 -1.86 -1.22
6.08 -0.51 -1.64
7.01 -0.59 -1.62
8.2 -0.69 -1.6
9.84 -0.82 -1.56
12.38 -1.04 -1.53
16.12 -1.35 -1.42
23.3 -1.95 -1.23
6.09 -0.53 -1.64
85.6 -7.45 1.5
7 -0.61 -1.62
8.2 -0.71 -1.6
9.85 -0.86 -1.57
12.14 -1.06 -1.5
16.09 -1.4 -1.41
23.3 -2.03 -1.23
6.09 -0.55 -1.64
7 -0.63 -1.62
8.2 -0.74 -1.6
9.87 -0.89 -1.57
11.92 -1.08 -1.47
15.39 -1.4 -1.35
23.17 -2.1 -1.22
6.08 -0.57 -1.64
7.01 -0.66 -1.63
8.19 -0.77 -1.6
9.87 -0.93 -1.57
11.74 -1.1 -1.45
15.23 -1.43 -1.34
23.44 -2.21 -1.23
6.07 -0.59 -1.63
7.01 -0.68 -1.63
8.19 -0.8 -1.6
9.88 -0.96 -1.57
11.55 -1.13 -1.43
15.02 -1.47 -1.32
23.43 -2.29 -1.23
6.07 -0.61 -1.64
7.01 -0.71 -1.63
8.19 -0.83 -1.6
9.86 -1 -1.57
11.38 -1.15 -1.4
15.12 -1.53 -1.33
23.51 -2.38 -1.24
6.07 -0.64 -1.64
6.99 -0.73 -1.62
8.19 -0.86 -1.6
9.88 -1.03 -1.57
11.21 -1.17 -1.38
14.98 -1.57 -1.32
23.59 -2.47 -1.24
6.08 -0.66 -1.64
6.99 -0.76 -1.62
8.2 -0.89 -1.6
9.87 -1.07 -1.57
11.07 -1.2 -1.37
15.04 -1.63 -1.32
23.74 -2.57 -1.25
6.08 -0.68 -1.64
6.99 -0.78 -1.62
8.19 -0.92 -1.6
9.88 -1.1 -1.57
11.06 -1.24 -1.37
15.14 -1.69 -1.33
23.6 -2.64 -1.24
6.06 -0.7 -1.63
6.99 -0.81 -1.63
8.2 -0.95 -1.61
9.87 -1.14 -1.57
11.05 -1.27 -1.37
15.13 -1.74 -1.33
23.62 -2.72 -1.25
6.06 -0.72 -1.64
6.99 -0.83 -1.63
8.21 -0.98 -1.61
9.84 -1.17 -1.57
11.02 -1.31 -1.36
14.99 -1.78 -1.32
23.58 -2.8 -1.24
6.07 -0.74 -1.64
6.98 -0.85 -1.62
8.22 -1.01 -1.61
9.82 -1.2 -1.57
11 -1.35 -1.36
14.97 -1.83 -1.32
23.38 -2.86 -1.23
6.07 -0.76 -1.64
23.68 -2.98 0.42
6.98 -0.88 -1.62
23.62 -2.98 1.25
8.22 -1.04 -1.61
23.59 -2.97 2.08
9.7 -1.22 -1.55
10.97 -1.38 -1.36
14.98 -1.89 -1.32
23.3 -2.93 -1.23
23.68 -2.98 -0.42
6.07 -0.79 -1.64
6.98 -0.9 -1.63
8.2 -1.06 -1.61
9.56 -1.24 -1.53
89.85 -11.63 11.12
10.96 -1.42 -1.36
14.97 -1.94 -1.32
23.18 -3 -1.23
6.05 -0.81 -1.64
6.99 -0.93 -1.63
8.21 -1.09 -1.61
9.43 -1.25 -1.51
89.8 -11.95 11.12
10.96 -1.46 -1.36
14.93 -1.99 -1.32
23.13 -3.08 -1.22
6.05 -0.83 -1.64
6.98 -0.95 -1.63
8.2 -1.12 -1.61
9.32 -1.27 -1.49
89.82 -12.26 11.13
10.95 -1.5 -1.36
15.09 -2.06 -1.33
23.01 -3.14 -1.22
6.05 -0.85 -1.64
6.99 -0.98 -1.63
8.21 -1.15 -1.61
9.19 -1.29 -1.47
89.92 -12.59 11.15
10.93 -1.53 -1.36
14.95 -2.09 -1.32
22.97 -3.22 -1.22
6.06 -0.87 -1.64
6.98 -1 -1.63
8.2 -1.18 -1.61
9.09 -1.3 -1.45
10.91 -1.57 -1.35
14.81 -2.12 -1.31
23.21 -3.33 -1.23
6.06 -0.89 -1.64
6.99 -1.03 -1.63
8.18 -1.2 -1.61
90.08 -13.25 7.97
8.98 -1.32 -1.44
10.9 -1.6 -1.35
14.84 -2.18 -1.31
23.4 -3.44 -1.24
6.05 -0.91 -1.64
6.99 -1.05 -1.63
8.18 -1.23 -1.61
90.04 -13.56 7.97
8.88 -1.34 -1.42
10.88 -1.64 -1.35
14.79 -2.23 -1.31
24.33 -3.66 -1.29
6.04 -0.93 -1.64
6.99 -1.08 -1.63
8.18 -1.26 -1.61
8.76 -1.35 -1.4
10.86 -1.67 -1.35
14.77 -2.28 -1.31
24.12 -3.72 -1.28
6.05 -0.95 -1.64
6.98 -1.1 -1.63
8.18 -1.29 -1.61
8.7 -1.37 -1.4
10.86 -1.71 -1.35
14.79 -2.33 -1.31
23.99 -3.78 -1.27
6.05 -0.98 -1.64
6.98 -1.13 -1.63
8.13 -1.31 -1.6
8.71 -1.41 -1.4
10.84 -1.75 -1.35
14.7 -2.37 -1.3
23.89 -3.86 -1.27
6.05 -1 -1.64
6.98 -1.15 -1.63
8.04 -1.33 -1.58
8.7 -1.43 -1.4
10.81 -1.78 -1.35
14.71 -2.43 -1.3
23.82 -3.93 -1.27
6.03 -1.02 -1.64
6.98 -1.18 -1.63
7.94 -1.34 -1.57
90.18 -15.2 8
8.69 -1.46 -1.4
10.82 -1.82 -1.35
14.63 -2.47 -1.3
23.75 -4 -1.26
6.04 -1.04 -1.64
6.98 -1.2 -1.64
7.86 -1.35 -1.55
8.65 -1.49 -1.39
10.81 -1.86 -1.35
14.77 -2.54 -1.31
23.68 -4.07 -1.26
6.04 -1.06 -1.64
6.97 -1.22 -1.63
7.77 -1.37 -1.53
8.64 -1.52 -1.39
10.79 -1.89 -1.35
14.71 -2.58 -1.31
23.54 -4.13 -1.25
6.05 -1.08 -1.65
6.97 -1.25 -1.63
7.7 -1.38 -1.52
8.64 -1.55 -1.39
10.77 -1.93 -1.34
14.6 -2.62 -1.3
23.45 -4.2 -1.25
6.05 -1.11 -1.65
6.97 -1.28 -1.64
7.61 -1.39 -1.5
8.64 -1.58 -1.39
10.75 -1.97 -1.34
14.62 -2.68 -1.3
23.38 -4.28 -1.25
6.03 -1.13 -1.64
6.97 -1.3 -1.64
7.52 -1.4 -1.49
8.63 -1.61 -1.39
10.73 -2 -1.34
14.59 -2.72 -1.3
23.34 -4.35 -1.24
6.04 -1.15 -1.65
6.96 -1.32 -1.64
7.46 -1.42 -1.48
8.6 -1.63 -1.39
10.72 -2.04 -1.34
14.55 -2.76 -1.3
23.21 -4.41 -1.24
6.04 -1.17 -1.65
6.96 -1.35 -1.64
7.38 -1.43 -1.46
8.6 -1.66 -1.39
10.72 -2.07 -1.34
14.56 -2.82 -1.3
23.13 -4.47 -1.23
6.04 -1.19 -1.65
6.96 -1.37 -1.64
7.31 -1.44 -1.45
8.6 -1.7 -1.39
10.68 -2.11 -1.34
14.53 -2.87 -1.3
23.03 -4.55 -1.23
6.04 -1.21 -1.65
6.92 -1.39 -1.63
7.23 -1.45 -1.43
8.59 -1.73 -1.39
10.67 -2.15 -1.34
14.52 -2.92 -1.3
22.96 -4.62 -1.23
6.02 -1.23 -1.65
6.84 -1.4 -1.61
7.2 -1.48 -1.43
8.59 -1.76 -1.39
10.66 -2.18 -1.34
14.33 -2.93 -1.28
22.88 -4.68 -1.22
6.01 -1.25 -1.65
6.78 -1.41 -1.6
7.2 -1.5 -1.43
8.57 -1.78 -1.39
10.65 -2.22 -1.34
40.37 -8.41 6.53
14.36 -2.99 -1.28
22.77 -4.74 -1.22
6.03 -1.28 -1.65
6.71 -1.42 -1.58
7.2 -1.53 -1.43
40.38 -8.56 3.61
8.56 -1.81 -1.39
40.36 -8.56 5.07
10.63 -2.25 -1.33
14.54 -3.08 -1.3
22.72 -4.82 -1.22
6.05 -1.3 -1.66
40.35 -8.7 0.72
6.64 -1.43 -1.57
40.36 -8.7 2.16
7.19 -1.55 -1.43
59.87 -12.91 5.36
8.55 -1.84 -1.39
59.81 -12.89 7.51
10.6 -2.29 -1.33
14.51 -3.13 -1.3
22.66 -4.88 -1.21
40.44 -8.72 -0.72
6.03 -1.32 -1.65
6.58 -1.44 -1.56
7.13 -1.56 -1.42
59.19 -12.96 5.3
8.54 -1.87 -1.38
59.83 -13.1 7.52
10.59 -2.32 -1.33
14.5 -3.18 -1.3
22.55 -4.94 -1.21
6.02 -1.34 -1.65
6.52 -1.45 -1.54
7.12 -1.59 -1.42
58.37 -13 5.23
8.53 -1.9 -1.38
59.83 -13.33 7.53
10.59 -2.36 -1.33
14.43 -3.22 -1.29
22.5 -5.01 -1.21
6.01 -1.36 -1.65
6.47 -1.47 -1.53
7.12 -1.61 -1.42
8.5 -1.93 -1.38
59.81 -13.56 7.53
10.58 -2.4 -1.33
14.4 -3.26 -1.29
22.45 -5.09 -1.21
6.01 -1.39 -1.65
6.39 -1.47 -1.51
7.11 -1.64 -1.42
8.5 -1.96 -1.38
59.81 -13.79 7.54
10.57 -2.44 -1.33
14.38 -3.32 -1.29
22.37 -5.16 -1.2
6.01 -1.41 -1.65
34.58 -8.09 0.62
6.34 -1.48 -1.5
7.11 -1.66 -1.42
8.49 -1.99 -1.38
59.73 -13.98 7.53
10.56 -2.47 -1.33
14.31 -3.35 -1.29
22.29 -5.21 -1.2
6.01 -1.43 -1.66
34.13 -8.12 0.61
6.29 -1.5 -1.49
7.09 -1.69 -1.42
8.47 -2.02 -1.38
59.12 -14.06 7.46
10.55 -2.51 -1.33
14.13 -3.36 -1.27
22.25 -5.29 -1.2
6.01 -1.45 -1.66
33.84 -8.17 0.61
6.23 -1.5 -1.48
7.08 -1.71 -1.42
8.47 -2.04 -1.38
10.56 -2.55 -1.33
14.07 -3.4 -1.27
22.17 -5.35 -1.2
5.95 -1.46 -1.64
33.59 -8.24 0.6
6.17 -1.51 -1.47
53.93 -13.23 2.91
7.07 -1.73 -1.42
54.21 -13.3 4.88
8.47 -2.08 -1.38
10.58 -2.6 -1.34
14.01 -3.44 -1.26
22.11 -5.42 -1.19
5.9 -1.47 -1.63
33.4 -8.3 0.6
6.12 -1.52 -1.46
53.81 -13.37 2.91
7.08 -1.76 -1.42
8.44 -2.1 -1.38
10.59 -2.63 -1.34
14.07 -3.49 -1.27
22.01 -5.47 -1.19
5.85 -1.48 -1.62
33.33 -8.41 0.6
6.1 -1.54 -1.45
40.48 -10.21 2.19
7.07 -1.78 -1.42
40.5 -10.22 3.65
8.44 -2.13 -1.38
10.57 -2.67 -1.34
14.17 -3.58 -1.28
22.01 -5.55 -1.19
33.24 -8.39 -0.6
5.81 -1.49 -1.61
33.33 -8.53 0.6
6.1 -1.56 -1.45
53.86 -13.78 2.91
7.05 -1.8 -1.41
8.42 -2.16 -1.38
10.57 -2.7 -1.34
14.23 -3.64 -1.29
22.02 -5.63 -1.19
33.21 -8.5 -0.6
5.75 -1.49 -1.59
33.35 -8.66 0.6
6.1 -1.58 -1.46
53.87 -13.99 2.92
7.04 -1.83 -1.41
8.42 -2.19 -1.38
10.58 -2.75 -1.34
14.21 -3.69 -1.28
22 -5.71 -1.19
5.71 -1.5 -1.58
33.37 -8.78 0.6
6.09 -1.6 -1.45
7.05 -1.86 -1.42
8.4 -2.21 -1.38
10.58 -2.79 -1.34
14.13 -3.72 -1.28
21.96 -5.78 -1.19
5.66 -1.51 -1.57
33.38 -8.92 0.6
6.08 -1.62 -1.45
50.37 -13.46 2.73
7.04 -1.88 -1.42
53.73 -14.36 4.87
8.39 -2.24 -1.37
10.58 -2.83 -1.34
14.14 -3.78 -1.28
21.86 -5.84 -1.19
33.29 -8.89 -0.6
5.62 -1.52 -1.56
33.42 -9.05 0.6
6.05 -1.64 -1.45
49.82 -13.5 2.7
7.03 -1.9 -1.42
53.37 -14.46 4.84
8.38 -2.27 -1.37
10.57 -2.86 -1.34
50.2 -13.6 8.24
14.04 -3.81 -1.27
21.79 -5.9 -1.18
5.58 -1.53 -1.55
33.44 -9.19 0.61
6.05 -1.66 -1.45
49.31 -13.55 2.68
7.01 -1.93 -1.41
52.8 -14.51 4.79
8.37 -2.3 -1.37
48.89 -13.44 6.23
10.56 -2.9 -1.34
49.42 -13.59 8.12
14.09 -3.87 -1.28
21.69 -5.96 -1.18
31.66 -8.7 -0.57
5.52 -1.53 -1.53
33.46 -9.31 0.61
6.05 -1.68 -1.45
48.74 -13.55 2.65
7 -1.95 -1.41
52.19 -14.51 4.74
8.36 -2.32 -1.37
48.4 -13.46 6.17
10.57 -2.94 -1.35
48.84 -13.58 8.03
14.11 -3.92 -1.28
21.59 -6 -1.17
31.49 -8.76 -0.57
5.47 -1.54 -1.52
33.48 -9.44 0.61
6.04 -1.7 -1.45
48.19 -13.59 2.62
7 -1.97 -1.41
51.27 -14.46 4.66
8.34 -2.35 -1.37
47.87 -13.5 6.11
10.56 -2.98 -1.35
48.33 -13.63 7.95
14.12 -3.98 -1.28
21.44 -6.05 -1.17
5.43 -1.55 -1.51
33.52 -9.58 0.61
6.02 -1.72 -1.45
47.73 -13.65 2.6
7 -2 -1.42
50.96 -14.57 4.64
8.33 -2.38 -1.37
47.33 -13.54 6.04
10.56 -3.02 -1.35
47.92 -13.7 7.89
14.16 -4.05 -1.29
21.34 -6.1 -1.16
31.03 -8.87 -0.56
5.39 -1.56 -1.5
33.54 -9.72 0.61
6.01 -1.74 -1.44
47.14 -13.67 2.57
6.99 -2.03 -1.41
50.46 -14.63 4.6
8.29 -2.41 -1.37
46.81 -13.57 5.98
10.55 -3.06 -1.35
47.43 -13.75 7.82
14.27 -4.14 -1.3
21.26 -6.17 -1.16
30.98 -8.98 -0.56
5.35 -1.57 -1.49
33.57 -9.85 0.61
6.01 -1.76 -1.45
46.65 -13.69 2.55
6.97 -2.05 -1.41
50.28 -14.76 4.58
8.32 -2.44 -1.37
46.3 -13.59 5.92
10.55 -3.1 -1.35
46.88 -13.76 7.74
14.24 -4.18 -1.3
21.22 -6.23 -1.16
5.29 -1.57 -1.48
33.6 -10 0.61
6.01 -1.79 -1.45
46.17 -13.74 2.52
6.96 -2.07 -1.41
8.31 -2.47 -1.37
45.82 -13.63 5.87
10.55 -3.14 -1.35
46.43 -13.82 7.67
14.21 -4.23 -1.3
21.16 -6.3 -1.16
5.25 -1.58 -1.47
33.61 -10.12 0.61
6 -1.81 -1.45
45.72 -13.76 2.5
6.96 -2.09 -1.41
8.3 -2.5 -1.37
45.34 -13.65 5.81
10.54 -3.17 -1.35
14.2 -4.27 -1.3
21.13 -6.36 -1.16
5.24 -1.6 -1.47
33.64 -10.26 0.61
5.99 -1.83 -1.44
45.16 -13.77 2.47
6.95 -2.12 -1.41
44.93 -13.7 4.11
8.27 -2.52 -1.37
44.83 -13.67 5.75
10.55 -3.22 -1.35
44.8 -13.66 7.42
14.18 -4.33 -1.3
21.1 -6.44 -1.16
5.24 -1.62 -1.47
33.69 -10.39 0.62
5.98 -1.84 -1.44
44.86 -13.84 2.46
6.95 -2.14 -1.41
44.87 -13.84 4.11
8.27 -2.55 -1.37
44.8 -13.82 5.76
10.53 -3.25 -1.35
44.79 -13.81 7.42
14.17 -4.37 -1.3
8.73 -2.69 -0.48
8.82 -2.72 -0.16
5.23 -1.63 -1.47
33.72 -10.53 0.62
5.98 -1.87 -1.45
44.89 -14.02 2.46
6.94 -2.17 -1.41
44.89 -14.02 4.11
8.27 -2.58 -1.37
44.82 -14 5.77
10.53 -3.29 -1.35
44.78 -13.99 7.43
14.16 -4.42 -1.3
8.68 -2.71 -0.48
8.72 -2.72 -0.16
5.21 -1.65 -1.46
33.75 -10.68 0.62
5.97 -1.89 -1.45
44.89 -14.2 2.47
6.92 -2.19 -1.41
44.92 -14.21 4.12
8.26 -2.61 -1.37
44.85 -14.18 5.78
10.53 -3.33 -1.36
44.83 -14.18 7.45
14.13 -4.47 -1.3
8.62 -2.73 -0.47
8.67 -2.74 -0.16
5.21 -1.67 -1.47
33.79 -10.82 0.62
5.96 -1.91 -1.44
44.91 -14.38 2.47
6.91 -2.21 -1.41
44.92 -14.38 4.13
8.24 -2.64 -1.37
44.85 -14.36 5.78
10.53 -3.37 -1.36
44.83 -14.35 7.45
14.11 -4.52 -1.3
8.59 -2.75 -0.47
8.6 -2.75 -0.16
5.21 -1.69 -1.47
33.86 -10.97 0.62
5.94 -1.93 -1.44
44.92 -14.55 2.47
6.9 -2.24 -1.41
44.92 -14.55 4.13
8.23 -2.67 -1.37
44.86 -14.53 5.79
10.52 -3.41 -1.36
44.84 -14.53 7.47
8.78 -2.84 -0.81
8.54 -2.77 -0.47
8.59 -2.78 -0.16
5.19 -1.7 -1.46
40.15 -13.16 0.74
5.94 -1.95 -1.44
44.92 -14.73 2.48
6.89 -2.26 -1.41
44.94 -14.74 4.14
8.23 -2.7 -1.37
44.88 -14.72 5.8
8.83 -2.9 -1.14
44.87 -14.71 7.48
8.75 -2.87 -0.81
8.53 -2.8 -0.47
8.61 -2.82 -0.16
5.19 -1.72 -1.46
40.16 -13.31 0.74
5.92 -1.96 -1.44
44.95 -14.9 2.48
6.88 -2.28 -1.41
44.89 -14.88 4.14
8.2 -2.72 -1.37
44.78 -14.84 5.79
8.81 -2.92 -1.14
44.77 -14.84 7.47
8.75 -2.9 -0.81
8.52 -2.82 -0.47
8.59 -2.85 -0.16
5.17 -1.73 -1.46
8.67 -2.91 0.16
5.92 -1.99 -1.44
44.71 -15 2.47
6.86 -2.3 -1.41
44.71 -15 4.13
8.2 -2.75 -1.37
44.65 -14.98 5.78
8.81 -2.96 -1.14
44.6 -14.96 7.45
8.75 -2.93 -0.81
8.51 -2.86 -0.47
8.61 -2.89 -0.16
5.17 -1.75 -1.46
8.61 -2.92 0.16
5.91 -2.01 -1.44
44.72 -15.18 2.47
6.86 -2.33 -1.41
44.7 -15.17 4.13
8.17 -2.77 -1.37
44.66 -15.16 5.79
10.51 -3.57 -1.36
44.61 -15.14 7.46
8.69 -2.95 -0.8
8.59 -2.92 -0.48
8.48 -2.88 -0.16
5.16 -1.77 -1.46
8.6 -2.95 0.16
5.89 -2.02 -1.44
44.69 -15.35 2.48
6.85 -2.35 -1.41
44.74 -15.37 4.14
8.18 -2.81 -1.37
44.66 -15.34 5.8
8.75 -3.01 -1.14
44.64 -15.33 7.48
8.63 -2.96 -0.8
8.59 -2.95 -0.48
8.46 -2.91 -0.16
5.16 -1.79 -1.46
8.58 -2.98 0.16
5.89 -2.05 -1.44
44.74 -15.54 2.48
6.84 -2.38 -1.41
44.73 -15.53 4.14
8.18 -2.84 -1.37
44.67 -15.51 5.81
8.71 -3.02 -1.13
44.65 -15.5 7.49
8.64 -3 -0.8
8.58 -2.98 -0.48
8.49 -2.95 -0.16
5.15 -1.81 -1.46
8.57 -3.01 0.16
5.88 -2.07 -1.44
44.77 -15.73 2.49
6.82 -2.4 -1.41
44.74 -15.72 4.15
8.17 -2.87 -1.37
44.69 -15.7 5.82
8.71 -3.06 -1.13
44.65 -15.69 7.5
8.64 -3.03 -0.8
8.58 -3.01 -0.48
8.47 -2.97 -0.16
5.14 -1.82 -1.46
8.56 -3.04 0.16
5.88 -2.09 -1.44
44.77 -15.89 2.49
6.82 -2.42 -1.41
44.76 -15.89 4.16
8.17 -2.9 -1.37
44.7 -15.87 5.82
8.72 -3.1 -1.14
44.67 -15.85 7.51
8.57 -3.04 -0.48
8.52 -3.03 -0.16
5.13 -1.84 -1.46
8.57 -3.08 0.16
5.87 -2.11 -1.44
44.79 -16.08 2.49
6.81 -2.44 -1.41
44.76 -16.07 4.16
8.15 -2.93 -1.37
44.7 -16.04 5.83
10.47 -3.76 -1.37
44.68 -16.04 7.52
13.85 -4.97 -1.29
8.59 -3.08 -0.48
8.56 -3.07 -0.16
5.12 -1.86 -1.46
5.85 -2.12 -1.44
44.79 -16.25 2.5
6.8 -2.47 -1.41
44.79 -16.25 4.17
8.15 -2.96 -1.37
44.72 -16.22 5.84
10.47 -3.8 -1.37
44.7 -16.21 7.53
13.84 -5.02 -1.29
8.56 -3.11 -0.16
5.11 -1.88 -1.46
24.41 -8.96 0.45
5.85 -2.14 -1.44
44.78 -16.43 2.5
6.8 -2.49 -1.41
44.8 -16.44 4.18
8.15 -2.99 -1.37
44.73 -16.41 5.85
10.44 -3.83 -1.37
44.7 -16.4 7.54
13.81 -5.07 -1.29
21.18 -7.77 -1.18
8.54 -3.13 -0.16
5.11 -1.9 -1.46
24.55 -9.1 0.46
5.84 -2.16 -1.44
44.82 -16.61 2.51
6.79 -2.52 -1.41
44.87 -16.63 4.19
8.14 -3.02 -1.38
44.74 -16.59 5.86
10.45 -3.87 -1.37
44.83 -16.62 7.57
13.82 -5.12 -1.29
21.19 -7.85 -1.18
8.54 -3.17 -0.16
5.09 -1.91 -1.46
24.59 -9.21 0.46
5.83 -2.19 -1.44
44.81 -16.79 2.51
6.77 -2.54 -1.41
47.05 -17.63 4.4
8.14 -3.05 -1.38
44.76 -16.78 5.87
10.43 -3.91 -1.37
44.84 -16.81 7.58
13.77 -5.16 -1.29
21.18 -7.94 -1.19
5.09 -1.93 -1.46
24.55 -9.3 0.46
5.83 -2.21 -1.44
44.84 -16.98 2.51
6.77 -2.56 -1.41
47.06 -17.82 4.4
8.12 -3.08 -1.38
44.77 -16.95 5.88
10.43 -3.95 -1.37
44.87 -16.99 7.6
13.75 -5.2 -1.29
21.19 -8.03 -1.19
5.09 -1.95 -1.46
5.81 -2.22 -1.44
44.85 -17.17 2.52
6.77 -2.59 -1.41
47.11 -18.03 4.41
8.12 -3.11 -1.38
44.77 -17.14 5.89
10.42 -3.99 -1.37
44.89 -17.18 7.61
13.72 -5.25 -1.29
21.25 -8.13 -1.19
24.58 -9.41 -0.46
5.08 -1.96 -1.46
5.82 -2.25 -1.44
44.86 -17.34 2.52
6.76 -2.61 -1.41
8.11 -3.14 -1.38
44.8 -17.32 5.9
10.4 -4.02 -1.37
6.92 -2.68 1.18
13.7 -5.3 -1.29
21.29 -8.23 -1.2
24.62 -9.52 -0.46
5.07 -1.98 -1.46
45.07 -17.61 0.84
5.8 -2.27 -1.44
44.87 -17.53 2.52
6.73 -2.63 -1.41
8.12 -3.17 -1.38
44.8 -17.51 5.91
10.41 -4.07 -1.37
6.85 -2.68 1.16
13.68 -5.34 -1.28
21.34 -8.34 -1.2
24.61 -9.62 -0.46
5.06 -2 -1.46
44.94 -17.74 0.84
5.79 -2.29 -1.44
44.88 -17.72 2.53
6.73 -2.66 -1.41
8.11 -3.2 -1.38
44.84 -17.7 5.92
10.4 -4.11 -1.37
6.81 -2.69 1.16
13.64 -5.38 -1.28
21.37 -8.43 -1.2
22.82 -9.01 -0.43
5.05 -2.01 -1.46
8.27 -3.3 0.16
5.78 -2.31 -1.44
44.92 -17.92 2.53
6.72 -2.68 -1.41
8.28 -3.3 0.78
8.1 -3.23 -1.38
8.29 -3.31 1.1
10.41 -4.15 -1.38
6.79 -2.71 1.16
13.59 -5.42 -1.28
21.35 -8.51 -1.2
8.31 -3.31 -0.16
5.05 -2.03 -1.46
5.75 -2.32 -1.43
6.71 -2.7 -1.41
8.24 -3.32 0.78
7.48 -3.01 -1.28
8.24 -3.32 1.09
7.47 -3.01 -0.99
6.8 -2.74 1.16
7.45 -3 -0.7
8.23 -3.31 1.72
21.38 -8.61 -1.21
8.29 -3.34 -0.16
5.04 -2.05 -1.46
8.26 -3.36 0.16
5.75 -2.34 -1.43
8.23 -3.35 0.47
6.69 -2.72 -1.4
8.24 -3.35 0.78
7.42 -3.02 -1.27
8.23 -3.35 1.09
7.4 -3.01 -0.98
6.9 -2.81 1.18
7.41 -3.01 -0.7
21.46 -8.73 -1.21
8.28 -3.37 -0.16
5.03 -2.07 -1.46
8.25 -3.39 0.16
5.75 -2.36 -1.44
8.22 -3.38 0.47
6.68 -2.74 -1.4
7.18 -2.95 -1.23
8.23 -3.38 1.09
7.04 -2.89 -0.93
6.9 -2.84 1.18
7.08 -2.91 -0.67
8.25 -3.39 1.73
6.97 -2.86 -0.39
5.02 -2.08 -1.46
6.92 -2.87 0.13
5.75 -2.38 -1.44
6.93 -2.87 0.39
6.67 -2.77 -1.4
6.92 -2.87 0.66
6.96 -2.89 -1.19
6.91 -2.87 0.92
6.97 -2.89 -0.93
6.91 -2.87 1.18
6.95 -2.88 -0.66
8.24 -3.42 1.73
6.96 -2.89 -0.4
6.94 -2.88 -0.13
5.01 -2.1 -1.46
6.93 -2.9 0.13
5.74 -2.4 -1.44
6.91 -2.9 0.39
6.67 -2.79 -1.41
6.92 -2.9 0.66
6.95 -2.91 -1.19
6.92 -2.9 0.92
6.99 -2.93 -0.93
6.91 -2.89 1.19
6.96 -2.91 -0.66
8.2 -3.44 1.73
6.97 -2.92 -0.4
6.94 -2.91 -0.13
5 -2.12 -1.46
5.72 -2.42 -1.43
6.93 -2.93 0.39
6.64 -2.81 -1.4
7.28 -3.08 -1.25
6.93 -2.93 0.92
7.29 -3.08 -0.97
6.91 -2.92 1.19
7.28 -3.08 -0.69
8.21 -3.47 1.73
8.31 -3.51 -0.47
34.53 -14.61 8.66
8.29 -3.51 -0.16
5 -2.14 -1.46
8.24 -3.52 0.16
5.71 -2.44 -1.43
8.22 -3.51 0.47
6.63 -2.83 -1.4
8.25 -3.53 0.79
7.25 -3.1 -1.25
8.23 -3.52 1.1
7.27 -3.1 -0.97
6.91 -2.95 1.19
7.26 -3.1 -0.69
8.21 -3.51 1.73
8.29 -3.54 -0.47
34.26 -14.64 8.6
8.3 -3.54 -0.16
4.99 -2.15 -1.46
8.26 -3.56 0.16
5.7 -2.46 -1.43
8.23 -3.55 0.47
6.63 -2.86 -1.4
8.26 -3.56 0.79
7.11 -3.07 -1.23
8.25 -3.56 1.1
7.25 -3.13 -0.97
6.9 -2.98 1.19
7.24 -3.12 -0.69
8.21 -3.54 1.74
33.96 -14.65 8.54
8.28 -3.57 -0.16
4.97 -2.17 -1.45
8.26 -3.6 0.16
5.69 -2.48 -1.43
8.23 -3.58 0.47
6.62 -2.88 -1.4
8.25 -3.59 0.79
7.06 -3.07 -1.22
8.25 -3.59 1.1
7.25 -3.16 -0.97
6.9 -3 1.19
7.24 -3.15 -0.69
8.21 -3.57 1.74
8.32 -3.62 -0.48
33.69 -14.67 8.48
8.28 -3.61 -0.16
4.97 -2.19 -1.46
8.26 -3.63 0.16
5.69 -2.5 -1.43
8.24 -3.62 0.47
6.62 -2.91 -1.4
8.25 -3.63 0.79
7.23 -3.18 -1.25
8.24 -3.62 1.11
7.25 -3.19 -0.97
6.91 -3.04 1.2
7.24 -3.18 -0.69
8.2 -3.61 1.74
8.29 -3.64 -0.47
33.44 -14.7 8.43
8.28 -3.64 -0.16
4.97 -2.2 -1.46
8.25 -3.66 0.16
5.67 -2.52 -1.43
8.24 -3.66 0.47
6.61 -2.93 -1.41
8.25 -3.66 0.79
7.24 -3.21 -1.25
8.24 -3.66 1.11
7.25 -3.22 -0.97
6.92 -3.07 1.2
7.24 -3.21 -0.69
8.21 -3.64 1.74
16.18 -7.18 -0.93
33.17 -14.71 8.38
8.29 -3.68 -0.16
4.96 -2.22 -1.46
8.25 -3.7 0.16
5.65 -2.53 -1.43
8.23 -3.69 0.47
6.6 -2.96 -1.41
8.25 -3.69 0.79
7.25 -3.24 -1.26
8.24 -3.69 1.11
7.25 -3.25 -0.98
6.92 -3.1 1.2
7.25 -3.25 -0.7
8.21 -3.67 1.75
15.94 -7.14 -0.92
32.93 -14.75 8.33
8.29 -3.71 -0.16
4.95 -2.24 -1.46
8.26 -3.73 0.16
5.66 -2.56 -1.43
8.25 -3.73 0.47
6.59 -2.98 -1.41
8.25 -3.73 0.79
7.25 -3.28 -1.26
8.25 -3.73 1.11
7.25 -3.28 -0.98
6.92 -3.13 1.2
7.25 -3.27 -0.7
8.21 -3.71 1.75
15.77 -7.13 -0.91
32.9 -14.87 8.33
8.28 -3.74 -0.16
4.93 -2.25 -1.45
8.25 -3.76 0.16
5.65 -2.58 -1.43
6.95 -3.17 0.4
6.58 -3 -1.41
8.24 -3.76 0.79
7.26 -3.31 -1.26
8.24 -3.76 1.11
7.28 -3.32 -0.98
6.92 -3.16 1.21
7.28 -3.32 -0.7
8.22 -3.75 1.76
15.65 -7.14 -0.9
8.28 -3.78 -0.16
4.93 -2.27 -1.45
8.26 -3.8 0.16
5.64 -2.59 -1.43
6.95 -3.2 0.4
6.58 -3.03 -1.41
8.25 -3.8 0.79
7.33 -3.37 -1.28
8.25 -3.8 1.11
7.37 -3.39 -1
6.93 -3.19 1.21
7.36 -3.39 -0.71
5.91 -2.72 1.26
15.5 -7.14 -0.89
32.18 -14.82 8.18
8.28 -3.81 -0.16
33.52 -15.43 9.89
4.92 -2.29 -1.45
8.26 -3.84 0.16
5.61 -2.61 -1.43
6.94 -3.22 0.4
6.57 -3.05 -1.41
8.26 -3.84 0.8
7.37 -3.42 -1.29
8.24 -3.83 1.12
7.42 -3.45 -1
6.93 -3.22 1.21
7.42 -3.45 -0.72
5.86 -2.72 1.26
15.42 -7.16 -0.89
32.21 -14.96 8.2
8.31 -3.86 -0.16
33.29 -15.47 9.84
4.92 -2.31 -1.46
15.31 -7.17 0.3
5.61 -2.63 -1.43
6.94 -3.25 0.4
6.57 -3.08 -1.41
7.05 -3.3 -1.23
10.12 -4.74 -1.37
6.93 -3.25 1.21
13.01 -6.1 -1.26
5.81 -2.73 1.25
15.27 -7.16 -0.88
15.24 -7.14 -0.29
33.04 -15.48 9.78
4.91 -2.32 -1.46
15.2 -7.19 0.29
5.61 -2.65 -1.43
6.55 -3.1 -1.41
32.32 -15.28 3.13
7.05 -3.33 -1.23
32.26 -15.26 4.38
10.08 -4.77 -1.37
6.93 -3.28 1.21
13 -6.15 -1.26
5.81 -2.75 1.25
15.15 -7.16 -0.88
32.88 -15.55 8.4
15.15 -7.16 -0.29
32.79 -15.5 9.72
4.88 -2.33 -1.45
15.09 -7.21 0.29
5.6 -2.67 -1.43
6.53 -3.12 -1.41
32.31 -15.42 3.13
7.03 -3.36 -1.23
32.26 -15.4 4.39
10.07 -4.81 -1.37
6.93 -3.31 1.22
12.95 -6.18 -1.26
5.77 -2.75 1.24
15 -7.16 -0.87
32.63 -15.58 8.35
15.05 -7.19 -0.29
32.52 -15.53 9.66
4.89 -2.35 -1.45
14.92 -7.19 0.29
5.59 -2.69 -1.43
6.54 -3.15 -1.41
32.3 -15.56 3.14
7.02 -3.38 -1.23
32.27 -15.54 4.4
10.04 -4.84 -1.37
6.93 -3.34 1.22
12.93 -6.23 -1.26
5.67 -2.73 1.22
14.91 -7.18 -0.87
32.37 -15.59 8.29
15.11 -7.28 -0.29
32.28 -15.55 9.6
4.88 -2.37 -1.45
14.88 -7.23 0.29
5.57 -2.71 -1.43
6.53 -3.17 -1.41
32.27 -15.68 3.14
7.01 -3.4 -1.23
32.19 -15.65 4.4
10.02 -4.87 -1.37
6.93 -3.37 1.22
12.91 -6.27 -1.26
5.62 -2.73 1.22
14.81 -7.2 -0.86
32.14 -15.62 8.25
6.98 -3.39 -0.14
32.03 -15.57 9.54
4.87 -2.39 -1.45
14.73 -7.22 0.29
5.56 -2.72 -1.43
6.52 -3.2 -1.41
32.04 -15.71 3.12
7 -3.43 -1.23
31.94 -15.66 4.37
9.99 -4.9 -1.37
6.92 -3.4 1.22
12.89 -6.32 -1.26
5.59 -2.74 1.21
14.74 -7.23 -0.86
31.9 -15.64 8.2
6.99 -3.43 -0.14
31.78 -15.58 9.48
4.86 -2.4 -1.45
14.6 -7.22 0.28
5.56 -2.75 -1.43
6.51 -3.22 -1.41
31.77 -15.7 3.1
6.98 -3.45 -1.23
31.69 -15.66 4.34
9.97 -4.93 -1.37
6.92 -3.42 1.22
12.85 -6.35 -1.25
5.55 -2.75 1.2
14.59 -7.21 -0.85
31.64 -15.64 8.15
31.54 -15.59 9.43
4.85 -2.42 -1.45
14.6 -7.28 0.28
5.55 -2.77 -1.43
6.49 -3.24 -1.41
31.69 -15.8 3.1
6.97 -3.48 -1.23
31.46 -15.68 4.32
9.95 -4.96 -1.37
6.93 -3.45 1.23
12.83 -6.39 -1.25
5.51 -2.75 1.2
14.49 -7.22 -0.85
24.71 -12.32 6.37
14.49 -7.22 -0.28
31.37 -15.64 9.39
4.84 -2.43 -1.45
14.49 -7.3 0.28
5.54 -2.79 -1.43
6.49 -3.27 -1.41
31.67 -15.94 3.1
6.96 -3.51 -1.23
31.21 -15.71 4.29
9.93 -5 -1.37
6.93 -3.49 1.23
12.78 -6.43 -1.25
5.45 -2.74 1.19
14.35 -7.23 -0.84
23.86 -12.01 6.17
14.32 -7.21 -0.28
31.28 -15.75 9.38
4.84 -2.46 -1.45
14.37 -7.3 0.28
5.52 -2.8 -1.43
6.97 -3.54 0.41
6.48 -3.29 -1.41
31.91 -16.2 3.13
6.96 -3.54 -1.24
30.97 -15.72 4.26
9.91 -5.03 -1.36
6.94 -3.52 1.23
12.76 -6.48 -1.25
5.41 -2.75 1.18
14.25 -7.23 -0.84
25.59 -13 6.63
14.28 -7.25 -0.28
31.06 -15.77 9.33
4.83 -2.47 -1.45
14.12 -7.23 0.28
5.5 -2.82 -1.43
6.96 -3.57 0.41
6.47 -3.31 -1.41
31.08 -15.92 3.05
6.97 -3.57 -1.24
30.74 -15.74 4.24
9.87 -5.06 -1.36
6.94 -3.55 1.23
12.73 -6.52 -1.25
5.38 -2.76 1.18
14.11 -7.23 -0.83
23.93 -12.26 6.21
14.11 -7.23 -0.28
30.6 -15.67 9.21
4.82 -2.49 -1.45
14.01 -7.24 0.28
5.5 -2.84 -1.43
6.96 -3.6 0.41
6.46 -3.34 -1.41
6.97 -3.6 -1.24
30.53 -15.77 4.22
9.85 -5.09 -1.36
6.93 -3.58 1.24
12.7 -6.56 -1.25
5.34 -2.76 1.17
13.97 -7.21 -0.82
23.43 -12.1 6.09
14.04 -7.25 -0.28
30.4 -15.7 9.17
4.8 -2.5 -1.45
13.88 -7.23 0.27
5.5 -2.87 -1.43
6.96 -3.63 0.41
6.45 -3.36 -1.41
30.33 -15.8 2.99
6.97 -3.63 -1.24
30.29 -15.78 4.19
9.82 -5.12 -1.36
6.94 -3.61 1.24
12.65 -6.59 -1.25
5.3 -2.76 1.16
13.89 -7.24 -0.82
13.89 -7.24 -0.27
30.17 -15.72 9.12
4.8 -2.52 -1.45
13.8 -7.25 0.27
5.49 -2.88 -1.43
6.45 -3.39 -1.42
30.15 -15.84 2.98
6.96 -3.66 -1.25
30.08 -15.81 4.17
9.8 -5.15 -1.36
6.95 -3.65 1.24
12.62 -6.63 -1.25
5.25 -2.76 1.15
13.76 -7.23 -0.81
30.01 -15.77 7.83
13.98 -7.34 -0.28
22.93 -12.05 6.94
4.79 -2.54 -1.45
13.7 -7.26 0.27
5.47 -2.9 -1.43
29.96 -15.87 1.78
6.44 -3.41 -1.42
29.92 -15.85 2.96
6.96 -3.68 -1.25
9.78 -5.18 -1.36
6.95 -3.68 1.25
12.58 -6.67 -1.25
5.21 -2.76 1.15
13.68 -7.25 -0.81
29.82 -15.8 7.79
13.76 -7.29 -0.27
29.72 -15.74 9.01
4.77 -2.55 -1.45
13.62 -7.27 0.27
5.46 -2.92 -1.43
29.75 -15.89 1.77
6.43 -3.43 -1.42
29.71 -15.87 2.95
6.97 -3.72 -1.25
29.63 -15.83 4.13
9.75 -5.21 -1.36
6.95 -3.71 1.25
12.55 -6.71 -1.25
5.17 -2.76 1.14
13.55 -7.24 -0.81
29.55 -15.79 7.74
13.62 -7.27 -0.27
29.47 -15.74 8.95
4.78 -2.57 -1.45
13.53 -7.29 0.27
5.45 -2.94 -1.43
29.54 -15.91 1.76
6.41 -3.46 -1.42
29.5 -15.89 2.93
6.96 -3.75 -1.25
29.43 -15.85 4.1
9.73 -5.24 -1.36
6.93 -3.74 1.25
12.52 -6.74 -1.24
5.14 -2.77 1.13
13.47 -7.25 -0.8
29.34 -15.8 7.69
6.99 -3.76 -0.14
29.24 -15.75 8.9
4.76 -2.58 -1.45
13.43 -7.29 0.27
5.45 -2.96 -1.43
29.31 -15.92 1.75
6.41 -3.48 -1.42
29.25 -15.89 2.91
6.97 -3.79 -1.26
29.18 -15.85 4.08
9.71 -5.27 -1.36
6.93 -3.76 1.25
12.48 -6.78 -1.24
5.09 -2.77 1.13
13.39 -7.28 -0.8
29.13 -15.82 7.65
13.39 -7.27 -0.27
29.03 -15.77 8.85
4.74 -2.6 -1.45
13.26 -7.26 0.26
5.44 -2.98 -1.43
29.1 -15.94 1.74
6.4 -3.51 -1.42
29.15 -15.97 2.91
6.95 -3.81 -1.26
29.1 -15.94 4.07
9.68 -5.3 -1.36
6.92 -3.79 1.25
12.43 -6.81 -1.24
5.05 -2.77 1.12
13.26 -7.26 -0.79
28.91 -15.84 7.61
13.26 -7.26 -0.26
28.81 -15.78 8.8
4.74 -2.62 -1.45
13.25 -7.32 0.26
5.43 -3 -1.43
28.88 -15.95 1.73
6.39 -3.53 -1.42
29.06 -16.05 2.9
6.96 -3.84 -1.26
28.91 -15.96 4.05
9.66 -5.33 -1.35
6.89 -3.81 1.25
12.4 -6.85 -1.24
5.03 -2.78 1.12
13.15 -7.26 -0.79
28.72 -15.86 7.57
13.17 -7.28 -0.26
28.61 -15.8 8.76
4.73 -2.63 -1.45
13.12 -7.31 0.26
5.42 -3.02 -1.43
6.99 -3.89 0.42
6.39 -3.56 -1.42
28.84 -16.06 2.89
6.97 -3.88 -1.26
28.7 -15.98 4.03
9.64 -5.37 -1.35
6.85 -3.81 1.24
12.39 -6.9 -1.24
5.03 -2.8 1.12
13.04 -7.26 -0.78
28.5 -15.87 7.53
13.09 -7.29 -0.26
28.4 -15.82 8.71
4.72 -2.65 -1.45
13.13 -7.37 0.26
5.41 -3.03 -1.43
6.98 -3.92 0.42
6.37 -3.57 -1.42
28.67 -16.09 2.88
6.98 -3.92 -1.27
28.5 -16 4.01
9.61 -5.4 -1.35
