# .PCD v0.7 - Point Cloud Data file format
VERSION 0.7
FIELDS x y z
SIZE 4 4 4
TYPE F F F
COUNT 1 1 1
WIDTH 2887
HEIGHT 1
VIEWPOINT 0 0 0 1 0 0 0
POINTS 2887
DATA ascii
-10.91 11.25 0.27
-12.05 12.43 0.91
-19.78 20.4 2.49
-4.28 4.41 -0.97
-10.04 10.36 1.77
-4.65 4.8 -0.82
-10.07 10.39 2.29
-8.4 8.66 -1.06
-11.14 11.49 3.11
-10.77 11.11 -0.81
-10.85 11.2 3.6
-11.1 11.45 -0.28
-4.47 4.64 -1.73
-11.05 11.48 0.28
-11.61 12.06 0.88
-20.98 21.79 2.65
-4.27 4.43 -0.97
-11.19 11.63 1.98
-4.63 4.81 -0.82
-10.03 10.42 2.29
-8.37 8.69 -1.06
-9.64 10.01 2.7
-10.91 11.34 -0.82
-10.25 10.65 -0.26
-4.45 4.65 -1.72
-10.02 10.48 0.25
-12.56 13.13 0.95
-20.34 21.27 2.57
-4.24 4.44 -0.97
-11.58 12.11 2.06
-4.6 4.81 -0.82
-9.84 10.29 2.25
-8.33 8.71 -1.05
-10.88 11.38 -0.83
-10.11 10.57 -0.26
-4.44 4.67 -1.73
-10.97 11.55 0.28
-10.05 10.58 0.76
-11.9 12.53 1.51
-4.22 4.45 -0.97
-9.8 10.32 1.75
-4.57 4.82 -0.82
-9.94 10.46 2.29
-8.29 8.73 -1.05
-9.61 10.12 2.71
-9.93 10.46 -0.76
-20.7 21.79 -0.52
-4.41 4.68 -1.72
-10.95 11.61 0.28
-10.08 10.69 0.77
-27.78 29.46 3.54
-4.21 4.47 -0.97
-10.86 11.52 1.94
-4.55 4.83 -0.81
-11.02 11.68 2.54
-8.24 8.74 -1.05
-9.58 10.16 2.72
-11.85 12.57 -0.91
-10.87 11.52 -0.28
-4.4 4.7 -1.73
-10.71 11.43 0.27
-10.04 10.72 0.77
-12.04 12.86 1.54
-4.18 4.46 -0.97
-9.79 10.45 1.76
-4.54 4.85 -0.82
-11.45 12.23 2.65
-8.18 8.73 -1.05
-10.92 11.66 3.11
-10.38 11.09 -0.8
-11.21 11.97 3.79
-10.08 10.77 -0.26
-4.4 4.73 -1.73
-10.48 11.27 0.27
-9.73 10.47 0.75
-12.06 12.97 1.55
-4.15 4.46 -0.96
-11.23 12.08 2.03
-4.51 4.85 -0.81
-9.49 10.2 2.21
-8.11 8.72 -1.04
-12.53 13.48 3.58
-9.99 10.74 -0.77
-11.65 12.53 -0.3
-4.38 4.74 -1.73
-11.59 12.55 0.3
-9.86 10.67 0.76
-11.48 12.43 1.48
-4.15 4.49 -0.97
-11.01 11.92 1.99
-4.48 4.85 -0.81
-9.45 10.24 2.21
-12.48 13.52 3.58
-9.97 10.79 -0.77
-10.51 11.39 -0.27
-4.36 4.75 -1.73
-10.3 11.24 0.27
-11.26 12.28 0.87
-10.1 11.02 1.31
-4.13 4.5 -0.97
-11.45 12.49 2.08
-4.46 4.87 -0.81
-9.37 10.22 2.2
-5.38 5.87 -0.7
-9.74 10.62 -0.76
-11.07 12.07 3.78
-10.43 11.37 -0.27
-4.33 4.76 -1.72
-11.07 12.16 0.29
-11.21 12.31 0.87
-4.1 4.5 -0.96
-11.11 12.2 2.03
-4.45 4.88 -0.81
-5.32 5.84 -0.69
-9.69 10.65 -0.75
-11.47 12.6 3.93
-10.84 11.91 -0.28
-4.32 4.78 -1.73
-11.2 12.39 0.29
-9.77 10.81 0.76
-11.26 12.46 1.47
-4.08 4.51 -0.96
-9.28 10.26 1.7
-4.42 4.89 -0.81
-25.74 28.46 6.08
-5.29 5.85 -0.69
-12.32 13.63 3.57
-10.18 11.25 -0.8
-11.39 12.59 3.92
-10.96 12.12 -0.29
-4.31 4.8 -1.73
-10.73 11.95 0.28
-11.4 12.69 0.89
-9.84 10.96 1.29
-4.05 4.52 -0.96
-9.6 10.69 1.76
-4.39 4.89 -0.81
-11.37 12.67 2.7
-5.24 5.84 -0.69
-12.48 13.9 3.63
-10.85 12.08 -0.85
-10.89 12.13 3.76
-11.6 12.92 -0.3
-4.3 4.82 -1.73
-10.63 11.92 0.28
-11.41 12.8 0.9
-9.83 11.03 1.29
-4.04 4.54 -0.96
-9.98 11.19 1.84
-4.37 4.9 -0.81
-11.31 12.68 2.69
-5.27 5.92 -0.69
-9.25 10.37 2.7
-10.76 12.07 -0.85
-11.33 12.71 3.93
-10.38 11.64 -0.27
-4.28 4.83 -1.73
-10.64 12.01 0.28
-11.39 12.87 0.9
-9.38 10.6 1.24
-4.03 4.55 -0.96
-11.48 12.97 2.13
-4.36 4.93 -0.81
-9.37 10.58 2.24
-5.26 5.94 -0.69
-9.15 10.33 2.68
-10.16 11.48 -0.8
-10.82 12.22 3.77
-10.1 11.41 -0.27
-12.2 13.77 4.93
-4.25 4.83 -1.72
-10.57 12.02 0.28
-11.84 13.46 0.94
-9.53 10.84 1.26
-4.01 4.56 -0.96
-9.52 10.83 1.77
-4.33 4.92 -0.8
-11.3 12.85 2.71
-5.25 5.97 -0.7
-12.1 13.76 3.56
-10.65 12.12 -0.85
-10.4 11.83 -0.27
-4.23 4.84 -1.72
-26.04 29.83 0.69
-11.38 13.03 0.91
-12.42 14.22 1.65
-3.98 4.56 -0.96
-9.1 10.42 1.7
-4.32 4.95 -0.81
-9 10.31 2.66
-10.11 11.59 -0.81
-12.15 13.91 4.26
-10.15 11.63 -0.27
-4.22 4.87 -1.73
-12.01 13.85 0.32
-11.38 13.13 0.91
-9.6 11.08 1.28
-3.97 4.58 -0.96
-11.42 13.17 2.14
-4.3 4.96 -0.81
-12.19 14.06 2.95
-8.98 10.36 2.66
-11.65 13.44 -0.93
-10.4 12 3.67
-10.4 12 -0.28
-4.21 4.89 -1.73
-11.33 13.16 0.91
-9.48 11.01 1.27
-3.95 4.59 -0.96
-10.36 12.04 1.95
-4.28 4.97 -0.8
-12.13 14.09 2.94
-9.26 10.76 2.76
-10.27 11.93 -0.82
-11.86 13.77 4.2
-11.75 13.65 -0.31
-4.19 4.9 -1.73
-10.35 12.1 0.28
-9.55 11.16 1.28
-3.94 4.61 -0.96
-10.18 11.9 1.92
-4.25 4.97 -0.8
-11.5 13.44 2.8
-9.02 10.54 2.7
-11.43 13.36 -0.92
-10.91 12.75 3.87
-10.95 12.8 4.51
-4.17 4.91 -1.73
-10.25 12.07 0.28
-11.21 13.2 0.91
-9.22 10.86 1.25
-3.93 4.63 -0.96
-8.97 10.56 1.7
-4.23 4.97 -0.8
-11.27 13.27 2.76
-10.69 12.58 3.21
-11.76 13.85 -0.95
-9.58 11.28 3.42
-25.53 30.06 -0.69
-10.77 12.68 4.46
-4.15 4.92 -1.73
-9.42 11.17 0.26
-11.17 13.25 0.91
-9.49 11.25 1.29
-3.9 4.63 -0.96
-8.74 10.37 1.66
-4.22 5 -0.8
-9.2 10.91 2.26
-8.88 10.53 2.68
-10.07 11.94 -0.82
-10.75 12.75 3.85
-25.52 30.27 -0.69
-4.14 4.95 -1.73
-9.23 11.02 0.25
-9.02 10.77 0.74
-9.46 11.3 1.29
-3.88 4.63 -0.96
-8.84 10.55 1.69
-4.19 5.01 -0.8
-10.75 12.84 2.65
-9.95 11.88 3.01
-9.69 11.57 -0.79
-9.29 11.1 3.34
-10.02 11.97 4.18
-3.98 4.79 -1.67
-10.42 12.54 0.28
-9.57 11.51 0.78
-12.03 14.47 1.65
-3.88 4.67 -0.96
-10.5 12.63 2.02
-4.18 5.03 -0.8
-10.76 12.95 2.67
-8.81 10.59 2.68
-5.19 6.24 -0.43
-9.76 11.74 3.52
-25.26 30.38 -0.69
-3.92 4.75 -1.65
-9.5 11.5 0.26
-9.63 11.66 0.79
-12.6 15.27 1.73
-3.88 4.7 -0.96
-10.76 13.04 2.08
-4.16 5.04 -0.8
-10.77 13.05 2.68
-8.86 10.73 2.7
-5.16 6.26 -0.43
-9.7 11.75 3.52
-11.35 13.74 -0.31
-9.62 11.65 4.05
-3.88 4.74 -1.64
-11.24 13.72 0.31
-9.53 11.63 0.79
-10.92 13.32 1.51
-3.87 4.72 -0.97
-8.79 10.72 1.7
-4.16 5.08 -0.81
-9.34 11.39 2.33
-9.19 11.22 2.82
-5.13 6.26 -0.42
-10.6 12.94 3.86
-9.68 11.81 4.09
-3.85 4.73 -1.63
-8.88 10.91 0.25
-9.6 11.8 0.8
-10.82 13.3 1.5
-3.85 4.73 -0.97
-8.82 10.84 1.72
-4.13 5.08 -0.8
-9.44 11.6 2.37
-9.75 11.99 3
-5.1 6.27 -0.42
-9.32 11.45 3.41
-11.24 13.81 -0.31
-9.63 11.83 4.09
-3.83 4.74 -1.63
-8.88 10.99 0.25
-11.84 14.65 0.99
-9.06 11.22 1.26
-3.84 4.75 -0.97
-8.75 10.83 1.71
-4.11 5.09 -0.8
-9.64 11.93 2.43
-9.53 11.8 2.95
-5.06 6.26 -0.42
-9.96 12.32 3.66
-10.95 13.55 -0.3
-9.29 11.5 3.96
-3.82 4.76 -1.64
-8.94 11.14 0.25
-8.68 10.81 0.73
-9.28 11.56 1.3
-3.84 4.78 -0.97
-8.56 10.67 1.68
-4.09 5.1 -0.8
-8.9 11.09 2.25
-8.68 10.82 2.7
-5.05 6.29 -0.42
-9.38 11.69 3.46
-9.76 12.16 4.18
-3.81 4.78 -1.64
-8.56 10.74 0.72
-9.21 11.56 1.29
-3.83 4.81 -0.97
-8.16 10.24 1.61
-4.07 5.11 -0.8
-10.78 13.53 2.74
-9.4 11.8 2.93
-5 6.27 -0.42
-11.2 14.06 -0.31
-7.47 9.37 3.21
-3.79 4.8 -1.64
-9.12 11.53 0.26
-8.54 10.8 0.72
-9.26 11.7 1.31
-3.83 4.84 -0.98
-8.37 10.58 1.66
-4.06 5.13 -0.8
-8.97 11.34 2.29
-9.35 11.82 2.93
-4.95 6.26 -0.42
-8.91 11.26 3.32
-8.79 11.11 -0.25
-7.61 9.62 3.29
-3.79 4.83 -1.64
-9.07 11.55 0.26
-9.07 11.56 1.29
-3.81 4.86 -0.98
-8.35 10.63 1.66
-4.03 5.14 -0.8
-5.36 6.83 -0.76
-8.44 10.75 2.66
-4.91 6.25 -0.42
-9.47 12.06 3.54
-8.7 11.09 -0.25
-7.59 9.67 3.29
-9.1 11.68 0.26
-10.99 14.1 0.94
-3.79 4.86 -1.2
-9.22 11.83 1.31
-3.8 4.88 -0.98
-8.33 10.69 1.66
-4.01 5.15 -0.8
-8.93 11.46 2.3
-5.28 6.78 -0.75
-8.56 10.98 2.71
-4.85 6.22 -0.41
-8.97 11.51 3.37
-8.64 11.08 -0.25
-7.58 9.72 3.3
-8.76 11.32 0.25
-10.36 13.4 0.89
-3.79 4.9 -1.21
-10.81 13.97 1.55
-3.79 4.9 -0.98
-10.57 13.66 2.12
-3.99 5.15 -0.8
-7.72 9.98 2
-8.37 10.82 2.66
-4.81 6.21 -0.41
-8.74 11.29 3.3
-7.54 9.75 3.3
-8.88 11.55 0.25
-10.6 13.8 0.91
-3.79 4.94 -1.21
-12.13 15.79 1.74
-3.78 4.93 -0.98
-8.61 11.2 1.73
-3.98 5.18 -0.8
-8.39 10.92 2.18
-5.29 6.88 -0.76
-7.5 9.77 2.39
-4.77 6.21 -0.41
-8.5 11.06 -0.24
-7.49 9.76 3.3
-8.58 11.25 0.25
-9.2 12.05 0.79
-3.89 5.09 -1.24
-9.11 11.94 1.31
-3.77 4.94 -0.98
-7.89 10.34 1.6
-3.97 5.2 -0.8
-8.1 10.62 2.12
-7.92 10.37 2.54
-4.75 6.22 -0.41
-8.95 11.73 3.41
-8.38 10.98 -0.24
-7.44 9.75 3.29
-8.91 11.77 0.26
-10.39 13.71 0.9
-3.82 5.05 -1.23
-9.09 12 1.32
-3.77 4.97 -0.99
-3.96 5.22 -0.8
-8.47 11.18 2.22
-9.38 12.39 3.02
-4.7 6.2 -0.41
-9.13 12.05 3.49
-8.36 11.03 -0.24
-7.72 10.19 3.42
-8.37 11.12 0.24
-23.01 30.6 2.01
-3.82 5.07 -1.23
-9.04 12.01 1.32
-3.76 5 -0.99
-8.05 10.7 1.64
-3.94 5.24 -0.8
-7.7 10.23 2.03
-9.83 13.07 3.18
-4.68 6.22 -0.41
-8.54 11.35 3.28
-9.5 12.63 -0.28
-6.69 8.89 2.98
-7.73 10.35 0.23
-3.8 5.1 -1.24
-10.33 13.84 1.51
-3.76 5.04 -1
-7.45 9.97 1.53
-3.92 5.25 -0.8
-8.04 10.77 2.13
-4.66 6.24 -0.41
-8.89 11.91 3.43
-8.12 10.87 -0.24
-8.29 11.1 3.71
-10.58 14.27 0.93
-3.78 5.1 -1.23
-10.15 13.7 1.49
-3.77 5.08 -1
-7.92 10.68 1.63
-3.91 5.28 -0.81
-7.99 10.78 2.13
-9.17 12.38 2.99
-8.11 10.94 3.14
-15.87 21.41 -0.47
-8.91 12.01 4.01
-8.66 11.77 0.25
-10.59 14.39 0.94
-3.77 5.13 -1.24
-10.45 14.21 1.54
-3.76 5.11 -1.01
-7.92 10.76 1.64
-3.91 5.31 -0.81
-8.02 10.89 2.14
-7.72 10.49 2.53
-9.32 12.67 3.63
-8.27 11.24 -0.24
-7.33 9.96 3.31
-15.57 21.32 0.46
-7.69 10.53 0.68
-3.77 5.16 -1.24
-8.51 11.64 1.26
-3.76 5.15 -1.01
-3.9 5.33 -0.81
-6.95 9.52 1.87
-7.53 10.3 2.48
-4.52 6.19 -0.4
-8.48 11.61 3.32
-7.32 10.02 3.32
-7.72 10.65 0.23
-7.66 10.56 0.68
-3.76 5.19 -1.25
-8.46 11.66 1.26
-3.76 5.19 -1.01
-7.29 10.05 1.52
-3.9 5.38 -0.82
-5.04 6.94 -0.75
-9.09 12.53 3.01
-4.49 6.19 -0.4
-8.46 11.66 3.33
-6.47 8.93 2.95
-7.62 10.58 0.23
-7.58 10.53 0.68
-3.83 5.32 -1.27
-8.11 11.26 1.21
-3.76 5.22 -1.02
-7.28 10.12 1.53
-3.88 5.39 -0.82
-7.64 10.61 2.07
-7.33 10.18 2.44
-4.46 6.2 -0.4
-8.44 11.72 3.33
-8.53 11.85 -0.25
-8.45 11.74 3.88
-7.76 10.86 0.23
-10.09 14.12 0.91
-3.82 5.35 -1.28
-11.87 16.61 1.79
-3.76 5.26 -1.02
-7.21 10.09 1.52
-3.88 5.43 -0.82
-6.81 9.53 1.86
-7.3 10.21 2.44
-4.43 6.19 -0.4
-7.23 10.11 -0.22
-6.44 9.01 2.97
-8.4 11.84 0.25
-7.5 10.58 0.68
-3.78 5.33 -1.27
-8.38 11.82 1.27
-3.76 5.3 -1.03
-7.21 10.17 1.53
-3.87 5.46 -0.82
-7.34 10.35 2.01
-9.05 12.75 3.04
-4.41 6.21 -0.4
-8.73 12.31 3.49
-7.8 10.99 -0.24
-8.65 12.19 4
-9.34 13.27 0.28
-10.18 14.45 0.93
-3.77 5.35 -1.27
-3.76 5.34 -1.03
-7.12 10.11 1.52
-3.87 5.5 -0.83
-7.29 10.35 2.01
-6.89 9.78 2.33
-4.38 6.22 -0.4
-8.4 11.93 3.37
-6.97 9.9 -0.21
-8.44 11.99 3.93
-15.28 21.86 0.47
-7.46 10.67 0.68
-8.83 12.64 1.35
-3.75 5.37 -1.04
-7.12 10.18 1.53
-3.87 5.53 -0.83
-7.01 10.02 1.94
-6.41 9.18 2.18
-4.35 6.22 -0.4
-6.6 9.44 2.66
-7.12 10.19 -0.22
-8.4 12.02 3.93
-9.93 14.31 0.3
-8.68 12.52 0.8
-3.75 5.41 -1.04
-7.08 10.21 1.53
-3.84 5.54 -0.83
-7.41 10.67 2.06
-6.52 9.39 2.22
-4.33 6.24 -0.4
-6.65 9.59 2.7
-9.97 14.37 -0.31
-7.51 10.83 3.53
-7.46 10.83 0.23
-9.63 14 0.89
-10.22 14.85 1.58
-3.75 5.45 -1.05
-8.54 12.41 1.85
-3.83 5.57 -0.83
-6.96 10.11 1.94
-6.54 9.5 2.24
-4.3 6.25 -0.4
-6.61 9.61 2.69
-9.32 13.55 -0.29
-7.43 10.79 3.51
-9.96 14.57 0.31
-9.93 14.54 0.92
-8.03 11.75 1.24
-3.75 5.49 -1.05
-8.49 12.43 1.85
-3.83 5.61 -0.83
-6.93 10.15 1.95
-8.74 12.8 3.01
-4.28 6.27 -0.4
-8.72 12.77 3.57
-7.12 10.43 -0.22
-6.45 9.44 3.06
-8.36 12.32 0.26
-8.31 12.26 0.78
-8.67 12.78 1.35
-3.74 5.51 -1.05
-8.69 12.82 1.9
-3.83 5.64 -0.84
-8.68 12.8 2.45
-9.21 13.57 3.19
-4.26 6.28 -0.4
-8.59 12.67 3.53
-7.26 10.7 -0.23
-7.36 10.86 3.51
-9.94 14.76 0.31
-8.3 12.33 0.78
-7.88 11.71 1.23
-3.73 5.55 -1.06
-6.63 9.85 1.46
-3.81 5.66 -0.84
-9.62 14.29 2.73
-8.34 12.4 2.9
-4.21 6.25 -0.39
-6.27 9.32 2.59
-9.84 14.62 -0.31
-7.32 10.88 3.51
-7.55 11.29 0.24
-7.12 10.65 0.67
-8.43 12.61 1.33
-3.74 5.6 -1.07
-8.55 12.79 1.89
-3.81 5.7 -0.84
-6.83 10.22 1.95
-3.97 5.94 -0.63
-6.3 9.43 2.2
-4.17 6.23 -0.39
-6.74 10.09 2.8
-6.83 10.22 -0.21
-8.44 12.63 4.07
-7.25 10.93 0.23
-8.49 12.8 0.81
-9.45 14.25 1.5
-3.74 5.64 -1.07
-7.02 10.58 1.56
-3.8 5.73 -0.84
-6.85 10.33 1.96
-3.93 5.93 -0.62
-6.2 9.35 2.18
-4.14 6.24 -0.39
-7.29 10.98 3.04
-6.25 9.43 -0.2
-8.13 12.26 3.94
-7.01 10.65 0.22
-9.69 14.73 0.92
-9.55 14.52 1.52
-2.8 4.25 -0.81
-3.8 5.77 -0.85
-6.99 10.63 2.02
-3.91 5.94 -0.62
-6.2 9.43 2.19
-4.11 6.25 -0.39
-7.22 10.97 3.03
-7.3 11.09 -0.23
-5.96 9.07 2.91
-6.94 10.63 0.22
-2.79 4.28 -0.81
-3.8 5.82 -0.85
-7.13 10.92 2.07
-3.9 5.97 -0.62
-6.24 9.55 2.22
-4.09 6.26 -0.39
-8.17 12.5 3.45
-6.71 10.27 -0.21
-6.22 9.52 3.05
-10.29 15.86 0.33
-7.15 11.03 0.69
-7.75 11.95 1.25
-2.75 4.24 -0.8
-6.23 9.61 1.41
-3.8 5.86 -0.86
-8.35 12.87 2.43
-3.89 6 -0.63
-6.21 9.58 2.22
-4.06 6.26 -0.39
-6.64 10.25 2.82
-8.03 12.38 -0.26
-6.81 10.5 3.35
-8.24 12.8 0.27
-6.82 10.59 0.66
-2.69 4.18 -0.97
-7.71 11.97 1.25
-2.72 4.22 -0.79
-6.05 9.39 1.37
-3.79 5.89 -0.86
-3.84 5.97 -0.62
-6.18 9.6 2.22
-4.04 6.28 -0.39
-6.42 9.98 2.74
-7.91 12.29 -0.26
-6.88 10.69 3.41
-6.13 9.6 0.2
-6.76 10.6 0.66
-7.05 11.05 1.15
-2.7 4.23 -0.79
-6.35 9.96 1.45
-3.79 5.93 -0.86
-7.13 11.17 2.1
-3.8 5.95 -0.62
-6.19 9.69 2.23
-4.02 6.3 -0.39
-6.53 10.23 2.8
-6.29 9.86 -0.2
-7.27 11.39 3.62
-8 12.62 0.26
-6.69 10.56 0.66
-2.64 4.16 -0.96
-6.09 9.62 1
-2.66 4.2 -0.79
-9.38 14.8 2.15
-3.78 5.97 -0.87
-10.42 16.44 3.08
-3.78 5.97 -0.62
-6.11 9.64 2.22
-3.99 6.29 -0.39
-6.34 10.01 2.73
-7.4 11.68 -0.24
-5.9 9.32 2.96
-7.91 12.57 0.26
-6.66 10.59 0.66
-2.62 4.17 -0.96
-8.09 12.87 1.33
-2.63 4.19 -0.78
-6.38 10.14 1.47
-2.73 4.34 -0.63
-7.08 11.26 2.11
-3.77 5.99 -0.62
-3.98 6.33 -0.39
-9.12 14.51 3.96
-5.97 9.49 -0.2
-6.09 9.68 3.06
-6.45 10.34 0.21
-7.78 12.47 0.77
-2.62 4.2 -0.96
-6.04 9.68 1
-2.61 4.18 -0.78
-6.33 10.14 1.47
-2.69 4.31 -0.62
-3.76 6.03 -0.62
-6.05 9.7 2.22
-3.97 6.36 -0.39
-6.19 9.92 2.7
-7.95 12.74 -0.26
-7.74 12.4 3.92
-6.42 10.37 0.21
-8.06 13.02 0.8
-6.2 10.01 1.03
-2.59 4.18 -0.78
-7.21 11.64 1.68
-2.66 4.29 -0.62
-6.57 10.61 1.98
-3.74 6.05 -0.62
-6.31 10.2 2.33
-3.97 6.42 -0.4
-6 9.69 2.63
-6.1 9.86 3.11
-7.78 12.67 0.26
-7.06 11.49 0.71
-6.2 10.08 1.04
-2.55 4.16 -0.77
-5.93 9.64 1.39
-2.63 4.27 -0.62
-3.77 6.14 -0.63
-5.76 9.37 2.14
-3.97 6.46 -0.4
-9.07 14.76 4
-7.95 12.95 -0.27
-6.08 9.89 3.11
-6.24 10.24 0.21
-7.06 11.58 0.71
-6.6 10.83 1.11
-2.53 4.15 -0.77
-7.09 11.64 1.67
-2.6 4.27 -0.61
-6.56 10.76 2
-5.98 9.81 2.23
-3.97 6.51 -0.4
-6.08 9.98 2.7
-5.96 9.78 -0.2
-6.11 10.02 3.14
-7.94 13.13 0.27
-7.9 13.07 0.8
-6.5 10.75 1.1
-2.5 4.13 -0.77
-6.02 9.94 1.43
-2.57 4.26 -0.61
-8.68 14.35 2.66
-6.1 10.09 2.29
-6.04 9.99 2.69
-6.15 10.16 -0.21
-5.87 9.7 3.04
-6.25 10.42 0.21
-6.76 11.28 0.69
-6 10 1.02
-2.48 4.14 -0.77
-5.98 9.96 1.43
-2.55 4.26 -0.61
-5.97 9.96 1.84
-6.17 10.29 2.33
-5.86 9.77 2.63
-7.69 12.82 4.01
-6.27 10.54 0.21
-9.01 15.14 0.92
-7.18 12.06 1.23
-2.47 4.15 -0.76
-5.93 9.96 1.42
-2.54 4.27 -0.61
-6.37 10.7 1.97
-5.98 10.04 2.27
-5.78 9.71 2.61
-6.41 10.77 -0.22
-7.62 12.8 3.99
-6.26 10.61 0.22
-10.63 18 1.1
-2.42 4.09 -0.92
-6.44 10.91 1.11
-2.45 4.14 -0.76
-5.97 10.11 1.44
-2.51 4.26 -0.61
-5.52 9.36 1.72
-5.93 10.05 2.27
-8.75 14.83 3.98
-5.67 9.61 -0.19
-6.3 10.68 3.32
-6.51 11.11 0.22
-5.87 10.02 0.61
-2.4 4.1 -0.92
-7.49 12.78 1.3
-2.43 4.15 -0.76
-5.31 9.07 1.29
-2.49 4.26 -0.61
-5.97 10.19 1.87
-5.13 8.76 2.34
-5.53 9.44 2.93
-6.07 10.45 0.21
-5.8 9.99 0.61
-2.39 4.1 -0.92
-5.84 10.05 1.02
-2.39 4.12 -0.75
-2.47 4.24 -0.6
-5.56 9.57 1.75
-3.94 6.78 -0.41
-5.29 9.11 2.43
-5.49 9.45 2.93
-6.08 10.54 0.21
-5.79 10.04 0.61
-2.37 4.11 -0.92
-6.02 10.45 1.06
-2.38 4.12 -0.75
-6.16 10.68 1.51
-2.44 4.24 -0.6
-5.47 9.48 1.73
-3.94 6.83 -0.41
-5.04 8.73 2.33
-6.24 10.82 -0.22
-5.47 9.48 2.93
-6 10.5 0.21
-7.12 12.45 0.75
-2.35 4.11 -0.92
-5.46 9.55 0.96
-2.35 4.12 -0.75
-6.1 10.67 1.51
-2.41 4.22 -0.6
-5.35 9.36 1.71
-2.53 4.42 -0.45
-6.1 10.67 2.39
-3.93 6.87 -0.41
-5.42 9.48 2.52
-5.69 9.96 -0.2
-6.16 10.77 3.33
-7.2 12.68 0.25
-5.89 10.37 0.62
-2.32 4.08 -0.91
-7.06 12.45 1.25
-2.33 4.11 -0.75
-9.2 16.22 2.29
-5.23 9.23 1.68
-6.24 11.01 2.46
-3.94 6.95 -0.42
-6.14 10.82 -0.22
-6.14 10.83 3.34
-6.06 10.77 0.22
-5.62 9.99 0.6
-2.3 4.09 -0.91
-5.91 10.5 1.05
-2.31 4.11 -0.75
-5.6 9.96 1.4
-5.33 9.48 1.72
-2.5 4.44 -0.45
-5.95 10.58 2.36
-5.41 9.61 2.55
-5.83 10.35 -0.21
-5.1 9.06 2.79
-7.74 13.86 0.28
-5.7 10.2 0.61
-2.29 4.1 -0.91
-8.14 14.58 1.46
-2.28 4.09 -0.74
-6.27 11.23 1.58
-5.65 10.11 1.83
-2.48 4.45 -0.45
-6.03 10.8 2.41
-5.18 9.28 2.45
-5.27 9.44 -0.19
-6.06 10.85 3.33
-5.7 10.31 0.21
-6.08 10.98 0.66
-2.27 4.1 -0.91
-5.36 9.69 0.97
-2.26 4.08 -0.74
-6.15 11.12 1.56
-5.36 9.69 1.75
-2.47 4.46 -0.45
-4.96 8.96 1.99
-6.6 11.92 3.15
-5.7 10.3 -0.21
-5.96 10.77 3.3
-7.46 13.58 0.27
-7.14 13 0.78
-2.26 4.11 -0.91
-5.33 9.71 0.97
-2.24 4.08 -0.74
-5.41 9.86 1.38
-5.3 9.66 1.74
-2.45 4.47 -0.45
-8.95 16.3 3.61
-2.55 4.64 -0.28
-5.85 10.65 2.81
-5.65 10.29 -0.2
-5.83 10.62 3.25
-5.71 10.49 0.21
-6.14 11.28 0.67
-2.23 4.09 -0.91
-5.29 9.72 0.97
-2.22 4.07 -0.73
-8.42 15.46 2.16
-7.47 13.71 2.47
-2.44 4.48 -0.45
-5.61 10.3 2.28
-2.53 4.64 -0.28
-4.9 8.99 2.36
-5.61 10.31 -0.2
-4.99 9.17 2.8
-10.53 19.49 0.39
-5.51 10.21 0.61
-2.21 4.1 -0.91
-5.31 9.83 0.98
-2.2 4.07 -0.73
-7.35 13.61 1.9
-5.66 10.49 1.89
-6.84 12.67 2.8
-2.51 4.64 -0.28
-5.54 10.26 -0.2
-5.72 10.6 3.23
-5.72 10.69 0.21
-7.42 13.86 0.82
-2.19 4.09 -0.9
-5.2 9.7 0.96
-2.18 4.08 -0.73
-5.34 9.98 1.39
-5.9 11.01 1.98
-5.56 10.37 2.29
-2.5 4.67 -0.28
-5.84 10.9 2.85
-5.74 10.72 -0.21
-6.73 12.56 3.82
-5.75 10.82 0.21
-6.06 11.41 0.68
-2.17 4.09 -0.9
-5.15 9.7 0.96
-2.17 4.09 -0.73
-5.46 10.28 1.43
-2.34 4.41 -0.44
-5.53 10.42 2.29
-2.53 4.77 -0.28
-5.74 10.81 2.82
-7.38 13.9 -0.27
-6.17 11.62 3.53
-5.74 10.9 0.21
-5.45 10.35 0.61
-2.15 4.08 -0.9
-7.37 14 1.38
-2.14 4.07 -0.73
-5.45 10.35 1.44
-5.86 11.14 2.45
-5.85 11.1 2.9
-5.46 10.37 -0.2
-4.86 9.22 2.79
-5.08 9.72 0.19
-5.38 10.31 0.61
-2.12 4.06 -0.89
-5.21 9.97 0.98
-2.13 4.09 -0.73
-5.74 10.99 1.52
-5.09 9.75 1.74
-4.63 8.86 1.94
-5.26 10.08 2.63
-7.55 14.45 -0.28
-5.48 10.5 3.17
-5.48 10.59 0.21
-5.07 9.79 0.58
-2.09 4.04 -0.88
-5.14 9.94 0.98
-2.11 4.08 -0.73
-6.28 12.12 1.68
-5.04 9.74 1.74
-5.49 10.6 2.32
-2.42 4.68 -0.28
-5.28 10.2 -0.2
-5.65 10.92 3.29
-5.72 11.15 0.22
-5.15 10.04 0.59
-2.07 4.03 -0.88
-5.07 9.87 0.97
-2.1 4.09 -0.73
-8.26 16.09 2.22
-9.06 17.65 3.14
-2.39 4.66 -0.27
-4.66 9.08 2.36
-7.26 14.14 -0.28
-4.65 9.06 2.73
-5.57 10.94 0.21
-2.05 4.03 -0.88
-5.04 9.91 0.97
-2.07 4.07 -0.72
-5.97 11.73 1.62
-4.6 9.04 1.61
-4.89 9.61 2.1
-6.34 12.46 3.23
-6.13 12.05 -0.24
-4.56 8.97 2.7
-5.75 11.4 0.22
-5.26 10.43 0.61
-2.03 4.03 -0.88
-5.06 10.03 0.98
-2.05 4.07 -0.72
-5.53 10.97 1.51
-4.62 9.16 1.62
-5.64 11.17 2.43
-2.32 4.6 -0.27
-4.59 9.1 2.35
-9.56 18.94 -0.37
-5.65 11.19 3.36
-4.94 9.87 0.19
-9.61 19.21 1.13
-2.01 4.02 -0.87
-4.86 9.72 0.95
-2.04 4.08 -0.72
-4.6 9.2 1.26
-6.07 12.13 2.15
-5.06 10.12 2.2
-2.3 4.6 -0.27
-4.85 9.7 -0.19
-5.49 10.97 3.29
-4.91 9.9 0.19
-5.01 10.1 0.59
-2 4.02 -0.87
-5.05 10.19 0.99
-2.03 4.09 -0.72
-5.43 10.95 1.5
-4.67 9.43 1.67
-5.07 10.22 2.22
-5.48 11.04 2.85
-4.83 9.74 -0.19
-4.67 9.43 2.82
-1.99 4.06 -1.04
-4.97 10.11 0.59
-1.98 4.02 -0.87
-5.06 10.29 1
-2.01 4.1 -0.72
-5.39 10.96 1.5
-5.48 11.15 1.97
-4.99 10.15 2.2
-5.53 11.26 2.9
-7.09 14.43 -0.28
-4.66 9.48 2.83
-4.72 9.68 0.19
-1.97 4.05 -1.04
-1.96 4.03 -0.87
-5.01 10.28 1
-1.98 4.07 -0.72
-5.32 10.92 1.49
-4.64 9.52 1.68
-4.84 9.93 2.15
-4.86 9.98 2.56
-4.88 10.02 -0.19
-4.94 10.15 3.03
-1.95 4.05 -1.04
-1.94 4.03 -0.87
-5.07 10.49 1.02
-1.96 4.07 -0.72
-5.31 11 1.5
-4.72 9.77 2.11
-4.81 9.97 2.56
-4.83 10 -0.19
-6.62 13.71 4.08
-7.06 14.75 0.29
-1.93 4.04 -1.03
-7.06 14.76 0.86
-1.93 4.02 -0.87
-5.07 10.6 1.03
-1.95 4.07 -0.71
-4.66 9.75 1.71
-4.76 9.94 2.14
-5.43 11.35 2.91
-4.82 10.07 2.99
-4.92 10.37 0.2
-1.92 4.05 -1.03
-1.91 4.02 -0.87
-1.93 4.07 -0.71
-4.66 9.82 1.33
-4.35 9.16 1.61
-2.23 4.69 -0.27
-6.57 13.85 3.54
-5.92 12.47 -0.24
-4.91 10.34 3.07
-4.99 10.61 0.2
-5.03 10.7 0.62
-1.9 4.04 -0.87
-5.19 11.04 1.07
-1.91 4.06 -0.71
-4.9 10.43 1.82
-4.61 9.8 2.11
-6.36 13.53 3.45
-4.77 10.14 -0.2
-4.63 9.84 2.91
-4.57 9.8 0.19
-1.88 4.03 -1.03
-1.88 4.04 -0.87
-4.9 10.52 1.02
-1.89 4.06 -0.71
-4.57 9.8 1.33
-5.19 11.13 1.95
-4.65 9.98 2.14
-4.65 9.98 2.54
-4.8 10.31 -0.2
-4.45 9.54 2.82
-4.96 10.74 0.21
-4.87 10.54 0.61
-1.86 4.03 -0.86
-4.53 9.81 0.95
-1.88 4.07 -0.71
-4.5 9.74 1.32
-4.44 9.61 1.68
-4.45 9.64 2.06
-4.71 10.2 -0.2
-4.56 9.88 2.92
-4.52 9.88 0.19
-1.85 4.04 -1.03
-1.84 4.02 -0.86
-4.52 9.88 0.95
-1.87 4.08 -0.71
-4.46 9.75 1.32
-4.59 10.02 1.75
-5.32 11.62 2.48
-4.26 9.3 2.36
-4.75 10.39 -0.2
-4.97 10.85 3.2
-6.36 14.03 0.27
-1.84 4.05 -1.03
-4.78 10.54 0.61
-1.83 4.03 -0.86
-4.55 10.03 0.96
-1.85 4.07 -0.71
-4.41 9.72 1.31
-6.9 15.22 2.65
-4.52 9.97 2.13
-4.76 10.5 -0.2
-4.33 9.56 2.81
-6.38 14.21 0.27
-1.81 4.04 -0.86
-1.83 4.07 -0.71
-4.6 10.25 1.38
-5.25 11.69 2.03
-5.24 11.67 2.95
-4.66 10.38 -0.2
-4.3 9.57 2.81
-5.66 12.71 0.24
-1.8 4.05 -0.86
-6.75 15.16 1.45
-1.81 4.08 -0.71
-4.66 10.48 1.41
-4.47 10.05 1.74
-5.42 12.17 2.59
-4.4 9.89 2.5
-4.61 10.36 -0.2
-4.7 10.66 0.2
-4.33 9.81 0.56
-1.78 4.04 -0.86
-4.64 10.53 1.01
-1.79 4.06 -0.7
-4.69 10.63 1.43
-5.25 11.91 3
-6.3 14.29 -0.27
-4.51 10.22 2.99
-6.55 14.99 0.29
-4.32 9.89 0.57
-1.76 4.02 -0.85
-4.77 10.92 1.04
-1.78 4.08 -0.71
-4.14 9.48 2.01
-2 4.58 -0.26
-4.43 10.15 2.56
-4.78 10.94 -0.21
-4.43 10.15 2.97
-6.56 15.16 0.29
-4.18 9.68 0.55
-1.74 4.03 -0.85
-1.76 4.07 -0.7
-4.07 9.41 1.26
-2 4.62 -0.26
-6.37 14.73 3.7
-4.74 10.97 -0.21
-4.4 10.19 2.97
-4.26 9.95 0.57
-1.73 4.04 -0.85
-4.36 10.19 0.97
-1.75 4.08 -0.7
-4.48 10.46 1.4
-6.92 16.17 2.79
-1.85 4.32 -0.41
-4.21 9.84 2.08
-1.99 4.65 -0.27
-5.56 12.98 3.26
-4.46 10.42 3.04
-6.05 14.27 0.27
-4.23 9.96 0.57
-1.71 4.04 -0.85
-4.39 10.35 0.98
-1.73 4.08 -0.7
-4.07 9.59 1.28
-6.23 14.69 2.53
-1.83 4.32 -0.41
-4.16 9.8 2.07
-4.26 10.05 2.52
-4.38 10.31 -0.2
-4.18 9.86 2.87
-5.69 13.54 0.26
-6.06 14.43 0.82
-1.7 4.04 -0.85
-4.32 10.3 0.98
-1.71 4.08 -0.7
-4.03 9.59 1.28
-1.77 4.21 -0.56
-4.6 10.96 1.88
-4.11 9.79 2.06
-1.94 4.61 -0.26
-4.66 11.1 2.78
-5.02 11.95 -0.23
-5.9 14.04 4.08
-5.8 13.95 0.26
-3.91 9.4 0.53
-1.68 4.03 -0.85
-7.69 18.48 1.75
-1.7 4.08 -0.7
-6.02 14.48 1.93
-1.74 4.18 -0.56
-4.41 10.59 1.82
-1.8 4.34 -0.41
-5.21 12.51 2.63
-1.94 4.66 -0.26
-4.72 11.35 2.84
-5.67 13.63 -0.26
-5.01 12.04 3.49
-5.69 13.82 0.26
-1.66 4.04 -0.85
-1.69 4.1 -0.7
-4.03 9.79 1.3
-1.73 4.2 -0.56
-7.54 18.31 3.14
-1.79 4.34 -0.41
-4.02 9.76 2.05
-5.42 13.16 3.28
-4.35 10.57 -0.2
-3.91 9.49 2.75
-5.73 14.04 0.26
-4.16 10.2 0.58
-1.65 4.04 -0.85
-4.21 10.32 0.98
-1.66 4.07 -0.7
-3.68 9.03 1.2
-1.72 4.21 -0.56
-5.06 12.4 2.12
-1.77 4.35 -0.41
-4.58 11.23 2.36
-1.89 4.63 -0.26
-4.48 10.97 2.74
-5.43 13.32 -0.25
-5.68 14.06 0.26
-5.94 14.71 0.83
-1.63 4.05 -0.85
-1.65 4.09 -0.7
-3.68 9.1 1.21
-1.7 4.21 -0.56
-3.83 9.49 1.62
-1.76 4.35 -0.41
-3.66 9.05 1.9
-1.87 4.63 -0.26
-4.08 10.11 2.52
-5.81 14.38 -0.27
-3.95 9.79 2.83
-4.22 10.55 0.2
-1.62 4.05 -0.85
-1.64 4.1 -0.7
-3.66 9.16 1.21
-1.68 4.19 -0.55
-4.13 10.32 1.76
-1.74 4.36 -0.41
-4.05 10.12 2.12
-4 10 2.49
-4.4 10.99 -0.21
-5.54 14 0.79
-1.6 4.04 -0.84
-3.93 9.94 0.94
-1.63 4.11 -0.7
-4.28 10.83 1.43
-1.66 4.2 -0.56
-3.71 9.38 1.6
-1.73 4.37 -0.41
-4.03 10.19 2.13
-1.84 4.65 -0.26
-5.14 12.99 3.23
-5.67 14.34 -0.27
-3.82 9.66 2.78
-4.41 11.26 0.21
-1.61 4.12 -1.02
-5.47 13.95 0.79
-1.59 4.05 -0.85
-1.61 4.1 -0.7
-4.13 10.54 1.39
-1.65 4.21 -0.55
-3.6 9.2 1.56
-1.71 4.37 -0.41
-4.73 12.07 2.52
-1.83 4.66 -0.26
-3.73 9.53 2.36
-4.47 11.42 -0.21
-5 12.76 3.67
-4.38 11.3 0.21
-1.6 4.14 -1.02
-1.57 4.06 -0.85
-5.37 13.85 1.3
-1.59 4.11 -0.7
-4.1 10.57 1.39
-1.64 4.22 -0.56
-5.18 13.37 2.27
-1.7 4.38 -0.41
-5.1 13.17 2.75
-1.82 4.69 -0.26
-4.04 10.43 2.58
-4.12 10.62 -0.2
-4.09 10.56 3.03
-4.32 11.25 0.21
-5.33 13.87 0.78
-1.56 4.06 -0.85
-5.33 13.89 1.3
-1.58 4.11 -0.7
-5.24 13.65 1.8
-1.62 4.22 -0.56
-3.69 9.6 1.63
-1.68 4.38 -0.41
-3.92 10.21 2.13
-1.8 4.7 -0.26
-3.64 9.47 2.34
-3.92 10.2 -0.19
-3.95 10.3 2.96
-4.32 11.36 0.21
-4.34 11.42 0.64
-1.54 4.06 -0.84
-3.73 9.81 0.92
-1.56 4.12 -0.7
-3.43 9.05 1.19
-1.6 4.21 -0.55
-1.67 4.39 -0.41
-3.8 10 2.08
-1.77 4.67 -0.26
-4.19 11.04 2.73
-3.83 10.09 -0.19
-6.37 16.77 4.81
-6.92 18.42 0.34
-5.85 15.56 0.87
-1.53 4.06 -0.84
-3.83 10.18 0.95
-1.55 4.13 -0.7
-4.14 11.01 1.44
-1.58 4.21 -0.55
-3.61 9.59 1.62
-1.65 4.4 -0.41
-3.89 10.35 2.15
-1.76 4.68 -0.26
-6.7 17.82 4.39
-3.89 10.34 -0.19
-3.95 10.52 3.01
-4.55 12.23 0.23
-3.76 10.1 0.56
-1.51 4.07 -0.84
-3.65 9.83 0.92
-1.53 4.12 -0.7
-3.49 9.39 1.23
-1.57 4.23 -0.55
-3.88 10.44 1.76
-1.64 4.4 -0.41
-3.74 10.05 2.08
-1.75 4.7 -0.26
-4.48 12.04 2.97
-3.9 10.49 -0.2
-5.2 13.99 4
-4.2 11.42 0.21
-6.48 17.63 0.98
-1.5 4.08 -0.85
-3.7 10.05 0.94
-1.52 4.13 -0.7
-3.39 9.22 1.21
-1.56 4.25 -0.56
-3.43 9.33 1.57
-1.62 4.41 -0.41
-3.54 9.62 1.99
-4.29 11.65 -0.22
-6.5 17.66 5.04
-4.87 13.37 0.25
-4.02 11.04 0.62
-1.49 4.08 -0.84
-1.5 4.13 -0.7
-3.36 9.22 1.2
-1.54 4.25 -0.55
-3.36 9.24 1.56
-1.61 4.41 -0.41
-3.54 9.72 2.01
-1.71 4.7 -0.26
-3.44 9.45 2.32
-3.52 9.68 -0.18
-4.96 13.64 3.89
-3.78 10.5 0.19
-3.85 10.7 0.6
-1.49 4.13 -0.7
-1.53 4.24 -0.55
-3.22 8.95 1.51
-1.59 4.42 -0.41
-4.14 11.5 2.38
-3.81 10.57 2.59
-6.67 18.53 -0.34
-3.91 10.87 3.1
-3.74 10.51 0.19
-3.84 10.8 0.6
-1.45 4.07 -0.84
-3.53 9.92 0.92
-1.47 4.14 -0.7
-3.32 9.33 1.22
-1.51 4.25 -0.55
-3.34 9.39 1.58
-1.57 4.42 -0.41
-4.09 11.49 2.37
-1.68 4.72 -0.26
-3.8 10.67 2.62
-3.61 10.14 -0.19
-3.95 11.11 3.16
-7.26 20.62 0.38
-3.84 10.9 0.61
-1.44 4.08 -0.84
-1.46 4.14 -0.69
-3.78 10.74 1.4
-1.5 4.26 -0.55
-3.28 9.31 1.56
-1.56 4.43 -0.41
-1.66 4.72 -0.26
-3.7 10.51 2.57
-5.18 14.7 -0.27
-4.05 11.49 3.26
-5.06 14.54 0.27
-3.84 11.02 0.61
-3.56 10.24 0.95
-1.45 4.16 -0.7
-6.42 18.45 2.4
-1.48 4.26 -0.55
-3.21 9.21 1.55
-3.72 10.69 2.2
-3.6 10.35 2.53
-7.2 20.68 -0.38
-3.78 10.85 3.08
-4.9 14.24 0.26
-1.42 4.12 -0.85
-3.5 10.17 0.94
-1.43 4.15 -0.7
-3.53 10.26 1.33
-1.47 4.26 -0.55
-3.21 9.31 1.56
-3.61 10.48 2.15
-3.42 9.91 2.42
-4.95 14.36 -0.27
-3.85 11.19 3.17
-3.54 10.4 0.19
-3.79 11.14 0.62
-1.41 4.15 -0.85
-3.47 10.2 0.94
-1.42 4.17 -0.7
-3.55 10.43 1.35
-1.45 4.27 -0.55
-3.18 9.33 1.56
-3.87 11.35 2.33
-3.49 10.25 -0.19
-3.63 10.67 3.02
-3.63 10.78 0.6
-1.4 4.15 -0.85
-3.54 10.52 0.97
-1.41 4.18 -0.7
-3.52 10.47 1.36
-1.43 4.26 -0.55
-3.15 9.35 1.56
-4.71 14.01 2.87
-3.56 10.58 2.58
-7.19 21.36 -0.39
-3.49 10.37 2.93
-3.71 11.17 0.21
-3.59 10.8 0.6
-1.38 4.16 -0.85
-3.5 10.54 0.97
-1.39 4.18 -0.7
-3.42 10.28 1.33
-1.44 4.34 -0.56
-3.12 9.39 1.57
-1.48 4.46 -0.41
-4.64 13.94 3.39
-6.89 20.71 -0.38
-3.59 10.79 3.05
-5.6 17.04 0.31
-3.33 10.14 0.56
-1.37 4.18 -0.85
-3.48 10.58 0.97
-1.37 4.18 -0.7
-4.03 12.26 1.58
-1.42 4.31 -0.56
-3.1 9.43 1.57
-1.47 4.46 -0.41
-3 9.13 1.87
-3.34 10.15 2.47
-3.45 10.5 -0.19
-3.41 10.38 2.93
-4.71 14.51 0.8
-1.36 4.18 -0.86
-3.44 10.59 0.97
-1.36 4.2 -0.7
-5.84 17.99 2.32
-3.05 9.39 1.56
-1.45 4.47 -0.41
-2.93 9.02 1.84
-1.56 4.81 -0.27
-3.33 10.24 2.48
-3.43 10.55 -0.19
-3.32 10.21 2.88
-3.33 10.37 0.19
-3.23 10.05 0.55
-1.35 4.2 -0.86
-3.4 10.57 0.97
-4.63 14.41 1.86
-4.64 14.44 2.4
-1.45 4.51 -0.41
-4.92 15.32 3.71
-4.1 12.75 -0.23
-3.45 10.88 0.2
-3.64 11.47 0.63
-1.33 4.19 -0.85
-3.33 10.49 0.96
-4.63 14.58 1.88
-1.39 4.39 -0.56
-4.42 13.94 2.32
-3.32 10.45 2.13
-3.44 10.84 2.63
-6.05 19.06 -0.35
-3.9 12.43 0.68
-1.32 4.2 -0.86
-3.31 10.56 0.97
-4.61 14.69 1.89
-4.53 14.45 2.4
-3.16 10.07 2.05
-3.5 11.18 2.7
-3.69 11.77 -0.22
-3.21 10.25 2.88
-3.36 10.85 0.6
-1.3 4.21 -0.86
-3.28 10.61 0.97
-3.58 11.55 1.48
-3.69 11.93 1.98
-2.76 8.93 1.82
-1.5 4.85 -0.27
-3.35 10.82 2.61
-6.55 21.15 -0.39
-3.28 10.58 2.97
-4.37 14.28 0.26
-3.83 12.53 0.69
-1.29 4.2 -0.85
-3.25 10.64 0.97
-3.74 12.22 1.57
-3.05 9.98 1.65
-3.63 11.86 2.41
-3.31 10.81 2.61
-3.58 11.7 -0.21
-3.25 10.64 2.98
-2.95 9.76 0.18
-3.8 12.59 0.69
-1.27 4.2 -0.85
-3.23 10.68 0.98
-4.26 14.12 1.81
-3.04 10.07 1.67
-3.54 11.71 2.38
-3.55 11.74 -0.21
-3.23 10.69 2.99
-3.77 12.63 0.23
-3.74 12.54 0.69
-1.26 4.23 -0.86
-3.19 10.68 1.37
-2.91 9.74 1.61
-3.19 10.7 2.17
-6.45 21.62 -0.39
-3.2 10.71 3
-5.51 18.72 0.34
-1.24 4.22 -0.86
-3.08 10.48 0.96
-5.28 17.95 2.3
-1.37 4.64 -0.59
-2.86 9.72 1.61
-3.15 10.69 2.17
-1.45 4.93 -0.27
-3.26 11.06 2.66
-3.38 11.47 -0.21
-3.06 10.4 2.9
-3.59 12.33 0.22
-2.96 10.17 0.56
-3.08 10.59 0.97
-4.05 13.94 1.78
-1.32 4.55 -0.58
-3.23 11.11 1.83
-2.89 9.96 2.02
-3.64 12.5 3.01
-2.93 10.08 -0.18
-5.15 17.7 4.94
-3.65 12.73 0.23
-3.61 12.57 0.69
-1.23 4.28 -0.87
-3.06 10.66 0.97
-2.88 10.05 1.28
-3.17 11.05 1.82
-3.15 10.98 2.22
-3.23 11.27 2.71
-3.08 10.75 -0.2
-3.08 10.74 3
-3.25 11.49 0.21
-5.99 21.14 1.15
-3.04 10.74 0.98
-3.08 10.87 1.39
-1.42 5.01 -0.64
-2.85 10.07 1.66
-1.35 4.76 -0.43
-2.87 10.15 2.05
-3.33 11.76 2.82
-3.64 12.87 -0.23
-3.04 10.72 2.99
-3.2 11.46 0.21
-3.19 11.42 0.62
-3 10.74 0.98
-3.84 13.76 1.75
-2.89 10.34 2.09
-3.53 12.63 3.03
-3.59 12.85 -0.23
-2.69 9.64 2.68
-3.18 11.52 0.21
-3.39 12.3 0.67
-3.8 13.77 1.75
-4.56 16.55 2.72
-2.86 10.38 2.09
-3.48 12.61 3.02
-3.62 13.15 -0.24
-3.05 11.08 3.08
-3.13 11.51 0.21
-4.63 17.05 0.93
-2.65 9.75 0.88
-2.96 10.9 1.39
-3.23 11.87 1.95
-2.77 10.19 2.05
-3.35 12.32 2.95
-3.59 13.19 -0.24
-3.13 11.52 3.2
-2.74 10.21 0.18
-5.85 21.8 1.18
-2.62 9.76 0.88
-3.19 11.89 1.51
-2.62 9.77 1.6
-2.66 9.91 1.99
-3.27 12.19 2.91
-3.65 13.6 -0.25
-2.99 11.13 3.09
-2.72 10.28 0.19
-2.75 10.4 0.56
-2.92 11.03 1
-2.6 9.84 1.25
-1.28 4.86 -0.62
-3.48 13.18 2.16
-2.61 9.88 1.99
-3.56 13.48 3.22
-2.71 10.26 -0.19
-5.77 21.82 6.05
-2.71 10.39 0.19
-4.96 19.02 1.03
-3.36 12.9 1.17
-2.9 11.12 1.41
-1.27 4.88 -0.62
-2.55 9.76 1.6
-2.54 9.75 1.96
-2.78 10.65 2.54
-3.4 13.02 -0.23
-2.5 9.57 2.65
-2.68 10.44 0.19
-2.64 10.28 0.56
-2.51 9.78 0.88
-2.52 9.82 1.97
-3.04 11.83 2.82
-3.34 13.01 -0.23
-2.46 9.57 2.65
-2.87 11.33 0.2
-2.72 10.74 0.58
-2.92 11.51 1.04
-2.92 11.51 1.46
-1.29 5.08 -0.64
-2.48 9.78 1.6
-2.47 9.77 1.96
-3.14 12.39 2.95
-3.2 12.64 -0.23
-2.77 10.93 3.02
-2.87 11.49 0.21
-3.19 12.77 0.69
-3.97 15.88 1.43
-2.87 11.48 1.45
-2.91 11.65 1.9
-3.16 12.67 2.54
-3.18 12.75 -0.23
-2.39 9.56 2.64
-3.63 14.74 0.26
-2.81 11.41 0.62
-2.41 9.78 0.88
-3.12 12.7 2.07
-2.87 11.67 2.34
-2.93 11.9 -0.21
-3.07 12.48 3.44
-2.5 10.33 0.19
-2.51 10.34 0.56
-5.09 20.99 1.89
-5.22 21.56 2.72
-3.46 14.29 2.33
-2.78 11.47 2.29
-2.75 11.36 2.7
-3.28 13.53 -0.24
-2.91 12.01 3.31
-2.48 10.4 0.56
-3.04 12.76 1.15
-3.02 12.65 1.6
-3.1 12.97 2.11
-2.2 9.24 1.85
-1.31 5.49 -0.3
-3.05 12.78 3.03
-3.2 13.42 -0.24
-2.31 9.69 2.67
-3.2 13.64 0.24
-3.01 12.8 0.69
-2.29 9.74 0.88
-4.85 20.63 2.6
-2.93 12.48 2.03
-2.33 9.92 1.98
-1.3 5.55 -0.3
-2.78 11.82 -0.21
-2.75 11.7 3.22
-3.16 13.65 0.24
-3.06 13.24 0.71
-2.86 12.38 1.11
-1.16 5 -0.81
-4.17 18.04 2.27
-2.54 10.98 1.78
-2.85 12.31 2.46
-1.3 5.61 -0.3
-2.17 9.4 2.23
-3.07 13.29 -0.24
-2.29 9.9 2.72
-4.63 20.36 0.36
-3.05 13.39 0.72
-2.94 12.93 1.16
-2.89 12.69 1.6
-2.49 10.94 1.78
-3.25 14.29 2.85
-1.29 5.66 -0.3
-2.34 10.3 2.44
-3.08 13.52 -0.24
-2.2 9.66 2.66
-2.93 13.09 0.23
-3.07 13.71 0.74
-2.36 10.55 0.95
-1.12 5.01 -0.81
-2.25 10.03 1.26
-3.68 16.45 2.67
-2.21 9.88 1.97
-1.28 5.72 -0.31
-2.79 12.48 2.95
-4.29 19.16 -0.34
-1.91 8.54 2.35
-2.94 13.36 0.24
-2.33 10.58 0.57
-2.31 10.49 0.94
-1.15 5.21 -0.84
-2.79 12.65 2.05
-3.77 17.12 3.41
-1.28 5.79 -0.31
-2.97 13.48 -0.24
-1.89 8.59 2.36
-3.95 18.24 0.33
-2.83 13.05 0.7
-2.27 10.46 0.94
-2.36 10.9 1.37
-2.36 10.88 1.76
-3.92 18.09 3.6
-2.14 9.86 2.33
-3.62 16.73 -0.3
-1.87 8.62 2.36
-2.86 13.43 0.24
-2.71 12.75 0.68
-2.27 10.66 0.95
-2 9.39 1.18
-3.89 18.26 2.96
-1.21 5.69 -0.51
-2.11 9.9 1.97
-2 9.41 2.22
-3.97 18.63 -0.33
-2.04 9.59 2.63
-2.81 13.43 0.24
-4.45 21.26 1.14
-2.77 13.24 1.18
-1.18 5.62 -0.7
-1.94 9.29 1.5
-2.41 11.5 2.28
-5.93 28.34 -0.51
-2.06 9.83 2.69
-3.43 16.68 0.3
-2.74 13.34 0.71
-1.11 5.37 -1.07
-2.18 10.58 0.94
-1.71 8.33 1.04
-1.16 5.66 -0.71
-2.43 11.82 1.91
-2.21 10.76 2.13
-2.47 12 -0.64
-1.96 9.52 2.24
-3.78 18.39 -0.33
-1.71 8.33 2.28
-3.35 16.59 0.3
-5.32 26.32 1.41
-1.09 5.38 -1.07
-2.05 10.15 0.91
-2.02 10.02 1.26
-1.15 5.72 -0.72
-1.84 9.12 1.47
-2.45 12.13 -0.65
-1.94 9.58 2.26
-3.35 16.6 -0.3
-2.34 11.6 3.17
-3.95 19.92 0.35
-2.42 12.22 0.65
-2.08 10.5 0.94
-3.8 19.16 2.4
-1.15 5.78 -0.72
-2.13 10.72 1.73
-1.66 8.38 1.66
-1.23 6.19 -0.33
-1.96 9.88 2.33
-3.3 16.64 -0.3
-1.7 8.59 2.35
-3.73 19.17 0.34
-2.11 10.84 0.58
-2.08 10.68 0.95
-1.95 10.01 1.25
-1.71 8.77 1.42
-1.63 8.37 1.66
-1.22 6.25 -0.33
-1.68 8.63 2.03
-3.73 19.16 -0.34
-2.79 14.34 3.91
-3.61 18.9 0.34
-2.29 11.96 0.64
-2.02 10.57 0.94
-1.61 8.43 1.05
-2.66 13.93 2.25
-1.84 9.61 2.26
-3.66 19.14 -0.34
-3.38 17.67 4.82
-2.28 12.18 0.22
-2.27 12.12 0.65
-2.03 10.85 0.97
-2.25 11.97 1.5
-1.11 5.94 -0.74
-2.28 12.14 1.96
-1.57 8.36 1.65
-1.94 10.33 -0.55
-1.85 9.89 2.32
-3.57 19.03 -0.34
-1.82 9.72 2.65
-2.24 12.18 0.22
-2.23 12.15 0.65
-1.06 5.78 -1.14
-1.99 10.83 0.96
-1.07 5.82 -0.94
-1.85 10.06 1.26
-1.11 6.02 -0.75
-1.5 8.17 1.31
-3.28 17.86 3.53
-3.87 21.04 -1.12
-2.24 12.19 -0.22
-1.59 8.62 2.35
-3.46 19.18 0.34
-1.97 10.92 0.58
-1.96 10.88 0.97
-1.05 5.83 -0.94
-1.81 10.06 1.26
-1.1 6.08 -0.76
-1.63 9.04 1.45
-2.52 13.97 2.76
-2.2 12.22 -0.65
-1.79 9.94 2.33
-2.2 12.23 -0.22
-1.48 8.24 2.24
-1.94 10.96 0.19
-3.3 18.69 0.99
-1.94 11 0.98
-1.04 5.87 -0.94
-1.71 9.7 1.21
-1.09 6.17 -0.77
-2.41 13.65 2.19
-2.16 12.22 -1.09
-1.48 8.37 1.65
-1.76 9.98 -0.53
-1.76 9.97 2.34
-1.36 7.7 2.1
-3.54 20.39 0.36
-2.89 16.68 0.89
-1.04 5.98 -1.18
-1.91 10.99 0.98
-1.04 5.98 -0.96
-1.75 10.07 1.25
-2.11 12.14 -1.08
-2.92 16.86 -0.9
-1.71 9.87 2.31
-3.28 18.92 -0.34
-1.51 8.68 2.36
-2.81 16.52 0.29
-3.23 19.04 1.01
-1.04 6.11 -1.2
-1.86 10.96 0.97
-1.02 6.03 -0.97
-3.22 18.98 2.36
-1.54 9.07 1.46
-2.06 12.11 -1.07
-2.07 12.18 -0.65
-1.6 9.4 2.2
-3.58 21.08 -0.37
-1.42 8.35 2.27
-3.49 21.02 0.37
-1.83 11.05 0.59
-1.03 6.18 -1.22
-1.5 9.03 -1.45
-1.37 8.29 1.03
-1.35 8.12 1.3
-1.11 6.69 -0.59
-1.35 8.16 1.61
-3.2 19.28 -1.02
-1.55 9.37 2.19
-3.19 19.24 -0.34
-2.34 14.11 3.83
-3.03 18.63 0.33
-3.01 18.5 0.98
-1.02 6.28 -1.24
-1.71 10.5 0.93
-1.45 8.94 -1.43
-1.59 9.8 1.22
-1.06 6.54 -0.81
-1.37 8.44 1.35
-1.09 6.7 -0.59
-1.33 8.17 1.61
-1.63 10.05 -0.53
-1.53 9.39 2.2
-2.73 16.81 -0.3
-1.57 9.67 2.62
-3.08 19.33 0.34
-1.04 6.52 -1.52
-3 18.83 1
-1.02 6.38 -1.26
-1.68 10.53 0.93
-1 6.31 -1.01
-1.52 9.53 1.18
-1.04 6.56 -0.82
-1.35 8.46 1.36
-1.43 8.99 -0.8
-1.3 8.19 1.61
-3.38 21.27 -1.13
-1.55 9.73 2.28
-2.63 16.54 -0.29
-1.58 9.96 2.7
-3.33 21.41 0.38
-2.58 16.59 0.88
-0.99 6.39 -1.26
-1.71 11.01 0.97
-1 6.4 -1.03
-1.48 9.53 1.18
-1.03 6.64 -0.83
-1.31 8.44 1.35
-1.4 8.98 -0.79
-1.82 11.68 2.3
-3.02 19.41 -1.03
-1.71 10.96 2.56
-2.57 16.52 -0.29
-2.23 14.31 3.88
-2.5 16.47 0.29
-1.02 6.74 -1.57
-2.52 16.59 0.88
-1 6.59 -1.29
-1.65 10.89 0.96
-0.98 6.44 -1.03
-2.9 19.11 2.37
-1.27 8.35 1.34
-1.36 8.98 -0.79
-2.92 19.23 -1.02
-1.67 10.99 2.57
-2.5 16.49 -0.29
-2.5 16.45 4.46
-2.45 16.52 0.29
-1.01 6.81 -1.59
-3.12 21.03 1.11
-0.98 6.63 -1.3
-4.55 30.64 2.71
-0.98 6.59 -1.05
-2.9 19.57 2.43
-1.29 8.66 1.39
-1.33 8.98 -0.79
-1.22 8.24 1.62
-2.83 19.07 -1.01
-1.63 11 2.57
-2.78 18.72 -0.33
-2.56 17.24 4.67
-2.67 18.44 0.33
-1.03 7.1 -1.66
-3.04 21.01 1.11
-0.97 6.72 -1.32
-4.44 30.64 2.71
-0.97 6.67 -1.07
-1.62 11.21 1.39
-1.01 6.95 -0.86
-3.87 26.75 4.28
-1.3 8.96 -0.79
-2.78 19.19 -1.02
-1.6 11.03 2.57
-2.71 18.7 -0.33
-1.55 10.7 2.9
-2.36 16.67 0.29
-1.01 7.13 -1.66
-1.53 10.85 0.57
-0.97 6.84 -1.34
-2.23 15.79 1.39
-0.95 6.72 -1.08
-1.58 11.2 1.39
-1.18 8.37 1.34
-1.27 8.95 -0.79
-2.72 19.25 -1.02
-1.43 10.09 2.35
-2.78 19.67 -0.35
-1.07 7.56 2.05
-2.72 19.81 0.35
-0.98 7.11 -1.66
-2.26 16.46 0.87
-0.95 6.91 -1.36
-2.48 18.01 1.59
-0.94 6.87 -1.1
-0.99 7.19 0.89
-1.22 8.9 -1.1
-1.16 8.43 1.35
-1.23 8.96 -0.79
-1.06 7.67 1.51
-2.6 18.89 -1
-1.09 7.91 1.84
-2.65 19.3 -0.34
-1.54 11.2 3.03
-2.66 19.81 0.35
-0.96 7.12 -1.66
-0.95 7.08 -1.39
-0.94 7.01 -1.12
-2.57 19.12 2.37
-1.19 8.89 -1.1
-2.33 17.38 2.78
-1.2 8.94 -0.79
-1.11 8.24 1.62
-2.2 16.43 -0.87
-1.15 8.61 2.01
-2.2 16.42 -0.29
-1.22 9.08 2.45
-2.49 19.04 0.34
-0.93 7.15 -1.66
-2.16 16.51 0.87
-0.93 7.1 -1.39
-1.44 11.06 0.98
-0.93 7.1 -1.13
-0.94 7.22 0.89
-1.17 8.98 -1.11
-0.93 7.16 1.14
-1.17 8.93 -0.79
-1 7.69 1.51
-2.52 19.29 -1.02
-1.04 7.98 1.86
-2.53 19.36 -0.34
-1.32 10.11 2.73
-2.42 19.01 0.33
-0.91 7.16 -1.67
-1.36 10.73 0.57
-0.91 7.12 -1.4
-1.44 11.33 1
-0.93 7.28 -1.16
-2.3 18.06 2.23
-0.97 7.63 -0.94
-0.91 7.16 1.14
-1.14 8.93 -0.79
-1.08 8.5 1.67
-3.33 26.21 -1.38
-1.4 11.04 2.57
-2.42 19.02 -0.33
-1.17 9.16 2.47
-2.02 16.36 0.29
-0.88 7.17 -1.67
-1.32 10.7 0.57
-0.88 7.13 -1.4
-1.46 11.88 1.05
-0.95 7.67 -1.22
-1.39 11.27 1.39
-0.88 7.17 1.14
-1.1 8.92 -0.79
-0.95 7.73 1.51
-2.02 16.36 -0.86
-1.36 11.07 2.57
-2.31 18.74 -0.33
-1.13 9.16 2.47
-2.39 19.96 0.35
-0.86 7.19 -1.67
-1.25 10.44 0.55
-0.86 7.14 -1.4
-1.21 10.12 0.89
-0.92 7.65 -1.22
-1.01 8.41 1.04
-0.86 7.17 1.14
-1.07 8.93 -0.79
-0.93 7.77 1.52
-1.96 16.36 -0.86
-1.05 8.75 2.03
-2.28 19.02 -0.33
-1.81 15.07 4.07
-1.9 16.34 0.29
-0.89 7.61 -1.77
-1.25 10.74 0.57
-0.83 7.15 -1.4
-2.31 19.81 1.74
-0.89 7.64 -1.22
-3.25 27.9 3.45
-1.13 9.68 -1.2
-1.18 10.1 1.61
-1.04 8.92 -0.79
-1 8.62 1.69
-1.9 16.34 -0.86
-1.24 10.66 2.48
-1.28 11.01 -0.19
-1.97 16.88 4.55
-2.22 19.64 0.35
-0.86 7.62 -1.77
-1.25 11.04 0.58
-1.14 10.11 0.89
-1.14 10.08 -1.61
-0.83 7.34 0.91
-1.24 11 -1.36
-0.8 7.11 1.13
-1.01 8.92 -0.79
-1.05 9.26 -0.49
-1.23 10.85 2.52
-2.2 19.46 -0.34
-1.75 15.46 4.17
-2.18 19.89 0.35
-0.83 7.59 -1.76
-1.21 11.05 0.58
-0.91 8.33 -1.63
-2.24 20.44 1.8
-2.02 18.44 2.28
-1.22 11.14 -1.38
-2.17 19.81 3.16
-0.98 8.92 -0.79
-1.02 9.27 1.81
-1.79 16.36 -0.86
-1.04 9.47 2.2
-2.14 19.52 -0.34
-1.15 10.5 2.83
-1.32 12.39 0.22
-0.81 7.6 -1.77
-1.1 10.32 0.54
-0.87 8.2 -1.6
-2.1 19.74 1.74
-1 9.45 -1.51
-1.37 12.89 1.59
-1.49 14.07 -1.74
-1.65 15.54 2.47
-0.95 8.92 -0.78
-0.99 9.3 1.82
-1.73 16.31 -0.86
-0.87 8.16 1.89
-1.71 16.11 -0.28
-1.12 10.52 2.84
-1.66 16.28 0.29
-0.78 7.6 -1.76
-2.02 19.75 1.04
-0.84 8.22 -1.61
-1.59 15.55 1.37
-0.97 9.49 -1.51
-2.68 26.26 3.24
-0.98 9.57 -1.18
-0.73 7.18 1.14
-0.91 8.92 -0.78
-1.16 11.33 -0.6
-1.67 16.31 -0.29
-1.14 11.17 3.01
-1.87 18.9 0.33
-0.75 7.61 -1.77
-1.04 10.51 0.55
-0.82 8.27 -1.62
-1.13 11.44 1.01
-0.98 9.92 -1.58
-1.51 15.3 1.89
-0.96 9.69 -1.2
-0.89 9.06 1.44
-0.88 8.92 -0.78
-1.54 15.56 3.04
-1.61 16.3 -0.86
-0.78 7.92 1.84
-1.61 16.26 -0.29
-1.51 15.26 4.11
-1.08 11.4 0.2
-0.72 7.62 -1.77
-1.02 10.74 0.57
-0.79 8.28 -1.62
-1.48 15.6 1.37
-0.95 9.98 -1.59
-2.58 27.17 3.35
-0.93 9.77 -1.21
-0.67 7.02 1.12
-0.85 8.9 -0.78
-0.72 7.52 1.47
-1.13 11.91 -0.63
-1.06 11.1 2.58
-1.08 11.39 -0.2
-1 10.48 2.82
-1.48 16.11 0.28
-0.7 7.61 -1.76
-1 10.85 0.57
-0.76 8.3 -1.62
-1.84 20.05 1.76
-0.92 10 -1.59
-0.94 10.3 1.27
-0.99 10.84 -1.34
-0.65 7.14 1.14
-0.82 8.89 -0.78
-1.43 15.57 3.04
-1.06 11.54 -0.61
-0.72 7.82 1.81
-0.93 10.12 -0.18
-0.94 10.26 2.76
-1.39 15.82 0.28
-0.67 7.58 -1.76
-0.94 10.65 0.56
-0.74 8.34 -1.63
-0.99 11.2 0.98
-0.89 10.07 -1.6
-0.92 10.48 -1.29
-0.63 7.19 1.14
-0.79 8.9 -0.78
-1.01 11.45 2.24
-1.41 15.99 -0.84
-0.69 7.77 1.8
-1.39 15.76 -0.28
-0.6 6.78 1.82
-1.33 15.67 0.27
-0.64 7.58 -1.76
-0.71 8.34 -1.63
-0.96 11.29 0.99
-0.86 10.09 -1.6
-0.83 9.8 1.21
-0.61 7.19 1.14
-0.75 8.9 -0.78
-1.01 11.85 2.31
-0.94 11.1 -0.58
-0.95 11.18 2.59
-0.97 11.43 -0.2
-0.58 6.82 1.83
-1.28 15.76 0.28
-0.62 7.6 -1.76
-0.96 11.84 0.62
-0.68 8.32 -1.62
-0.89 10.99 0.96
-0.83 10.21 -1.62
-0.81 9.94 1.22
-0.76 9.42 -1.16
-0.56 6.93 1.1
-0.72 8.9 -0.78
-0.93 11.5 2.24
-1.31 16.19 -0.85
-0.61 7.51 1.74
-0.91 11.19 -0.2
-0.56 6.92 1.86
-0.82 10.61 0.19
-0.59 7.6 -1.76
-0.82 10.61 0.56
-0.64 8.3 -1.62
-0.87 11.19 0.98
-0.79 10.14 -1.61
-0.75 9.7 1.2
-0.82 10.58 -1.3
-0.69 8.88 -0.78
-0.89 11.5 2.24
-0.9 11.56 -0.61
-0.58 7.48 1.73
-0.88 11.27 -0.2
-0.74 9.5 2.55
-0.84 11.27 0.2
-0.57 7.63 -1.77
-1.16 15.62 0.82
-0.62 8.35 -1.63
-1.4 18.83 1.65
-0.74 10.04 -1.6
-0.71 9.63 1.19
-0.78 10.55 -1.3
-0.52 7.03 1.12
-0.66 8.89 -0.78
-0.8 10.75 2.1
-0.69 9.28 -0.49
-0.54 7.32 1.7
-0.81 10.86 -0.19
-0.69 9.26 2.49
-1.11 15.67 0.27
-0.54 7.6 -1.76
-0.59 8.34 -1.63
-0.71 10.12 -1.61
-0.73 10.31 1.27
-0.98 13.86 -1.71
-0.5 7.01 1.11
-0.63 8.89 -0.78
-0.65 9.27 1.81
-0.84 11.83 -0.62
-0.51 7.24 1.68
-0.45 6.63 -1.78
-0.76 11.25 0.2
-0.51 7.59 -1.76
-0.7 10.35 0.54
-0.56 8.33 -1.62
-0.74 11.01 0.97
-0.68 10.13 -1.61
-0.69 10.29 1.27
-0.61 9.04 1.44
-0.6 8.89 -0.78
-0.73 10.85 2.11
-1.09 16.18 -0.85
-0.61 9.04 2.09
-0.7 10.43 -0.18
-1 14.9 4
-0.42 6.63 -1.78
-0.72 11.35 0.2
-0.49 7.61 -1.76
-0.66 10.34 0.54
-0.53 8.33 -1.62
-0.7 11 0.96
-0.63 9.85 -1.56
-0.49 7.64 0.94
-0.67 10.51 -1.29
-0.48 7.46 1.18
-0.57 8.88 -0.78
-0.43 6.76 1.32
-1 15.69 -0.82
-0.45 7.07 1.63
-0.67 10.49 -0.18
-0.45 7.09 1.9
-0.4 6.63 -1.78
-1.27 21.05 0.37
-0.46 7.6 -1.76
-0.62 10.34 0.54
-0.5 8.35 -1.63
-0.66 11.03 0.97
-0.61 10.14 -1.61
-0.46 7.64 0.94
-0.63 10.49 -1.29
-0.44 7.38 1.17
-0.53 8.88 -0.78
-0.41 6.83 1.33
-0.97 16.17 -0.85
-0.42 7.06 1.63
-0.67 11.09 -0.19
-0.41 6.81 1.83
-0.38 6.63 -1.78
-0.63 11.07 0.19
-0.43 7.53 -1.74
-0.47 8.35 -1.62
-0.64 11.26 0.99
-0.57 10.09 -1.6
-1.18 20.82 2.56
-0.81 14.34 -1.76
-1.03 18.11 2.87
-0.5 8.87 -0.78
-0.92 16.16 -0.85
-0.63 11.16 2.58
-1.47 25.96 -0.45
-0.39 6.86 1.84
-0.36 6.64 -1.78
-0.86 16.15 0.28
-0.4 7.5 -1.73
-0.59 11.08 0.58
-0.45 8.37 -1.63
-0.53 10 0.88
-0.54 10.01 -1.59
-0.54 10.06 1.24
-0.75 13.96 -1.72
-0.83 15.62 2.48
-0.47 8.86 -0.78
-0.37 6.99 1.36
-1.1 20.58 -1.08
-0.34 6.33 1.46
-0.86 16.17 -0.28
-0.37 6.91 1.85
-0.33 6.65 -1.79
-0.55 11 0.19
-0.38 7.59 -1.76
-0.59 11.9 0.62
-0.42 8.42 -1.64
-0.57 11.31 0.99
-0.5 10.01 -1.59
-0.5 10.09 1.24
-0.46 9.21 -1.13
-0.35 7.04 1.12
-0.44 8.86 -0.78
-0.34 6.75 1.31
-0.81 16.2 -0.85
-0.36 7.13 1.65
-0.81 16.16 -0.28
-0.33 6.65 1.78
-0.31 6.65 -1.78
-1.17 25.37 0.44
-0.35 7.61 -1.76
-0.39 8.45 -1.64
-0.52 11.22 0.98
-0.43 9.33 -1.48
-0.47 10.1 1.24
-0.43 9.27 -1.14
-0.35 7.57 1.2
-0.41 8.85 -0.78
-0.55 11.81 -0.62
-0.33 7.11 1.64
-0.49 10.63 -0.19
-0.34 7.44 2
-0.28 6.62 -1.78
-0.88 20.52 0.36
-0.33 7.67 -1.77
-0.51 11.92 0.63
-0.36 8.53 -1.66
-0.85 19.96 1.75
-0.4 9.34 -1.48
-0.53 12.3 1.51
-0.59 13.76 -1.69
-0.29 6.82 1.08
-0.38 8.84 -0.77
-0.31 7.16 1.39
-0.87 20.35 -1.07
-0.3 7.02 1.62
-0.45 10.63 -0.19
-0.3 6.94 1.86
-0.26 6.64 -1.78
-0.43 11.03 0.19
-0.3 7.66 -1.77
-0.47 11.92 0.63
-0.33 8.41 -1.64
-0.44 11.2 0.98
-0.36 9.3 -1.47
-0.79 20.31 2.5
-0.54 13.71 -1.69
-0.61 15.54 2.46
-0.35 8.84 -0.77
-0.25 6.3 1.23
-0.82 21.05 -1.1
-0.63 16.14 -0.28
-0.28 7.05 1.89
-0.24 6.66 -1.78
-0.67 18.93 0.33
-0.27 7.65 -1.77
-0.42 11.91 0.62
-0.3 8.29 -1.61
-0.4 11.2 0.98
-0.39 10.99 1.35
-0.5 13.96 -1.72
-0.24 6.86 1.09
-0.31 8.84 -0.77
-0.22 6.31 1.23
-0.57 16.09 -0.84
-0.55 15.57 3.6
-0.38 10.75 -0.19
-0.28 7.83 2.1
-0.21 6.66 -1.79
-0.61 18.94 0.33
-0.25 7.65 -1.77
-0.38 11.91 0.62
-0.26 8.19 -1.59
-0.36 11.18 0.98
-0.3 9.27 -1.47
-0.32 9.99 1.23
-0.29 9.11 -1.12
-0.66 20.54 3.26
-0.28 8.85 -0.77
-0.52 16.09 -0.84
-0.24 7.38 1.7
-0.52 16.32 -0.29
-0.22 6.79 1.82
-0.19 6.68 -1.79
-0.53 18.46 0.32
-0.22 7.68 -1.77
-0.34 11.92 0.63
-0.24 8.3 -1.61
-0.32 11.14 0.97
-0.27 9.28 -1.47
-0.51 17.81 2.19
-0.39 13.61 -1.67
-0.26 9.12 1.44
-0.25 8.84 -0.77
-0.18 6.34 1.23
-0.46 16.05 -0.84
-0.48 16.6 -0.29
-0.21 7.33 1.97
-0.17 6.66 -1.79
-0.41 16.07 0.28
-0.19 7.7 -1.78
-0.4 15.91 0.83
-0.21 8.35 -1.62
-0.22 8.61 0.75
-0.4 15.64 1.92
-0.24 9.36 -1.15
-0.47 18.54 2.94
-0.22 8.83 -0.77
-0.4 15.87 3.08
-0.4 15.8 -0.83
-0.46 18.17 4.2
-0.41 16.14 -0.28
-0.18 7.27 1.95
-0.15 6.68 -1.79
-0.35 15.93 0.28
-0.17 7.65 -1.77
-0.22 10.01 0.52
-0.18 8.39 -1.63
-0.19 8.83 0.77
-0.2 9.3 -1.47
-0.44 20.22 2.48
-0.31 14.33 -1.76
-0.14 6.41 1.02
-0.19 8.82 -0.77
-0.44 20.21 3.93
-0.31 14.36 -0.75
-0.19 8.78 2.03
-0.35 15.9 -0.28
-0.15 6.72 1.8
-0.12 6.7 -1.8
-0.3 15.95 0.28
-0.14 7.61 -1.76
-0.19 10.03 0.53
-0.16 8.41 -1.64
-0.21 11.43 1
-0.17 9.29 -1.47
-0.25 13.68 1.68
-0.25 13.52 -1.66
-0.12 6.42 1.02
-0.16 8.83 -0.77
-0.21 11.19 2.17
-0.27 14.33 -0.75
-0.28 15.1 3.49
-0.12 6.66 1.78
-0.1 6.7 -1.8
-0.15 10.18 0.18
-0.11 7.63 -1.76
-0.16 10.98 0.58
-0.13 8.39 -1.63
-0.13 8.55 0.75
-0.21 13.71 1.68
-0.2 13.58 -1.67
-0.13 8.53 1.35
-0.13 8.83 -0.77
-0.31 20.59 4
-0.24 16.04 -0.84
-0.1 6.64 1.53
-0.24 15.81 -0.28
-0.11 7.14 1.91
-0.08 6.7 -1.8
-0.18 16.09 0.28
-0.09 7.62 -1.76
-0.16 14.32 0.75
-0.09 8.37 -1.63
-0.13 11.39 1
-0.11 9.37 -1.48
-0.1 9.16 1.13
-0.16 14.17 -1.74
-0.07 6.55 1.04
-0.1 8.83 -0.77
-0.2 17.8 3.46
-0.12 10.62 -0.56
-0.19 16.36 -0.29
-0.08 6.94 1.86
-0.05 6.69 -1.79
-0.13 16 0.28
-0.06 7.66 -1.77
-0.13 15.93 0.83
-0.07 8.39 -1.63
-0.07 9.46 -1.5
-0.08 10.21 1.25
-0.11 14.23 -1.75
-0.05 6.6 1.05
-0.07 8.81 -0.77
-0.08 10.21 1.98
-0.21 26.12 -1.37
-0.05 6.64 1.53
-0.13 16.12 -0.28
-0.06 7.09 1.9
-0.03 6.7 -1.79
-0.06 13.34 0.23
-0.03 7.65 -1.77
-0.07 16.34 0.86
-0.04 8.44 -1.64
-0.05 11.41 1
-0.08 18.05 2.22
-0.04 9.47 -1.16
-0.03 6.58 1.04
-0.04 8.81 -0.77
-0.03 6.83 1.33
-0.07 15.79 -0.83
-0.03 6.63 1.53
-0.07 16.46 -0.29
-0.04 8.72 2.34
-0.01 6.71 -1.8
-0.01 13.33 0.23
-0.01 7.65 -1.77
-0.01 11.01 0.58
-0.01 8.41 -1.64
-0.01 11.39 1
-0.01 8.84 -1.4
-0.01 7.13 0.88
-0.01 8.51 1.35
-0.01 8.82 -0.77
-0.01 6.87 1.33
-0.01 15.96 -0.84
-0.01 6.59 1.52
-0.02 21.18 -0.37
-0.01 6.52 1.75
0.02 6.72 -1.8
0.03 11.07 0.19
0.02 7.64 -1.76
0.03 10.37 0.54
0.02 8.37 -1.63
0.03 11.44 1
0.02 8.8 -1.39
0.05 20.7 2.54
0.02 8.82 -1.08
0.05 19.68 3.12
0.02 8.81 -0.77
0.05 20.93 -1.1
0.02 8.41 1.94
0.03 13.71 -0.24
0.03 11.69 3.13
0.04 6.73 -1.8
0.07 11.16 0.19
0.05 7.64 -1.76
0.1 16.04 0.84
0.05 8.37 -1.63
0.07 12.15 1.06
0.05 8.81 -1.4
0.05 8.93 1.1
0.05 8.81 -1.08
0.04 6.58 1.04
0.05 8.82 -0.77
0.04 6.99 1.36
0.12 20.44 -1.07
0.09 15.58 3.6
0.08 13.04 -0.23
0.06 10.58 2.83
0.06 6.73 -1.8
0.07 7.64 -1.76
0.15 16.39 0.86
0.08 8.38 -1.63
0.16 16.84 1.47
0.08 8.83 -1.4
0.19 20.07 2.46
0.08 8.83 -1.08
0.06 6.77 1.07
0.08 8.8 -0.77
0.1 10.45 2.03
0.15 15.95 -0.84
0.06 6.66 1.54
0.19 19.7 -0.34
0.07 7.68 2.06
0.09 6.74 -1.81
0.14 11.21 0.2
0.1 7.64 -1.76
0.13 10.24 0.54
0.11 8.38 -1.63
0.11 8.49 0.74
0.12 9.36 -1.48
0.11 8.75 1.07
0.15 11.38 -1.4
0.09 6.86 1.09
0.11 8.8 -0.77
0.15 11.25 2.19
0.25 19.69 -1.03
0.09 7.09 1.64
0.26 19.77 -0.35
0.1 7.72 2.07
0.11 6.75 -1.81
0.18 11.25 0.2
0.12 7.63 -1.76
0.16 10.12 0.53
0.14 8.36 -1.62
0.18 11.39 1
0.15 9.39 -1.49
0.26 16.19 1.99
0.19 11.4 -1.4
0.27 16.34 2.59
0.14 8.8 -0.77
0.11 6.95 1.35
0.32 19.72 -1.03
0.12 7.11 1.64
0.18 10.88 -0.19
0.13 7.83 2.1
0.13 6.75 -1.81
0.22 11.34 0.2
0.15 7.65 -1.77
0.3 15.1 0.79
0.16 8.34 -1.62
0.32 16.22 1.42
0.21 10.45 -1.65
0.29 14.54 1.79
0.13 6.38 -0.78
0.15 7.52 1.19
0.17 8.8 -0.77
0.22 11.37 2.21
0.31 15.92 -0.83
0.4 20.1 4.64
0.32 15.97 -0.28
0.15 7.47 2
0.16 6.74 -1.81
0.27 11.58 0.2
0.35 14.94 0.78
0.19 8.32 -1.62
0.24 10.44 -1.65
0.41 17.54 2.15
0.15 6.4 -0.79
0.17 7.51 1.19
0.2 8.79 -0.77
0.35 15.26 2.97
0.37 15.91 -0.83
0.2 8.6 1.99
0.37 15.96 -0.28
0.22 9.3 2.49
0.11 4 -1.07
0.31 11.67 0.2
0.11 4.19 -0.97
0.43 16.1 0.84
0.22 8.36 -1.62
0.27 10.14 0.89
0.28 10.49 -1.66
0.38 14.26 1.75
0.17 6.41 -0.79
0.44 16.3 2.58
0.23 8.79 -0.77
0.51 18.92 3.68
0.54 20.26 -1.06
0.45 16.79 3.88
0.35 13.11 -0.23
0.25 9.25 2.48
0.12 3.95 -1.06
0.35 11.74 0.21
0.12 4.11 -0.95
0.49 16.06 0.84
0.25 8.37 -1.63
0.3 10.1 0.88
0.32 10.5 -1.66
0.51 16.73 2.05
0.19 6.41 -0.79
0.63 20.99 3.33
0.27 8.78 -0.77
0.45 14.99 2.91
0.62 20.49 -1.07
0.2 6.73 1.56
0.49 16.24 -0.28
0.24 8.04 2.16
0.13 3.91 -1.05
0.4 11.82 0.21
0.14 4.03 -0.93
0.35 10.48 0.55
0.15 4.47 -0.87
0.56 16.67 1.46
0.35 10.45 -1.66
0.25 7.47 0.92
0.22 6.42 -0.79
0.51 15.17 2.4
0.3 8.79 -0.77
0.55 16.26 -0.85
0.23 6.8 1.57
0.49 14.44 -0.25
0.38 11.4 3.06
0.14 3.86 -1.04
0.44 11.86 0.21
0.15 3.91 -0.9
0.39 10.49 0.55
0.16 4.29 -0.83
0.37 9.85 0.86
0.18 4.89 -0.77
0.28 7.48 0.92
0.24 6.43 -0.79
0.43 11.59 1.84
0.33 8.8 -0.77
0.41 11.09 2.16
0.59 15.86 -0.83
0.42 11.39 2.63
0.53 14.33 -0.25
0.42 11.34 3.04
0.15 3.79 -1.02
0.47 11.61 0.2
0.16 3.86 -0.89
0.59 14.53 0.76
0.16 4 -0.78
0.6 14.85 1.3
0.19 4.56 -0.72
0.3 7.49 0.92
0.26 6.4 -0.79
0.28 6.81 1.08
0.36 8.79 -0.77
0.28 6.98 1.36
0.64 15.85 -0.83
0.46 11.36 2.63
0.65 15.88 -0.28
0.29 7.01 1.88
0.17 3.75 -1.01
0.53 11.88 0.21
0.17 3.84 -0.89
0.64 14.59 0.77
0.17 3.9 -0.76
0.52 11.68 1.02
0.19 4.36 -0.69
0.51 11.6 1.43
0.28 6.45 -0.79
0.51 11.49 1.82
0.39 8.77 -0.77
0.32 7.31 1.42
0.7 15.85 -0.83
0.5 11.39 2.63
0.7 15.89 -0.28
0.49 11.13 2.98
0.18 3.73 -1
0.56 11.84 0.21
0.18 3.83 -0.88
0.56 11.8 0.62
0.18 3.86 -0.75
0.4 8.43 0.74
0.2 4.19 -0.66
0.55 11.58 1.42
0.31 6.47 -0.8
0.55 11.49 1.82
0.42 8.78 -0.77
0.34 7.19 1.4
0.6 12.62 -0.66
0.54 11.36 2.63
0.76 15.87 -0.28
0.43 8.96 2.4
