# .PCD v0.7 - Point Cloud Data file format
VERSION 0.7
FIELDS x y z
SIZE 4 4 4
TYPE F F F
COUNT 1 1 1
WIDTH 2888
HEIGHT 1
VIEWPOINT 0 0 0 1 0 0 0
POINTS 2888
DATA ascii
9.7 0.37 -1.54
12.24 0.47 -1.5
16.34 0.63 -1.43
15.71 0.61 -0.82
6.03 0.21 -1.62
27.17 0.95 0.47
6.92 0.24 -1.6
27.15 0.95 1.42
8.08 0.28 -1.57
27.17 0.95 2.38
9.71 0.34 -1.54
12.23 0.43 -1.5
16.34 0.57 -1.43
16.06 0.56 -0.84
27.45 0.96 -0.48
6.02 0.19 -1.61
27.14 0.86 0.47
6.92 0.22 -1.6
27.14 0.86 1.42
8.08 0.26 -1.57
27.12 0.86 2.37
9.7 0.31 -1.54
12.23 0.39 -1.5
16.35 0.52 -1.43
27.45 0.87 -0.48
6.02 0.17 -1.61
27.1 0.77 0.47
6.93 0.2 -1.6
27.1 0.77 1.42
8.1 0.23 -1.57
27.1 0.77 2.37
9.7 0.27 -1.54
12.24 0.35 -1.5
16.35 0.46 -1.43
27.43 0.78 -0.48
6.03 0.15 -1.62
27.06 0.67 0.47
6.92 0.17 -1.6
27.06 0.67 1.42
8.1 0.2 -1.57
27.06 0.67 2.37
9.71 0.24 -1.54
12.24 0.3 -1.5
16.35 0.41 -1.43
27.38 0.68 -0.48
6.03 0.13 -1.62
27.04 0.58 0.47
6.92 0.15 -1.6
27.02 0.58 1.42
8.1 0.17 -1.57
27.04 0.58 2.37
9.7 0.21 -1.54
12.24 0.26 -1.5
16.34 0.35 -1.43
27.35 0.58 -0.48
6.03 0.11 -1.62
6.92 0.12 -1.6
8.09 0.14 -1.57
9.72 0.17 -1.54
12.23 0.22 -1.5
16.35 0.29 -1.43
25.54 0.45 -1.34
27.34 0.49 -0.48
6.02 0.09 -1.61
6.93 0.1 -1.6
8.09 0.12 -1.57
9.71 0.14 -1.54
12.23 0.18 -1.5
16.33 0.23 -1.43
27.45 0.39 -0.48
6.02 0.07 -1.61
27.08 0.29 0.47
6.93 0.08 -1.6
27.04 0.29 1.42
8.09 0.09 -1.57
27.19 0.29 2.38
9.7 0.1 -1.54
12.24 0.13 -1.5
16.33 0.18 -1.43
6.03 0.04 -1.62
27.09 0.2 0.47
6.92 0.05 -1.6
27.05 0.2 1.42
8.1 0.06 -1.58
27.39 0.2 2.4
9.71 0.07 -1.54
12.24 0.09 -1.5
16.31 0.12 -1.43
6.03 0.02 -1.62
27.05 0.1 0.47
6.92 0.03 -1.6
27.01 0.1 1.42
8.1 0.03 -1.57
9.72 0.04 -1.54
12.23 0.05 -1.5
16.32 0.06 -1.43
29.75 0.11 -0.52
6.03 0 -1.62
28.04 0.01 0.49
6.91 0 -1.6
28.01 0.01 1.47
8.09 0 -1.57
9.72 0 -1.54
12.24 0 -1.5
16.31 0.01 -1.43
6.02 -0.02 -1.61
28.3 -0.09 0.49
6.92 -0.02 -1.6
28.29 -0.09 1.48
8.09 -0.03 -1.57
28.3 -0.09 2.48
9.72 -0.03 -1.54
12.24 -0.04 -1.5
16.28 -0.05 -1.42
25.15 -0.08 -1.32
6.02 -0.04 -1.61
28.6 -0.19 0.5
6.93 -0.05 -1.6
28.58 -0.19 1.5
8.1 -0.05 -1.57
28.61 -0.19 2.5
9.72 -0.06 -1.54
12.24 -0.08 -1.5
16.3 -0.11 -1.43
24.82 -0.16 -1.3
29.59 -0.2 -0.52
6.03 -0.06 -1.62
28.86 -0.29 0.5
6.92 -0.07 -1.6
28.87 -0.29 1.51
8.1 -0.08 -1.57
28.87 -0.29 2.53
9.71 -0.1 -1.54
12.23 -0.12 -1.5
16.29 -0.16 -1.43
24.78 -0.25 -1.3
6.04 -0.08 -1.62
29.17 -0.39 0.51
6.92 -0.09 -1.6
29.15 -0.39 1.53
8.1 -0.11 -1.57
29.19 -0.39 2.55
9.72 -0.13 -1.54
12.23 -0.16 -1.5
16.28 -0.22 -1.42
24.6 -0.33 -1.29
6.03 -0.1 -1.62
29.47 -0.5 0.51
6.92 -0.12 -1.6
29.52 -0.5 1.55
8.1 -0.14 -1.57
29.54 -0.5 2.58
9.72 -0.16 -1.54
12.23 -0.21 -1.5
16.28 -0.28 -1.42
24.6 -0.42 -1.29
6.01 -0.12 -1.61
29.76 -0.61 0.52
6.93 -0.14 -1.6
8.09 -0.17 -1.57
29.74 -0.61 2.6
9.72 -0.2 -1.54
12.23 -0.25 -1.5
16.27 -0.33 -1.42
24.49 -0.5 -1.28
30.25 -0.62 -0.53
6.02 -0.14 -1.61
30.07 -0.72 0.53
6.93 -0.17 -1.6
30.12 -0.72 1.58
8.09 -0.19 -1.57
30.13 -0.72 2.64
9.72 -0.23 -1.54
12.22 -0.29 -1.5
16.27 -0.39 -1.42
23.99 -0.57 -1.26
6.02 -0.17 -1.61
30.41 -0.83 0.53
6.92 -0.19 -1.6
30.42 -0.83 1.59
8.1 -0.22 -1.58
30.49 -0.84 2.67
9.71 -0.27 -1.54
12.22 -0.33 -1.5
16.26 -0.45 -1.42
23.98 -0.66 -1.26
6.03 -0.19 -1.62
30.74 -0.95 0.54
6.92 -0.21 -1.6
8.1 -0.25 -1.58
30.76 -0.95 2.69
9.71 -0.3 -1.54
12.2 -0.38 -1.5
16.27 -0.5 -1.42
22.27 -0.69 -1.17
6.03 -0.21 -1.62
31.08 -1.07 0.54
6.92 -0.24 -1.6
31.11 -1.07 1.63
8.09 -0.28 -1.57
31.08 -1.07 2.72
9.72 -0.33 -1.54
12.2 -0.42 -1.5
16.28 -0.56 -1.42
22.27 -0.77 -1.17
6.02 -0.23 -1.61
31.42 -1.19 0.55
6.93 -0.26 -1.6
31.4 -1.19 1.65
8.09 -0.31 -1.57
9.71 -0.37 -1.54
12.19 -0.46 -1.5
16.3 -0.62 -1.43
24.58 -0.93 -1.29
31.87 -1.21 -0.56
6.02 -0.25 -1.61
31.79 -1.31 0.56
6.92 -0.29 -1.6
31.83 -1.31 1.67
8.09 -0.33 -1.57
9.7 -0.4 -1.54
12.2 -0.5 -1.5
16.27 -0.67 -1.42
24.57 -1.01 -1.29
6.02 -0.27 -1.61
32.17 -1.44 0.56
6.92 -0.31 -1.6
32.15 -1.44 1.69
8.09 -0.36 -1.57
9.7 -0.43 -1.54
12.17 -0.54 -1.5
16.14 -0.72 -1.41
24.54 -1.1 -1.29
20.67 -0.92 -0.36
6.03 -0.29 -1.62
22.19 -1.07 0.39
6.92 -0.33 -1.6
32.49 -1.57 1.7
8.1 -0.39 -1.58
9.7 -0.47 -1.54
12.16 -0.59 -1.5
16.12 -0.78 -1.41
20.68 -1 -1.08
20.6 -0.99 -0.36
6.02 -0.31 -1.62
22.54 -1.17 0.39
6.92 -0.36 -1.6
22.26 -1.15 1.17
8.08 -0.42 -1.57
9.7 -0.5 -1.54
12.16 -0.63 -1.49
16.12 -0.83 -1.41
20.68 -1.07 -1.09
20.62 -1.07 -0.36
6.01 -0.33 -1.61
33.35 -1.85 0.58
6.92 -0.38 -1.6
22.17 -1.23 1.16
8.08 -0.45 -1.57
9.69 -0.54 -1.54
12.15 -0.67 -1.49
16.06 -0.89 -1.41
24.68 -1.37 -1.3
20.65 -1.14 -0.36
6.01 -0.35 -1.61
22.45 -1.32 0.39
6.93 -0.41 -1.6
33.72 -1.99 1.77
8.09 -0.48 -1.57
9.68 -0.57 -1.54
12.16 -0.72 -1.5
15.97 -0.94 -1.4
24.5 -1.44 -1.29
20.65 -1.22 -0.36
6.01 -0.37 -1.61
22.42 -1.4 0.39
6.91 -0.43 -1.6
34.11 -2.12 1.79
8.09 -0.5 -1.57
9.69 -0.6 -1.54
12.15 -0.76 -1.5
15.92 -0.99 -1.4
18.3 -1.14 -0.96
6.01 -0.4 -1.62
22.17 -1.46 0.39
6.92 -0.45 -1.6
22.35 -1.47 1.17
8.08 -0.53 -1.57
9.67 -0.64 -1.54
12.14 -0.8 -1.49
15.76 -1.04 -1.38
17.94 -1.18 -0.94
21.61 -1.42 -0.38
6.02 -0.42 -1.62
22.13 -1.53 0.39
6.91 -0.48 -1.6
34.89 -2.41 1.83
8.07 -0.56 -1.57
9.68 -0.67 -1.54
12.12 -0.84 -1.49
15.28 -1.06 -1.34
17.59 -1.21 -0.92
21.71 -1.5 -0.38
6.01 -0.44 -1.61
22.16 -1.61 0.39
6.91 -0.5 -1.6
35.33 -2.56 1.86
8.07 -0.59 -1.57
9.67 -0.7 -1.54
12.13 -0.88 -1.49
15.08 -1.09 -1.32
17.33 -1.26 -0.91
21.66 -1.57 -0.38
6.01 -0.46 -1.62
6.92 -0.53 -1.6
35.67 -2.72 1.87
8.08 -0.62 -1.57
9.66 -0.74 -1.53
27.39 -2.09 3.37
12.12 -0.92 -1.49
15.13 -1.15 -1.33
17.11 -1.3 -0.9
27.63 -2.11 -0.48
6.01 -0.48 -1.62
6.91 -0.55 -1.6
36.25 -2.89 1.91
8.07 -0.64 -1.57
9.65 -0.77 -1.53
27.52 -2.19 3.39
12.12 -0.97 -1.49
15.34 -1.22 -1.35
16.97 -1.35 -0.89
6.01 -0.5 -1.62
24.7 -2.06 0.43
6.9 -0.58 -1.6
36.64 -3.06 1.93
8.07 -0.67 -1.57
9.65 -0.81 -1.53
27.46 -2.29 3.38
12.11 -1.01 -1.49
15.37 -1.28 -1.35
16.75 -1.4 -0.88
6.01 -0.52 -1.62
23.92 -2.08 0.42
6.91 -0.6 -1.6
26.89 -2.34 1.41
8.06 -0.7 -1.57
9.64 -0.84 -1.53
27.24 -2.37 3.36
12.11 -1.05 -1.49
15.39 -1.34 -1.35
16.49 -1.43 -0.87
23.07 -2.01 -0.4
6 -0.54 -1.61
24.19 -2.19 0.42
6.91 -0.63 -1.6
8.06 -0.73 -1.57
9.64 -0.87 -1.53
27.51 -2.49 3.39
12.1 -1.1 -1.49
15.31 -1.39 -1.35
16.1 -1.46 -0.85
24.18 -2.19 -0.42
6 -0.56 -1.61
22.71 -2.13 0.4
6.91 -0.65 -1.6
26.94 -2.53 1.42
8.06 -0.76 -1.57
9.63 -0.91 -1.53
28.03 -2.64 3.46
12.12 -1.14 -1.49
15.21 -1.43 -1.34
15.62 -1.47 -0.82
22.36 -2.1 -0.39
6 -0.59 -1.62
22.76 -2.22 0.4
6.89 -0.67 -1.6
8.05 -0.79 -1.57
9.63 -0.94 -1.53
12.12 -1.18 -1.5
15.1 -1.47 -1.33
15.37 -1.5 -0.81
6 -0.61 -1.62
21.85 -2.21 0.38
6.89 -0.7 -1.6
23.65 -2.39 1.25
8.05 -0.81 -1.57
28.52 -2.88 2.51
9.63 -0.97 -1.53
28.08 -2.84 3.46
12.1 -1.22 -1.49
14.93 -1.51 -1.31
15.15 -1.53 -0.8
22.09 -2.23 -0.39
6 -0.63 -1.62
21.93 -2.29 0.38
6.89 -0.72 -1.6
8.04 -0.84 -1.57
27.75 -2.89 2.44
9.64 -1 -1.54
24.22 -2.52 2.99
12.11 -1.26 -1.49
14.89 -1.55 -1.31
14.91 -1.55 -0.79
22.14 -2.31 -0.39
5.99 -0.65 -1.61
21.82 -2.35 0.38
6.9 -0.74 -1.6
8.03 -0.87 -1.57
27.75 -2.99 2.44
9.63 -1.04 -1.53
27.24 -2.94 3.36
12.11 -1.31 -1.5
14.67 -1.58 -1.29
14.7 -1.58 -0.77
21.75 -2.34 -0.38
5.99 -0.67 -1.61
21.69 -2.41 0.38
6.89 -0.77 -1.6
21.35 -2.38 1.13
8.03 -0.89 -1.57
28.65 -3.19 2.52
9.61 -1.07 -1.53
27.2 -3.03 3.36
12.09 -1.35 -1.49
24.45 -2.72 3.9
14.61 -1.63 -1.29
14.49 -1.61 -0.76
20.7 -2.3 -0.36
5.99 -0.69 -1.62
22 -2.53 0.39
6.88 -0.79 -1.6
21.2 -2.43 1.12
8.03 -0.92 -1.57
24.04 -2.76 2.12
9.61 -1.1 -1.53
27.08 -3.11 3.35
12.07 -1.39 -1.49
22.33 -2.56 3.56
14.5 -1.66 -1.28
14.32 -1.64 -0.76
22.87 -2.63 -0.4
5.99 -0.71 -1.62
21.12 -2.51 0.37
6.88 -0.82 -1.6
21.56 -2.56 1.14
8.02 -0.95 -1.57
24.05 -2.86 2.12
9.6 -1.14 -1.53
22.34 -2.65 2.76
12.02 -1.43 -1.49
24.28 -2.88 3.87
14.93 -1.77 -1.32
22.34 -2.65 -1.18
19.92 -2.36 -0.35
5.99 -0.73 -1.62
21.21 -2.59 0.37
6.88 -0.84 -1.6
21.45 -2.62 1.13
8.01 -0.98 -1.57
26.59 -3.25 2.34
9.61 -1.17 -1.53
27.06 -3.31 3.35
11.99 -1.47 -1.48
28.33 -3.46 4.52
14.43 -1.76 -1.27
20.24 -2.47 -1.07
20.91 -2.56 -0.37
5.97 -0.75 -1.61
20.3 -2.55 0.36
6.88 -0.86 -1.6
20.88 -2.63 1.1
8.01 -1.01 -1.57
23.98 -3.02 2.11
9.6 -1.21 -1.53
26.46 -3.33 3.27
11.94 -1.5 -1.48
28.25 -3.55 4.51
14.16 -1.78 -1.25
21.64 -2.72 -1.14
19.51 -2.45 -0.34
5.98 -0.77 -1.62
6.87 -0.89 -1.6
20.63 -2.67 1.09
8.01 -1.04 -1.57
29 -3.75 2.56
9.58 -1.24 -1.53
26.52 -3.43 3.28
11.92 -1.54 -1.48
21.79 -2.82 3.48
15.82 -2.05 -1.4
24.24 -3.14 -1.28
19.39 -2.51 -0.34
5.98 -0.79 -1.62
23.4 -3.11 0.41
6.86 -0.91 -1.6
21.24 -2.82 1.12
8.01 -1.06 -1.57
27.84 -3.7 2.46
9.57 -1.27 -1.53
22.15 -2.94 2.74
11.88 -1.58 -1.47
21.88 -2.91 3.5
13.93 -1.85 -1.23
27.62 -3.67 5.42
19.19 -2.55 -0.34
5.97 -0.82 -1.62
18.84 -2.57 0.33
6.85 -0.94 -1.6
20.49 -2.8 1.08
8 -1.09 -1.57
21.19 -2.89 1.87
9.57 -1.31 -1.53
26.53 -3.62 3.29
11.8 -1.61 -1.46
22.15 -3.02 3.54
19.65 -2.68 -1.04
19.18 -2.62 -0.34
5.97 -0.83 -1.61
19.37 -2.7 0.34
6.86 -0.96 -1.6
20.59 -2.88 1.09
7.99 -1.12 -1.57
21.33 -2.98 1.88
9.57 -1.34 -1.53
21.8 -3.04 2.7
11.68 -1.63 -1.45
22.11 -3.09 3.54
15.62 -2.18 -1.38
19.93 -2.78 -1.05
21.39 -2.99 -0.38
5.96 -0.85 -1.61
20.43 -2.93 0.36
6.86 -0.98 -1.6
20.37 -2.92 1.08
7.98 -1.14 -1.57
20.77 -2.97 1.84
9.56 -1.37 -1.53
27.44 -3.93 3.4
11.69 -1.67 -1.45
21.14 -3.03 3.38
15.55 -2.23 -1.37
23.46 -3.36 4.61
19.56 -2.8 -1.04
19.05 -2.73 -0.34
5.96 -0.87 -1.61
19.17 -2.81 0.34
6.85 -1.01 -1.6
19.01 -2.79 1.01
7.99 -1.17 -1.57
22.23 -3.26 1.97
9.55 -1.4 -1.53
26.82 -3.94 3.33
11.66 -1.71 -1.45
26.77 -3.93 4.29
15.58 -2.29 -1.38
19.03 -2.79 -1.01
17.74 -2.6 -0.31
5.96 -0.9 -1.61
6.84 -1.03 -1.6
19.49 -2.93 1.03
7.98 -1.2 -1.57
21.84 -3.28 1.93
9.54 -1.43 -1.53
27.4 -4.12 3.4
11.58 -1.74 -1.44
26.81 -4.03 4.29
15.7 -2.36 -1.39
19.25 -2.89 -1.02
18.97 -2.85 -0.33
5.96 -0.92 -1.62
18.58 -2.86 0.33
6.84 -1.05 -1.6
18.79 -2.9 1
7.98 -1.23 -1.57
21.47 -3.31 1.9
9.55 -1.47 -1.53
11.47 -1.77 -1.43
21.35 -3.29 3.42
12.79 -1.97 -1.13
17.85 -2.75 -0.95
18.13 -2.79 -0.32
5.95 -0.94 -1.61
15.63 -2.46 0.28
6.84 -1.08 -1.6
18.98 -2.99 1.01
7.97 -1.26 -1.57
20.35 -3.21 1.8
9.54 -1.5 -1.53
21.38 -3.37 2.66
11.45 -1.8 -1.42
21.27 -3.35 3.41
12.26 -1.93 -1.09
23.21 -3.66 4.57
17.73 -2.8 -0.94
17.72 -2.79 -0.31
5.94 -0.96 -1.61
15.6 -2.52 0.28
6.84 -1.1 -1.6
18.96 -3.06 1.01
7.96 -1.28 -1.57
20.43 -3.29 1.81
9.53 -1.54 -1.53
21.45 -3.46 2.67
11.38 -1.84 -1.42
25.12 -4.05 4.03
12.09 -1.95 -1.07
25.4 -4.1 5
18.25 -2.94 -0.97
17.68 -2.85 -0.31
5.94 -0.98 -1.61
15.59 -2.57 0.28
6.83 -1.13 -1.6
18.71 -3.08 0.99
7.96 -1.31 -1.57
19.95 -3.29 1.77
9.52 -1.57 -1.53
21 -3.46 2.61
11.27 -1.86 -1.4
11.95 -1.97 -1.06
18.18 -3 -0.97
23.65 -3.9 5.53
16.14 -2.66 -0.29
5.94 -1 -1.61
15.59 -2.62 0.28
6.82 -1.15 -1.6
18.17 -3.06 0.97
7.96 -1.34 -1.57
15.63 -2.63 1.39
9.52 -1.6 -1.53
19.77 -3.33 2.46
11.21 -1.89 -1.4
25.68 -4.32 4.13
11.8 -1.99 -1.05
17.72 -2.98 -0.94
23.5 -3.95 5.5
15.48 -2.6 -0.27
5.94 -1.02 -1.62
6.81 -1.17 -1.6
18.18 -3.12 0.97
7.95 -1.37 -1.57
15.58 -2.68 1.38
9.51 -1.63 -1.53
19.82 -3.41 2.47
11.09 -1.91 -1.38
25.78 -4.43 4.14
11.68 -2.01 -1.04
15.64 -2.69 -0.83
15.56 -2.68 -0.28
5.93 -1.04 -1.61
14.94 -2.62 0.26
6.81 -1.2 -1.6
17.83 -3.13 0.95
7.94 -1.39 -1.57
15.49 -2.72 1.38
9.51 -1.67 -1.53
25.24 -4.43 3.15
11.12 -1.95 -1.39
27.58 -4.84 4.44
11.54 -2.03 -1.02
25.33 -4.45 5
16.72 -2.94 -0.89
25.01 -4.39 5.86
15.56 -2.73 -0.28
5.92 -1.06 -1.61
14.93 -2.68 0.26
6.82 -1.22 -1.6
14.72 -2.64 0.78
7.94 -1.42 -1.57
15.51 -2.78 1.38
9.5 -1.7 -1.53
27.33 -4.9 3.41
11.09 -1.99 -1.38
25.45 -4.56 4.1
11.4 -2.04 -1.01
25.2 -4.52 4.98
17.97 -3.22 -0.96
25.28 -4.53 5.93
15.51 -2.78 -0.28
5.91 -1.08 -1.61
14.92 -2.72 0.26
6.81 -1.24 -1.6
14.64 -2.67 0.78
7.93 -1.45 -1.57
15.51 -2.83 1.38
9.48 -1.73 -1.53
25.65 -4.68 3.2
11.07 -2.02 -1.38
22.53 -4.11 3.63
11.3 -2.06 -1.01
25.43 -4.64 5.03
15.86 -2.89 -0.84
5.92 -1.1 -1.61
15.02 -2.8 0.27
6.8 -1.26 -1.6
14.67 -2.73 0.78
7.93 -1.48 -1.57
15.51 -2.89 1.38
9.46 -1.76 -1.52
18.9 -3.52 2.36
11.04 -2.06 -1.38
22.91 -4.26 3.69
11.22 -2.09 -1
15.23 -2.83 -0.81
22.67 -4.22 5.32
16.35 -3.04 -0.29
5.91 -1.12 -1.61
14.91 -2.83 0.26
6.79 -1.29 -1.6
14.67 -2.78 0.78
7.93 -1.5 -1.57
19.57 -3.71 1.74
9.44 -1.79 -1.52
25.44 -4.82 3.18
11.03 -2.09 -1.38
23.76 -4.51 3.83
11.16 -2.12 -0.99
21.58 -4.09 4.27
15.77 -2.99 -0.84
14.63 -2.77 -0.26
5.91 -1.14 -1.61
14.9 -2.88 0.26
6.79 -1.31 -1.6
14.62 -2.83 0.78
7.91 -1.53 -1.57
14.82 -2.87 1.32
9.43 -1.82 -1.52
23.92 -4.62 2.99
11.19 -2.16 -1.4
25.46 -4.92 4.11
11.1 -2.15 -0.99
21.83 -4.22 4.32
15.4 -2.98 -0.82
22.86 -4.42 5.38
14.37 -2.78 -0.26
5.9 -1.16 -1.61
14.77 -2.91 0.26
6.79 -1.34 -1.6
14.67 -2.89 0.78
7.91 -1.56 -1.57
19.42 -3.83 1.73
9.4 -1.85 -1.52
20.52 -4.04 2.57
11.05 -2.18 -1.38
25.14 -4.95 4.06
10.99 -2.17 -0.98
22.19 -4.37 4.4
15.36 -3.03 -0.82
25.55 -5.04 6.01
14.37 -2.83 -0.26
5.9 -1.18 -1.61
14.04 -2.82 0.25
6.78 -1.36 -1.6
14.94 -3 0.8
7.91 -1.59 -1.57
14.81 -2.98 1.32
9.36 -1.88 -1.51
19.92 -4 2.49
11.15 -2.24 -1.4
25.04 -5.03 4.05
10.89 -2.19 -0.97
23.3 -4.68 4.62
14.48 -2.91 -0.77
22.53 -4.53 5.31
14.29 -2.87 -0.25
5.89 -1.2 -1.61
14.42 -2.95 0.26
6.77 -1.38 -1.59
14.58 -2.98 0.78
7.9 -1.61 -1.57
14.91 -3.05 1.33
9.32 -1.91 -1.51
19.98 -4.08 2.5
11.38 -2.32 -1.43
21.96 -4.49 3.55
10.79 -2.2 -0.96
22.46 -4.59 4.46
18.95 -3.87 -1.01
14.35 -2.93 -0.26
5.89 -1.23 -1.61
14.14 -2.94 0.25
6.77 -1.41 -1.6
14.63 -3.04 0.78
7.89 -1.64 -1.57
14.63 -3.05 1.31
9.29 -1.93 -1.5
19.32 -4.02 2.42
11.53 -2.4 -1.45
19.31 -4.02 3.12
10.65 -2.22 -0.95
21.95 -4.57 4.36
14.43 -3 -0.77
14.48 -3.01 -0.26
5.89 -1.25 -1.61
14.16 -3 0.25
6.77 -1.43 -1.6
14.47 -3.06 0.77
7.87 -1.67 -1.56
14.76 -3.12 1.32
9.27 -1.96 -1.5
19.18 -4.06 2.41
23.42 -4.96 3.79
10.36 -2.19 -0.93
21.8 -4.61 4.33
14.4 -3.05 -0.77
14.2 -3 -0.25
5.87 -1.26 -1.61
14.35 -3.09 0.26
6.76 -1.46 -1.6
14.43 -3.11 0.77
7.86 -1.69 -1.56
14.61 -3.15 1.31
9.23 -1.99 -1.5
19.19 -4.13 2.41
11.66 -2.51 -1.46
19.42 -4.18 3.15
10.2 -2.2 -0.91
21.81 -4.7 4.34
14.41 -3.1 -0.77
25.39 -5.47 6
14.22 -3.06 -0.25
5.87 -1.28 -1.61
14.22 -3.11 0.25
6.75 -1.48 -1.6
14.64 -3.2 0.79
7.87 -1.72 -1.57
14.55 -3.18 1.3
9.17 -2.01 -1.49
19.4 -4.24 2.44
11.65 -2.55 -1.46
19.42 -4.25 3.15
10.1 -2.21 -0.9
22.61 -4.95 4.5
14.48 -3.17 -0.78
23.28 -5.09 5.5
14.7 -3.22 -0.26
5.87 -1.31 -1.61
14.84 -3.3 0.27
6.74 -1.5 -1.59
14.49 -3.22 0.78
7.86 -1.75 -1.56
14.63 -3.25 1.31
9.12 -2.03 -1.48
19.38 -4.31 2.44
11.57 -2.57 -1.46
19.38 -4.31 3.14
9.99 -2.22 -0.9
23.28 -5.18 4.64
14.5 -3.23 -0.78
22.21 -4.94 5.25
14.68 -3.27 -0.26
5.87 -1.33 -1.61
14.31 -3.24 0.26
6.72 -1.52 -1.59
14.59 -3.3 0.78
7.85 -1.78 -1.56
14.68 -3.32 1.32
9.09 -2.06 -1.48
19.31 -4.37 2.43
11.76 -2.66 -1.48
23.26 -5.26 3.78
9.9 -2.24 -0.89
23.09 -5.22 4.6
14.8 -3.35 -0.8
23.27 -5.27 5.51
14.7 -3.33 -0.26
5.86 -1.35 -1.61
14.31 -3.29 0.26
6.73 -1.55 -1.59
14.36 -3.3 0.77
7.83 -1.8 -1.56
14.75 -3.39 1.32
9.05 -2.08 -1.47
23.3 -5.36 2.94
11.64 -2.68 -1.47
9.79 -2.25 -0.88
22.9 -5.27 4.57
14.35 -3.3 -0.77
14.68 -3.38 -0.26
5.85 -1.37 -1.61
13.81 -3.23 0.25
6.73 -1.57 -1.59
14.17 -3.31 0.76
7.84 -1.83 -1.57
14.65 -3.42 1.32
9.02 -2.11 -1.47
14.87 -3.48 1.88
11.43 -2.67 -1.44
22.61 -5.28 3.68
9.7 -2.27 -0.87
22 -5.14 4.39
14.72 -3.44 -0.79
14.41 -3.37 -0.26
5.85 -1.39 -1.61
14.78 -3.51 0.27
6.73 -1.6 -1.6
14.07 -3.34 0.76
7.84 -1.86 -1.57
14.57 -3.46 1.31
9 -2.14 -1.47
23.63 -5.61 2.98
11.47 -2.72 -1.45
9.6 -2.28 -0.86
21.9 -5.2 4.37
14.67 -3.48 -0.79
14.79 -3.51 -0.27
5.84 -1.41 -1.61
15 -3.61 0.27
6.71 -1.62 -1.59
14.14 -3.41 0.76
7.82 -1.88 -1.56
14.52 -3.5 1.31
9.02 -2.17 -1.47
21.8 -5.25 2.75
11.52 -2.78 -1.45
22.18 -5.35 3.61
9.52 -2.29 -0.86
22.94 -5.53 4.59
14.16 -3.41 -0.76
5.84 -1.43 -1.61
15.07 -3.69 0.27
6.7 -1.64 -1.59
14.35 -3.51 0.77
7.83 -1.92 -1.57
14.57 -3.57 1.31
9.03 -2.21 -1.47
21.64 -5.3 2.74
11.61 -2.84 -1.47
9.43 -2.31 -0.85
22.91 -5.61 4.58
14.23 -3.48 -0.77
14.7 -3.6 -0.26
5.84 -1.45 -1.61
14.93 -3.71 0.27
6.7 -1.66 -1.59
14.39 -3.57 0.78
7.8 -1.94 -1.56
14.57 -3.62 1.31
8.93 -2.22 -1.46
21.64 -5.37 2.74
11.59 -2.88 -1.47
22.46 -5.58 3.67
9.35 -2.32 -0.84
23.62 -5.86 4.73
14.13 -3.51 -0.76
14.29 -3.55 -0.26
5.82 -1.47 -1.61
15.79 -3.98 0.28
6.7 -1.69 -1.6
16.68 -4.2 0.9
7.78 -1.96 -1.56
14.61 -3.68 1.32
8.95 -2.26 -1.46
21.89 -5.52 2.77
11.57 -2.92 -1.47
22.64 -5.7 3.7
9.28 -2.34 -0.84
23.41 -5.9 4.69
14.74 -3.72 -0.8
14.08 -3.55 -0.25
5.82 -1.49 -1.61
15.7 -4.01 0.28
6.69 -1.71 -1.6
15.48 -3.96 0.84
7.77 -1.99 -1.56
16.38 -4.19 1.48
8.92 -2.28 -1.46
23.37 -5.98 2.96
11.76 -3.01 -1.49
23.17 -5.92 4.65
19.43 -4.97 -1.05
14.21 -3.63 -0.26
5.82 -1.51 -1.61
13.41 -3.48 0.24
6.68 -1.73 -1.59
15.34 -3.98 0.83
7.76 -2.01 -1.56
16.28 -4.22 1.47
8.99 -2.33 -1.47
23.46 -6.08 2.98
14.54 -3.77 -1.31
22.4 -5.81 4.5
14.28 -3.7 -0.77
14.59 -3.78 -0.26
5.81 -1.53 -1.61
13.94 -3.67 0.25
6.67 -1.75 -1.59
14.74 -3.88 0.8
7.74 -2.04 -1.56
15.65 -4.12 1.42
8.98 -2.36 -1.47
9.03 -2.38 -1.15
14.34 -3.77 -1.3
23.26 -6.12 4.67
13.78 -3.63 -0.75
14.51 -3.82 -0.26
5.81 -1.55 -1.61
15.15 -4.04 0.27
6.66 -1.78 -1.59
15.1 -4.03 0.82
7.72 -2.06 -1.55
15.08 -4.02 1.37
9.03 -2.41 -1.48
22.75 -6.07 2.89
8.95 -2.39 -1.14
14.32 -3.82 -1.3
23.22 -6.19 4.67
14.06 -3.75 -0.76
11.25 -3 -0.2
5.79 -1.57 -1.61
13.49 -3.65 0.24
6.66 -1.8 -1.59
14.85 -4.02 0.81
7.7 -2.08 -1.55
14.79 -4 1.34
8.98 -2.43 -1.47
21.49 -5.81 2.73
8.85 -2.39 -1.13
22.72 -6.14 3.73
13.09 -3.54 -1.19
23.12 -6.25 4.65
14.27 -3.86 -0.77
14.25 -3.85 -0.26
5.79 -1.59 -1.61
13.62 -3.73 0.25
6.65 -1.82 -1.59
14.83 -4.06 0.81
7.67 -2.1 -1.55
15.04 -4.12 1.36
8.84 -2.42 -1.45
23.03 -6.31 2.93
8.79 -2.41 -1.12
24.27 -6.65 3.99
11.78 -3.23 -1.07
23.14 -6.34 4.66
13.6 -3.73 -0.74
14.02 -3.84 -0.25
5.79 -1.61 -1.61
13.53 -3.76 0.25
6.64 -1.85 -1.59
14.9 -4.14 0.81
7.58 -2.11 -1.53
14.63 -4.07 1.33
8.84 -2.46 -1.45
22.97 -6.39 2.93
8.7 -2.42 -1.11
23.65 -6.58 3.89
11.71 -3.26 -1.06
23.13 -6.43 4.67
15.93 -4.43 -0.87
17.82 -4.96 -0.32
5.79 -1.63 -1.61
12.02 -3.39 0.22
6.63 -1.87 -1.59
14.49 -4.09 0.79
7.56 -2.13 -1.53
14.83 -4.18 1.35
8.83 -2.49 -1.45
17.29 -4.87 2.21
8.62 -2.43 -1.1
21.79 -6.14 3.59
11.7 -3.3 -1.06
23.12 -6.52 4.67
11.36 -3.2 -0.62
13.68 -3.85 -0.25
5.78 -1.65 -1.61
13.64 -3.89 0.25
6.63 -1.89 -1.59
14.28 -4.08 0.78
7.54 -2.15 -1.52
14.82 -4.23 1.35
8.77 -2.5 -1.44
24.05 -6.86 3.07
8.54 -2.44 -1.09
21.8 -6.22 3.59
11.71 -3.34 -1.07
23.13 -6.6 4.68
13.72 -3.92 -0.75
13.58 -3.88 -0.25
5.77 -1.67 -1.61
13.75 -3.98 0.25
6.63 -1.92 -1.59
17.31 -5 0.94
7.53 -2.18 -1.52
14.84 -4.29 1.35
8.8 -2.54 -1.45
22.19 -6.42 2.84
8.46 -2.45 -1.08
24.36 -7.04 4.02
11.68 -3.38 -1.06
13.94 -4.03 -0.76
13.42 -3.88 -0.24
5.76 -1.69 -1.61
11.89 -3.49 0.22
6.61 -1.94 -1.59
14.22 -4.17 0.78
7.51 -2.2 -1.52
14.09 -4.13 1.28
8.78 -2.58 -1.45
15.75 -4.62 2.02
8.4 -2.46 -1.08
22.03 -6.46 3.64
11.7 -3.43 -1.07
8.84 -2.59 -0.48
11.41 -3.35 -0.21
5.76 -1.71 -1.61
11.02 -3.27 0.2
6.6 -1.96 -1.59
14.14 -4.2 0.77
7.49 -2.22 -1.52
14.2 -4.22 1.3
8.81 -2.62 -1.46
15.43 -4.58 1.98
8.33 -2.47 -1.07
21.63 -6.42 3.57
11.66 -3.46 -1.06
11.24 -3.34 -0.61
11.38 -3.38 -0.21
5.76 -1.73 -1.61
14.1 -4.24 0.26
6.6 -1.98 -1.59
14.05 -4.22 0.77
7.41 -2.23 -1.5
14.09 -4.24 1.29
8.89 -2.67 -1.47
15.48 -4.65 1.98
8.27 -2.48 -1.06
23.95 -7.2 3.96
11.67 -3.51 -1.07
11.18 -3.36 -0.61
11.42 -3.43 -0.21
5.75 -1.75 -1.61
14.51 -4.42 0.26
6.6 -2.01 -1.59
17.44 -5.31 0.96
7.41 -2.26 -1.51
13.91 -4.23 1.27
8.93 -2.72 -1.48
14.99 -4.56 1.92
8.22 -2.5 -1.06
11.65 -3.55 -1.07
11.11 -3.38 -0.61
11.37 -3.46 -0.21
5.74 -1.77 -1.61
14.07 -4.34 0.26
6.6 -2.03 -1.59
15.99 -4.93 0.88
7.41 -2.29 -1.51
14.69 -4.53 1.34
8.93 -2.75 -1.48
14.94 -4.6 1.92
8.19 -2.52 -1.05
11.59 -3.57 -1.06
10.71 -3.3 -0.59
11.04 -3.4 -0.2
5.73 -1.79 -1.61
13.17 -4.11 0.24
6.58 -2.05 -1.59
13.96 -4.36 0.77
7.39 -2.31 -1.5
10.75 -3.35 0.98
8.88 -2.77 -1.47
14.87 -4.64 1.91
8.16 -2.55 -1.05
11.66 -3.64 -1.07
10.62 -3.31 -0.58
10.76 -3.36 -0.2
5.73 -1.81 -1.61
11.65 -3.68 0.21
6.57 -2.08 -1.59
10.96 -3.46 0.6
7.34 -2.32 -1.5
13.92 -4.4 1.28
8.86 -2.8 -1.47
14.24 -4.5 1.83
8.12 -2.57 -1.05
24.26 -7.66 4.03
11.68 -3.69 -1.07
10.82 -3.42 -0.59
10.75 -3.39 -0.2
5.73 -1.83 -1.61
11.55 -3.69 0.21
6.57 -2.1 -1.59
15.57 -4.98 0.86
7.32 -2.34 -1.49
14.19 -4.54 1.3
8.95 -2.86 -1.49
15.09 -4.82 1.94
8.05 -2.57 -1.04
11.52 -3.68 -1.06
10.79 -3.45 -0.59
10.73 -3.43 -0.2
5.72 -1.85 -1.61
11.05 -3.58 0.2
6.57 -2.13 -1.59
10.84 -3.51 0.6
7.32 -2.37 -1.5
13.8 -4.47 1.27
9.12 -2.95 -1.52
14.94 -4.83 1.93
7.99 -2.59 -1.03
22.51 -7.28 3.75
11.47 -3.71 -1.05
10.84 -3.51 -0.6
10.72 -3.47 -0.2
5.7 -1.87 -1.61
11.24 -3.68 0.21
6.56 -2.15 -1.59
10.82 -3.54 0.6
7.31 -2.39 -1.49
15.01 -4.92 1.38
9.18 -3.01 -1.53
14.07 -4.61 1.82
7.94 -2.6 -1.03
14.99 -4.91 2.5
11.02 -3.61 -1.01
11.33 -3.71 -0.62
10.21 -3.34 -0.19
5.7 -1.89 -1.61
10.79 -3.58 0.2
6.55 -2.17 -1.59
11.16 -3.7 0.62
7.28 -2.41 -1.49
13.66 -4.53 1.26
8.98 -2.97 -1.5
14 -4.64 1.81
7.87 -2.61 -1.02
23.43 -7.76 3.91
11 -3.64 -1.01
9.49 -3.14 -0.52
11.5 -3.81 -0.21
5.69 -1.91 -1.61
12.81 -4.29 0.24
6.53 -2.19 -1.59
11.3 -3.79 0.62
7.26 -2.43 -1.49
15.01 -5.03 1.38
8.97 -3.01 -1.5
14.05 -4.71 1.82
7.8 -2.61 -1.01
23.51 -7.88 3.93
8.89 -2.98 -0.82
11.07 -3.71 -0.61
11.2 -3.75 -0.21
5.69 -1.93 -1.61
6.51 -2.21 -1.59
14.41 -4.88 0.8
7.23 -2.45 -1.48
14.21 -4.82 1.31
9.01 -3.06 -1.51
15.57 -5.28 2.02
7.63 -2.59 -0.99
8.89 -3.02 -0.82
9.33 -3.16 -0.52
11.05 -3.75 -0.2
5.68 -1.95 -1.61
10.93 -3.75 0.2
6.5 -2.23 -1.59
10.73 -3.68 0.59
7.21 -2.47 -1.48
13.35 -4.58 1.24
9.14 -3.13 -1.53
15.04 -5.16 1.95
7.52 -2.58 -0.98
23.99 -8.23 4.02
8.87 -3.04 -0.82
9.13 -3.13 -0.51
10.08 -3.46 -0.19
5.67 -1.97 -1.61
11.05 -3.83 0.2
6.49 -2.25 -1.59
10.58 -3.67 0.59
7.18 -2.49 -1.48
13.23 -4.59 1.23
9.04 -3.13 -1.51
14.67 -5.09 1.91
7.46 -2.59 -0.97
22.46 -7.79 3.77
10.91 -3.78 -1.01
9.23 -3.2 -0.51
10.14 -3.52 -0.19
5.67 -1.99 -1.61
10.26 -3.6 0.19
6.47 -2.27 -1.58
13.07 -4.58 0.73
7.16 -2.51 -1.48
16.05 -5.63 1.49
8.92 -3.13 -1.5
14.59 -5.12 1.9
7.38 -2.59 -0.96
22.41 -7.86 3.76
10.62 -3.72 -0.98
9.32 -3.27 -0.52
10.18 -3.57 -0.19
5.66 -2.01 -1.61
10.2 -3.62 0.19
6.44 -2.28 -1.58
10.8 -3.83 0.6
7.16 -2.54 -1.48
11.9 -4.22 1.1
8.91 -3.16 -1.5
14.57 -5.17 1.9
7.33 -2.6 -0.96
22.21 -7.87 3.73
10.68 -3.78 -0.99
9.02 -3.2 -0.5
10.21 -3.62 -0.19
5.66 -2.03 -1.61
10.16 -3.64 0.19
6.43 -2.3 -1.58
10.97 -3.93 0.61
7.13 -2.55 -1.47
11.88 -4.26 1.1
8.93 -3.2 -1.5
14.76 -5.29 1.92
7.28 -2.61 -0.95
9.31 -3.34 -0.52
10.22 -3.66 -0.19
5.65 -2.05 -1.61
9.58 -3.47 0.18
6.41 -2.32 -1.57
10.92 -3.96 0.61
7.08 -2.57 -1.46
13.02 -4.72 1.21
8.89 -3.22 -1.5
14.54 -5.27 1.9
7.21 -2.61 -0.94
22.25 -8.06 3.75
9.86 -3.57 -0.92
10.62 -3.85 -0.59
5.64 -2.07 -1.61
9.92 -3.63 0.18
6.39 -2.34 -1.57
10.96 -4.01 0.61
7.06 -2.59 -1.46
13.04 -4.78 1.21
8.81 -3.23 -1.49
14.54 -5.33 1.9
7.16 -2.62 -0.94
23.77 -8.7 4.01
9.67 -3.54 -0.9
10.18 -3.73 -0.57
10.48 -3.84 -0.19
5.63 -2.08 -1.61
10.52 -3.9 0.2
6.35 -2.35 -1.56
10.8 -4 0.6
7.07 -2.62 -1.46
13.07 -4.84 1.22
8.8 -3.26 -1.49
16.35 -6.05 2.14
7.11 -2.63 -0.93
9.03 -3.35 -0.84
9.92 -3.67 -0.55
10 -3.7 -0.19
5.63 -2.11 -1.61
9.77 -3.66 0.18
6.34 -2.37 -1.56
10.09 -3.78 0.56
7.08 -2.65 -1.47
13.08 -4.9 1.22
8.77 -3.28 -1.48
15.06 -5.63 1.97
7.05 -2.64 -0.92
21.87 -8.18 3.7
8.68 -3.25 -0.81
9.99 -3.74 -0.56
10.05 -3.76 -0.19
5.63 -2.13 -1.61
9.87 -3.73 0.18
6.31 -2.39 -1.56
7.05 -2.67 -1.47
10.01 -3.79 0.94
8.83 -3.34 -1.5
15.05 -5.69 1.98
6.99 -2.64 -0.92
22.87 -8.65 3.87
9.47 -3.58 -0.89
10.3 -3.89 -0.58
9.9 -3.74 -0.18
5.62 -2.15 -1.61
9.59 -3.66 0.18
6.3 -2.41 -1.56
9.46 -3.61 0.53
7.04 -2.69 -1.47
10.97 -4.19 1.03
8.78 -3.35 -1.49
14.65 -5.6 1.93
6.93 -2.65 -0.91
10.04 -3.83 -0.94
9.57 -3.65 -0.54
9.84 -3.76 -0.18
5.6 -2.16 -1.61
9.44 -3.65 0.18
6.3 -2.43 -1.56
9.47 -3.66 0.53
7.11 -2.75 -1.48
6.94 -2.68 -1.18
10.98 -4.24 1.44
6.89 -2.66 -0.91
22.63 -8.74 3.84
9.71 -3.75 -0.55
9.6 -3.71 -0.18
5.59 -2.18 -1.61
9.5 -3.71 0.18
6.27 -2.45 -1.55
9.47 -3.7 0.53
7 -2.73 -1.46
9.81 -3.83 0.92
6.88 -2.68 -1.17
9.59 -3.74 1.26
6.85 -2.67 -0.9
8.85 -3.45 -0.83
10.02 -3.91 -0.56
9.97 -3.89 -0.19
5.59 -2.2 -1.61
9.52 -3.75 0.18
6.25 -2.46 -1.55
9.78 -3.86 0.55
7 -2.76 -1.46
9.85 -3.88 0.93
6.81 -2.69 -1.16
9.73 -3.84 1.28
6.79 -2.68 -0.9
9.67 -3.81 -0.91
9.51 -3.75 -0.54
9.79 -3.86 -0.18
5.59 -2.22 -1.61
9.38 -3.74 0.18
6.25 -2.49 -1.55
9.78 -3.9 0.55
7.18 -2.86 -1.5
9.88 -3.93 0.93
6.77 -2.7 -1.15
9.73 -3.88 1.29
6.75 -2.69 -0.89
33.35 -13.28 5.69
9.61 -3.83 -0.54
9.42 -3.75 -0.18
5.58 -2.24 -1.61
9.41 -3.79 0.18
6.23 -2.51 -1.55
9.84 -3.96 0.56
7.23 -2.91 -1.52
9.73 -3.91 0.92
6.73 -2.71 -1.15
9.58 -3.85 1.27
9.04 -3.64 -1.2
9.04 -3.64 -0.85
9.72 -3.91 -0.55
9.45 -3.8 -0.18
5.56 -2.26 -1.61
9.37 -3.81 0.18
6.21 -2.52 -1.55
10.94 -4.44 0.62
7.24 -2.94 -1.52
9.71 -3.94 0.92
6.68 -2.71 -1.14
14.81 -6.02 1.96
9.09 -3.69 -1.21
9.12 -3.71 -0.86
9.27 -3.77 -0.52
9.36 -3.81 -0.18
5.55 -2.28 -1.61
9.53 -3.91 0.18
6.16 -2.53 -1.54
14.82 -6.08 0.84
6.82 -2.8 -1.43
9.61 -3.95 0.91
6.6 -2.71 -1.13
9.83 -4.03 1.3
9.12 -3.74 -1.21
9.28 -3.81 -0.88
9.76 -4 -0.55
9.43 -3.87 -0.18
5.55 -2.3 -1.61
9.5 -3.94 0.18
6.13 -2.54 -1.53
10.66 -4.42 0.6
7.28 -3.02 -1.53
9.46 -3.92 0.9
6.56 -2.72 -1.12
16.92 -7.01 2.25
9.13 -3.78 -1.21
9.41 -3.9 -0.89
9.62 -3.99 -0.55
9.36 -3.88 -0.18
5.54 -2.32 -1.61
9.51 -3.98 0.18
6.13 -2.57 -1.53
6.95 -2.91 -1.47
9.43 -3.95 0.89
6.52 -2.73 -1.12
13.79 -5.77 1.84
9.11 -3.81 -1.21
8.81 -3.69 -0.84
9.94 -4.16 -0.57
9.38 -3.93 -0.18
5.53 -2.34 -1.61
9.33 -3.94 0.18
6.12 -2.59 -1.53
6.61 -2.79 -1.39
9.49 -4.01 0.9
6.48 -2.74 -1.11
13.79 -5.83 1.84
9.08 -3.84 -1.21
31.12 -13.15 5.35
9.39 -3.97 -0.89
9.29 -3.93 -0.53
30.49 -12.89 7.64
9.64 -4.08 -0.18
5.51 -2.35 -1.6
8.77 -3.74 0.17
6.12 -2.61 -1.54
9.67 -4.13 0.55
7.39 -3.16 -1.56
14.9 -6.36 1.42
6.42 -2.74 -1.11
9.11 -3.89 -1.22
8.76 -3.74 1.51
9.37 -4 -0.89
9.13 -3.9 -0.52
9.13 -3.9 -0.17
5.5 -2.37 -1.61
10.09 -4.35 0.19
6.1 -2.63 -1.53
9.99 -4.3 0.57
7.38 -3.18 -1.56
9.44 -4.07 0.9
6.37 -2.74 -1.1
9.23 -3.98 1.23
9.11 -3.93 -1.22
8.81 -3.8 -0.84
8.65 -3.73 -0.49
8.98 -3.87 -0.17
5.49 -2.39 -1.6
9.89 -4.3 0.19
6.04 -2.62 -1.52
9.55 -4.15 0.55
7.39 -3.21 -1.57
9.46 -4.11 0.9
6.33 -2.75 -1.09
8.46 -3.68 1.13
9.14 -3.97 -1.22
9.4 -4.09 -0.9
30.18 -13.12 6.4
9.42 -4.09 -0.54
8.96 -3.9 -0.17
5.48 -2.4 -1.6
9.79 -4.29 0.19
6.03 -2.65 -1.52
10.18 -4.47 0.58
7.4 -3.25 -1.57
9.42 -4.14 0.9
6.31 -2.77 -1.09
9.47 -4.16 1.27
9.51 -4.17 -1.28
8.9 -3.91 1.54
9.46 -4.15 -0.9
30.19 -13.25 6.41
9.38 -4.12 -0.54
8.8 -3.86 -0.17
5.47 -2.43 -1.6
9.31 -4.13 0.18
5.99 -2.65 -1.51
9.4 -4.17 0.54
7.34 -3.25 -1.56
8.29 -3.68 0.79
6.29 -2.79 -1.09
9.08 -4.03 1.22
9.42 -4.18 -1.27
9.4 -4.17 -0.9
9.54 -4.23 -0.55
8.74 -3.88 -0.17
5.44 -2.44 -1.6
5.95 -2.66 -1.5
10 -4.47 0.57
7.3 -3.27 -1.56
8.28 -3.71 0.79
6.25 -2.8 -1.08
9.05 -4.05 1.22
8.7 -3.9 -0.5
8.67 -3.88 -0.17
5.43 -2.45 -1.6
9.63 -4.35 0.18
5.91 -2.67 -1.5
7.28 -3.29 -1.55
8.24 -3.72 0.79
6.23 -2.81 -1.08
9.13 -4.12 1.23
9.3 -4.2 1.62
8.54 -3.85 -0.82
8.85 -4 -0.51
8.74 -3.94 -0.17
5.43 -2.47 -1.6
5.88 -2.68 -1.49
10.17 -4.63 0.59
7.24 -3.3 -1.55
8.22 -3.74 0.79
6.2 -2.82 -1.08
9.31 -4.24 1.26
7.95 -3.62 -1.07
8.99 -4.1 1.56
8.47 -3.86 -0.81
8.89 -4.05 -0.51
8.48 -3.86 -0.16
5.4 -2.48 -1.59
7.49 -3.45 0.14
5.89 -2.71 -1.5
8.51 -3.92 0.49
7.21 -3.32 -1.54
8.52 -3.92 0.82
6.17 -2.84 -1.08
9.31 -4.29 1.26
8.07 -3.71 -1.09
8.97 -4.13 1.56
8.31 -3.82 -0.8
7.67 -3.53 -0.44
8.58 -3.95 -0.16
5.38 -2.5 -1.59
7.46 -3.46 0.14
5.86 -2.72 -1.49
8.51 -3.95 0.49
7.14 -3.31 -1.53
9.09 -4.22 0.88
6.14 -2.85 -1.07
8.46 -3.93 1.14
8.06 -3.74 -1.09
8.96 -4.16 1.56
8.18 -3.8 -0.79
7.67 -3.56 -0.44
8.6 -3.99 -0.17
5.35 -2.51 -1.58
7.52 -3.52 0.14
5.83 -2.73 -1.49
8.83 -4.14 0.51
7.09 -3.32 -1.52
8.21 -3.85 0.79
6.09 -2.86 -1.07
8.45 -3.96 1.15
8.02 -3.76 -1.09
29.65 -13.89 5.19
8.54 -4 -0.83
10.48 -4.91 -0.61
8.36 -3.92 -0.16
5.35 -2.53 -1.59
7.46 -3.53 0.14
5.82 -2.75 -1.49
8.29 -3.92 0.48
7.08 -3.35 -1.52
8.26 -3.9 0.8
6.06 -2.86 -1.06
9.34 -4.41 1.27
8.03 -3.8 -1.09
9.04 -4.27 1.58
7.77 -3.67 -0.75
8.23 -3.89 -0.48
8.61 -4.07 -0.17
5.33 -2.54 -1.58
7.47 -3.56 0.14
5.79 -2.76 -1.48
8.5 -4.05 0.49
7.08 -3.38 -1.52
8.25 -3.94 0.8
6.02 -2.87 -1.06
8.33 -3.98 1.13
7.99 -3.81 -1.09
9.1 -4.34 1.6
7.96 -3.8 -0.77
8.72 -4.16 -0.51
8.59 -4.1 -0.17
5.32 -2.56 -1.58
7.48 -3.6 0.14
5.91 -2.85 -1.52
8.46 -4.07 0.49
7.09 -3.41 -1.53
8.2 -3.95 0.8
5.98 -2.88 -1.05
8.27 -3.98 1.13
8.05 -3.88 -1.1
30.42 -14.64 7.79
8.57 -4.12 -0.17
5.3 -2.57 -1.58
8.58 -4.17 0.17
5.82 -2.83 -1.49
8.75 -4.25 0.51
7.07 -3.43 -1.53
8.16 -3.96 0.79
5.94 -2.88 -1.05
8.23 -4 1.12
7.97 -3.87 -1.09
30.37 -14.75 5.35
7.68 -3.73 -0.75
30.31 -14.72 6.55
8.29 -4.03 -0.48
8.56 -4.16 -0.17
5.26 -2.57 -1.57
8.3 -4.06 0.16
5.79 -2.84 -1.49
8.01 -3.92 0.47
7.05 -3.45 -1.52
7.91 -3.87 0.77
5.89 -2.88 -1.04
8.39 -4.11 1.15
7.92 -3.88 -1.08
8.33 -4.08 -0.81
8.17 -4 -0.48
8.64 -4.23 -0.17
5.24 -2.59 -1.57
7.95 -3.93 0.15
5.78 -2.86 -1.49
9.9 -4.9 0.58
7.02 -3.47 -1.52
9.81 -4.85 0.96
5.77 -2.85 -1.02
7.89 -3.9 -1.08
8.02 -3.96 -0.47
30.35 -15 7.82
7.97 -3.94 -0.16
5.23 -2.61 -1.56
8.53 -4.25 0.17
5.77 -2.88 -1.49
8.13 -4.05 0.48
6.98 -3.48 -1.52
7.84 -3.91 0.77
5.68 -2.83 -1.01
8.33 -4.15 1.14
7.93 -3.95 -1.09
7.54 -3.76 -0.74
7.29 -3.63 -0.43
8.36 -4.17 -0.16
5.22 -2.63 -1.57
8.2 -4.12 0.16
5.77 -2.9 -1.49
7.96 -4 0.47
6.97 -3.51 -1.52
8.14 -4.09 0.8
5.65 -2.84 -1
8.29 -4.17 1.14
7.96 -4.01 -1.09
8.19 -4.12 -0.8
8.04 -4.05 -0.16
5.2 -2.64 -1.56
8.15 -4.13 0.16
5.79 -2.94 -1.5
8.39 -4.26 0.49
6.97 -3.54 -1.52
10.8 -5.48 1.06
5.62 -2.85 -1
8.34 -4.23 1.15
8.05 -4.08 -1.11
30.43 -15.44 5.4
8.48 -4.3 -0.83
7.9 -4.01 -0.46
8.49 -4.3 -0.17
5.18 -2.65 -1.56
8.06 -4.12 0.16
5.82 -2.98 -1.51
8.06 -4.12 0.47
8.05 -4.12 0.79
5.58 -2.86 -0.99
11.3 -5.78 1.56
7.99 -4.09 -1.1
8.2 -4.2 -0.81
7.2 -3.68 -0.42
8.18 -4.18 -0.16
5.15 -2.66 -1.55
7.84 -4.04 0.15
5.86 -3.02 -1.52
8.83 -4.55 0.52
5.56 -2.87 -1.22
7.86 -4.05 0.77
5.54 -2.86 -0.99
9.32 -4.8 1.29
7.88 -4.06 -1.09
8.47 -4.37 -0.83
7.11 -3.67 -0.42
7.97 -4.11 -0.16
5.16 -2.68 -1.56
8 -4.16 0.16
5.89 -3.07 -1.53
5.52 -2.87 -1.21
7.85 -4.09 0.77
5.5 -2.86 -0.98
9.06 -4.71 1.25
7.85 -4.08 -1.09
7.76 -4.04 -0.76
7.13 -3.71 -0.42
7.82 -4.07 -0.15
5.14 -2.7 -1.56
8.42 -4.42 0.17
6.05 -3.17 -1.58
8.22 -4.31 0.49
5.48 -2.87 -1.2
8.06 -4.23 0.8
5.46 -2.86 -0.98
9.05 -4.75 1.25
7.88 -4.13 -1.09
9.71 -5.09 1.74
7.16 -3.76 -0.42
7.57 -3.97 -0.15
5.11 -2.7 -1.55
8.43 -4.47 0.17
6.11 -3.23 -1.6
8.11 -4.29 0.48
5.43 -2.88 -1.19
9.53 -5.05 0.94
5.42 -2.87 -0.97
9.05 -4.79 1.26
7.75 -4.1 -1.08
9.46 -5.01 1.7
7.89 -4.18 -0.78
7.06 -3.74 -0.42
7.94 -4.21 -0.16
5.07 -2.71 -1.54
7.18 -3.83 0.14
6.1 -3.26 -1.6
5.4 -2.88 -1.19
11.94 -6.37 1.18
5.39 -2.88 -0.97
9.04 -4.82 1.26
7.63 -4.07 -1.06
8.95 -4.78 1.61
7.93 -4.23 -0.79
8.01 -4.27 -0.16
5.07 -2.73 -1.54
7.14 -3.84 0.14
5.99 -3.23 -1.57
7.44 -4.01 0.44
5.37 -2.89 -1.19
8.19 -4.41 0.81
5.35 -2.88 -0.96
9.1 -4.9 1.27
7.6 -4.09 -1.06
9 -4.85 1.62
7.91 -4.26 -0.79
9.16 -4.93 2.02
8.16 -4.4 -0.49
26.15 -14.08 6.86
5.08 -2.76 -1.55
7.13 -3.87 0.14
5.99 -3.25 -1.57
7.38 -4.01 0.44
5.33 -2.89 -1.18
5.32 -2.89 -0.96
9.04 -4.91 1.26
9.25 -5.02 1.67
7.49 -4.06 -0.75
7.22 -3.92 -0.43
7.28 -3.95 -0.14
5.05 -2.77 -1.54
7.14 -3.91 0.14
5.97 -3.27 -1.57
7.82 -4.28 0.47
5.3 -2.9 -1.18
9.3 -5.09 0.93
5.29 -2.9 -0.96
9.01 -4.93 1.26
7.66 -4.19 -1.07
9.11 -4.99 1.65
7.42 -4.06 -0.74
7.55 -4.14 -0.45
7.15 -3.91 -0.14
5.05 -2.79 -1.54
7.84 -4.33 0.16
5.97 -3.29 -1.57
7.75 -4.28 0.46
5.26 -2.9 -1.17
9.16 -5.05 0.92
5.25 -2.9 -0.95
9.17 -5.06 1.29
9.25 -5.1 1.67
7.42 -4.1 -0.74
7.55 -4.17 -0.45
7.14 -3.94 -0.14
5.03 -2.8 -1.54
7.95 -4.43 0.16
5.98 -3.33 -1.58
5.23 -2.91 -1.16
9.18 -5.11 0.92
5.21 -2.9 -0.94
9.16 -5.1 1.29
7.26 -4.04 -1.02
9.33 -5.19 1.69
7.4 -4.12 -0.74
9.28 -5.16 2.06
5.02 -2.82 -1.54
8.02 -4.5 0.16
5.98 -3.35 -1.58
7.16 -4.02 0.43
5.19 -2.91 -1.16
9.52 -5.34 0.95
5.17 -2.9 -0.94
9.04 -5.07 1.27
7.16 -4.02 -1.01
9.27 -5.2 1.68
7.38 -4.14 -0.74
9.22 -5.17 2.06
5 -2.83 -1.54
5.95 -3.37 -1.58
7.19 -4.06 0.43
5.16 -2.92 -1.15
9.52 -5.38 0.96
5.14 -2.91 -0.94
9.13 -5.16 1.29
7.23 -4.09 -1.02
9.26 -5.24 1.69
7.39 -4.18 -0.74
9.19 -5.19 2.05
6.98 -3.95 -0.42
4.99 -2.85 -1.54
7.72 -4.4 0.16
5.97 -3.4 -1.59
7.28 -4.15 0.44
5.12 -2.92 -1.15
7.81 -4.45 0.79
5.12 -2.92 -0.93
9.35 -5.33 1.32
7.26 -4.14 -1.03
9.06 -5.17 1.65
7.47 -4.26 -0.75
8.55 -4.88 -0.52
7.07 -4.03 -0.14
4.98 -2.86 -1.54
7.88 -4.53 0.16
5.96 -3.43 -1.59
7.11 -4.08 0.43
5.09 -2.92 -1.14
7.58 -4.35 0.76
5.09 -2.93 -0.93
8.91 -5.12 1.26
7.22 -4.15 -1.02
9.15 -5.26 1.67
7.36 -4.23 -0.74
9.3 -5.34 2.08
26.23 -15.08 6.98
6.91 -3.97 -0.14
4.95 -2.87 -1.53
7.58 -4.39 0.15
6.01 -3.48 -1.6
7.15 -4.14 0.43
5.06 -2.93 -1.14
7.33 -4.25 0.74
5.06 -2.93 -0.93
8.86 -5.13 1.26
7.4 -4.29 -1.05
9.07 -5.26 1.66
7.16 -4.15 -0.72
9.17 -5.31 2.06
9.33 -5.41 2.49
7.04 -4.08 -0.14
4.95 -2.89 -1.54
7.4 -4.32 0.15
5.98 -3.49 -1.6
7.36 -4.3 0.45
5.04 -2.94 -1.13
6.85 -4 0.69
5.02 -2.93 -0.92
9.16 -5.35 1.3
7.44 -4.35 -1.06
7.05 -4.12 -0.71
9.04 -5.28 2.03
7.48 -4.37 -0.45
9.25 -5.41 2.47
7.26 -4.24 -0.15
4.97 -2.93 -1.55
7.87 -4.63 0.16
5.94 -3.5 -1.59
7.29 -4.29 0.44
5 -2.95 -1.13
8.18 -4.81 0.83
4.99 -2.94 -0.92
8.98 -5.28 1.28
7.36 -4.33 -1.05
7.34 -4.32 -0.75
9.02 -5.31 2.03
6.73 -3.96 -0.41
9.2 -5.42 2.46
7.11 -4.18 -0.14
4.96 -2.95 -1.55
7.44 -4.42 0.15
5.9 -3.5 -1.58
7.27 -4.32 0.44
4.98 -2.95 -1.13
7.12 -4.22 0.72
7.55 -4.48 -1.39
9.23 -5.48 1.32
7.39 -4.38 -1.05
9.23 -5.48 1.7
7.23 -4.29 -0.74
9.03 -5.36 2.04
6.86 -4.07 -0.42
9.23 -5.48 2.48
7.22 -4.28 -0.15
9.24 -5.48 2.88
4.93 -2.95 -1.54
5.92 -3.54 -1.59
7.3 -4.36 0.45
4.95 -2.96 -1.12
7.07 -4.23 0.72
7.44 -4.45 -1.37
7.27 -4.35 -1.04
9.21 -5.51 1.7
7.03 -4.21 -0.72
8.97 -5.36 2.03
6.82 -4.08 -0.42
7.03 -4.2 -0.14
4.91 -2.96 -1.54
7.18 -4.33 0.15
5.93 -3.57 -1.6
7.39 -4.45 0.45
4.93 -2.97 -1.12
7.04 -4.25 0.72
7.41 -4.47 -1.37
9.22 -5.56 1.32
7.22 -4.36 -1.04
9.21 -5.55 1.7
6.84 -4.12 -0.7
6.82 -4.11 -0.42
4.9 -2.97 -1.53
7.12 -4.33 0.15
5.92 -3.59 -1.6
7.28 -4.43 0.45
4.91 -2.99 -1.12
6.88 -4.18 0.7
7.52 -4.57 -1.39
9.07 -5.51 1.3
7.95 -4.83 -1.14
9.67 -5.88 1.79
6.77 -4.12 -0.69
9.18 -5.58 2.48
7 -4.26 -0.14
4.94 -3.03 -1.55
6.96 -4.26 0.14
5.9 -3.61 -1.6
7.25 -4.44 0.45
4.89 -2.99 -1.11
6.91 -4.23 0.71
7.48 -4.58 -1.39
6.74 -4.13 -0.69
25.67 -15.73 5.85
7.02 -4.3 -0.43
6.74 -4.13 -0.14
4.92 -3.04 -1.55
6.91 -4.27 0.14
5.88 -3.63 -1.59
7.05 -4.35 0.43
4.87 -3 -1.11
7.13 -4.4 0.73
7.74 -4.78 -1.44
8.9 -5.49 1.28
9.69 -5.98 -1.4
9.59 -5.92 1.79
6.98 -4.31 -0.72
7.21 -4.45 -0.44
6.74 -4.16 -0.14
4.82 -3 -1.52
6.9 -4.29 0.14
5.84 -3.64 -1.59
7.08 -4.41 0.44
4.84 -3.01 -1.11
6.98 -4.34 0.72
7.56 -4.71 -1.41
8.18 -5.09 1.18
6.99 -4.35 -0.72
8.96 -5.58 2.05
6.37 -3.97 -0.39
8.92 -5.55 2.43
6.82 -4.25 -0.14
4.85 -3.04 -1.53
5.82 -3.65 -1.59
7.57 -4.74 0.47
4.82 -3.02 -1.11
7.01 -4.4 0.72
6.6 -4.14 -1.23
8.21 -5.15 1.19
6.96 -4.36 -0.72
6.89 -4.32 -0.43
8.9 -5.58 2.42
6.86 -4.3 -0.14
4.87 -3.07 -1.54
5.8 -3.66 -1.58
7.2 -4.54 0.45
4.8 -3.03 -1.1
6.68 -4.22 0.69
7.39 -4.67 -1.38
8.17 -5.16 1.19
9.05 -5.72 1.7
6.93 -4.38 -0.72
25.25 -15.95 6.89
6.51 -4.11 -0.13
4.86 -3.09 -1.54
6.82 -4.34 0.14
4.8 -3.06 -1.31
6.89 -4.38 0.43
4.78 -3.04 -1.1
6.92 -4.4 0.72
8.98 -5.72 1.31
7.23 -4.6 -1.05
9.14 -5.82 1.72
6.56 -4.18 -0.68
8.35 -5.32 1.92
6.56 -4.17 -0.41
4.76 -3.06 -1.52
6.78 -4.35 0.14
4.77 -3.06 -1.31
6.66 -4.27 0.41
4.75 -3.05 -1.1
6.84 -4.39 0.71
7.28 -4.67 -1.37
7.3 -4.69 1.07
7.59 -4.87 1.43
6.53 -4.19 -0.68
8.32 -5.34 1.92
6.55 -4.2 -0.41
24.4 -15.65 6.69
6.56 -4.21 -0.14
4.75 -3.07 -1.52
6.87 -4.44 0.14
4.78 -3.09 -1.32
6.97 -4.51 0.44
4.71 -3.04 -1.09
6.68 -4.32 0.7
7.33 -4.74 -1.38
7.07 -4.57 1.03
6.94 -4.48 -1.01
6.63 -4.29 -0.69
6.88 -4.45 -0.43
6.7 -4.33 -0.14
4.73 -3.08 -1.51
6.67 -4.35 0.14
4.79 -3.12 -1.32
6.51 -4.24 0.41
4.69 -3.06 -1.09
7.37 -4.8 0.77
7.28 -4.74 -1.38
7.05 -4.6 1.03
6.76 -4.41 -0.99
8.78 -5.72 1.66
6.89 -4.49 -0.72
8.29 -5.4 1.92
6.89 -4.49 -0.43
6.53 -4.26 -0.14
4.74 -3.11 -1.52
6.79 -4.46 0.14
4.79 -3.14 -1.32
6.79 -4.46 0.43
4.65 -3.05 -1.08
6.61 -4.34 0.97
6.66 -4.37 -0.98
8.8 -5.78 1.67
6.8 -4.47 -0.71
8.27 -5.43 1.92
6.9 -4.53 -0.43
8.54 -5.61 -0.18
4.71 -3.12 -1.51
6.53 -4.32 0.14
4.77 -3.16 -1.32
6.88 -4.55 0.43
4.63 -3.06 -1.08
6.72 -4.44 0.7
6.62 -4.38 -1.26
6.55 -4.33 0.96
6.65 -4.4 -0.98
8.51 -5.63 1.62
6.83 -4.52 -0.72
8.27 -5.47 1.93
6.9 -4.57 -0.43
7.92 -5.24 -0.17
4.83 -3.22 -1.56
6.87 -4.58 0.43
4.6 -3.07 -1.08
6.78 -4.52 0.71
6.73 -4.48 -1.28
6.54 -4.36 0.96
7.49 -4.99 -1.11
4.85 -3.25 -1.56
6.57 -4.41 0.14
7.14 -4.8 0.45
4.56 -3.06 -1.07
6.64 -4.46 0.7
6.5 -4.37 0.96
7.25 -4.87 -1.07
8.31 -5.58 1.59
6.75 -4.53 -0.71
8.1 -5.44 1.9
6.78 -4.55 -0.43
4.94 -3.34 -1.6
6.46 -4.37 0.14
4.47 -3.02 -1.24
6.58 -4.45 0.42
4.5 -3.05 -1.06
6.86 -4.64 0.72
8.01 -5.42 -1.53
6.4 -4.33 0.95
7.23 -4.89 -1.07
8.17 -5.53 1.56
6.75 -4.57 -0.71
8.29 -5.61 1.95
7.05 -4.77 -0.45
6.14 -4.15 -0.13
4.98 -3.39 -1.61
6.68 -4.55 0.14
4.44 -3.03 -1.24
6.58 -4.48 0.42
4.43 -3.02 -1.04
7.09 -4.83 0.75
6.81 -4.64 -1.3
6.74 -4.6 1
7.23 -4.93 -1.07
7.83 -5.34 1.5
8.71 -5.94 -0.92
8.17 -5.57 1.92
6.98 -4.76 -0.44
6.13 -4.18 -0.13
5.04 -3.46 -1.64
7.03 -4.83 0.15
4.4 -3.02 -1.23
6.59 -4.53 0.42
4.4 -3.02 -1.04
6.4 -4.4 0.68
6.55 -4.5 -1.26
8.08 -5.55 1.2
6.63 -4.55 -0.99
7.79 -5.35 1.5
6.45 -4.43 -0.68
8.11 -5.57 1.91
6.11 -4.19 -0.13
5.01 -3.46 -1.63
4.38 -3.03 -1.23
4.37 -3.02 -1.03
6.4 -4.43 0.68
6.84 -4.73 -1.32
6.84 -4.73 1.02
7.06 -4.88 -1.05
7.89 -5.45 1.52
6.61 -4.57 -0.7
8.13 -5.62 1.92
6.51 -4.5 -0.41
6.34 -4.38 -0.13
4.74 -3.3 -1.55
6.36 -4.43 0.14
4.36 -3.03 -1.23
6.78 -4.72 0.43
4.33 -3.02 -1.03
8.42 -5.86 -1.62
6.36 -4.43 0.95
8.14 -5.67 1.57
6.06 -4.22 -0.13
5.05 -3.55 -1.65
6.63 -4.66 0.14
4.33 -3.04 -1.22
6.82 -4.79 0.44
4.31 -3.03 -1.02
6.64 -4.66 0.71
6.73 -4.73 -1.3
6.46 -4.53 0.97
6.95 -4.88 -1.04
7.93 -5.57 1.53
7.17 -5.04 -0.77
8.27 -5.81 1.96
6.32 -4.44 -0.4
5 -3.54 -1.64
6.62 -4.68 0.14
4.3 -3.04 -1.22
6.72 -4.75 0.43
4.29 -3.04 -1.02
6.61 -4.68 0.71
6.63 -4.69 -1.29
6.2 -4.38 0.93
6.99 -4.94 -1.05
7.7 -5.45 1.49
7.08 -5.01 -0.76
8.55 -6.05 2.04
6.39 -4.52 -0.14
4.95 -3.53 -1.63
6.64 -4.73 0.14
4.26 -3.04 -1.21
8.18 -5.83 0.53
4.27 -3.04 -1.02
6.27 -4.47 0.95
6.71 -4.79 -1.01
7.71 -5.49 1.5
6.87 -4.9 -0.74
8.59 -6.12 2.05
6.23 -4.44 -0.4
5.97 -4.26 -0.13
4.94 -3.54 -1.63
6.75 -4.84 0.14
4.24 -3.04 -1.2
6.63 -4.76 0.43
4.25 -3.05 -1.02
6.49 -4.66 0.7
5.98 -4.29 -1.17
6.23 -4.47 0.94
6.54 -4.7 -0.99
6.71 -4.82 1.31
6.83 -4.91 -0.74
8.1 -5.81 1.94
19.47 -13.98 5.53
5.96 -4.28 -0.13
4.93 -3.56 -1.63
6.55 -4.74 0.14
4.21 -3.05 -1.2
6.67 -4.82 0.43
4.21 -3.05 -1.01
6.45 -4.66 0.7
6.19 -4.48 -1.21
6.36 -4.6 0.96
6.56 -4.74 -0.99
6.85 -4.95 1.34
8.02 -5.8 1.92
6.83 -4.94 -0.44
6.92 -5 -0.15
4.9 -3.57 -1.62
6.2 -4.52 0.13
4.19 -3.05 -1.2
4.18 -3.04 -1.01
6.57 -4.79 0.71
6.09 -4.44 -1.19
6.5 -4.74 0.99
6.21 -4.52 -0.94
8.05 -5.87 1.58
6.76 -4.93 -0.73
7.97 -5.81 1.92
6.92 -5.04 -0.45
6.46 -4.71 -0.14
4.88 -3.58 -1.62
4.16 -3.06 -1.19
6.31 -4.63 0.41
4.15 -3.05 -1
6.58 -4.83 0.71
6.16 -4.52 -1.21
6.5 -4.77 0.99
7.01 -5.15 -1.07
8.11 -5.95 1.59
7.94 -5.83 1.91
6.26 -4.6 -0.41
19.21 -14.1 5.5
6.78 -4.98 -0.15
4.89 -3.61 -1.63
6.2 -4.59 0.13
4.13 -3.05 -1.19
4.13 -3.05 -1
6.62 -4.89 0.72
8.33 -6.16 -1.64
6.34 -4.69 0.97
6.94 -5.13 -1.06
6.68 -4.94 1.32
6.73 -4.98 -0.73
7.87 -5.82 1.9
19.55 -14.45 5.61
6.64 -4.91 -0.14
4.88 -3.63 -1.63
6.11 -4.55 0.13
4.12 -3.07 -1.19
5.99 -4.46 0.39
4.1 -3.05 -0.99
6.43 -4.79 0.7
6.97 -5.19 -1.38
6.89 -5.13 -1.05
6.44 -4.8 1.27
6.79 -5.05 -0.74
7.83 -5.83 1.9
6.66 -4.95 -0.43
19.43 -14.46 5.59
6.59 -4.91 -0.14
4.85 -3.64 -1.63
6.29 -4.72 0.14
4.09 -3.07 -1.18
6.35 -4.76 0.42
4.07 -3.05 -0.99
6.27 -4.7 0.69
7.04 -5.28 -1.39
6.79 -5.09 1.04
6.77 -5.08 -1.04
6.41 -4.8 1.27
6.88 -5.16 -0.75
10.58 -7.93 2.57
19.58 -14.68 5.65
6.64 -4.98 -0.14
4.84 -3.65 -1.62
6.31 -4.77 0.14
4.07 -3.07 -1.18
6.09 -4.6 0.4
4.05 -3.06 -0.99
6.36 -4.8 0.7
6.19 -4.68 0.95
6.61 -4.99 1.31
6.51 -4.91 -0.71
7.78 -5.88 1.9
6.49 -4.9 -0.43
10.58 -7.99 3.06
5.3 -4.01 -0.12
4.84 -3.68 -1.63
5.97 -4.54 0.13
4.04 -3.07 -1.17
6.24 -4.75 0.41
4.03 -3.07 -0.98
6.77 -5.15 0.74
6.92 -5.27 -1.38
6.32 -4.8 0.97
8.71 -6.63 -1.34
8.01 -6.1 1.59
7.5 -5.71 -0.82
7.75 -5.9 1.89
6.14 -4.67 -0.4
5.32 -4.05 -0.12
4.84 -3.71 -1.63
5.88 -4.51 0.13
4.01 -3.07 -1.17
5.9 -4.52 0.39
4.01 -3.08 -0.98
6.83 -5.24 -1.36
6.25 -4.79 0.97
9 -6.9 -1.39
6.46 -4.95 1.29
7.81 -5.98 1.91
5.48 -4.2 -0.36
4.76 -3.68 -1.61
6.24 -4.81 0.14
3.98 -3.08 -1.16
3.99 -3.08 -0.98
6.15 -4.75 0.68
6.83 -5.27 -1.37
6.09 -4.7 0.94
6.01 -4.64 -0.93
20.39 -15.75 4.08
6.49 -5.01 -0.72
7.77 -6 1.91
5.42 -4.19 -0.36
10.39 -8.02 3.03
5.24 -4.04 -0.12
4.74 -3.68 -1.61
6.32 -4.91 0.14
3.96 -3.08 -1.16
5.8 -4.51 0.38
3.96 -3.07 -0.97
6.48 -5.04 0.72
7.16 -5.56 -1.44
6.2 -4.82 0.96
6.77 -5.26 1.36
7.78 -6.05 1.92
5.21 -4.05 -0.35
6.51 -5.06 -0.14
4.72 -3.7 -1.61
6.4 -5.01 0.14
3.94 -3.09 -1.16
6.12 -4.79 0.41
3.94 -3.08 -0.97
6.26 -4.9 0.7
6.87 -5.38 -1.38
6.22 -4.87 0.97
8.87 -6.94 -1.38
7.8 -6.11 1.93
7.11 -5.57 -0.47
19.32 -15.13 5.66
6.19 -4.84 -0.14
4.71 -3.72 -1.61
6.09 -4.8 0.14
3.93 -3.1 -1.15
3.92 -3.09 -0.97
6.32 -4.98 0.7
5.78 -4.56 -1.17
6.17 -4.87 0.96
18.26 -14.4 3.68
5.99 -4.73 -0.67
19.45 -15.34 4.82
6.79 -5.35 -0.45
6.78 -5.34 -0.15
4.71 -3.74 -1.61
6.12 -4.86 0.14
3.9 -3.1 -1.15
6.7 -5.33 0.45
3.89 -3.09 -0.97
5.78 -4.59 -1.17
6.17 -4.9 0.97
6.3 -5.01 -0.99
19.21 -15.26 3.89
18.93 -15.04 4.7
5.24 -4.16 -0.35
18.87 -14.99 5.56
6.23 -4.95 -0.14
4.69 -3.75 -1.61
6.09 -4.87 0.14
3.88 -3.11 -1.15
5.78 -4.62 0.39
3.86 -3.09 -0.96
7.2 -5.77 1.13
7.6 -6.09 -1.2
18.57 -14.86 3.77
33.81 -27.06 8.42
4.7 -3.79 -1.62
5.9 -4.76 0.13
3.87 -3.12 -1.15
6.03 -4.86 0.41
3.82 -3.08 -0.95
6.18 -4.98 0.69
8.58 -6.92 -1.75
7.49 -6.04 1.18
6.35 -5.12 -1
18.25 -14.72 3.71
8.6 -6.93 -0.97
6.21 -5.01 -0.42
6.35 -5.12 -0.14
4.67 -3.79 -1.61
5.64 -4.57 0.13
3.85 -3.12 -1.15
6.22 -5.05 0.42
3.81 -3.09 -0.95
5.9 -4.79 0.67
6.46 -5.24 -1.32
7.53 -6.11 1.19
6.12 -4.96 -0.97
18.32 -14.86 3.74
6.12 -4.97 -0.69
8.51 -6.91 -0.57
16.79 -13.62 4.99
5.28 -4.28 -0.12
4.67 -3.82 -1.62
8.96 -7.32 0.2
3.84 -3.14 -1.15
6.06 -4.95 0.41
3.8 -3.1 -0.95
6.05 -4.94 0.68
6.42 -5.25 -1.31
6.76 -5.53 1.07
6.03 -4.93 -0.96
6.32 -5.16 1.29
6.16 -5.04 -0.7
7.85 -6.42 1.97
8.55 -6.99 -0.58
4.68 -3.85 -1.62
6.3 -5.18 0.14
3.82 -3.14 -1.14
5.86 -4.82 0.4
3.78 -3.11 -0.95
8.39 -6.91 0.95
6.13 -5.05 -1.26
5.77 -4.74 0.92
6.25 -5.15 1.28
9.58 -7.89 -1.09
7.98 -6.57 2.01
6.14 -5.05 -0.42
17.45 -14.36 5.22
5.27 -4.33 -0.12
4.7 -3.9 -1.64
5.69 -4.71 0.13
3.8 -3.15 -1.14
5.91 -4.9 0.4
3.75 -3.11 -0.95
5.8 -4.81 0.66
6.03 -5 -1.24
6.99 -5.8 1.12
6.01 -4.98 -0.96
4.89 -4.06 -0.56
6.23 -5.16 -0.42
16.55 -13.72 4.96
5.93 -4.92 -0.13
4.69 -3.92 -1.64
5.55 -4.63 0.13
3.79 -3.16 -1.14
5.86 -4.89 0.4
6.44 -5.38 -1.63
5.82 -4.86 0.66
6.06 -5.05 -1.25
5.8 -4.84 0.93
6.03 -5.03 -0.96
6.16 -5.15 1.27
8.91 -7.44 -1.02
17.15 -14.31 4.34
8.64 -7.21 -0.59
17.47 -14.58 5.25
4.66 -3.92 -1.63
5.43 -4.56 0.12
3.77 -3.17 -1.14
5.81 -4.88 0.4
5.66 -4.76 -1.44
5.97 -5.02 0.68
6.05 -5.08 -1.25
6.25 -5.25 1
5.92 -4.98 -0.95
6.19 -5.2 1.28
4.96 -4.17 -0.57
17.23 -14.49 4.38
17 -14.29 5.13
5.01 -4.22 -0.11
4.67 -3.96 -1.64
3.76 -3.18 -1.14
5.6 -4.75 -1.43
5.91 -5 0.68
6.15 -5.21 -1.28
5.73 -4.85 0.92
5.87 -4.97 -0.94
6.05 -5.12 1.26
6.8 -5.76 -0.78
17.18 -14.55 4.38
6.8 -5.76 -0.47
5.52 -4.68 -0.13
4.69 -4 -1.65
5.56 -4.74 0.13
3.73 -3.18 -1.13
6.37 -5.44 0.44
5.54 -4.72 -1.41
6.28 -5.36 0.72
6.2 -5.29 -1.29
5.7 -4.87 0.92
5.91 -5.04 -0.95
7.51 -6.41 1.56
6.84 -5.84 -0.79
17.84 -15.23 4.56
7.1 -6.05 -0.49
16.61 -14.17 5.04
5.61 -4.79 -0.13
4.62 -3.97 -1.63
5.58 -4.8 0.13
3.72 -3.19 -1.13
5.8 -4.99 0.4
5.57 -4.79 -1.43
5.75 -4.94 0.66
6.13 -5.26 0.99
6.51 -5.6 1.36
6.72 -5.77 -0.77
6.23 -5.36 1.6
5.32 -4.57 -0.37
5.12 -4.4 -0.12
16.83 -14.46 5.94
4.67 -4.04 -1.65
5.29 -4.58 0.12
3.7 -3.2 -1.13
5.75 -4.97 0.4
5.72 -4.95 0.66
6.24 -5.4 1.01
4.08 -3.53 -0.66
7.46 -6.45 1.56
4.09 -3.54 -0.47
8.07 -6.99 2.08
4.89 -4.23 -0.34
4.94 -4.28 -0.11
16.77 -14.51 5.94
4.65 -4.05 -1.65
5.3 -4.61 0.12
3.67 -3.2 -1.12
6.49 -5.65 0.45
5.34 -4.65 -1.38
5.47 -4.76 0.63
5.42 -4.72 0.88
4.09 -3.56 -0.67
7.08 -6.16 1.49
4.09 -3.56 -0.47
5.11 -4.45 -0.36
17.24 -15.01 5.28
5.42 -4.72 -0.13
16.58 -14.44 5.89
4.63 -4.06 -1.65
5.3 -4.65 0.12
3.66 -3.21 -1.12
6.26 -5.49 0.44
4.88 -4.28 -1.26
6.02 -5.28 0.7
5.38 -4.72 -1.13
6.13 -5.38 1
4.09 -3.59 -0.67
6.28 -5.51 1.32
4.08 -3.58 -0.47
6.18 -5.42 1.6
5.08 -4.46 -0.35
15.91 -13.96 4.89
5.39 -4.73 -0.13
16.65 -14.6 5.93
4.61 -4.07 -1.65
5.29 -4.67 0.12
3.62 -3.2 -1.12
8.71 -7.69 0.61
5.85 -5.17 0.68
6 -5.3 0.98
4 -3.54 -0.66
7.5 -6.62 1.58
4 -3.53 -0.47
7.97 -7.04 2.07
5.1 -4.5 -0.36
16.67 -14.72 5.13
5.15 -4.55 -0.12
4.58 -4.08 -1.64
7.07 -6.29 0.17
3.6 -3.2 -1.11
6.16 -5.48 0.43
5.49 -4.88 0.64
5.26 -4.68 -1.12
5.94 -5.29 0.98
6.26 -5.57 1.33
6.14 -5.47 1.6
5.46 -4.86 -0.38
15.91 -14.16 4.92
5.22 -4.64 -0.12
16.59 -14.76 5.95
4.54 -4.06 -1.63
5.23 -4.68 0.12
3.58 -3.21 -1.11
6.66 -5.97 0.47
5.55 -4.97 -1.45
5.3 -4.74 0.62
4.69 -4.2 -1
7.27 -6.51 1.2
5.98 -5.35 1.27
7.41 -6.64 1.93
6.55 -5.87 -0.46
15.75 -14.1 4.88
5.26 -4.71 -0.12
5.22 -4.71 0.12
3.56 -3.21 -1.11
5.41 -4.88 0.38
4.07 -3.67 -1.07
4.07 -3.67 -0.87
6.16 -5.56 1.02
16.05 -14.48 4.2
5.3 -4.78 -0.37
15.82 -14.27 4.92
5.24 -4.73 -0.12
16.73 -15.09 6.04
3.48 -3.16 -1.26
5.19 -4.72 0.12
3.54 -3.22 -1.1
4.77 -4.33 0.34
4.06 -3.69 -1.07
5.44 -4.94 0.64
4.04 -3.67 -0.86
5.82 -5.29 0.97
4.02 -3.66 -0.67
7.17 -6.51 1.53
4.03 -3.66 -0.48
7.92 -7.2 2.08
4.72 -4.29 -0.33
16.08 -14.61 5.02
5.3 -4.82 -0.13
16.43 -14.92 5.95
3.46 -3.16 -1.26
3.52 -3.22 -1.1
5.35 -4.9 0.38
4.05 -3.7 -1.07
5.35 -4.89 0.63
4.04 -3.7 -0.87
5.91 -5.41 0.98
4.03 -3.69 -0.67
6.17 -5.64 1.32
4.03 -3.68 -0.48
7.93 -7.26 2.09
17.16 -15.7 5.37
5.06 -4.63 -0.12
17.25 -15.78 6.26
3.44 -3.17 -1.25
3.5 -3.22 -1.1
4.44 -4.09 0.32
4.04 -3.72 -1.07
4.03 -3.71 -0.87
6.2 -5.71 1.03
4.01 -3.69 -0.67
6.14 -5.66 1.32
4.03 -3.72 -0.48
4.24 -3.9 -0.3
15.7 -14.47 4.93
4.35 -4 -0.1
3.42 -3.17 -1.25
4.48 -4.16 0.11
3.48 -3.23 -1.1
6.91 -6.41 -1.83
5.45 -5.06 0.65
5.9 -5.48 0.99
4.01 -3.72 -0.67
6.05 -5.61 1.31
4.03 -3.74 -0.48
16.26 -15.09 4.31
7.22 -6.7 -0.52
16.87 -15.66 5.31
4.32 -4.01 -0.1
16.39 -15.22 5.99
3.39 -3.17 -1.24
4.44 -4.14 0.11
3.44 -3.21 -1.09
5.16 -4.81 0.37
4.5 -4.21 -1.2
5.36 -5 0.64
4.5 -4.21 -0.98
6.73 -6.29 1.13
4.06 -3.79 -0.68
6.16 -5.75 1.34
4.03 -3.76 -0.48
5.97 -5.58 1.59
5.83 -5.44 -0.42
17.26 -16.12 5.45
4.63 -4.33 -0.11
3.38 -3.18 -1.24
5.15 -4.84 0.12
3.38 -3.18 -1.07
5.13 -4.82 0.37
5.38 -5.06 0.65
4.98 -4.68 -1.08
6.23 -5.86 1.05
4.01 -3.77 -0.68
6.18 -5.81 1.34
4.04 -3.8 -0.49
15.67 -14.73 4.18
4.59 -4.32 -0.33
16.16 -15.2 5.12
3.36 -3.18 -1.24
4.42 -4.18 0.11
3.34 -3.16 -1.06
5.28 -5 0.38
4.46 -4.23 -1.19
5.24 -4.96 0.63
4.32 -4.09 -0.94
7.33 -6.94 1.24
4.02 -3.81 -0.68
5.76 -5.46 1.26
4.05 -3.83 -0.49
16.81 -15.92 4.5
3.97 -3.76 -0.29
15.99 -15.14 5.08
4.38 -4.15 -0.11
16.08 -15.23 5.93
3.34 -3.19 -1.24
4.48 -4.28 0.11
3.32 -3.16 -1.06
5.17 -4.93 0.37
4.45 -4.25 -1.2
5.17 -4.93 0.63
4.34 -4.14 -0.95
6.79 -6.47 1.15
4.02 -3.83 -0.68
7.25 -6.91 1.59
4.05 -3.87 -0.49
5.62 -5.36 1.51
4.36 -4.16 -0.11
16.49 -15.73 6.11
3.32 -3.19 -1.23
3.3 -3.17 -1.06
4.32 -4.15 0.31
4.38 -4.2 -1.18
4.54 -4.36 0.55
4.63 -4.45 -1.02
5.48 -5.26 0.93
4.09 -3.92 -0.7
5.77 -5.55 1.27
15.78 -15.16 4.25
3.95 -3.79 -0.29
16.74 -16.08 5.36
4.37 -4.2 -0.11
3.29 -3.18 -1.23
4.4 -4.26 0.11
3.29 -3.18 -1.06
4.32 -4.18 -1.17
5.08 -4.91 0.62
4.7 -4.55 -1.04
5.56 -5.37 0.95
5.72 -5.53 1.26
4.05 -3.92 -0.49
15.68 -15.16 4.24
17.03 -16.47 5.47
4.29 -4.15 -0.1
16.17 -15.64 6.03
3.27 -3.18 -1.22
4.4 -4.28 0.11
3.26 -3.18 -1.05
5.1 -4.97 0.37
7.11 -6.93 -1.93
4.55 -4.43 0.56
4.82 -4.69 -1.07
5.83 -5.68 1
5.73 -5.58 1.27
3.97 -3.87 -0.48
5.92 -5.76 1.61
4.42 -4.3 -0.32
16.54 -16.11 5.33
4.33 -4.21 -0.11
16.28 -15.86 6.09
3.25 -3.19 -1.22
4.39 -4.31 0.11
3.24 -3.18 -1.05
4.83 -4.73 0.35
5.74 -5.63 -1.56
4.56 -4.48 0.56
4.78 -4.68 -1.06
5.37 -5.26 0.92
4.96 -4.86 -0.85
16.8 -16.47 3.73
4.01 -3.93 -0.49
17.85 -17.51 4.86
4.37 -4.28 -0.32
