# .PCD v0.7 - Point Cloud Data file format
VERSION 0.7
FIELDS x y z
SIZE 4 4 4
TYPE F F F
COUNT 1 1 1
WIDTH 3122
HEIGHT 1
VIEWPOINT 0 0 0 1 0 0 0
POINTS 3122
DATA ascii
1.44 3.35 -0.19
2.28 5.33 1.55
1.23 2.85 -0.83
3.16 7.3 0.14
1.25 2.88 -0.73
1.27 2.93 -0.62
4.63 10.71 1.43
1.35 3.12 -0.42
4.45 10.28 1.77
1.42 3.28 -0.31
1.62 3.74 0.79
1.51 3.49 -0.2
1.66 3.84 0.97
4.14 9.56 2.79
1.26 2.89 -0.85
3.19 7.29 0.14
1.26 2.89 -0.73
1.28 2.94 -0.62
14.58 33.38 3.19
4.65 10.64 1.43
1.36 3.13 -0.42
4.37 10.01 1.73
1.44 3.3 -0.31
1.63 3.73 0.79
2.47 5.65 -0.32
1.65 3.78 0.95
2.29 5.25 1.53
1.27 2.89 -0.85
3.21 7.28 0.14
1.28 2.91 -0.73
11.27 25.57 1.46
1.3 2.94 -0.63
4.92 11.16 1.07
4.45 10.1 1.35
1.37 3.11 -0.42
4.53 10.28 1.78
1.47 3.33 -0.32
5.9 13.38 2.84
2.55 5.78 -0.33
3.61 8.19 2.07
3.08 6.98 -0.13
2.31 5.23 1.53
1.29 2.91 -0.85
3.24 7.27 0.14
1.3 2.92 -0.74
11.36 25.53 1.46
1.31 2.94 -0.62
11.32 25.45 2.44
1.4 3.14 -0.42
4.59 10.31 1.79
1.51 3.39 -0.32
5.96 13.4 2.85
2.46 5.53 -0.32
2.34 5.26 1.33
2.35 5.27 1.55
1.29 2.87 -0.84
3.27 7.27 0.14
1.31 2.92 -0.74
11.51 25.61 1.47
1.32 2.93 -0.62
1.41 3.15 -0.42
11.8 26.27 4.56
1.53 3.4 -0.33
6 13.37 2.85
2.62 5.83 -0.33
3.69 8.2 2.08
2.36 5.25 1.54
1.3 2.86 -0.84
1.32 2.92 -0.74
11.52 25.41 1.46
1.34 2.95 -0.63
11.53 25.42 2.44
1.39 3.06 -0.53
4.83 10.66 1.44
1.43 3.16 -0.43
11.17 24.63 4.28
1.57 3.46 -0.33
6.01 13.25 2.83
3.4 7.5 -0.43
5.32 11.74 2.98
3.14 6.93 -0.13
2.36 5.21 1.53
1.32 2.89 -0.85
3.34 7.3 0.14
1.34 2.92 -0.74
11.35 24.8 1.43
1.35 2.95 -0.63
4.71 10.29 0.99
1.38 3.02 -0.53
1.45 3.16 -0.43
4.71 10.28 1.79
1.61 3.51 -0.34
6.04 13.2 2.82
2.41 5.28 -0.3
4.19 9.15 2.32
3.11 6.8 -0.13
4.22 9.23 2.72
1.34 2.91 -0.86
1.35 2.92 -0.74
3.29 7.12 0.41
1.36 2.95 -0.63
12.64 27.38 2.64
1.4 3.03 -0.53
1.46 3.16 -0.43
4.8 10.4 1.81
1.65 3.58 -0.35
4.61 9.98 2.14
2.63 5.7 -0.33
4.38 9.48 2.41
3.48 7.53 2.22
1.34 2.89 -0.85
1.37 2.93 -0.75
11.57 24.83 1.44
1.37 2.94 -0.63
1.42 3.04 -0.53
4.77 10.23 1.39
1.48 3.18 -0.43
11.45 24.57 4.29
1.72 3.68 -0.36
6.15 13.19 2.83
2.14 4.59 1.17
3.21 6.89 -0.13
3.47 7.45 2.2
1.36 2.9 -0.86
1.39 2.96 -0.75
11.66 24.79 1.44
1.38 2.94 -0.63
11.88 25.27 2.44
1.43 3.04 -0.53
1.51 3.21 -0.44
4.71 10.02 1.75
6.21 13.21 2.84
3.26 6.94 -0.13
2.16 4.6 1.36
1.37 2.9 -0.86
1.4 2.96 -0.76
13.68 28.83 1.67
1.4 2.95 -0.64
5.14 10.83 1.05
1.44 3.03 -0.53
4.87 10.27 1.4
1.54 3.24 -0.44
4.77 10.05 1.76
2.52 5.32 -0.51
3.84 8.09 1.74
3.64 7.67 1.96
3.51 7.41 2.2
1.41 2.95 -0.88
3.08 6.44 0.12
1.42 2.97 -0.76
1.42 2.96 -0.64
3.92 8.18 0.79
1.45 3.03 -0.53
1.56 3.27 -0.44
13.12 27.4 4.81
2.55 5.33 -0.52
3.44 7.19 -0.42
3.66 7.64 1.96
3.29 6.86 -0.13
3.56 7.43 2.21
1.45 3.01 -0.89
3.21 6.64 0.13
1.43 2.97 -0.76
12 24.85 1.45
1.44 2.97 -0.64
3.93 8.14 0.79
1.46 3.02 -0.53
3.92 8.12 1.11
1.59 3.29 -0.45
3.9 8.07 1.42
3.48 7.2 -0.7
3.86 7.99 1.72
2.53 5.23 -0.3
3.68 7.63 1.96
3.28 6.78 -0.13
3.61 7.47 2.22
1.46 2.99 -0.77
3.3 6.77 0.39
1.44 2.96 -0.64
3.93 8.07 0.79
1.47 3.02 -0.53
3.92 8.04 1.1
1.62 3.33 -0.45
3.92 8.04 1.42
3.51 7.21 -0.7
3.88 7.96 1.72
3.71 7.62 1.96
3.44 7.06 -0.14
3.99 8.18 2.44
3.53 7.17 0.14
1.47 2.99 -0.77
3.32 6.76 0.39
1.46 2.96 -0.64
3.94 8.01 0.78
3.94 8.01 1.1
1.65 3.36 -0.46
3.95 8.03 1.42
3.91 7.95 1.72
2.51 5.1 -0.3
3.76 7.66 1.97
3.5 7.12 -0.14
4.02 8.18 2.44
3.27 6.59 0.13
1.49 3 -0.77
3.97 8 0.47
1.48 2.98 -0.65
3.96 7.99 0.78
3.96 7.99 1.1
1.69 3.4 -0.47
3.96 7.98 1.41
2.64 5.32 -0.52
3.93 7.93 1.72
3.43 6.93 -0.13
4.06 8.19 2.45
3.35 6.7 0.13
1.53 3.06 -0.79
1.52 3.03 -0.66
3.99 7.98 0.78
3.98 7.96 1.09
1.73 3.47 -0.48
4 7.99 1.42
2.7 5.39 -0.53
3.98 7.95 1.73
2.53 5.05 1.3
3.33 6.66 -0.13
2.6 5.2 1.56
1.52 3.02 -0.91
2.92 5.78 0.11
1.56 3.09 -0.8
1.54 3.06 -0.67
4.03 7.99 0.78
4.01 7.95 1.09
1.78 3.53 -0.49
4.02 7.98 1.41
2.64 5.23 -0.51
4.02 7.98 1.74
3.87 7.67 -0.45
4.8 9.52 2.46
3.41 6.75 -0.13
5.85 11.6 3.48
1.55 3.05 -0.92
1.6 3.14 -0.81
3.73 7.33 0.43
1.57 3.09 -0.67
4.06 7.99 0.78
1.58 3.11 -0.55
4.06 7.97 1.1
1.84 3.62 -0.5
4.07 7.99 1.42
4.05 7.95 -0.78
3.64 7.16 -0.42
3 5.89 1.52
3.4 6.68 -0.13
5.9 11.6 3.49
1.58 3.08 -0.93
1.66 3.24 -0.84
4 7.8 0.46
1.6 3.12 -0.68
4.1 7.99 0.79
1.62 3.15 -0.56
1.9 3.69 -0.51
4.08 7.94 -0.78
4.96 9.66 2.11
2.76 5.38 -0.32
3.45 6.73 -0.13
2.13 4.15 1.25
1.78 3.45 -1.04
3.33 6.44 0.13
1.73 3.34 -0.87
4.86 9.39 0.55
1.66 3.22 -0.57
5.5 10.63 1.47
2.68 5.17 -0.72
5.45 10.54 1.88
3.68 7.11 -0.7
5.58 10.79 2.36
3.43 6.64 -0.39
5.06 9.78 2.54
2.89 5.59 -0.11
2.12 4.1 1.24
1.83 3.51 -1.06
3.54 6.77 0.13
2.92 5.6 -1.46
3.57 6.85 0.4
3.43 6.58 -1.44
4.16 7.97 0.79
2.76 5.29 -0.94
14.88 28.5 5.09
2.71 5.19 -0.51
12.97 24.83 5.45
2.96 5.66 -0.33
5.86 11.22 2.92
2.8 5.36 -0.11
2.14 4.09 1.24
1.85 3.5 -1.06
3.51 6.67 0.13
2.8 5.33 -1.39
3.54 6.72 0.4
2.86 5.43 -1.19
15.07 28.62 5.12
2.77 5.25 -0.52
1.97 3.74 0.82
2.92 5.55 -0.33
5.02 9.54 2.49
2.81 5.34 -0.11
2.13 4.04 1.22
1.87 3.52 -1.07
3.88 7.3 0.14
3.54 6.66 0.4
2.93 5.52 -1.22
3.57 6.72 -1.21
5.7 10.73 1.49
3.8 7.16 -0.99
5.21 9.82 1.76
2.76 5.2 -0.51
2 3.76 0.83
2.88 5.42 -0.32
3.59 6.76 -0.13
5 9.41 2.86
1.9 3.55 -1.08
3.63 6.78 0.13
2.84 5.31 -1.39
2.68 5.01 0.3
3.41 6.38 -1.41
3.46 6.47 0.64
3.65 6.81 -1.22
5.62 10.49 1.46
3.75 7 -0.98
12.67 23.66 4.25
2.84 5.3 -0.53
5.49 10.26 2.26
2.76 5.14 -0.31
2.16 4.04 1.06
3.55 6.64 -0.13
5.65 10.54 3.2
2.69 4.99 -1.52
2.73 5.06 0.1
2.88 5.32 -1.4
2.71 5.01 0.3
2.95 5.47 -1.21
3.49 6.47 0.64
3.84 7.11 -1.28
5.77 10.69 1.49
2.79 5.17 -0.72
5.21 9.64 1.74
2.83 5.24 -0.52
5.04 9.33 2.06
5.84 10.81 2.84
3.58 6.63 -0.13
5.74 10.63 3.24
2.71 4.98 -1.52
3.88 7.13 0.14
2.87 5.27 -1.38
2.86 5.25 0.31
2.9 5.32 -1.18
4.13 7.59 0.76
2.84 5.21 -0.94
5.84 10.73 1.5
3.78 6.94 -0.97
5.22 9.59 1.73
2.9 5.33 -0.53
5.05 9.27 2.05
6.13 11.25 2.96
3.01 5.53 -0.11
2.33 4.27 1.3
2.73 4.98 -1.52
2.97 5.41 0.11
2.93 5.33 -1.4
2.87 5.23 0.31
2.89 5.28 -1.17
5.5 10.03 1
2.82 5.15 -0.93
2.76 5.03 -0.7
6.1 11.13 2.01
2.84 5.18 -0.52
5.04 9.19 2.04
2.79 5.08 -0.3
6.22 11.34 2.99
3.62 6.6 -0.13
2.34 4.27 1.3
2.75 4.98 -1.52
2.89 5.22 0.1
2.91 5.25 -1.39
2.91 5.27 -1.17
5.22 9.44 0.94
2.8 5.06 -0.92
18.47 33.39 4.69
2.8 5.07 -0.71
2.85 5.16 -0.52
2.81 5.08 -0.3
5.87 10.62 2.8
3 5.42 -0.11
5.13 9.28 2.84
2.77 4.96 -1.52
2.91 5.21 0.1
2.96 5.3 -1.4
4.09 7.33 0.44
2.98 5.34 -1.19
4.14 7.42 0.74
2.81 5.04 -0.91
5.1 9.15 1.29
2.74 4.91 -0.69
5.89 10.55 1.91
2.83 5.08 -0.51
6.1 10.94 2.43
5.58 10.01 2.65
2.9 5.2 -0.1
5.12 9.17 2.81
2.77 4.93 -1.52
3.63 6.45 0.13
2.95 5.24 -1.39
3.01 5.35 -1.19
4.13 7.35 0.74
2.85 5.07 -0.92
6.1 10.84 1.53
2.77 4.93 -0.69
5.42 9.64 1.75
2.9 5.16 -0.52
5.78 10.28 2.29
2.96 5.26 -0.32
5.68 10.1 2.68
2.85 5.07 1.56
2.78 4.9 -1.51
3.73 6.57 0.13
2.83 4.99 -1.33
4.63 8.16 0.49
3.01 5.31 -1.19
2.88 5.08 -0.92
4.65 8.2 1.16
2.72 4.8 -0.68
6.14 10.82 1.97
2.81 4.96 -0.5
3.12 5.5 -0.33
5.47 9.64 2.56
2.72 4.8 -0.1
2.4 4.23 1.3
2.78 4.86 -1.5
3.9 6.82 0.14
2.79 4.88 -1.3
3.98 6.97 0.42
3.02 5.29 -1.18
4.65 8.14 0.82
2.94 5.15 -0.94
4.66 8.15 1.15
2.88 5.03 -0.71
4.7 8.22 1.5
2.88 5.03 -0.51
13.53 23.67 5.3
2.83 4.95 -0.3
2.35 4.11 1.09
2.74 4.8 -0.1
5.1 8.92 2.75
2.8 4.86 -1.5
4.13 7.16 0.14
2.85 4.95 -1.32
2.92 5.07 0.31
3.02 5.24 -1.17
4.14 7.19 0.73
2.93 5.08 -0.93
4.69 8.14 1.15
2.91 5.06 -0.72
4.7 8.16 1.49
2.94 5.1 -0.52
4.72 8.19 1.84
2.91 5.05 -0.31
2.38 4.13 1.1
3.82 6.64 -0.13
2.89 5.02 1.55
2.8 4.82 -1.49
2.77 4.76 0.1
2.94 5.05 -1.35
2.95 5.08 0.31
3.06 5.27 -1.18
4.71 8.11 0.82
3.14 5.4 -0.99
4.73 8.14 1.16
3.07 5.29 -0.75
4.73 8.14 1.49
2.96 5.09 -0.51
4.75 8.18 1.84
2.97 5.12 -0.31
2.38 4.09 1.09
2.88 4.95 -0.1
5.54 9.54 2.96
2.83 4.83 -1.5
2.91 4.97 0.1
2.96 5.05 -1.35
3.71 6.33 0.38
3.08 5.26 -1.18
4.43 7.56 -1.39
4.75 8.12 1.16
3.08 5.26 -0.75
3.12 5.34 -0.54
4.76 8.14 1.83
2.84 4.85 -0.29
4.78 8.17 2.19
3.01 5.14 -0.1
3.27 5.58 1.73
2.86 4.85 -1.51
2.88 4.88 0.1
2.97 5.03 -1.35
3.04 5.15 -1.16
5.03 8.52 0.87
3.03 5.13 -0.94
6.3 10.67 1.52
2.93 4.96 -0.71
4.07 6.89 1.27
2.99 5.07 -0.52
4.79 8.12 1.83
2.89 4.89 -0.3
4.8 8.14 2.18
3.13 5.3 -0.11
3.24 5.49 1.71
2.87 4.82 -1.5
3.16 5.31 0.11
3.17 5.33 -1.43
5.56 9.34 0.57
2.95 4.97 -1.12
16.07 27 2.75
6.5 10.92 1.56
2.95 4.96 -0.71
4.9 8.23 1.52
2.97 4.99 -0.51
4.1 6.88 1.56
3.79 6.37 -0.39
4.84 8.13 2.18
3.72 6.26 -0.13
4.83 8.12 2.53
2.89 4.81 -1.5
2.97 4.95 -1.33
2.99 4.98 -1.13
16.39 27.32 2.79
2.94 4.91 -0.91
16.22 27.04 3.87
3.01 5.02 -0.72
5.57 9.29 1.72
3.03 5.05 -0.51
5.83 9.72 2.2
3.19 5.31 -0.32
3.61 6.02 1.62
3.78 6.31 -0.13
4.1 6.84 2.14
2.9 4.81 -1.5
9.03 14.94 0.3
3.13 5.17 -1.4
2.99 4.95 -1.12
5.64 9.34 0.95
2.9 4.8 -0.89
16.32 27.02 3.88
3.04 5.03 -0.72
5.65 9.35 1.73
3.1 5.13 -0.52
14.28 23.64 5.37
5.5 9.1 -0.56
2.85 4.72 1.27
3.18 5.26 -0.11
4.89 8.09 2.53
2.92 4.79 -1.5
3.1 5.08 0.1
3.04 4.99 -1.35
4.37 7.17 0.44
3.04 5 -1.14
5.53 9.08 0.93
2.87 4.71 -0.87
6.38 10.48 1.51
3.04 4.98 -0.72
4.12 6.76 1.25
3.05 5 -0.51
6.01 9.86 2.25
5.56 9.13 -0.56
3.29 5.41 1.46
2.94 4.79 -1.5
3.06 4.99 0.1
3.04 4.96 -1.34
16.7 27.22 1.67
3.07 5 -1.14
3.9 6.36 0.65
2.99 4.87 -0.91
5.97 9.73 1.4
3.15 5.13 -0.74
4.21 6.86 1.27
2.99 4.87 -0.5
4.18 6.81 1.55
4.17 6.8 1.84
4.31 7.02 -0.14
5.41 8.81 2.77
2.96 4.78 -1.51
4.02 6.5 0.13
3.05 4.92 -1.34
4.34 7.02 0.43
3.06 4.95 -1.13
5.63 9.1 0.94
3.06 4.94 -0.92
5.13 8.29 1.2
5.86 9.47 -1.37
3.15 5.09 -0.52
2.45 3.96 0.91
3.08 4.98 -0.31
4.19 6.78 1.84
3.77 6.09 1.92
2.98 4.78 -1.51
3 4.81 0.1
2.95 4.73 -1.29
3.96 6.35 0.39
2.91 4.66 -1.07
5.64 9.05 0.93
3.02 4.84 -0.9
4.02 6.45 0.93
3.25 5.21 -0.75
4.19 6.72 1.25
3.12 5.01 -0.52
2.45 3.93 0.9
3.08 4.95 -0.31
4.21 6.76 1.84
3.14 5.03 -0.1
3.79 6.09 1.92
3 4.78 -1.51
4.17 6.64 0.14
3.26 5.18 -1.41
3.03 4.82 -1.11
3.01 4.8 -0.9
6.05 9.64 1.4
3.09 4.92 -0.71
3.17 5.05 -0.52
2.47 3.93 0.9
3.12 4.97 -0.31
3.32 5.29 1.44
5.67 9.03 -0.19
3.79 6.03 1.91
3.02 4.77 -1.51
9.34 14.75 0.3
3.18 5.02 -1.37
3.02 4.77 -1.1
6.17 9.75 1.01
2.93 4.63 -0.87
3.08 4.87 -0.71
4.13 6.52 1.22
3.23 5.11 -0.53
3.16 4.99 -0.31
3.07 4.84 -0.1
3.46 5.46 1.73
3.03 4.74 -1.51
9.38 14.7 0.3
3.15 4.93 -1.35
3.06 4.8 -1.11
16.62 26.05 2.7
3.01 4.72 -0.89
4.09 6.41 0.93
3.12 4.88 -0.71
3.24 5.07 -0.53
2.48 3.89 0.9
3.2 5.01 -0.31
3.36 5.26 1.44
3.07 4.81 -0.1
3.6 5.63 1.79
3.06 4.76 -1.52
9.45 14.7 0.3
3.05 4.75 -1.3
3.13 4.87 -1.12
6.31 9.81 1.02
3.07 4.78 -0.9
3.21 4.99 -0.73
4.08 6.35 1.2
3.23 5.02 -0.52
4.19 6.52 1.51
3.13 4.87 -0.3
3.4 5.29 1.45
2.73 4.24 1.35
3.07 4.73 -1.51
3.33 5.14 0.11
3.1 4.79 -1.32
15.03 23.2 1.45
3.13 4.84 -1.12
4.27 6.59 0.69
3.17 4.89 -0.92
4.19 6.47 0.95
3.36 5.19 -0.76
3.22 4.96 -0.52
3.19 4.93 1.14
3.3 5.1 -0.32
2.96 4.57 1.26
3.4 5.24 -0.11
6.01 9.28 2.96
3.07 4.71 -1.51
3.2 4.9 0.1
3.13 4.79 -1.32
21.64 33.16 2.08
3.06 4.7 -1.09
4.27 6.55 0.68
3.16 4.84 -0.92
14.5 22.22 3.26
3.23 4.94 -0.72
3.17 4.86 -0.51
3.28 5.02 1.17
3.14 4.82 -0.3
3.43 5.26 1.45
5.97 9.15 2.93
3.09 4.7 -1.51
3.54 5.37 0.11
3.27 4.97 -1.37
3.27 4.97 -1.16
4.48 6.81 0.71
3.18 4.83 -0.92
15.46 23.5 3.45
3.07 4.67 -0.69
3.23 4.91 -0.51
6.74 10.25 2.38
3.31 5.03 -0.32
3.03 4.61 1.27
3.17 4.81 -0.1
3.12 4.7 -1.51
3.55 5.35 0.11
3.27 4.94 -1.37
3.19 4.81 -1.12
4.3 6.49 0.68
3.26 4.92 -0.94
6.18 9.32 1.37
3.09 4.66 -0.69
4.9 7.4 1.41
3.36 5.07 -0.53
6.65 10.03 2.34
3.24 4.89 -0.31
4.28 6.46 1.79
3.19 4.81 -0.1
4.45 6.71 2.16
3.13 4.69 -1.51
3.57 5.35 0.11
3.13 4.69 -1.3
4.05 6.07 0.38
3.18 4.77 -1.11
3.26 4.88 -0.93
14.74 22.07 3.26
3.19 4.78 -0.71
2.86 4.28 0.81
3.33 4.99 -0.53
6.85 10.26 2.4
3.26 4.87 -0.31
3.57 5.35 -0.11
5.99 8.97 2.89
3.13 4.66 -1.5
3.59 5.34 0.11
3.39 5.05 -1.4
20.07 29.86 1.89
3.2 4.76 -1.12
4.34 6.45 0.68
3.29 4.89 -0.93
6.22 9.25 1.37
3.31 4.93 -0.73
2.58 3.83 0.73
3.38 5.02 -0.53
4.35 6.47 1.52
6.3 9.38 2.61
3.58 5.33 -0.11
3.05 4.54 1.47
3.14 4.63 -1.5
3.47 5.12 -1.43
3.21 4.73 -1.11
3.31 4.89 -0.94
6.4 9.45 1.4
3.32 4.91 -0.73
2.59 3.83 0.73
3.25 4.79 -0.51
6.6 9.74 2.29
7.8 11.51 -0.73
3.13 4.63 1.29
8.59 12.68 -0.27
6 8.86 2.87
3.18 4.66 -1.51
3.04 4.45 -1.24
4.61 6.75 0.43
3.49 5.11 -1.2
6.52 9.55 1.01
3.24 4.75 -0.91
5.37 7.87 1.17
3.37 4.93 -0.73
2.86 4.18 0.8
3.3 4.84 -0.51
3.04 4.45 1.05
7.84 11.49 -0.73
3.17 4.64 1.3
8.65 12.67 -0.27
3.12 4.57 1.48
3.2 4.65 -1.51
3.09 4.49 -1.26
3.44 5 -1.18
3.3 4.79 -0.92
5.56 8.08 1.2
3.36 4.88 -0.73
2.86 4.16 0.8
3.23 4.69 -0.5
3.77 5.48 1.29
3.49 5.07 -0.32
3.19 4.63 1.3
8.72 12.68 -0.27
3.42 4.97 1.62
3.22 4.64 -1.51
3.44 4.97 -1.4
22.18 32 2.04
3.36 4.84 -1.15
3.32 4.79 -0.92
5.48 7.9 1.18
3.36 4.84 -0.72
4.4 6.34 1.22
3.31 4.77 -0.51
3.79 5.47 1.29
7.93 11.45 -0.73
3.19 4.61 1.29
8.78 12.67 -0.27
3.46 4.99 1.63
3.24 4.65 -1.52
3.33 4.78 0.1
3.38 4.84 -1.36
3.29 4.7 0.3
3.36 4.82 -1.14
6.62 9.48 1.01
3.42 4.9 -0.95
5.09 7.29 1.09
3.34 4.78 -0.72
2.64 3.79 0.73
3.31 4.73 -0.51
4.5 6.44 1.53
3.33 4.77 -0.31
6.45 9.24 2.6
14.2 20.33 -0.43
6.29 9.01 2.94
3.26 4.64 -1.52
3.4 4.84 -1.37
3.31 4.71 0.3
3.39 4.82 -1.15
4.46 6.34 0.68
3.38 4.8 -0.93
16.46 23.43 3.52
3.4 4.84 -0.73
4.52 6.42 1.24
3.28 4.67 -0.5
6.39 9.09 2.16
3.18 4.52 -0.29
3.29 4.68 1.32
14.23 20.25 -0.43
3.37 4.79 1.57
3.27 4.62 -1.52
18.63 26.31 0.56
3.47 4.9 -1.39
3.33 4.71 0.3
3.41 4.82 -1.15
6.45 9.11 0.98
3.39 4.78 -0.93
6.78 9.57 1.44
3.34 4.72 -0.51
3.97 5.61 1.34
3.16 4.46 -0.29
3.47 4.89 1.38
3.37 4.76 -0.1
3.38 4.77 1.56
3.29 4.61 -1.52
3.36 4.71 0.1
3.48 4.88 -1.38
3.35 4.7 0.3
3.43 4.8 -1.15
15.95 22.35 2.4
3.45 4.84 -0.94
4.92 6.9 1.04
3.43 4.81 -0.73
4.44 6.22 1.21
3.35 4.69 -0.5
4.28 6 1.43
3.73 5.22 -0.34
3.38 4.74 -0.1
3.37 4.73 1.56
3.3 4.58 -1.51
3.38 4.71 0.1
3.46 4.82 -1.37
18.85 26.22 1.69
3.43 4.78 -1.14
18.02 25.06 2.7
3.52 4.89 -0.95
6.56 9.12 1.38
3.42 4.76 -0.72
4.6 6.39 1.25
3.32 4.61 -0.5
3.37 4.68 1.12
3.32 4.62 -0.3
6.39 8.88 2.53
6.14 8.54 2.82
3.3 4.56 -1.51
3.6 4.97 -1.42
18.98 26.22 1.7
3.41 4.72 -1.13
18.94 26.16 2.83
3.6 4.98 -0.97
6.54 9.03 1.37
3.47 4.8 -0.73
18.78 25.94 5.07
3.46 4.78 -0.52
3.38 4.67 1.12
3.32 4.59 -0.3
19.67 27.17 7.74
14.58 20.14 -0.43
4.63 6.4 2.12
3.28 4.5 -1.49
3.46 4.75 -1.36
3.52 4.83 -1.16
19.05 26.13 2.83
3.72 5.1 -1
19.03 26.09 3.97
3.55 4.87 -0.74
6.85 9.4 1.84
3.59 4.93 -0.53
7.05 9.66 2.32
3.4 4.66 -0.3
4.12 5.65 1.62
14.65 20.09 -0.43
3.3 4.52 1.5
3.31 4.51 -1.5
3.31 4.51 -1.29
3.54 4.82 -1.16
5.26 7.16 0.78
3.48 4.74 -0.93
16.26 22.13 3.37
3.37 4.59 -0.7
2.68 3.65 0.72
3.57 4.86 -0.53
7.23 9.84 2.37
3.41 4.64 -0.3
3.4 4.63 1.32
4.69 6.39 2.12
3.33 4.5 -1.5
3.55 4.8 -1.38
3.51 4.75 -1.15
6.78 9.16 1
3.49 4.71 -0.93
4.5 6.08 0.93
3.4 4.59 -0.7
2.7 3.65 0.72
3.62 4.89 -0.53
3.33 4.5 1.09
3.23 4.36 -0.28
3.39 4.59 -0.1
3.65 4.93 1.64
3.35 4.49 -1.5
18.86 25.31 0.55
3.69 4.95 -1.42
3.59 4.81 -1.17
16.31 21.88 2.39
3.57 4.79 -0.95
4.55 6.1 0.93
3.39 4.54 -0.7
4.64 6.22 1.23
3.47 4.65 -0.51
4.41 5.92 1.44
3.62 4.86 -0.32
3.26 4.37 1.26
3.76 5.05 1.69
3.37 4.48 -1.5
3.52 4.69 -1.35
5.47 7.28 0.48
3.58 4.76 -1.16
3.51 4.67 -0.92
4.59 6.12 0.94
3.46 4.61 -0.71
4.66 6.2 1.23
3.62 4.82 -0.53
6.35 8.46 2.06
15.15 20.18 -1.32
3.15 4.19 1.21
5.47 7.28 -0.16
3.45 4.6 1.54
3.38 4.47 -1.5
3.7 4.89 -1.42
5.15 6.81 0.45
3.51 4.64 -1.13
6.87 9.09 1
3.53 4.67 -0.93
3.47 4.59 -0.71
5.93 7.84 1.56
3.64 4.81 -0.53
6.35 8.39 2.05
3.79 5.01 -0.33
5.47 7.23 -0.16
3.59 4.75 1.6
3.4 4.46 -1.5
5.33 6.99 0.15
3.69 4.84 -1.4
5.2 6.83 0.45
3.61 4.74 -1.16
5.13 6.74 0.74
3.57 4.69 -0.93
3.59 4.71 -0.73
5.98 7.85 1.56
3.77 4.94 -0.54
6.34 8.32 2.03
3.32 4.35 1.26
3.72 4.89 -0.11
3.6 4.72 1.59
3.41 4.44 -1.5
3.49 4.54 0.1
3.79 4.94 -1.44
5.26 6.86 0.45
3.58 4.66 -1.14
5.25 6.84 0.75
3.59 4.67 -0.93
5.1 6.65 1.03
3.52 4.59 -0.71
3.56 4.64 -0.51
6.35 8.28 2.03
16.37 21.34 -1.41
4.29 5.6 1.63
3.62 4.72 1.59
3.43 4.44 -1.5
5.39 6.98 0.15
3.8 4.92 -1.44
3.61 4.67 -1.15
5.45 7.05 0.78
3.84 4.98 -1
7.3 9.45 1.47
3.52 4.56 -0.71
6.09 7.88 1.58
3.53 4.57 -0.5
6.61 8.55 2.1
3.74 4.84 -0.32
3.6 4.66 1.36
5.63 7.29 -0.16
3.95 5.11 1.73
3.45 4.43 -1.5
3.82 4.91 0.11
3.75 4.82 -1.41
5.55 7.13 0.47
3.68 4.73 -1.17
5.16 6.63 0.73
3.61 4.64 -0.93
5.64 7.24 1.13
3.56 4.57 -0.71
19.85 25.5 5.12
3.37 4.33 -0.48
3.27 4.2 1.03
6.06 7.78 2.28
5.21 6.69 -0.15
3.28 4.21 1.43
3.48 4.44 -1.51
5.37 6.85 0.15
3.84 4.9 -1.44
6.66 8.49 0.57
3.68 4.7 -0.95
5.32 6.78 1.06
3.61 4.6 -0.72
4.59 5.86 1.18
3.71 4.73 -0.53
6.49 8.28 2.05
16.58 21.14 -1.41
4.33 5.52 1.62
3.61 4.6 -0.1
4.15 5.29 1.8
3.49 4.42 -1.51
5.39 6.83 0.15
3.6 4.57 -1.34
6.04 7.65 0.51
3.81 4.82 -1.19
6.09 7.72 0.86
3.61 4.58 -0.92
16.63 21.06 3.29
3.7 4.68 -0.73
3.47 4.4 0.89
7.26 9.19 -1.02
4.18 5.3 1.31
16.65 21.09 -1.41
4.22 5.35 1.57
4.08 5.17 -0.11
3.51 4.41 -1.51
5.43 6.83 0.15
3.72 4.68 -1.38
6.09 7.66 0.51
3.85 4.84 -1.2
5.52 6.94 -1.4
25.1 31.56 4.95
3.7 4.66 -0.73
5.32 6.69 1.35
3.78 4.75 -0.53
4.19 5.27 1.31
16.73 21.03 -1.41
4.18 5.26 1.55
4.22 5.31 -0.12
4.76 5.99 2.05
3.53 4.4 -1.51
3.78 4.72 -1.4
5.28 6.6 0.44
3.53 4.41 -1.1
18.27 22.81 2.56
3.65 4.56 -0.93
3.71 4.63 -0.73
5.69 7.1 1.44
3.76 4.7 -0.53
4.19 5.24 1.3
3.26 4.07 1.2
5.52 6.89 -0.15
3.77 4.7 1.62
3.54 4.39 -1.51
3.88 4.8 -1.42
5.48 6.79 0.46
3.71 4.6 -1.15
5.78 7.17 0.81
3.6 4.46 -0.91
4.45 5.51 0.87
3.72 4.61 -0.73
4.97 6.16 1.25
3.81 4.72 -0.53
3.26 4.04 1.01
5.88 7.29 -0.49
3.35 4.16 1.23
3.93 4.87 -0.11
4.8 5.95 2.05
3.56 4.39 -1.51
4.46 5.49 0.12
3.8 4.68 -1.39
5.88 7.23 0.82
3.61 4.45 -0.91
18.54 22.82 3.61
3.74 4.6 -0.73
5.82 7.17 1.46
4.01 4.93 -0.56
3.7 4.55 1.14
5.61 6.91 -0.47
3.3 4.06 1.21
4 4.92 -0.11
3.42 4.21 1.46
3.58 4.38 -1.52
4.51 5.51 0.12
3.99 4.87 -1.45
5.75 7.03 0.48
3.87 4.73 -1.19
5.83 7.12 0.8
4.01 4.9 -1
5.21 6.37 1.01
3.75 4.58 -0.73
5.06 6.18 1.26
3.82 4.67 -0.53
4.07 4.97 1.25
5.63 6.88 -0.47
4.06 4.96 1.48
3.56 4.34 1.5
3.6 4.37 -1.52
4.57 5.54 0.13
3.93 4.77 -1.43
5.75 6.97 0.47
4.72 5.73 -1.44
5.78 7.02 0.8
3.85 4.67 -0.96
3.73 4.53 -0.72
5.1 6.18 1.27
3.88 4.71 -0.53
4.07 4.94 1.24
5.66 6.87 -0.47
3.5 4.25 1.27
5.05 6.13 -0.14
4.73 5.74 1.99
3.61 4.35 -1.52
5.99 7.21 0.16
4.04 4.86 -1.46
5.69 6.86 0.47
3.98 4.79 -1.21
5.96 7.19 0.82
5.71 6.88 -1.42
4.66 5.62 0.9
7.11 8.57 -1.37
3.28 3.95 0.81
5.73 6.9 -0.78
4.07 4.91 1.24
4.54 5.47 1.64
3.98 4.79 -0.11
3.62 4.33 -1.51
6.19 7.41 0.17
4.07 4.87 -1.47
5.79 6.93 0.47
3.89 4.66 -0.96
4.82 5.76 0.92
3.83 4.58 -0.73
5.17 6.18 1.28
3.94 4.72 -0.54
5.44 6.51 1.65
4.21 5.03 -0.34
4.58 5.48 1.65
4.03 4.82 -0.11
3.75 4.49 1.57
3.62 4.3 -1.5
4.05 4.82 -1.45
5.84 6.94 0.48
4.57 5.43 -1.38
18.13 21.54 2.46
5.72 6.8 -1.41
5.08 6.03 0.97
4.1 4.87 -0.78
5.05 6 1.24
4.11 4.88 -0.56
7.3 8.68 2.2
4.06 4.83 -0.33
3.83 4.55 1.37
5.17 6.14 -0.14
3.74 4.44 1.56
3.63 4.28 -1.5
5.84 6.89 0.16
3.98 4.69 -1.42
5.82 6.87 0.47
4.23 4.99 -1.27
17.85 21.06 2.42
4.09 4.83 -1
4.17 4.92 0.79
4.01 4.73 -0.76
5.24 6.18 1.28
7.66 9.03 -1.04
4.38 5.16 1.32
3.85 4.54 -0.31
5.95 7.02 -0.16
4.65 5.49 1.93
3.65 4.28 -1.51
5.68 6.66 0.15
4.01 4.7 -1.43
5.95 6.98 0.48
4.21 4.94 -1.26
4.81 5.64 0.65
3.97 4.65 -0.97
4.18 4.89 0.79
4 4.69 -0.76
21.28 24.94 5.19
5.84 6.84 -0.79
4.38 5.13 -0.35
4.68 5.48 1.66
4.9 5.74 -0.13
6.38 7.48 2.64
3.65 4.25 -1.5
4.05 4.71 -1.43
4.97 5.79 0.4
4.17 4.86 -1.24
5.33 6.21 0.72
4.18 4.87 -1.02
5.12 5.97 0.97
4.06 4.73 -0.77
7.35 8.56 1.79
4.11 4.79 -0.55
3.75 4.37 1.12
4.07 4.74 -0.33
6.88 8.01 2.44
4.95 5.77 -0.13
5.54 6.45 2.28
3.66 4.23 -1.5
5.8 6.7 0.15
3.99 4.61 -1.41
4.98 5.76 0.4
4.16 4.81 -1.01
5.07 5.86 0.95
4.2 4.85 -0.79
4.26 4.93 -0.57
3.74 4.32 1.11
3.98 4.6 -0.32
5.11 5.91 1.8
5.22 6.03 -0.14
4.25 4.91 1.74
3.68 4.22 -1.5
5.16 5.93 0.14
4.08 4.68 -1.43
5.91 6.78 0.47
4.84 5.55 -1.43
5.96 6.84 0.79
5.88 6.75 -1.42
5.07 5.82 0.95
4.12 4.73 -0.77
5.38 6.18 1.3
4.22 4.85 -0.56
4.44 5.09 1.31
5.88 6.75 -0.47
5.34 6.13 1.88
6.16 7.07 -0.16
3.7 4.22 -1.5
5.07 5.78 0.13
4.06 4.63 -1.42
6.13 6.98 0.49
4.89 5.57 -1.44
5.64 6.43 0.75
3.88 4.43 -0.93
5.75 6.56 1.07
4.01 4.57 -0.75
3.31 3.78 0.8
4.21 4.8 -0.56
3.63 4.14 1.07
3.57 4.07 1.25
5.19 5.92 -0.14
4.9 5.58 1.99
3.73 4.22 -1.51
4.19 4.74 -1.46
4.14 4.69 -1.22
5.29 5.99 -1.27
4.89 5.53 0.91
3.96 4.49 -0.73
3.31 3.75 0.79
4.12 4.66 -0.54
4.07 4.61 -0.32
3.74 4.23 1.3
5.13 5.81 -0.14
3.66 4.14 1.48
3.74 4.21 -1.51
5.8 6.52 0.15
4.13 4.64 -1.43
6 6.74 0.47
4.91 5.51 -1.43
5.79 6.51 -1.38
5.73 6.44 1.06
3.99 4.48 -0.74
8.72 9.81 -1.15
5.36 6.02 -0.42
5.72 6.42 1.98
4.03 4.53 -0.11
3.7 4.16 1.49
3.76 4.2 -1.51
4 4.46 0.1
4.11 4.59 -1.42
4.92 5.49 -1.43
4.91 5.49 0.64
5.25 5.86 -1.25
4.3 4.8 0.79
4.03 4.5 -0.74
3.89 4.35 0.92
4.17 4.66 -0.55
5.75 6.42 1.67
5.24 5.85 -0.41
5.77 6.45 2
3.33 3.71 1.34
3.79 4.2 -1.52
4.03 4.47 0.1
4.2 4.65 -1.45
4.93 5.47 -1.43
4.16 4.61 -0.98
5.15 5.71 0.94
4.01 4.45 -0.52
4.32 4.79 -0.34
3.63 4.03 1.25
5.49 6.09 -0.14
3.33 3.7 1.33
3.81 4.19 -1.52
4.21 4.63 -1.44
5.8 6.38 0.45
4.94 5.43 -1.43
5.8 6.39 0.75
5.38 5.91 -1.27
5.2 5.72 0.95
4.08 4.49 -0.75
6.99 7.69 1.65
4.16 4.58 -0.54
7.03 7.74 2.03
4.28 4.71 -0.33
3.66 4.03 1.26
4.21 4.63 -0.11
3.39 3.73 1.35
3.83 4.18 -1.52
5.08 5.55 0.13
4.26 4.65 -1.46
4.97 5.43 -1.43
5.41 5.91 -1.27
6.69 7.31 1.22
4.09 4.46 -0.74
5.4 5.9 1.27
5.41 5.91 -0.7
4.7 5.13 1.35
5.35 5.84 -0.41
5.38 5.88 -0.14
3.37 3.68 1.34
3.84 4.16 -1.52
5.87 6.38 0.15
4.28 4.65 -1.46
5.9 6.4 0.46
5 5.42 -1.43
5.74 6.23 0.74
5.99 6.5 -1.4
5.18 5.63 0.94
4.15 4.5 -0.75
7.6 8.25 1.78
4.24 4.6 -0.55
7.15 7.76 2.05
5.11 5.55 1.74
4.43 4.81 -0.11
3.38 3.67 1.34
3.85 4.15 -1.52
4.27 4.6 -1.45
6.89 7.42 0.53
5.02 5.41 -1.44
6.89 7.42 0.89
6.03 6.51 -1.41
7.05 7.6 1.27
4.31 4.65 -0.78
7.12 7.68 1.66
4.21 4.54 -0.54
3.73 4.02 1.07
5.35 5.77 -0.41
5.33 5.75 -0.14
3.7 3.99 1.46
3.88 4.15 -1.52
5.95 6.37 0.15
4.26 4.56 -1.44
6.92 7.41 0.53
4.49 4.81 -1.04
7.12 7.62 1.28
4.16 4.46 -0.75
7.14 7.64 1.66
4.44 4.76 -0.57
5.35 5.73 -0.41
4.85 5.19 1.64
3.37 3.61 1.32
3.89 4.14 -1.52
5.38 5.72 0.14
4.3 4.57 -1.45
6.76 7.19 0.52
4.2 4.46 -1.19
6.95 7.39 0.89
4.44 4.72 -1.03
7.13 7.58 1.28
4.25 4.52 -0.76
5.27 5.61 1.22
4.31 4.58 -0.55
5.33 5.67 1.51
4.48 4.76 -0.34
4.87 5.18 1.64
5.25 5.58 -0.13
3.38 3.6 1.32
3.92 4.14 -1.53
5.22 5.51 0.13
4.31 4.55 -1.45
5.41 5.71 0.41
7.07 7.47 0.9
4.35 4.6 -1
7.12 7.52 1.27
4.36 4.6 -0.78
6.78 7.16 1.56
4.4 4.64 -0.56
3.51 3.71 0.99
4.21 4.44 -0.32
4.88 5.15 1.64
3.4 3.59 1.33
3.93 4.12 -1.53
4.33 4.55 -1.45
5.17 5.42 0.39
4.4 4.61 -1.24
7.11 7.46 0.9
4.4 4.61 -1.01
7.11 7.46 1.27
5.96 6.25 -1.06
6.33 6.64 1.45
4.29 4.5 -0.54
3.5 3.67 0.99
4.17 4.38 -0.32
3.74 3.92 1.25
5.46 5.73 -0.14
3.4 3.57 1.32
3.94 4.1 -1.52
5.32 5.54 0.13
4.36 4.54 -1.45
6.96 7.25 0.53
4.39 4.57 -1.23
5.14 5.35 0.65
4.31 4.49 -0.99
6.65 6.93 1.18
5.96 6.21 -1.06
6.33 6.59 1.45
4.23 4.41 -0.53
3.7 3.85 1.04
4.59 4.78 -0.35
4.91 5.11 1.64
6.99 7.28 -0.18
6.26 6.52 2.42
3.95 4.09 -1.52
5.69 5.89 0.14
4.38 4.53 -1.45
6.98 7.22 0.53
4.45 4.6 -1.24
6.79 7.03 0.86
4.32 4.46 -0.98
6.58 6.81 1.16
4.34 4.49 -0.77
6.48 6.7 1.48
4.22 4.36 -0.53
5.84 6.04 1.63
4.46 4.61 -0.34
4.91 5.08 1.63
5.41 5.6 -0.14
6.25 6.47 2.41
3.97 4.08 -1.52
6.99 7.17 0.17
4.39 4.5 -1.45
7.02 7.21 0.53
4.52 4.64 -1.26
4.56 4.69 -1.04
6.39 6.56 1.12
4.39 4.51 -0.77
7.22 7.41 1.64
8.45 8.68 -1.06
7.57 7.77 2.11
4.58 4.7 -0.34
4.23 4.34 1.4
6.83 7.01 -0.17
4.45 4.57 1.71
3.97 4.05 -1.52
6.95 7.09 0.17
4.36 4.45 -1.44
6.85 6.98 0.51
4.39 4.48 -1.22
4.43 4.52 -1
5.45 5.56 0.96
4.45 4.54 -0.78
25.1 25.6 5.68
4.3 4.39 -0.54
6.87 7.01 1.91
5.97 6.09 -0.45
4.96 5.05 1.63
4.42 4.5 -0.11
7.27 7.41 2.78
4.01 4.06 -1.53
6.92 7.01 0.17
4.38 4.44 -1.44
5.32 5.38 0.4
4.46 4.51 -1.23
3.9 3.95 0.49
4.48 4.54 -1.01
7.01 7.1 1.22
4.54 4.59 -0.79
5.74 5.81 1.29
4.42 4.48 -0.55
5.19 5.25 1.43
5.97 6.05 -0.45
4.52 4.57 1.48
7.06 7.15 2.69
4.02 4.04 -1.53
3.97 3.99 0.1
4.41 4.43 -1.44
5.22 5.25 0.39
4.41 4.43 -1.21
3.89 3.91 0.48
4.45 4.48 -1
5 5.03 0.87
4.34 4.36 -0.76
6.89 6.93 1.55
4.47 4.49 -0.55
3.73 3.75 1.03
6.01 6.04 -0.45
3.94 3.96 1.29
5.9 5.93 -0.15
3.95 3.98 1.5
4.02 4.02 -1.52
4.42 4.42 -1.44
3.91 3.9 0.29
5.24 5.23 -1.44
3.9 3.9 0.48
4.46 4.45 -1
5.02 5.01 0.87
4.36 4.35 -0.76
4.83 4.82 1.08
4.52 4.51 -0.56
6.23 6.22 1.71
6.03 6.02 -0.45
6.99 6.98 2.28
5.98 5.97 -0.15
3.72 3.72 1.41
4.04 4.01 -1.53
5.83 5.78 0.14
4.44 4.4 -1.44
4.97 4.93 0.37
4.4 4.36 -1.2
5.05 5.01 0.62
4.48 4.44 -1
5.06 5.02 0.88
4.39 4.35 -0.76
7.66 7.6 1.71
4.15 4.11 -0.51
5.27 5.22 1.44
4.36 4.32 -0.32
4.62 4.58 1.5
6 5.95 -0.15
4.01 3.98 1.51
4.06 4 -1.53
6.18 6.09 0.15
4.46 4.39 -1.44
5.67 5.58 0.42
4.31 4.25 -1.18
21.35 21.03 2.62
4.47 4.41 -0.99
5.06 4.98 0.87
4.56 4.5 -0.79
7.11 7.01 1.58
7 6.9 -0.86
5.27 5.2 1.44
4.5 4.44 -0.33
7.04 6.93 2.28
5.79 5.7 -0.14
4.03 3.97 1.52
4.08 3.99 -1.53
5.91 5.78 0.14
4.49 4.39 -1.45
22.9 22.4 1.68
20.98 20.52 2.57
4.67 4.57 -1.03
5 4.89 0.86
4.57 4.47 -0.78
3.85 3.77 0.85
4.62 4.52 -0.57
4.32 4.23 1.18
6.06 5.93 -0.44
6.41 6.27 2.07
4.52 4.42 -0.11
6.46 6.32 2.42
4.08 3.96 -1.52
5.67 5.5 0.14
4.51 4.38 -1.45
5.68 5.52 0.42
4.68 4.55 -1.27
7.08 6.88 0.86
6.43 6.25 -1.42
7.27 7.06 1.24
7.07 6.87 -1.21
5.77 5.6 1.27
4.61 4.48 -0.56
4.32 4.2 1.17
7.05 6.85 -0.51
7.07 6.87 2.64
4.09 3.94 -1.52
5.85 5.64 0.14
4.46 4.3 -1.43
5.88 5.68 0.43
4.73 4.56 -1.28
7.29 7.04 0.89
4.54 4.38 -1
5.69 5.49 0.97
4.43 4.28 -0.76
5.62 5.43 1.24
7.04 6.79 -0.86
4.33 4.18 1.17
4.21 4.06 -0.31
6.26 6.03 2.01
7.1 6.85 2.64
4.1 3.92 -1.52
4.48 4.29 -1.43
7.24 6.94 0.53
4.77 4.57 -1.28
6.26 6 0.76
7.15 6.85 1.22
5.69 5.45 -0.97
4.96 4.75 1.09
4.65 4.45 -0.56
3.76 3.6 1.01
6.14 5.88 -0.45
7.16 6.86 2.29
5.92 5.67 -0.14
6.41 6.14 2.38
4.11 3.91 -1.52
7.23 6.88 0.17
4.55 4.33 -1.45
7.25 6.89 0.52
5.33 5.07 -1.43
5.94 5.65 0.72
6.17 5.87 -1.35
7.2 6.85 1.22
4.62 4.4 -0.78
4.95 4.71 1.08
7.41 7.05 -0.89
7.37 7.01 1.98
4.53 4.31 -0.33
6.5 6.19 2.07
7.13 6.78 -0.17
6.44 6.13 2.38
4.13 3.9 -1.52
7.18 6.79 0.17
4.31 4.07 -1.37
6.23 5.89 0.45
5.34 5.05 -1.43
6.47 6.11 0.78
6.5 6.14 -1.42
7.33 6.92 1.24
8.26 7.8 -1.4
5.56 5.26 1.21
4.87 4.6 -0.59
5.38 5.08 1.44
7.14 6.75 -0.17
6.92 6.54 2.55
4.14 3.89 -1.52
4.58 4.3 -1.45
5.32 4.99 -1.42
4.55 4.26 0.55
4.84 4.54 -1.05
7.33 6.87 1.23
7.29 6.84 -1.23
6.81 6.39 1.48
9 8.45 -1.08
3.75 3.52 1
7.58 7.11 -0.54
7.35 6.9 2.33
6.24 5.86 -0.15
6.68 6.27 2.45
4.17 3.88 -1.53
4.66 4.34 -1.47
5.21 4.85 -1.38
7.19 6.7 0.86
6.56 6.11 -1.42
7.31 6.81 1.23
7.3 6.8 -1.22
4.88 4.55 1.06
4.5 4.19 -0.54
3.75 3.49 1
7.6 7.08 -0.54
4.13 3.85 1.3
4.66 4.34 -0.11
6.73 6.27 2.46
4.19 3.88 -1.53
6.3 5.82 0.15
4.69 4.34 -1.47
5.67 5.24 0.4
4.96 4.59 -1.31
7.74 7.16 0.92
6.52 6.03 -1.41
7.28 6.74 1.22
4.47 4.14 -0.75
7.34 6.79 1.58
4.61 4.27 -0.55
7.29 6.75 1.93
4.73 4.38 -0.34
7.19 6.65 2.26
7.67 7.1 -0.18
3.81 3.53 1.39
4.21 3.87 -1.53
7.73 7.11 0.18
4.7 4.32 -1.47
4.84 4.45 -1.28
6.53 6.01 -1.41
7.2 6.62 1.2
4.52 4.16 -0.75
4.82 4.43 1.04
4.66 4.28 -0.55
5.12 4.7 1.35
4.7 4.32 -0.33
7.18 6.6 2.25
7.72 7.1 -0.18
7.28 6.69 2.65
4.24 3.87 -1.54
7.72 7.04 0.18
4.71 4.3 -1.47
26.67 24.34 1.89
4.72 4.31 -1.24
26.68 24.36 3.16
6.59 6.01 -1.41
6.78 6.19 1.13
8.41 7.68 -1.4
4.82 4.4 -0.57
8.6 7.85 2.26
4.8 4.38 -0.34
7.17 6.55 2.24
5.13 4.68 -0.12
7.28 6.64 2.64
4.25 3.85 -1.54
7.74 7.02 0.18
4.74 4.29 -1.48
7.39 6.69 0.52
5.44 4.93 -1.43
6.23 5.64 0.74
6.69 6.07 -1.43
6.83 6.19 1.13
7.33 6.65 1.57
4.69 4.25 -0.55
7.21 6.53 1.89
9.19 8.33 -0.65
3.84 3.48 1.2
3.94 3.57 1.43
4.29 3.86 -1.55
4.73 4.26 -1.47
5.16 4.64 -1.35
5.79 5.21 -1.23
6.11 5.5 1.01
8.24 7.42 -1.36
5.78 5.2 1.23
9.19 8.27 -1.08
8.3 7.47 2.17
4.85 4.37 -0.34
4.05 3.64 1.26
8.12 7.31 -0.19
4.2 3.78 1.51
4.29 3.83 -1.54
8.13 7.26 0.19
4.73 4.23 -1.47
7.94 7.09 0.56
5.48 4.9 -1.43
7.76 6.93 0.91
6.19 5.53 -1.31
8.13 7.26 1.34
4.79 4.28 -0.79
12.83 11.46 -1.51
5.45 4.87 1.42
4.78 4.28 -0.34
4.04 3.61 1.25
4.93 4.41 -0.12
4.25 3.8 1.53
4.3 3.82 -1.54
9.46 8.4 0.22
4.7 4.17 -1.45
7.74 6.87 0.54
5.52 4.9 -1.43
8.07 7.16 0.94
5.17 4.59 -1.1
5.09 4.51 0.83
4.7 4.17 -0.77
4.46 3.96 0.94
9.25 8.21 -1.08
5.12 4.54 -0.36
4.11 3.65 1.27
5.44 4.83 -0.13
4.32 3.81 -1.54
6.47 5.71 0.15
4.69 4.14 -1.44
5.2 4.58 -1.35
8.02 7.07 0.94
4.92 4.34 -1.04
8.08 7.12 1.32
4.87 4.29 -0.8
4.49 3.96 0.95
4.97 4.38 -0.58
7.34 6.47 1.9
5.26 4.64 -0.37
7.15 6.3 2.2
4.74 4.18 -0.11
7.22 6.36 2.58
4.34 3.8 -1.55
4.88 4.27 0.11
4.7 4.12 -1.44
5.2 4.55 0.36
5.3 4.64 -1.37
7.95 6.96 0.92
4.91 4.29 -1.03
5.86 5.13 0.96
4.9 4.28 -0.8
5.3 4.64 1.11
7.97 6.98 -0.93
6.16 5.39 1.59
5.1 4.46 -0.36
7.87 6.89 2.41
6.99 6.12 2.49
4.36 3.79 -1.55
5.23 4.54 0.12
4.73 4.11 -1.45
7.83 6.81 0.54
5.38 4.67 -1.38
7.57 6.57 0.88
5.11 4.44 -1.07
5.89 5.12 0.96
4.93 4.29 -0.8
8.3 7.21 1.74
5.02 4.36 -0.58
7.33 6.37 1.89
7.91 6.87 -0.18
7.09 6.16 2.52
4.39 3.78 -1.55
4.76 4.11 -1.45
5.55 4.79 -1.43
6.83 5.9 -1.43
5.16 4.45 0.84
4.95 4.27 -0.8
7.79 6.72 1.63
5.08 4.38 -0.59
7.32 6.32 1.88
5.08 4.38 -0.35
7.52 6.49 2.29
4.85 4.18 -0.11
7.27 6.27 2.57
4.4 3.77 -1.55
4.74 4.07 0.11
4.78 4.09 -1.45
4.69 4.02 0.32
5.51 4.72 -1.41
7.86 6.74 0.91
4.96 4.25 -1.03
7.67 6.58 1.24
5 4.28 -0.81
5.26 4.51 -0.61
4.33 3.71 1.11
5.12 4.39 -0.35
7.32 6.27 2.23
7.29 6.24 2.57
4.42 3.76 -1.55
4.77 4.06 -1.45
4.6 3.91 -1.17
4.67 3.98 0.54
5.08 4.33 -1.06
5.01 4.26 -0.81
5.12 4.35 -0.59
4.35 3.7 1.11
8.07 6.86 -0.56
7.28 6.2 2.21
5.08 4.32 -0.12
7.26 6.18 2.55
4.43 3.75 -1.55
4.79 4.05 -1.45
6.78 5.73 0.47
5.49 4.64 -1.4
4.68 3.95 0.54
5.11 4.32 -1.06
6.25 5.28 1
5.26 4.44 -0.85
24.18 20.43 5.01
9.66 8.16 -1.11
7.32 6.19 1.86
9.63 8.14 -0.66
7.57 6.4 2.29
7.95 6.72 -0.18
8.51 7.19 2.99
4.45 3.73 -1.55
9.39 7.88 0.21
4.79 4.02 -1.44
6.76 5.67 0.46
5.52 4.63 -1.4
8.3 6.96 0.95
8.37 7.02 1.34
5.12 4.29 -0.82
4.57 3.84 0.95
5 4.2 -0.57
7.41 6.22 1.88
4.93 4.14 -0.34
3.8 3.19 1.14
5.09 4.27 -0.12
6.71 5.63 2.35
4.46 3.71 -1.55
9.94 8.28 0.23
4.82 4.02 -1.45
6.79 5.65 0.46
5.53 4.6 -1.4
8.23 6.85 0.94
5.37 4.47 -1.11
6.41 5.34 1.02
5.13 4.27 -0.82
8.49 7.07 1.75
9.66 8.05 -1.1
7.25 6.04 1.83
9.83 8.19 -0.67
7.34 6.12 2.21
5.22 4.35 -0.12
8.63 7.19 3.01
4.47 3.7 -1.56
8.16 6.75 0.18
4.84 4.01 -1.45
7.34 6.08 0.5
5.58 4.61 -1.41
5.39 4.46 -1.11
6.44 5.33 1.03
5.24 4.34 -0.84
23.45 19.4 4.82
13.17 10.89 -1.5
5.61 4.64 1.41
5.12 4.23 -0.35
7.23 5.98 2.17
4.99 4.12 -0.11
8.3 6.87 2.89
4.49 3.69 -1.56
8.22 6.75 0.19
4.87 4 -1.45
7.32 6.01 0.5
5.65 4.64 -1.42
5.38 4.42 -1.1
5.07 4.17 -0.81
4.93 4.05 1.01
5.16 4.24 -0.58
7.36 6.04 1.85
8.71 7.15 2.6
9.78 8.04 -0.22
7.21 5.92 2.5
4.52 3.68 -1.56
8.22 6.7 0.19
4.87 3.97 -1.45
7.33 5.98 0.5
5.68 4.63 -1.42
7.41 6.04 0.84
8.6 7.01 1.36
5.32 4.34 -0.84
8.32 6.79 1.7
8.27 6.74 2.07
9.64 7.86 -0.65
8.68 7.08 2.59
9.47 7.73 -0.21
4.52 3.66 -1.56
7.27 5.89 0.16
4.88 3.95 -1.45
7.41 6 0.5
5.68 4.6 -1.42
8.26 6.69 0.93
6.26 5.07 -1.28
7.95 6.44 1.26
5.27 4.27 -0.83
8.34 6.75 1.7
5.26 4.26 -0.59
8.43 6.82 2.11
9.67 7.83 -0.65
8.31 6.73 2.47
9.59 7.76 -0.22
7.03 5.69 2.42
4.53 3.64 -1.56
7.3 5.87 0.16
4.9 3.94 -1.45
7.99 6.42 0.54
5.54 4.46 -1.38
7.99 6.42 0.9
6.1 4.91 -1.24
6.65 5.34 1.05
8.94 7.19 -1.41
6.59 5.3 1.34
5.23 4.2 -0.59
8.61 6.92 2.15
9.68 7.78 -0.65
9.76 7.85 -0.22
7.04 5.66 2.42
4.56 3.64 -1.56
8.38 6.69 0.19
4.9 3.91 -1.45
8.28 6.61 0.56
4.98 3.98 -1.24
8.27 6.6 0.93
5.14 4.11 -1.04
8.18 6.53 1.29
6.67 5.33 1.35
5.24 4.18 -0.59
7.25 5.79 1.8
9.78 7.81 -0.66
7.45 5.95 2.2
8.3 6.63 -0.19
7.37 5.89 2.53
4.58 3.63 -1.56
8.44 6.69 0.19
4.96 3.94 -1.46
8.37 6.64 0.56
5.56 4.41 -1.38
7.5 5.94 0.84
5.03 3.99 -1.02
8.2 6.5 1.28
5.3 4.2 -0.83
8.44 6.69 1.71
5.25 4.16 -0.59
7.79 6.18 1.93
5.26 4.17 -0.35
8.84 7.01 2.6
8.32 6.6 -0.19
6.65 5.28 2.28
4.59 3.61 -1.57
7.28 5.73 0.16
4.96 3.9 -1.46
5 3.94 -1.24
7.42 5.84 0.83
5.17 4.07 -1.04
8.39 6.6 1.31
5.38 4.23 -0.84
7.3 5.75 1.47
5.56 4.37 -0.62
8.02 6.31 1.98
9.78 7.7 -0.65
7.54 5.93 2.21
9.84 7.75 -0.22
6.59 5.18 2.25
4.6 3.6 -1.56
7.31 5.71 0.16
5 3.91 -1.47
8.77 6.86 0.58
5.76 4.5 -1.42
6.74 5.27 -1.36
9.17 7.17 1.43
5.32 4.16 -0.83
7.28 5.69 1.46
4.63 3.62 1.14
9.9 7.74 -0.66
9.92 7.75 -0.22
8.18 6.39 2.78
4.62 3.59 -1.57
5.01 3.88 -1.46
8.3 6.44 0.92
6.75 5.24 -1.35
7.38 5.73 1.15
7.32 5.68 1.47
4.64 3.6 1.14
5.31 4.12 -0.35
7.21 5.59 2.11
10.06 7.81 -0.22
7.42 5.76 2.52
4.64 3.57 -1.57
10 7.71 0.22
5.01 3.86 -1.46
4.56 3.51 -1.12
6.9 5.31 0.76
7.17 5.52 -1.43
7.44 5.73 1.15
5.34 4.12 -0.83
7.31 5.63 1.46
5.18 3.99 -0.57
8.25 6.35 2.02
11.73 9.04 -0.78
7.21 5.55 2.1
9.89 7.62 -0.22
7.43 5.72 2.51
4.66 3.57 -1.57
5.06 3.87 -1.47
5.81 4.44 -1.42
5.28 4.03 -1.05
8.76 6.7 1.35
5.33 4.08 -0.82
7.32 5.6 1.46
10.05 7.69 -1.11
7.72 5.91 1.89
5.62 4.3 -0.37
7.43 5.68 2.16
5.25 4.02 -0.12
6.62 5.07 2.23
4.67 3.55 -1.57
5 3.8 -1.45
8.99 6.82 0.59
5.85 4.44 -1.43
7.17 5.44 0.79
5.28 4.01 -1.05
7.3 5.54 1.12
5.46 4.15 -0.84
7.1 5.39 1.41
10.03 7.62 -1.1
7.33 5.57 1.79
10.21 7.75 -0.67
6.65 5.05 1.93
7.1 5.39 2.39
4.67 3.52 -1.57
8.33 6.28 0.18
5.01 3.77 -1.45
7.87 5.93 0.52
7.17 5.41 0.79
5.28 3.98 -1.05
7.31 5.51 1.12
5.46 4.12 -0.84
5.18 3.91 1.03
7.23 5.45 1.76
10.21 7.69 -0.67
11.99 9.04 -0.26
7.63 5.75 2.56
4.7 3.52 -1.57
26.46 19.8 0.58
4.93 3.69 -1.42
26.43 19.78 1.73
5.62 4.2 -1.36
9.13 6.83 1.4
9.36 7 -1.44
6.68 5 1.32
10.14 7.59 -1.11
11.79 8.82 -0.77
24.42 18.27 7.04
10.48 7.84 -0.23
4.71 3.5 -1.57
7.34 5.45 0.16
5.04 3.74 -1.45
7.53 5.6 0.49
5.94 4.41 -1.44
7.08 5.26 0.77
6.84 5.08 -1.35
9.19 6.83 1.41
5.47 4.07 -0.84
10.18 7.56 -1.11
8.59 6.38 2.08
11.81 8.78 -0.77
24.5 18.2 7.05
9.78 7.27 -0.21
7.87 5.84 2.63
4.73 3.49 -1.58
5.07 3.74 -1.45
5.63 4.16 -1.36
6.99 5.15 0.76
7.24 5.34 -1.42
9.12 6.73 1.39
5.41 3.99 -0.83
7.34 5.41 1.44
10.15 7.48 -1.1
26.21 19.33 6.33
10.18 7.51 -0.66
7.12 5.25 2.04
10.52 7.76 -0.23
7.2 5.31 2.4
4.74 3.47 -1.58
8.46 6.2 0.18
5.09 3.73 -1.46
26.59 19.48 1.73
5.77 4.23 -1.39
8.54 6.25 0.93
7.3 5.34 -1.43
7.7 5.64 1.17
9.47 6.93 -1.44
9.13 6.69 1.79
10.23 7.49 -1.11
6.91 5.06 1.66
10.15 7.44 -0.66
7.11 5.21 2.04
10.31 7.55 -0.22
4.75 3.46 -1.58
5.12 3.72 -1.46
8.6 6.26 0.56
4.84 3.52 -1.16
6.73 4.89 -1.32
8.84 6.43 1.34
9.5 6.9 -1.44
8.33 6.05 1.63
11.87 8.63 -1.28
6.85 4.98 1.65
11.93 8.67 -0.77
8.65 6.29 2.47
12.35 8.98 -0.27
7.84 5.7 2.6
4.77 3.44 -1.58
5.14 3.71 -1.46
8.64 6.23 0.56
5.97 4.31 -1.43
7.27 5.25 0.78
7.03 5.07 -1.37
7.47 5.39 1.13
9.54 6.88 -1.44
13.65 9.85 -1.47
6.86 4.95 1.64
11.95 8.62 -0.77
12.38 8.94 -0.27
8.33 6.01 2.75
4.79 3.43 -1.58
5.21 3.73 -1.48
26.59 19.05 1.71
7.24 5.19 0.78
7.09 5.08 -1.38
7.48 5.36 1.13
9.51 6.81 -1.44
6.84 4.9 1.33
13.68 9.8 -1.47
6.8 4.87 1.63
11.97 8.58 -0.77
8.77 6.28 2.49
10.36 7.43 -0.22
7.94 5.69 2.62
4.81 3.42 -1.58
5.25 3.73 -1.49
8.67 6.17 0.56
5.71 4.06 -1.36
9.5 6.75 1.02
6.89 4.9 -1.34
9.44 6.71 -1.42
6.86 4.88 1.33
13.71 9.75 -1.47
6.81 4.84 1.62
10.18 7.24 -0.65
12.44 8.85 -0.27
7.95 5.65 2.61
4.82 3.4 -1.58
8.55 6.04 0.18
5.24 3.7 -1.48
6.01 4.24 -1.43
7.57 5.34 0.81
5.03 3.55 -0.97
7.54 5.32 1.13
9.44 6.67 -1.42
9.46 6.68 1.83
13.77 9.72 -1.47
12.07 8.52 -0.77
8.4 5.93 2.37
12.47 8.81 -0.27
4.83 3.39 -1.58
5.25 3.68 -1.48
7.58 5.31 0.81
7.41 5.2 -1.43
9.47 6.64 1.42
9.53 6.68 -1.43
8.65 6.07 1.67
13.8 9.68 -1.47
6.71 4.71 1.59
12.11 8.49 -0.78
7.03 4.93 1.98
7.69 5.39 2.52
4.85 3.37 -1.58
5.25 3.65 -1.48
8.73 6.08 0.56
9.61 6.69 1.02
5.51 3.84 -1.06
7.34 5.11 1.1
7.16 4.98 -1.07
13.82 9.62 -1.47
6.66 4.64 1.58
12.16 8.46 -0.78
7.99 5.56 2.61
4.87 3.36 -1.59
5.25 3.63 -1.47
8.74 6.04 0.56
6.14 4.24 -1.45
9.68 6.69 1.03
7.45 5.15 -1.43
9.52 6.58 -1.42
12.87 8.89 -1.37
6.78 4.68 1.6
12.2 8.43 -0.78
6.88 4.75 1.93
12.65 8.74 -0.27
8.13 5.62 2.65
4.88 3.35 -1.59
9.64 6.61 0.2
5.3 3.63 -1.48
8.59 5.89 0.55
5.81 3.98 -1.37
9.86 6.76 1.05
7.48 5.13 -1.44
9.21 6.32 1.37
8.85 6.07 -1.32
7.18 4.92 1.38
12.87 8.83 -1.37
7.37 5.05 1.74
12.24 8.39 -0.78
8.66 5.94 2.42
12.76 8.75 -0.27
8.2 5.62 2.66
4.9 3.33 -1.59
8.86 6.03 0.19
5.26 3.58 -1.47
9.98 6.79 0.63
5.98 4.07 -1.41
9.85 6.7 1.04
7.46 5.07 -1.43
31.57 21.49 4.69
9.6 6.54 -1.43
7.19 4.89 1.38
13.92 9.47 -1.47
7.39 5.03 1.74
12.32 8.39 -0.78
32.26 21.95 9.01
12.79 8.7 -0.27
8.26 5.62 2.68
4.91 3.32 -1.59
8.79 5.94 0.19
5.22 3.53 -1.45
5.83 3.94 -1.37
7.49 5.06 -1.43
9.59 6.48 -1.42
7.52 5.08 1.44
6.99 4.72 1.64
12.38 8.36 -0.78
32.29 21.81 9
4.92 3.3 -1.59
5.24 3.51 -1.46
5.79 3.88 -1.36
7.41 4.97 0.78
7.49 5.02 -1.43
9.09 6.09 1.34
9.5 6.37 -1.4
7.55 5.06 1.44
13.14 8.81 -1.38
8.21 5.5 1.92
10.19 6.83 -0.64
32.15 21.56 8.94
8.3 5.57 2.68
4.94 3.29 -1.59
5.25 3.49 -1.45
5.36 3.57 -1.25
7.34 4.88 1.08
8.17 5.44 -1.21
7.6 5.06 1.45
13.25 8.82 -1.39
6.95 4.63 1.62
12.5 8.32 -0.79
32.28 21.48 8.95
9.72 6.47 -0.2
8.33 5.54 2.68
4.95 3.27 -1.59
9.78 6.46 0.2
5.28 3.48 -1.46
6.18 4.08 -1.44
7.46 4.93 -1.42
9.64 6.36 -1.42
7.6 5.02 1.44
13.29 8.78 -1.39
6.99 4.62 1.63
12.56 8.29 -0.79
7.46 4.92 2.06
6.81 4.49 -0.14
4.97 3.26 -1.59
8.76 5.74 0.18
5.28 3.46 -1.46
6.77 4.43 0.42
6.27 4.11 -1.46
7.5 4.92 -1.42
8.7 5.7 1.28
9.62 6.3 -1.41
7.6 4.98 1.44
13.14 8.61 -1.37
7.08 4.64 1.65
12.67 8.3 -0.79
4.99 3.24 -1.59
10.68 6.95 0.22
5.33 3.47 -1.47
10.46 6.8 0.65
6.3 4.1 -1.46
7.43 4.83 0.78
7 4.55 -1.32
8.71 5.67 1.28
9.69 6.31 -1.42
7.5 4.88 1.42
13.1 8.53 -1.37
9.12 5.94 2.12
12.72 8.27 -0.8
10.26 6.68 -0.21
8.54 5.56 2.73
4.99 3.22 -1.59
9.95 6.42 0.21
5.34 3.45 -1.47
6.3 4.07 -1.46
9.54 6.16 0.99
7.56 4.88 -1.43
8.73 5.64 1.28
9.66 6.23 -1.41
9.53 6.15 1.8
13.16 8.5 -1.37
8.8 5.68 2.04
12.87 8.31 -0.8
7.44 4.81 2.05
9.88 6.38 -0.21
5.02 3.22 -1.6
10.33 6.62 0.21
5.36 3.43 -1.47
9.59 6.15 0.6
6.34 4.06 -1.46
7.55 4.84 0.78
7.48 4.79 -1.41
8.78 5.63 1.28
9.51 6.09 -1.39
13.22 8.47 -1.37
8.81 5.64 2.03
9.89 6.34 -0.21
8.6 5.51 2.74
5.02 3.19 -1.6
6.64 4.22 0.14
5.4 3.43 -1.48
9.2 5.85 0.57
6.34 4.03 -1.46
9.61 6.11 1
7.56 4.81 -1.42
6.88 4.38 1
9.59 6.1 -1.39
7.12 4.53 1.34
14.11 8.97 -1.46
9.32 5.93 2.15
25.37 16.13 8.05
5.04 3.18 -1.6
6.9 4.35 0.14
5.45 3.44 -1.49
10.1 6.37 0.63
6.27 3.95 -1.44
7.6 4.79 -1.42
7.18 4.53 1.04
9.72 6.13 -1.41
7.58 4.78 1.42
7.12 4.49 -0.74
9.88 6.23 -0.61
9.69 6.11 -0.2
5.04 3.15 -1.59
9.75 6.1 0.2
5.47 3.43 -1.49
7.27 4.55 0.45
6.3 3.94 -1.44
10.26 6.42 1.06
6.05 3.79 -1.13
9.46 5.92 1.37
8.09 5.06 -1.17
7.57 4.74 1.41
7.13 4.46 -0.74
9.7 6.07 -0.6
7.46 4.67 2.03
9.96 6.23 -0.21
5.06 3.14 -1.6
9.69 6.02 0.2
5.49 3.41 -1.49
9.97 6.19 0.61
6.28 3.9 -1.44
9.32 5.79 0.96
7.62 4.73 -1.42
9.55 5.93 1.38
9.77 6.06 -1.41
7.68 4.77 1.43
14.2 8.82 -1.46
8.98 5.58 2.06
7.08 4.4 1.93
10.01 6.21 -0.21
7.59 4.71 2.39
5.09 3.13 -1.6
9.84 6.07 0.2
5.47 3.37 -1.48
7.33 4.52 0.45
6.25 3.85 -1.43
10.25 6.31 1.05
7.65 4.71 -1.42
9.79 6.03 -1.41
7.71 4.75 1.43
14.23 8.77 -1.46
9.93 6.12 -0.61
7.25 4.47 1.97
10.06 6.2 -0.21
7.71 4.75 2.43
5.1 3.12 -1.6
9.72 5.95 0.2
5.48 3.35 -1.48
7.36 4.5 0.45
6.33 3.87 -1.44
7.68 4.69 -1.43
9.53 5.83 1.37
8.2 5.01 -1.18
7.74 4.73 1.44
10.17 6.22 -1.04
7.1 4.34 1.62
9.84 6.02 -0.6
7.48 4.57 2.02
10.15 6.21 -0.21
7.68 4.7 2.41
5.11 3.1 -1.6
6.52 3.95 0.13
5.51 3.34 -1.49
10.79 6.55 0.66
6.07 3.68 -1.38
8.09 4.91 0.83
7.56 4.59 -1.4
26.16 15.88 3.76
9.69 5.88 -1.39
7.76 4.71 1.44
10.03 6.09 -1.03
7.11 4.32 1.62
6.96 4.22 -0.43
7.5 4.55 2.02
6.94 4.21 -0.14
5.11 3.08 -1.6
9.7 5.84 0.2
5.53 3.33 -1.49
6.25 3.76 0.38
6.18 3.72 -1.4
9.69 5.83 0.99
7.56 4.55 -1.4
9.67 5.82 1.39
8.1 4.87 -1.16
9.93 5.98 -1.01
6.93 4.17 -0.42
10 6.02 -0.2
8.31 5 2.6
5.13 3.07 -1.6
9.85 5.88 0.2
5.62 3.35 -1.51
9.55 5.71 0.58
6.08 3.63 -1.38
9.97 5.95 1.02
7.6 4.54 -1.4
35.13 20.98 5.02
8.17 4.88 -1.17
7.25 4.33 1.34
6.87 4.1 -0.42
9.86 5.89 -0.2
8.3 4.96 2.59
5.15 3.05 -1.6
7.41 4.39 0.15
5.66 3.35 -1.52
7.14 4.23 0.43
6.09 3.61 -1.38
9.9 5.87 1.01
7.64 4.53 -1.41
35.16 20.84 5.02
9.72 5.76 -1.39
9.79 5.8 -1
6.79 4.03 -0.41
9.85 5.84 -0.2
7.59 4.5 2.36
5.16 3.04 -1.6
6.33 3.72 0.13
5.66 3.33 -1.51
7.13 4.19 0.43
6.16 3.62 -1.39
6.73 3.96 -1.24
7.35 4.32 1.05
6.39 3.76 -0.91
36.22 21.31 6.66
10.16 5.98 -1.03
6.9 4.06 -0.42
7.41 4.36 1.99
6.66 3.92 -0.13
7.69 4.53 2.39
5.17 3.02 -1.61
5.66 3.3 -1.51
7.26 4.23 0.44
6.15 3.59 -1.38
9.91 5.78 1
6.78 3.95 -1.24
35.3 20.59 5.02
6.38 3.72 -0.91
35.36 20.62 6.48
10.29 6 -1.04
7 4.08 -0.42
7.39 4.31 1.98
9.93 5.79 -0.2
8.21 4.79 2.55
5.18 3 -1.6
6.94 4.01 0.14
5.65 3.27 -1.51
7.26 4.2 0.44
6.2 3.59 -1.39
10.06 5.82 1.02
7.67 4.44 -1.4
8.07 4.67 1.15
6.42 3.72 -0.91
29.09 16.84 5.32
10.18 5.89 -1.03
6.39 3.7 -0.39
7.41 4.29 1.98
6.97 4.04 -0.14
5.2 2.98 -1.61
9.82 5.64 0.2
5.6 3.21 -1.49
7.03 4.04 0.43
6.26 3.59 -1.4
7.24 4.16 0.73
6.8 3.9 -1.24
6.4 3.68 -0.91
7.3 4.19 -0.74
10.75 6.17 -0.22
5.21 2.97 -1.61
7.44 4.24 0.15
5.6 3.19 -1.49
8.04 4.58 0.48
6.3 3.59 -1.41
8.04 4.58 0.81
7.65 4.36 -1.39
9.92 5.65 1.4
9.61 5.47 -1.36
35.14 20.01 6.41
6.44 3.67 -0.65
6.97 3.97 -0.42
6.44 3.67 -0.13
30.19 17.19 9.31
5.22 2.95 -1.61
5.73 3.23 -1.52
6.83 3.86 0.41
6.26 3.53 -1.4
9.98 5.64 1
6.85 3.87 -1.25
30.19 17.05 4.26
6.39 3.61 -0.9
30.14 17.03 5.48
6.92 3.91 -0.7
30.11 17.01 6.72
6.94 3.92 -0.42
30.09 17 7.98
9.85 5.56 -0.2
7.69 4.34 2.37
5.24 2.94 -1.61
7.52 4.21 0.15
5.74 3.22 -1.52
10.18 5.71 0.61
6.24 3.5 -1.39
7.52 4.22 0.75
6.91 3.87 -1.25
30.11 16.87 4.24
6.38 3.57 -0.9
30.13 16.89 5.47
6.39 3.58 -0.64
30.17 16.91 6.72
6.82 3.82 -0.41
30.17 16.91 7.98
7.77 4.36 2.39
5.26 2.92 -1.61
7.37 4.1 0.15
5.76 3.2 -1.52
10.16 5.65 0.61
6.44 3.58 -1.43
7.68 4.27 -1.39
7.52 4.18 1.06
8.67 4.82 -1.22
30.23 16.8 5.48
6.38 3.54 -0.64
30.83 17.13 6.86
34.79 19.33 9.19
7.7 4.28 2.36
5.27 2.9 -1.61
6.5 3.58 0.13
5.72 3.15 -1.51
8 4.41 0.48
6.47 3.57 -1.44
9.73 5.36 0.97
6.87 3.79 -1.24
7.8 4.3 1.09
8.68 4.79 -1.22
7.72 4.26 1.4
6.47 3.57 -0.65
7.78 4.29 1.73
6.72 3.71 -0.4
7.79 4.29 2.38
5.29 2.89 -1.62
7 3.83 0.14
5.75 3.14 -1.51
9.56 5.23 0.57
6.49 3.55 -1.44
7.65 4.18 0.76
6.91 3.78 -1.25
35.77 19.56 5.01
6.47 3.54 -0.91
35.74 19.54 6.45
6.5 3.55 -0.65
31.29 17.11 6.93
6.2 3.39 -0.37
7.96 4.35 2.43
5.31 2.88 -1.62
10.69 5.8 0.21
5.76 3.12 -1.51
10.84 5.88 0.65
6.35 3.45 -1.41
7.92 4.3 0.79
7.78 4.22 -1.4
7.93 4.3 1.11
6.6 3.58 -0.92
35.55 19.28 6.41
6.55 3.55 -0.65
31.63 17.16 6.99
6.53 3.54 -0.39
6.75 3.66 -0.13
7.98 4.33 2.43
5.31 2.86 -1.62
5.77 3.1 -1.51
9.86 5.3 0.59
6.46 3.48 -1.43
7.78 4.18 -1.4
36.12 19.43 5.04
6.49 3.49 -0.9
10.32 5.55 -1.03
7.03 3.78 -0.14
8 4.3 2.43
5.32 2.84 -1.61
7.88 4.21 0.16
5.78 3.08 -1.51
6.21 3.32 -1.37
7.32 3.91 0.73
6.07 3.24 -1.09
6.47 3.45 -0.9
30.85 16.46 5.54
6.47 3.45 -0.64
6.68 3.56 -0.4
6.6 3.52 -0.13
5.33 2.82 -1.62
5.81 3.07 -1.52
6.42 3.39 -1.41
6.54 3.46 0.65
6.07 3.21 -1.09
30.11 15.92 4.18
6.52 3.45 -0.91
6.57 3.47 -0.65
6.69 3.54 -0.4
6.88 3.64 -0.14
5.34 2.8 -1.62
5.82 3.05 -1.52
7.95 4.17 0.47
6.5 3.41 -1.43
6.51 3.42 0.64
7.81 4.1 -1.4
6.71 3.52 -0.93
7.7 4.04 1.38
6.55 3.44 -0.65
29.44 15.44 6.46
7.33 3.85 -0.43
6.43 3.37 -0.13
31.01 16.27 9.38
5.36 2.79 -1.62
6.92 3.6 0.14
5.84 3.04 -1.52
6.54 3.4 0.39
6.47 3.36 -1.42
7.22 3.75 0.71
7.81 4.06 -1.39
6.61 3.44 -0.91
29.88 15.53 5.33
7.07 3.68 -0.7
6.56 3.41 -0.39
6.73 3.5 -0.13
5.37 2.77 -1.62
7.98 4.12 0.16
5.87 3.03 -1.52
6.54 3.38 0.39
6.42 3.31 -1.4
7.63 3.93 0.75
6.46 3.33 -1.15
7.81 4.03 1.08
6.42 3.31 -0.89
7.09 3.66 1.26
7.01 3.62 -0.69
10.23 5.28 -0.6
6.71 3.46 -0.13
5.37 2.75 -1.62
6.71 3.43 0.13
5.89 3.01 -1.53
11.34 5.8 0.67
6.4 3.27 -1.4
7.81 3.99 0.77
7.16 3.66 -1.27
6.66 3.41 -0.92
6.99 3.58 -0.69
6.55 3.35 -0.39
11.06 5.66 -0.22
5.39 2.73 -1.62
8.01 4.06 0.16
5.9 2.99 -1.53
8.06 4.09 0.47
6.4 3.25 -1.4
6.76 3.43 -1.2
7.16 3.63 0.99
6.54 3.32 -0.9
6.47 3.28 -0.38
6.87 3.49 -0.13
5.4 2.71 -1.62
8.13 4.09 0.16
5.92 2.97 -1.53
8.41 4.22 0.49
6.53 3.28 -1.42
6.64 3.34 -1.18
8.2 4.12 1.13
8.68 4.36 -1.19
6.74 3.39 -0.66
6.62 3.33 -0.39
6.91 3.47 -0.13
5.42 2.7 -1.62
8.12 4.05 0.16
5.92 2.95 -1.53
6.58 3.28 -1.43
6.64 3.31 -0.91
6.45 3.22 -0.63
6.67 3.33 -0.39
6.81 3.39 -0.13
5.43 2.68 -1.62
7.7 3.8 0.15
5.95 2.94 -1.53
8.41 4.15 0.49
6.59 3.25 -1.43
8.13 4.01 0.79
6.3 3.11 -1.11
6.66 3.29 -0.65
6.73 3.32 -0.39
29.31 14.48 7.55
5.43 2.66 -1.62
6.92 3.39 0.13
5.97 2.92 -1.53
6.71 3.28 0.39
6.57 3.22 -1.42
6.63 3.25 0.65
6.59 3.22 -1.16
8.25 4.04 1.13
7.15 3.5 -0.98
6.51 3.19 -0.63
8.72 4.27 -0.51
14.5 7.1 3.73
6.61 3.24 -0.13
5.44 2.64 -1.62
6.75 3.27 0.13
5.98 2.9 -1.53
6.59 3.2 0.38
6.58 3.19 -1.42
8.77 4.25 0.85
6.47 3.14 -1.14
8.39 4.07 1.15
7.29 3.54 -1
8.38 4.07 1.48
6.47 3.14 -0.63
6.72 3.26 -0.13
14.7 7.13 4.38
5.45 2.62 -1.62
7.13 3.43 0.14
5.99 2.88 -1.53
6.6 3.17 -1.42
7.04 3.38 0.68
6.56 3.15 -0.89
7.63 3.67 -0.74
6.62 3.18 -0.38
7.35 3.53 1.88
6.7 3.22 -0.13
12.7 6.11 3.78
5.46 2.6 -1.62
6.51 3.1 0.13
6.01 2.87 -1.54
7.77 3.71 0.45
6.61 3.15 -1.42
7.03 3.35 0.68
7.29 3.47 -1.28
8.77 4.18 1.19
8.41 4.01 -1.14
7.68 3.66 -0.74
8.29 3.95 1.79
8.98 4.28 -0.17
12.85 6.13 3.81
5.47 2.59 -1.62
7.78 3.68 0.15
6.03 2.85 -1.54
7.15 3.38 0.41
6.61 3.13 -1.42
6.85 3.24 -1.2
7.22 3.41 0.98
6.42 3.03 -0.87
8.28 3.91 1.78
6.72 3.18 -0.39
14.72 6.95 4.36
5.48 2.56 -1.62
6.95 3.25 0.13
6.05 2.83 -1.54
6.55 3.07 -1.41
7.83 3.67 0.76
6.9 3.23 -1.21
8.16 3.82 1.11
6.46 3.02 -0.88
6.75 3.16 -0.65
7.4 3.47 1.59
6.63 3.1 -0.38
36.64 17.15 9.34
12.82 6 3.79
5.48 2.54 -1.62
7.71 3.58 0.15
6.07 2.82 -1.55
8.17 3.79 0.47
6.63 3.08 -1.42
7.04 3.26 -1.23
7.48 3.47 1.01
7.45 3.46 1.3
6.71 3.11 -0.65
29.86 13.85 6.4
6.58 3.05 -0.38
6.71 3.11 -0.13
5.5 2.53 -1.62
7.84 3.6 0.15
6.08 2.79 -1.54
7.55 3.47 0.44
6.7 3.08 -1.43
7.05 3.24 -1.23
7.88 3.62 1.06
6.79 3.12 -0.92
14.27 6.56 2.49
6.68 3.07 -0.64
29.91 13.75 6.4
6.64 3.05 -0.38
14.52 6.67 3.69
6.73 3.09 -0.13
5.5 2.51 -1.62
6.09 2.77 -1.54
7.03 3.2 0.4
6.64 3.03 -1.42
7.06 3.22 0.68
7.24 3.3 -1.26
6.68 3.04 -0.9
7.93 3.61 1.38
6.64 3.03 -0.64
13.53 6.16 2.89
6.89 3.14 -0.13
5.52 2.49 -1.62
7.31 3.3 0.14
6.1 2.75 -1.54
6.68 3.02 -1.43
8.18 3.69 0.79
6.99 3.16 -1.22
6.72 3.03 -0.91
7.41 3.35 1.29
6.56 2.96 -0.63
13.15 5.94 2.8
6.91 3.12 -0.4
7.24 3.27 -0.14
5.52 2.47 -1.62
7.15 3.2 0.14
6.1 2.73 -1.54
7.25 3.24 0.42
6.71 3 -1.43
9.43 4.22 0.9
7.01 3.14 -1.22
7.41 3.31 1
6.69 2.99 -0.9
6.95 3.11 -0.67
13.32 5.95 2.84
6.77 3.03 -0.39
6.96 3.11 -0.13
5.53 2.45 -1.62
7.18 3.18 0.14
6.12 2.71 -1.55
7.56 3.35 0.43
6.72 2.98 -1.43
7.12 3.16 0.68
7.1 3.15 -1.23
7.09 3.14 0.95
6.71 2.97 -0.9
7.08 3.14 1.23
7.94 3.52 -0.76
6.71 2.97 -0.38
6.66 2.95 -0.13
5.54 2.43 -1.62
6.67 2.92 0.13
6.13 2.69 -1.55
6.9 3.03 0.39
6.74 2.96 -1.43
7.54 3.31 0.72
7.18 3.15 -1.24
7.23 3.17 0.97
6.86 3.01 -0.92
7.71 3.38 -0.74
6.7 2.94 -0.38
14.7 6.45 3.7
15.02 6.59 4.39
5.55 2.41 -1.62
7.09 3.08 0.14
6.13 2.67 -1.54
7.13 3.1 0.41
6.76 2.94 -1.43
7.46 3.24 0.71
7.11 3.09 -1.23
7.76 3.37 1.04
7.29 3.17 -0.7
6.91 3 -0.39
14.38 6.25 3.62
8.55 3.72 -0.16
12.66 5.5 3.7
5.57 2.4 -1.62
6.89 2.97 0.13
6.15 2.65 -1.55
6.81 2.93 0.39
6.75 2.91 -1.43
7.08 3.05 -1.22
8.07 3.48 1.08
6.77 2.92 -0.91
8.07 3.47 1.39
6.88 2.96 -0.66
6.75 2.91 -0.39
14.28 6.15 3.59
6.92 2.98 -0.13
13.59 5.85 3.96
5.57 2.37 -1.62
7.19 3.07 0.14
6.17 2.63 -1.55
6.74 2.88 -1.42
9.12 3.89 0.87
7.19 3.07 -1.24
8.09 3.45 1.08
6.77 2.89 -0.9
14.1 6.02 2.43
6.93 2.96 -0.66
7.55 3.22 -0.43
14.92 6.37 4.35
5.57 2.35 -1.62
7.14 3.02 0.14
6.2 2.62 -1.55
7.14 3.02 0.41
6.76 2.86 -1.43
7.88 3.33 -1.35
7.42 3.14 0.99
6.78 2.87 -0.9
14.1 5.96 2.42
7.39 3.12 -0.42
14.52 6.14 3.64
6.77 2.86 -0.13
11.9 5.03 3.46
5.59 2.34 -1.62
7.19 3.01 0.14
6.2 2.59 -1.55
6.48 2.71 0.37
6.8 2.85 -1.43
7.06 2.96 0.67
7.92 3.31 -1.36
7.92 3.32 1.05
7.85 3.29 -1.04
6.8 2.85 -0.65
7.3 3.05 -0.41
33.66 14.09 8.42
6.77 2.83 -0.13
11.94 5 3.47
5.61 2.32 -1.63
6.22 2.58 -1.55
7.79 3.23 0.44
6.82 2.83 -1.44
7.52 3.12 0.71
7.71 3.19 -1.32
8.9 3.69 1.18
7.19 2.98 -0.96
8.73 3.62 -0.83
7.95 3.3 -0.45
7.16 2.97 -0.14
11.97 4.96 3.47
5.61 2.3 -1.63
7.9 3.24 0.15
6.23 2.56 -1.56
7.26 2.98 0.41
6.84 2.81 -1.44
8.01 3.28 0.76
7.83 3.21 -1.34
6.94 2.84 0.92
7.16 2.94 -0.95
7.01 2.88 -0.66
7.84 3.22 -0.44
14.44 5.92 3.6
7.31 3 -0.14
12 4.92 3.48
5.61 2.28 -1.62
6.94 2.82 0.13
6.25 2.54 -1.56
7.92 3.21 0.45
6.86 2.79 -1.44
8.13 3.3 0.77
7.46 3.03 -1.28
8.56 3.48 1.13
9.03 3.67 1.54
6.98 2.83 -0.66
7.2 2.93 -0.41
12.7 5.16 3.16
7.43 3.02 -0.14
13.78 5.6 3.99
5.62 2.26 -1.62
9.42 3.79 0.18
6.27 2.52 -1.56
7 2.81 0.4
6.91 2.78 -1.45
7.14 2.87 -1.22
8.78 3.53 1.5
7.17 2.88 -0.68
8.78 3.53 1.84
7.21 2.9 -0.41
13.44 5.4 3.34
6.99 2.81 -0.13
14.05 5.65 4.06
5.63 2.24 -1.62
7.21 2.87 0.14
6.28 2.5 -1.56
7.36 2.93 0.42
6.93 2.76 -1.45
8.17 3.25 0.77
7.37 2.93 -1.26
7.68 3.06 1.01
7.24 2.88 -0.96
