# .PCD v0.7 - Point Cloud Data file format
VERSION 0.7
FIELDS x y z
SIZE 4 4 4
TYPE F F F
COUNT 1 1 1
WIDTH 2781
HEIGHT 1
VIEWPOINT 0 0 0 1 0 0 0
POINTS 2781
DATA ascii
-1.37 0.43 -0.33
-26.96 8.35 1.48
-8.55 2.65 -1.74
-26.74 8.28 2.45
-9.87 3.06 -1.64
-26.7 8.27 3.43
-12.8 3.96 -1.64
-27.19 8.42 4.51
-16.77 5.2 -1.54
-27.2 8.42 5.53
-25.96 8.04 -1.42
-27.21 8.43 6.58
-26.28 8.14 -0.48
-26.97 8.35 7.57
-1.14 0.36 -0.32
-45.72 14.34 0.84
-1.36 0.43 -0.33
-27.29 8.56 1.5
-8.53 2.67 -1.74
-26.68 8.37 2.45
-9.88 3.1 -1.64
-26.82 8.41 3.45
-1.56 0.49 -0.2
-27.14 8.51 4.5
-10.34 3.24 -0.95
-27.14 8.51 5.53
-24.48 7.68 -1.34
-27.22 8.54 6.59
-33.88 10.62 -0.62
-27.01 8.47 7.59
-1.13 0.36 -0.32
-45.61 14.48 0.84
-1.36 0.43 -0.33
-27.08 8.6 1.49
-8.52 2.7 -1.74
-26.68 8.47 2.45
-9.93 3.15 -1.65
-26.65 8.46 3.43
-1.59 0.5 -0.2
-27.37 8.69 4.55
-10.33 3.28 -0.95
-27.06 8.59 5.52
-24.43 7.76 -1.34
-27.25 8.65 6.6
-40.97 13.01 -0.75
-27 8.57 7.59
-1.12 0.36 -0.31
-44.4 14.26 0.81
-1.35 0.43 -0.33
-26.98 8.67 1.49
-8.51 2.73 -1.74
-26.79 8.61 2.46
-9.89 3.18 -1.65
-26.77 8.6 3.45
-1.57 0.51 -0.2
-27.26 8.76 4.54
-10.32 3.32 -0.95
-26.83 8.62 5.48
-24.33 7.82 -1.34
-27.18 8.73 6.59
-40.68 13.07 -0.75
-26.93 8.65 7.58
-1.12 0.36 -0.32
-44.4 14.43 0.81
-1.33 0.43 -0.32
-26.87 8.73 1.48
-8.49 2.76 -1.74
-26.79 8.7 2.46
-9.87 3.21 -1.64
-26.88 8.74 3.47
-12.62 4.1 -1.63
-27.01 8.78 4.5
-10.34 3.36 -0.95
-26.8 8.71 5.48
-24.34 7.91 -1.34
-27.19 8.83 6.6
-40.33 13.11 -0.74
-26.87 8.73 7.57
-1.12 0.37 -0.32
-30.7 10.09 0.56
-1.32 0.43 -0.32
-26.82 8.82 1.48
-8.49 2.79 -1.74
-26.82 8.82 2.47
-9.8 3.22 -1.63
-26.94 8.86 3.48
-12.46 4.1 -1.61
-26.94 8.86 4.49
-10.34 3.4 -0.95
-26.21 8.62 5.36
-24.27 7.98 -1.34
-27.18 8.94 6.61
-40.04 13.17 -0.74
-26.85 8.83 7.57
-1.13 0.38 -0.32
-30.61 10.18 0.56
-1.32 0.44 -0.32
-28.85 9.6 1.59
-1.08 0.36 -0.22
-26.88 8.94 2.48
-9.82 3.27 -1.64
-26.86 8.93 3.48
-12.44 4.14 -1.61
-26.87 8.94 4.49
-10.34 3.44 -0.95
-26.13 8.69 5.35
-24.28 8.08 -1.34
-27.04 8.99 6.58
-30.7 10.21 -0.56
-26.7 8.88 7.54
-1.15 0.39 -0.33
-30.61 10.3 0.56
-1.32 0.45 -0.32
-42.98 14.46 2.38
-1.08 0.36 -0.22
-26.9 9.05 2.48
-9.83 3.31 -1.64
-26.99 9.08 3.5
-1.6 0.54 -0.21
-26.91 9.06 4.5
-10.35 3.48 -0.96
-26.83 9.03 5.5
-24.22 8.15 -1.34
-26.95 9.07 6.57
-25.71 8.65 -0.47
-26.61 8.96 7.52
-1.13 0.38 -0.32
-43.25 14.72 0.8
-1.32 0.45 -0.32
-27.97 9.52 1.55
-1.1 0.37 -0.23
-26.88 9.15 2.48
-9.83 3.35 -1.64
-27.01 9.2 3.5
-1.54 0.52 -0.2
-26.68 9.08 4.46
-10.34 3.52 -0.96
-27.11 9.23 5.57
-25.65 8.73 -1.42
-27.04 9.21 6.6
-30.61 10.42 -0.56
-26.68 9.08 7.55
-1.11 0.38 -0.31
-27.97 9.63 0.52
-1.32 0.45 -0.32
-27.88 9.6 1.55
-1.11 0.38 -0.23
-26.73 9.2 2.47
-9.81 3.38 -1.64
-26.86 9.25 3.49
-1.54 0.53 -0.2
-26.61 9.16 4.46
-10.36 3.57 -0.96
-26.98 9.29 5.55
-25.73 8.86 -1.43
-26.47 9.12 6.46
-25.5 8.78 -0.47
-26.65 9.18 7.55
-1.13 0.39 -0.32
-27.9 9.72 0.52
-1.32 0.46 -0.32
-27.84 9.7 1.55
-1.12 0.39 -0.23
-26.52 9.23 2.46
-9.81 3.42 -1.65
-26.83 9.34 3.49
-1.53 0.53 -0.2
-26.81 9.34 4.5
-10.36 3.61 -0.96
-26.98 9.4 5.55
-25.73 8.96 -1.43
-26.43 9.2 6.46
-28 9.75 -0.52
-26.63 9.27 7.55
-1.13 0.4 -0.32
-27.89 9.82 0.52
-7.4 2.6 -1.81
-27.89 9.82 1.55
-1.13 0.4 -0.23
-26.42 9.3 2.45
-9.81 3.46 -1.65
-26.83 9.45 3.49
-1.5 0.53 -0.2
-27.14 9.56 4.56
-10.37 3.65 -0.96
-27.01 9.51 5.57
-25.66 9.04 -1.43
-26.78 9.43 6.56
-28 9.86 -0.52
-26.8 9.44 7.61
-1.13 0.4 -0.32
-41.74 14.86 0.77
-7.34 2.61 -1.8
-41.27 14.7 2.3
-1.1 0.39 -0.23
-26.17 9.32 2.43
-9.8 3.49 -1.65
-26.76 9.53 3.49
-1.48 0.53 -0.19
-27.05 9.63 4.55
-10.37 3.69 -0.96
-26.93 9.59 5.56
-25.61 9.12 -1.42
-26.89 9.57 6.59
-25.09 8.94 -0.46
-26.82 9.55 7.63
-1.12 0.4 -0.32
-41.85 15.07 0.78
-7.33 2.64 -1.8
-40.93 14.74 2.28
-1.1 0.4 -0.23
-26.04 9.37 2.42
-9.77 3.52 -1.65
-26.97 9.71 3.52
-1.48 0.53 -0.19
-26.99 9.72 4.54
-10.37 3.73 -0.96
-27.06 9.74 5.59
-25.58 9.21 -1.42
-26.95 9.7 6.61
-24.93 8.97 -0.46
-26.8 9.65 7.63
-1.13 0.41 -0.32
-1.3 0.47 -0.32
-40.63 14.79 2.27
-1.11 0.4 -0.23
-26.07 9.49 2.43
-9.77 3.56 -1.65
-26.08 9.49 3.41
-1.48 0.54 -0.19
-26.99 9.82 4.55
-10.38 3.78 -0.97
-28.03 10.2 5.8
-25.44 9.26 -1.42
-27.33 9.95 6.72
-25.09 9.13 -0.47
-26.88 9.78 7.66
-1.13 0.42 -0.32
-40.73 14.99 0.76
-40.29 14.82 2.25
-1.11 0.41 -0.23
-26.82 9.87 2.5
-9.76 3.59 -1.65
-26.01 9.57 3.4
-1.47 0.54 -0.19
-26.78 9.85 4.52
-10.39 3.82 -0.97
-26.01 9.57 5.39
-25.31 9.31 -1.41
-27.38 10.07 6.73
-25.12 9.24 -0.47
-26.56 9.77 7.58
-1.14 0.43 -0.33
-40.67 15.12 0.76
-1.24 0.46 -0.31
-39.98 14.86 2.24
-1.11 0.41 -0.23
-26.68 9.92 2.49
-9.72 3.61 -1.64
-25.99 9.66 3.41
-1.46 0.54 -0.19
-26.68 9.92 4.51
-10.39 3.86 -0.97
-39.48 14.67 8.19
-25.28 9.4 -1.41
-27.39 10.18 6.75
-25.1 9.33 -0.47
-26.52 9.86 7.58
-1.14 0.43 -0.33
-39.5 14.84 0.74
-1.19 0.45 -0.29
-39.67 14.9 2.22
-1.1 0.41 -0.23
-26.26 9.87 2.45
-9.69 3.64 -1.64
-26.82 10.08 3.52
-1.45 0.55 -0.19
-26.67 10.02 4.51
-10.41 3.91 -0.97
-39.44 14.82 8.19
-25.21 9.47 -1.41
-27.38 10.28 6.75
-24.77 9.3 -0.46
-26.53 9.97 7.59
-1.13 0.43 -0.32
-39.44 14.98 0.74
-1.18 0.45 -0.29
-39.34 14.94 2.21
-1.1 0.42 -0.23
-26.36 10.01 2.47
-9.76 3.71 -1.65
-26.87 10.2 3.53
-1.45 0.55 -0.19
-26.6 10.1 4.51
-10.42 3.96 -0.97
-39.47 14.98 8.21
-25.2 9.57 -1.41
-27.4 10.4 6.77
-24.69 9.37 -0.46
-39.38 14.95 11.29
-1.13 0.43 -0.32
-39.44 15.13 0.74
-1.15 0.44 -0.28
-39.04 14.98 2.19
-1.12 0.43 -0.23
-26.15 10.03 2.45
-9.75 3.74 -1.65
-26.94 10.33 3.54
-1.44 0.55 -0.19
-38.82 14.89 6.58
-16.09 6.17 -1.51
-39.4 15.11 8.2
-25.18 9.66 -1.41
-38.71 14.85 9.57
-24.47 9.39 -0.46
-39.6 15.19 11.36
-1.13 0.44 -0.32
-39.32 15.24 0.74
-1.13 0.44 -0.28
-38.74 15.02 2.18
-1.11 0.43 -0.23
-26.08 10.11 2.45
-9.74 3.78 -1.66
-41.29 16.01 5.44
-1.43 0.56 -0.19
-38.55 14.94 6.55
-16.04 6.22 -1.51
-25.23 9.78 -1.42
-38.43 14.9 9.51
-24.65 9.56 -0.46
-43.5 16.87 12.5
-1.12 0.44 -0.32
-39.53 15.48 0.74
-1.12 0.44 -0.28
-38.44 15.06 2.16
-1.1 0.43 -0.23
-25.99 10.18 2.44
-9.74 3.81 -1.66
-41.1 16.1 5.42
-1.42 0.56 -0.19
-38.25 14.98 6.51
-16 6.27 -1.5
-25.03 9.8 -1.41
-38.11 14.93 9.45
-24.63 9.65 -0.46
-38.41 15.05 11.05
-1.12 0.44 -0.32
-41.83 16.55 0.79
-1.12 0.44 -0.28
-38.15 15.1 2.15
-1.1 0.43 -0.23
-26.06 10.31 2.45
-9.74 3.85 -1.66
-38.4 15.19 5.07
-1.41 0.56 -0.19
-37.96 15.02 6.47
-15.98 6.32 -1.5
-38.32 15.17 8.01
-25.03 9.9 -1.41
-37.83 14.97 9.39
-26.86 10.63 -0.5
-1.11 0.44 -0.32
-38.32 15.32 0.72
-1.12 0.45 -0.28
-37.85 15.13 2.14
-1.09 0.44 -0.23
-26.07 10.42 2.46
-9.72 3.89 -1.66
-26.9 10.75 3.56
-1.4 0.56 -0.19
-37.67 15.06 6.43
-15.93 6.37 -1.5
-24.8 9.91 -1.4
-37.55 15.01 9.34
-24.09 9.63 -0.45
-37.25 14.89 10.75
-1.11 0.45 -0.32
-41.9 16.92 0.79
-1.11 0.45 -0.28
-37.56 15.17 2.12
-1.11 0.45 -0.23
-26.77 10.81 2.53
-9.7 3.92 -1.66
-26.82 10.83 3.55
-1.39 0.56 -0.18
-37.21 15.03 6.36
-15.9 6.42 -1.5
-37.12 14.99 7.78
-24.57 9.92 -1.39
-37.09 14.98 9.24
-24.14 9.75 -0.45
-11.44 4.62 3.31
-1.1 0.45 -0.32
-37.13 15.14 0.7
-1.09 0.44 -0.27
-37.11 15.14 2.1
-1.12 0.46 -0.23
-28.07 11.45 2.65
-9.68 3.95 -1.66
-26.77 10.92 3.55
-1.38 0.56 -0.18
-36.93 15.06 6.32
-15.86 6.47 -1.5
-36.86 15.03 7.74
-24.41 9.96 -1.38
-36.88 15.04 9.2
-34.15 13.93 -0.64
-11.36 4.64 3.29
-1.1 0.45 -0.32
-36.87 15.19 0.7
-1.08 0.45 -0.27
-36.85 15.18 2.09
-1.11 0.46 -0.23
-28.06 11.56 2.65
-9.66 3.98 -1.66
-36.85 15.18 4.89
-1.35 0.56 -0.18
-36.82 15.17 6.31
-10.49 4.32 -0.99
-36.85 15.18 7.75
-24.32 10.02 -1.38
-36.72 15.13 9.17
-24.11 9.93 -0.46
-11.44 4.71 3.32
-1.08 0.45 -0.31
-36.83 15.32 0.7
-1.07 0.45 -0.27
-36.76 15.29 2.09
-1.1 0.46 -0.23
-28.04 11.67 2.66
-9.64 4.01 -1.65
-36.86 15.34 4.9
-1.35 0.56 -0.18
-36.54 15.2 6.27
-10.47 4.36 -0.99
-36.85 15.33 7.76
-24.2 10.07 -1.37
-36.44 15.16 9.11
-27.55 11.46 -0.52
-36.79 15.3 10.68
-1.08 0.45 -0.31
-36.84 15.47 0.7
-1.08 0.45 -0.27
-36.46 15.31 2.07
-1.1 0.46 -0.23
-36.36 15.27 3.45
-9.62 4.04 -1.65
-36.76 15.44 4.9
-1.34 0.56 -0.18
-36.28 15.23 6.23
-15.76 6.62 -1.5
-36.81 15.46 7.76
-24.21 10.17 -1.38
-36.18 15.19 9.06
-28.31 11.89 -0.54
-35.99 15.11 10.46
-1.07 0.45 -0.31
-36.73 15.58 0.7
-1.09 0.46 -0.27
-36.21 15.35 2.06
-1.12 0.48 -0.24
-36.09 15.3 3.43
-9.59 4.07 -1.65
-36.93 15.66 4.93
-1.3 0.55 -0.17
-36.01 15.27 6.19
-15.73 6.67 -1.5
-24.25 10.28 -1.38
-35.93 15.24 9.01
-33.12 14.05 -0.63
-35.75 15.16 10.41
-1.06 0.45 -0.31
-36.92 15.81 0.7
-1.08 0.46 -0.27
-35.92 15.38 2.05
-8.12 3.48 -1.72
-35.87 15.36 3.41
-9.57 4.1 -1.65
-1.29 0.55 -0.17
-35.76 15.31 6.16
-15.72 6.73 -1.5
-24.48 10.48 -1.4
-35.65 15.27 8.95
-24.94 10.68 -0.47
-35.51 15.21 10.35
-1.06 0.46 -0.31
-37.11 16.04 0.71
-1.09 0.47 -0.27
-35.65 15.41 2.04
-8.08 3.49 -1.71
-26.65 11.52 2.54
-9.55 4.13 -1.65
-35.83 15.49 4.79
-1.28 0.55 -0.17
-35.48 15.34 6.12
-15.68 6.78 -1.49
-35.82 15.49 7.59
-21.84 9.44 -1.25
-35.48 15.34 8.92
-24.79 10.72 -0.47
-10.88 4.7 3.18
-1.06 0.46 -0.31
-35.81 15.63 0.68
-1.09 0.48 -0.28
-35.39 15.45 2.02
-8.06 3.52 -1.71
-35.29 15.4 3.37
-9.55 4.17 -1.65
-35.7 15.58 4.78
-1.28 0.56 -0.17
-35.22 15.37 6.09
-15.6 6.81 -1.49
-35.74 15.6 7.58
-24.58 10.73 -1.41
-11.89 5.19 3
-24.66 10.76 -0.47
-10.9 4.76 3.19
-1.04 0.46 -0.3
-35.66 15.71 0.68
-1.09 0.48 -0.27
-35.14 15.48 2.01
-8.05 3.55 -1.71
-35.04 15.44 3.35
-9.53 4.2 -1.65
-1.27 0.56 -0.17
-34.96 15.4 6.05
-15.7 6.92 -1.5
-11.97 5.27 3.02
-24.35 10.73 -0.46
-34.74 15.31 10.17
-1.02 0.46 -0.3
-37.18 16.54 0.71
-1.09 0.48 -0.27
-34.88 15.51 2
-8.04 3.58 -1.71
-34.8 15.48 3.33
-9.51 4.23 -1.65
-34.55 15.37 4.64
-1.26 0.56 -0.17
-34.71 15.44 6.02
-15.44 6.87 -1.48
-34.49 15.34 7.34
-21.83 9.71 -1.25
-34.52 15.35 8.72
-24.27 10.8 -0.46
-10.86 4.83 3.19
-1.03 0.46 -0.3
-34.5 15.49 0.66
-6.97 3.13 -1.76
-34.63 15.55 1.99
-8.03 3.6 -1.71
-34.54 15.51 3.31
-9.49 4.26 -1.65
-34.48 15.48 4.64
-1.25 0.56 -0.17
-34.48 15.48 5.99
-15.45 6.94 -1.48
-34.48 15.48 7.35
-24.26 10.89 -1.39
-11.79 5.29 2.98
-24.33 10.92 -0.47
-34.24 15.37 10.06
-1.01 0.46 -0.3
-34.46 15.62 0.66
-6.95 3.15 -1.76
-34.38 15.58 1.98
-8.01 3.63 -1.71
-34.3 15.54 3.29
-1.19 0.54 -0.21
-34.5 15.64 4.65
-1.24 0.56 -0.17
-34.22 15.51 5.95
-15.41 6.98 -1.48
-12.08 5.47 2.58
-24.22 10.98 -1.39
-11.3 5.12 2.86
-24.17 10.95 -0.46
-12.36 5.6 3.64
-1.02 0.47 -0.3
-34.48 15.77 0.66
-6.94 3.18 -1.76
-34.14 15.61 1.97
-7.99 3.65 -1.71
-34.04 15.57 3.28
-1.21 0.55 -0.21
-34.4 15.74 4.64
-1.23 0.56 -0.17
-33.97 15.54 5.92
-15.29 6.99 -1.47
-34.41 15.74 7.35
-24.23 11.08 -1.4
-11.29 5.17 2.87
-24.12 11.03 -0.46
-12.27 5.61 3.62
-1 0.46 -0.3
-34.37 15.86 0.66
-6.93 3.2 -1.76
-33.9 15.65 1.96
-7.98 3.68 -1.71
-33.81 15.61 3.26
-1.2 0.55 -0.21
-34.56 15.96 4.67
-1.22 0.56 -0.16
-33.73 15.57 5.88
-15.23 7.03 -1.47
-11.49 5.3 2.46
-24.14 11.15 -1.39
-11.87 5.48 3.02
-24.09 11.12 -0.46
-12.24 5.65 3.61
-1.03 0.48 -0.3
-34.54 16.09 0.67
-6.91 3.22 -1.76
-33.65 15.68 1.95
-7.95 3.71 -1.71
-33.57 15.64 3.24
-1.2 0.56 -0.21
-1.22 0.57 -0.17
-33.51 15.61 5.86
-15.14 7.05 -1.46
-11.48 5.35 2.46
-22.04 10.27 -1.27
-11.22 5.23 2.86
-21.91 10.21 -0.42
-33.3 15.51 9.84
-1.04 0.49 -0.31
-34.62 16.28 0.67
-6.88 3.24 -1.76
-33.41 15.71 1.93
-7.95 3.74 -1.71
-33.34 15.67 3.22
-1.2 0.56 -0.21
-1.23 0.58 -0.17
-33.28 15.65 5.82
-15.03 7.07 -1.45
-11.48 5.4 2.47
-22.32 10.49 -1.29
-11.45 5.38 2.92
-21.94 10.31 -0.42
-12.19 5.73 3.61
-1.04 0.5 -0.31
-34.65 16.44 0.67
-6.86 3.26 -1.75
-33.17 15.74 1.92
-7.93 3.76 -1.71
-33.1 15.7 3.21
-1.19 0.57 -0.21
-33.4 15.84 4.54
-1.2 0.57 -0.16
-11.48 5.45 2.01
-14.96 7.1 -1.45
-11.47 5.44 2.47
-22.31 10.59 -1.29
-14.51 6.89 3.71
-23.98 11.38 -0.46
-11.56 5.48 3.43
-6.01 2.87 -1.78
-33.36 15.96 0.65
-6.86 3.28 -1.76
-32.95 15.77 1.91
-7.91 3.79 -1.71
-32.88 15.73 3.19
-1.18 0.56 -0.21
-33.42 15.99 4.55
-1.2 0.58 -0.16
-32.79 15.69 5.76
-15.03 7.19 -1.46
-22.12 10.58 -1.29
-11.33 5.42 2.9
-24.05 11.51 -0.47
-32.61 15.6 9.69
-5.98 2.89 -1.78
-34.76 16.78 0.67
-6.84 3.3 -1.75
-32.74 15.81 1.91
-7.9 3.81 -1.7
-32.63 15.75 3.17
-1.16 0.56 -0.2
-1.2 0.58 -0.16
-32.56 15.72 5.73
-15.11 7.3 -1.47
-11.67 5.63 2.52
-21.96 10.6 -1.28
-11.49 5.55 2.95
-24.43 11.79 -0.47
-12.23 5.9 3.64
-5.96 2.9 -1.78
-34.72 16.91 0.67
-6.82 3.32 -1.75
-32.5 15.83 1.89
-7.88 3.84 -1.7
-32.28 15.72 3.14
-1.14 0.56 -0.2
-32.19 15.68 4.4
-1.2 0.58 -0.16
-11.65 5.68 2.05
-15.08 7.35 -1.47
-11.63 5.66 2.51
-21.98 10.71 -1.28
-32.11 15.64 8.25
-24.21 11.79 -0.47
-32.02 15.6 9.54
-5.95 2.92 -1.78
-32.13 15.79 0.62
-6.8 3.34 -1.75
-32.12 15.79 1.88
-7.87 3.87 -1.71
-32.06 15.76 3.13
-1.13 0.56 -0.2
-31.97 15.71 4.37
-1.2 0.59 -0.16
-11.55 5.68 2.04
-15.1 7.42 -1.47
-31.92 15.69 6.91
-22.02 10.82 -1.29
-12.44 6.11 3.2
-23.97 11.78 -0.47
-11.15 5.48 3.33
-5.95 2.95 -1.78
-31.92 15.82 0.62
-6.8 3.37 -1.75
-31.9 15.81 1.87
-7.86 3.9 -1.71
-31.9 15.81 3.12
-1.13 0.56 -0.2
-11.66 5.78 1.6
-1.18 0.58 -0.16
-31.91 15.82 5.64
-15.1 7.48 -1.47
-12.28 6.09 2.66
-22.83 11.32 -1.34
-31.92 15.83 8.23
-23.83 11.82 -0.46
-13.35 6.62 3.99
-5.94 2.97 -1.78
-31.87 15.94 0.62
-6.79 3.4 -1.75
-31.88 15.94 1.87
-7.83 3.92 -1.7
-31.76 15.88 3.11
-1.13 0.56 -0.2
-11.6 5.8 1.59
-1.17 0.59 -0.16
-11.98 5.99 2.12
-15.18 7.59 -1.49
-11.18 5.59 2.43
-22.88 11.44 -1.34
-11.15 5.58 2.88
-22.01 11.01 -0.43
-31.55 15.78 9.45
-5.92 2.99 -1.78
-31.89 16.09 0.62
-6.78 3.42 -1.75
-31.89 16.09 1.87
-7.83 3.95 -1.7
-11.8 5.95 1.16
-1.12 0.56 -0.2
-11.59 5.85 1.59
-1.15 0.58 -0.16
-11.65 5.87 2.07
-15.13 7.64 -1.48
-12.22 6.16 2.66
-21.91 11.05 -1.29
-31.86 16.07 8.24
-22.02 11.11 -0.43
-12.14 6.12 3.64
-5.91 3.01 -1.78
-31.77 16.16 0.62
-6.76 3.44 -1.75
-31.72 16.14 1.87
-7.81 3.97 -1.7
-11.72 5.96 1.15
-1.11 0.57 -0.2
-11.6 5.9 1.6
-1.14 0.58 -0.16
-11.63 5.92 2.07
-15.06 7.66 -1.48
-11.68 5.94 2.55
-21.8 11.1 -1.28
-32.02 16.29 8.29
-22.07 11.23 -0.43
-31.09 15.82 9.35
-5.91 3.03 -1.78
-31.93 16.38 0.63
-6.74 3.46 -1.75
-31.51 16.17 1.86
-7.79 4 -1.7
-11.73 6.02 1.15
-1.11 0.57 -0.2
-11.69 6 1.61
-1.14 0.58 -0.16
-11.75 6.03 2.09
-14.98 7.68 -1.47
-30.97 15.89 6.76
-21.71 11.14 -1.28
-28.57 14.66 -0.56
-10.28 5.27 3.1
-5.89 3.05 -1.78
-34.9 18.06 0.69
-6.74 3.49 -1.75
-31.29 16.19 1.85
-7.78 4.03 -1.7
-30.9 15.99 3.04
-1.09 0.57 -0.2
-11.84 6.13 1.64
-1.12 0.58 -0.16
-11.75 6.08 2.09
-14.92 7.72 -1.47
-30.78 15.93 6.74
-21.6 11.18 -1.27
-26.68 13.8 6.93
-31.02 16.05 -0.61
-26.6 13.76 8.02
-5.89 3.07 -1.78
-34.9 18.22 0.69
-6.73 3.51 -1.75
-31.08 16.23 1.84
-7.76 4.05 -1.7
-26.62 13.9 2.63
-1.09 0.57 -0.2
-26.57 13.87 3.68
-1.13 0.59 -0.16
-11.67 6.09 2.08
-14.75 7.7 -1.46
-11.76 6.14 2.58
-21.49 11.22 -1.27
-26.49 13.83 6.9
-28.12 14.68 -0.55
-26.43 13.8 7.99
-5.87 3.09 -1.78
-26.52 13.97 0.52
-6.72 3.54 -1.75
-26.5 13.95 1.57
-7.74 4.07 -1.7
-26.46 13.93 2.62
-1.09 0.57 -0.2
-11.56 6.09 1.6
-11.36 5.98 -1.58
-26.4 13.9 4.73
-14.72 7.75 -1.46
-11.52 6.06 2.53
-21.39 11.26 -1.27
-26.31 13.86 6.87
-26.52 13.96 -0.52
-11.93 6.28 3.61
-5.87 3.12 -1.78
-26.32 13.98 0.52
-6.71 3.56 -1.75
-26.32 13.98 1.56
-7.73 4.1 -1.7
-26.28 13.95 2.6
-1.07 0.57 -0.19
-11.73 6.23 1.63
-11.33 6.01 -1.57
-11.63 6.18 2.09
-14.74 7.83 -1.46
-26.17 13.9 5.76
-21.28 11.3 -1.26
-26.15 13.89 6.84
-26.35 13.99 -0.52
-26.09 13.86 7.92
-5.86 3.14 -1.78
-26.15 14 0.52
-6.69 3.58 -1.75
-26.14 14 1.55
-7.72 4.13 -1.7
-11.97 6.41 1.19
-1.06 0.57 -0.19
-11.88 6.36 1.65
-11.28 6.04 -1.57
-11.69 6.26 2.1
-14.74 7.9 -1.46
-11.79 6.31 2.6
-21.17 11.34 -1.26
-25.98 13.91 6.8
-26.18 14.02 -0.52
-25.92 13.88 7.88
-5.86 3.17 -1.79
-25.98 14.03 0.52
-6.67 3.6 -1.75
-25.97 14.02 1.55
-7.7 4.16 -1.7
-11.86 6.4 1.18
-1.06 0.57 -0.19
-25.87 13.97 3.61
-11.26 6.08 -1.57
-25.87 13.97 4.66
-14.74 7.96 -1.47
-11.81 6.38 2.61
-21.1 11.39 -1.26
-25.8 13.93 6.77
-26 14.04 -0.52
-11.4 6.16 3.47
-5.86 3.19 -1.79
-25.81 14.05 0.51
-6.67 3.63 -1.75
-7.67 4.18 -1.7
-25.75 14.02 2.56
-1.05 0.57 -0.19
-25.7 14 3.59
-11.24 6.12 -1.57
-11.91 6.48 2.15
-14.79 8.05 -1.47
-14.87 8.1 3.29
-20.99 11.43 -1.25
-25.62 13.95 6.73
-25.82 14.06 -0.51
-11.43 6.22 3.49
-5.85 3.21 -1.79
-25.63 14.07 0.51
-6.66 3.66 -1.75
-7.65 4.2 -1.7
-25.56 14.03 2.55
-1.04 0.57 -0.19
-25.54 14.02 3.58
-1.1 0.61 -0.15
-14.83 8.14 2.68
-14.76 8.1 -1.47
-14.9 8.18 3.3
-20.9 11.47 -1.25
-14.79 8.12 3.9
-22.21 12.19 -0.44
-25.38 13.93 7.76
-5.85 3.23 -1.79
-25.46 14.09 0.51
-6.65 3.68 -1.75
-16.01 8.86 0.96
-7.64 4.23 -1.7
-25.4 14.06 2.54
-1.03 0.57 -0.19
-25.36 14.03 3.56
-1.09 0.6 -0.15
-25.35 14.03 4.59
-14.69 8.13 -1.47
-25.3 14 5.62
-16.33 9.04 -0.98
-25.29 14 6.67
-25.48 14.1 -0.51
-25.23 13.96 7.73
-5.84 3.26 -1.79
-25.29 14.12 0.51
-6.62 3.7 -1.75
-15.91 8.88 0.95
-7.63 4.26 -1.7
-25.24 14.09 2.53
-1.02 0.57 -0.19
-25.19 14.06 3.54
-1.07 0.6 -0.15
-25.18 14.06 4.57
-14.66 8.18 -1.47
-25.14 14.03 5.6
-16.27 9.08 -0.98
-15.62 8.72 4.13
-25.31 14.13 -0.51
-15.57 8.69 4.78
-5.83 3.28 -1.79
-25.12 14.14 0.5
-6.6 3.71 -1.75
-15.8 8.89 0.95
-7.61 4.28 -1.7
-25.06 14.1 2.52
-1.02 0.57 -0.19
-25.03 14.08 3.53
-1.06 0.6 -0.15
-25.03 14.09 4.55
-14.65 8.24 -1.47
-11.48 6.46 2.56
-16.17 9.1 -0.97
-24.95 14.04 6.61
-25.15 14.15 -0.5
-11.74 6.6 3.61
-5.81 3.3 -1.79
-24.97 14.16 0.5
-6.58 3.73 -1.75
-15.69 8.9 0.95
-7.58 4.3 -1.69
-24.91 14.12 2.5
-1.02 0.58 -0.19
-24.87 14.1 3.51
-1.06 0.6 -0.15
-11.3 6.4 2.06
-14.56 8.25 -1.46
-11.5 6.52 2.57
-20.52 11.64 -1.24
-24.79 14.05 6.58
-24.98 14.16 -0.5
-11.26 6.38 3.47
-5.79 3.31 -1.79
-24.8 14.18 0.5
-6.57 3.75 -1.75
-15.59 8.91 0.94
-7.57 4.33 -1.69
-24.74 14.14 2.49
-1.01 0.58 -0.18
-11.06 6.32 1.56
-11.08 6.33 -1.57
-24.7 14.12 4.51
-14.52 8.3 -1.46
-11.44 6.54 2.56
-20.54 11.74 -1.24
-12.21 6.98 3.25
-24.81 14.18 -0.5
-24.55 14.03 7.58
-5.79 3.34 -1.79
-24.62 14.2 0.5
-6.55 3.78 -1.74
-15.48 8.93 0.94
-7.56 4.36 -1.7
-24.56 14.16 2.48
-0.99 0.57 -0.18
-24.53 14.15 3.48
-11.04 6.37 -1.56
-24.55 14.16 4.49
-14.41 8.31 -1.46
-11.59 6.68 2.6
-20.55 11.85 -1.24
-24.48 14.11 6.52
-24.65 14.21 -0.5
-10.26 5.91 3.17
-5.78 3.36 -1.79
-24.49 14.24 0.49
-6.52 3.79 -1.74
-15.36 8.93 0.93
-7.54 4.39 -1.7
-24.42 14.19 2.47
-1 0.58 -0.18
-24.36 14.16 3.46
-11 6.39 -1.56
-11.09 6.44 2.03
-14.41 8.38 -1.46
-10.81 6.28 2.43
-20.55 11.94 -1.25
-24.3 14.13 6.49
-24.52 14.25 -0.5
-24.25 14.1 7.52
-5.78 3.38 -1.79
-15.29 8.96 0.31
-6.5 3.81 -1.74
-15.3 8.96 0.93
-7.54 4.42 -1.7
-24.26 14.2 2.46
-0.99 0.58 -0.18
-24.21 14.18 3.45
-10.96 6.42 -1.56
-11.15 6.53 2.05
-14.51 8.49 -1.47
-11.08 6.49 2.5
-15.3 8.96 -0.93
-24.15 14.14 6.46
-15.33 8.97 -0.31
-24.1 14.11 7.48
-5.76 3.4 -1.79
-24.16 14.26 0.49
-6.48 3.83 -1.74
-24.13 14.24 1.47
-7.52 4.44 -1.7
-24.1 14.22 2.45
-0.98 0.58 -0.18
-24.05 14.2 3.43
-10.94 6.46 -1.56
-13.04 7.7 2.4
-14.43 8.52 -1.47
-10.68 6.3 2.41
-20.6 12.16 -1.25
-24.01 14.17 6.44
-22.33 13.18 -0.45
-10.03 5.92 3.12
-5.75 3.42 -1.79
-24 14.28 0.49
-6.47 3.85 -1.74
-23.99 14.27 1.46
-7.49 4.46 -1.7
-23.94 14.25 2.44
-0.95 0.57 -0.18
-23.91 14.22 3.42
-10.91 6.49 -1.56
-13.02 7.74 2.4
-14.4 8.57 -1.47
-23.88 14.2 5.4
-20.61 12.26 -1.26
-23.83 14.18 6.4
-24.02 14.29 -0.49
-23.78 14.15 7.41
-5.74 3.44 -1.79
-23.83 14.29 0.49
-6.45 3.87 -1.74
-23.83 14.29 1.46
-7.48 4.48 -1.69
-23.8 14.27 2.43
-0.95 0.57 -0.18
-23.76 14.25 3.4
-10.89 6.53 -1.56
-12.99 7.79 2.4
-14.3 8.57 -1.46
-10.45 6.27 2.37
-20.61 12.36 -1.26
-11.98 7.19 3.23
-23.86 14.31 -0.49
-14.18 8.5 4.43
-5.72 3.46 -1.79
-23.68 14.32 0.48
-6.42 3.88 -1.73
-23.67 14.32 1.45
-7.46 4.51 -1.69
-23.64 14.29 2.42
-0.95 0.57 -0.18
-10.99 6.65 1.58
-10.86 6.56 -1.56
-10.96 6.63 2.03
-14.27 8.63 -1.46
-23.55 14.24 5.35
-20.62 12.47 -1.26
-12 7.26 3.24
-23.7 14.33 -0.48
-23.48 14.2 7.35
-5.71 3.48 -1.79
-23.53 14.34 0.48
-6.41 3.91 -1.73
-23.51 14.33 1.44
-7.44 4.53 -1.69
-23.5 14.32 2.41
-0.95 0.58 -0.18
-10.98 6.69 1.58
-10.82 6.59 -1.56
-10.98 6.69 2.04
-14.29 8.71 -1.46
-10.73 6.54 2.44
-20.64 12.58 -1.27
-12.52 7.63 3.39
-23.55 14.35 -0.48
-23.34 14.22 7.32
-5.69 3.49 -1.79
-22.43 13.77 0.46
-6.4 3.93 -1.73
-22.42 13.77 1.38
-7.41 4.55 -1.69
-23.34 14.33 2.4
-0.95 0.59 -0.18
-23.28 14.29 3.35
-10.8 6.63 -1.56
-10.62 6.52 1.97
-14.17 8.7 -1.45
-11.67 7.17 2.66
-20.65 12.68 -1.27
-23.23 14.26 6.29
-22.38 13.74 -0.46
-23.19 14.24 7.29
-5.66 3.5 -1.78
-22.32 13.81 0.46
-6.39 3.95 -1.73
-22.32 13.81 1.38
-7.39 4.57 -1.69
-23.18 14.34 2.38
-0.94 0.58 -0.18
-23.14 14.32 3.34
-10.78 6.67 -1.56
-10.74 6.64 2
-14.09 8.72 -1.45
-23.11 14.3 5.28
-20.67 12.79 -1.27
-23.1 14.3 6.27
-22.35 13.83 -0.46
-23.01 14.24 7.25
-5.65 3.52 -1.78
-22.32 13.92 0.46
-6.36 3.97 -1.73
-22.33 13.93 1.38
-7.37 4.6 -1.69
-23.03 14.37 2.37
-0.93 0.58 -0.17
-10.91 6.81 1.58
-10.76 6.71 -1.56
-22.99 14.34 4.29
-14.05 8.76 -1.45
-11.04 6.89 2.53
-20.7 12.92 -1.28
-11.94 7.45 3.25
-22.35 13.95 -0.46
-10.44 6.51 3.3
-5.64 3.55 -1.79
-22.33 14.04 0.46
-6.33 3.98 -1.73
-22.34 14.04 1.38
-7.36 4.63 -1.69
-22.88 14.38 2.36
-0.92 0.58 -0.17
-22.83 14.35 3.31
-10.74 6.75 -1.56
-11.01 6.92 2.06
-13.97 8.79 -1.44
-22.79 14.33 5.23
-16.83 10.58 -1.04
-22.79 14.33 6.22
-22.37 14.07 -0.46
-10.67 6.71 3.38
-5.63 3.57 -1.79
-22.36 14.17 0.46
-6.32 4.01 -1.73
-22.35 14.16 1.39
-7.34 4.65 -1.69
-22.74 14.41 2.35
-0.92 0.58 -0.17
-22.69 14.38 3.3
-10.7 6.78 -1.55
-22.68 14.37 4.25
-13.97 8.85 -1.45
-22.67 14.36 5.22
-16.94 10.73 -1.05
-11.78 7.47 3.22
-22.39 14.19 -0.46
-10.46 6.63 3.32
-5.63 3.59 -1.79
-22.37 14.28 0.46
-6.31 4.03 -1.73
-14.14 9.03 0.88
-7.3 4.66 -1.68
-22.6 14.43 2.35
-0.91 0.58 -0.17
-22.58 14.42 3.29
-10.67 6.81 -1.55
-11.12 7.1 2.09
-13.91 8.88 -1.44
-12.25 7.82 2.83
-20.73 13.24 -1.29
-13.08 8.35 3.58
-22.38 14.29 -0.46
-10.82 6.91 3.44
-5.6 3.61 -1.79
-14.12 9.09 0.29
-6.29 4.05 -1.73
-14.09 9.07 0.88
-7.29 4.69 -1.68
-22.51 14.48 2.34
-0.91 0.58 -0.17
-22.46 14.45 3.28
-10.63 6.84 -1.55
-12.75 8.21 2.4
-13.85 8.91 -1.44
-11.42 7.35 2.64
-20.72 13.33 -1.29
-22.43 14.43 6.16
-14.14 9.1 -0.29
-13.24 8.52 4.22
-5.59 3.63 -1.79
-14.04 9.1 0.29
-6.28 4.07 -1.73
-14 9.08 0.87
-7.27 4.71 -1.68
-22.38 14.51 2.33
-0.89 0.57 -0.17
-22.33 14.48 3.27
-10.62 6.88 -1.55
-22.49 14.58 4.25
-13.81 8.95 -1.44
-11.63 7.54 2.69
-14.12 9.16 -0.88
-12.5 8.11 3.44
-14.07 9.12 -0.29
-13.03 8.45 4.16
-5.58 3.64 -1.78
-13.95 9.11 0.29
-6.25 4.08 -1.72
-13.92 9.09 0.87
-7.26 4.74 -1.69
-22.23 14.52 2.32
-0.89 0.58 -0.17
-22.19 14.49 3.25
-10.59 6.91 -1.55
-10.72 7 2.03
-13.73 8.97 -1.44
-10.77 7.04 2.5
-20.46 13.36 -1.28
-13.02 8.5 3.59
-13.99 9.14 -0.29
-13.02 8.5 4.17
-5.58 3.67 -1.79
-13.86 9.12 0.29
-6.23 4.1 -1.72
-13.82 9.1 0.87
-7.24 4.77 -1.68
-22.1 14.54 2.31
-0.88 0.58 -0.17
-22.05 14.51 3.24
-10.54 6.94 -1.55
-10.77 7.08 2.04
-13.66 8.99 -1.43
-10.52 6.92 2.45
-20.32 13.37 -1.27
-21.99 14.47 6.08
-13.89 9.14 -0.29
-13.12 8.63 4.21
-5.56 3.69 -1.79
-13.78 9.14 0.29
-6.21 4.12 -1.72
-13.73 9.1 0.86
-7.21 4.78 -1.68
-21.96 14.56 2.3
-0.88 0.58 -0.17
-21.9 14.52 3.23
-10.51 6.97 -1.55
-10.56 7 2.01
-13.54 8.98 -1.42
-10.55 6.99 2.46
-20.2 13.39 -1.27
-10.18 6.75 2.82
-13.81 9.16 -0.29
-10.14 6.72 3.26
-5.54 3.7 -1.79
-13.68 9.14 0.29
-6.2 4.14 -1.72
-13.65 9.12 0.86
-7.19 4.8 -1.68
-21.8 14.57 2.29
-0.87 0.58 -0.17
-21.76 14.54 3.21
-10.49 7.01 -1.55
-10.84 7.25 2.07
-13.46 9 -1.42
-10.12 6.76 2.37
-20.07 13.41 -1.26
-10.13 6.77 2.81
-13.72 9.16 -0.29
-12.77 8.53 4.11
-5.53 3.73 -1.79
-13.6 9.15 0.29
-6.18 4.16 -1.72
-13.57 9.14 0.86
-7.17 4.83 -1.68
-21.67 14.59 2.29
-0.86 0.58 -0.16
-21.64 14.57 3.2
-10.47 7.05 -1.55
-12.23 8.23 2.33
-13.37 9 -1.41
-10.1 6.8 2.37
-19.94 13.43 -1.26
-21.6 14.54 6.01
-13.63 9.18 -0.29
-9.88 6.65 3.19
-5.52 3.74 -1.79
-13.51 9.17 0.28
-6.17 4.18 -1.72
-13.48 9.14 0.85
-7.17 4.86 -1.68
-21.54 14.61 2.28
-0.86 0.58 -0.16
-21.49 14.58 3.19
-10.44 7.08 -1.55
-10.32 7 1.98
-13.35 9.05 -1.41
-21.59 14.64 5.07
-19.82 13.44 -1.25
-12.79 8.68 3.57
-13.56 9.19 -0.29
-9.88 6.7 3.2
-5.52 3.77 -1.79
-13.42 9.17 0.28
-6.15 4.2 -1.72
-13.39 9.15 0.85
-7.14 4.88 -1.68
-21.41 14.63 2.27
-0.85 0.58 -0.16
-10.31 7.04 1.53
-10.39 7.1 -1.55
-10.29 7.03 1.97
-13.35 9.12 -1.41
-9.95 6.79 2.34
-19.69 13.45 -1.25
-12.72 8.69 3.56
-13.47 9.2 -0.28
-21.26 14.53 6.9
-5.51 3.79 -1.79
-13.35 9.19 0.28
-6.13 4.22 -1.72
-13.31 9.16 0.85
-0.84 0.58 -0.2
-21.28 14.65 2.26
-0.85 0.59 -0.16
-21.22 14.61 3.16
-10.36 7.13 -1.54
-10.23 7.04 1.97
-13.36 9.2 -1.42
-10.11 6.96 2.39
-19.57 13.47 -1.25
-11.66 8.03 3.27
-13.38 9.21 -0.28
-12.67 8.72 4.12
-5.48 3.8 -1.79
-13.27 9.2 0.28
-6.12 4.24 -1.72
-13.23 9.17 0.84
-0.84 0.58 -0.2
-21.14 14.66 2.25
-0.84 0.59 -0.16
-21.11 14.64 3.15
-10.35 7.18 -1.55
-10.18 7.06 1.96
-13.32 9.24 -1.42
-10.09 6.99 2.39
-19.45 13.49 -1.24
-10.05 6.97 2.82
-13.29 9.22 -0.28
-20.99 14.55 6.84
-5.45 3.81 -1.78
-13.17 9.2 0.28
-6.11 4.27 -1.72
-13.14 9.18 0.84
-0.83 0.58 -0.2
-21 14.67 2.24
-0.84 0.59 -0.16
-20.96 14.64 3.14
-10.32 7.21 -1.55
-10.14 7.08 1.96
-13.24 9.25 -1.41
-9.97 6.97 2.36
-19.33 13.51 -1.24
-12.65 8.84 3.56
-13.21 9.23 -0.28
-20.87 14.58 6.82
-5.44 3.83 -1.78
-13.09 9.21 0.28
-6.09 4.28 -1.72
-13.07 9.2 0.84
-0.83 0.58 -0.2
-20.88 14.69 2.23
-0.83 0.58 -0.16
-20.83 14.66 3.13
-10.3 7.25 -1.55
-10.14 7.14 1.96
-13.2 9.29 -1.41
-10.06 7.08 2.39
-19.2 13.52 -1.23
-20.8 14.64 5.87
-13.13 9.24 -0.28
-20.73 14.59 6.79
-5.42 3.85 -1.78
-13.02 9.23 0.28
-6.07 4.3 -1.72
-12.98 9.2 0.83
-0.82 0.58 -0.2
-20.75 14.71 2.23
-0.83 0.59 -0.16
-20.7 14.68 3.12
-10.26 7.28 -1.55
-10.1 7.16 1.96
-13.12 9.3 -1.41
-12.34 8.75 2.94
-19.11 13.55 -1.23
-10.33 7.33 2.92
-13.05 9.25 -0.28
-20.62 14.62 6.77
-5.41 3.86 -1.78
-12.94 9.24 0.28
-6.05 4.32 -1.72
-12.89 9.21 0.83
-0.8 0.57 -0.19
-10.08 7.2 1.08
-0.83 0.59 -0.16
-10.02 7.16 1.51
-10.24 7.32 -1.55
-10.03 7.17 1.95
-13.14 9.38 -1.41
-9.94 7.1 2.37
-19.02 13.59 -1.22
-20.54 14.67 5.83
-12.96 9.25 -0.28
-20.48 14.63 6.75
-5.38 3.87 -1.78
-12.85 9.25 0.28
-6.04 4.35 -1.72
-12.84 9.24 0.83
-0.8 0.58 -0.19
-10.01 7.21 1.08
-0.82 0.59 -0.16
-9.95 7.16 1.51
-10.21 7.35 -1.54
-10.04 7.23 1.96
-13.08 9.41 -1.41
-12.24 8.81 2.93
-18.94 13.63 -1.22
-9.51 6.85 2.71
-12.87 9.26 -0.28
-9.67 6.96 3.19
-5.37 3.89 -1.78
-12.77 9.26 0.28
-6.02 4.36 -1.72
-12.72 9.22 0.82
-0.81 0.59 -0.19
-20.36 14.76 2.2
-0.84 0.61 -0.16
-20.33 14.74 3.08
-10.19 7.39 -1.55
-9.96 7.22 1.95
-12.98 9.41 -1.4
-9.59 6.95 2.3
-18.9 13.7 -1.22
-9.6 6.96 2.74
-12.81 9.28 -0.28
-9.42 6.83 3.12
-5.34 3.9 -1.77
-12.68 9.26 0.27
-6 4.38 -1.71
-12.67 9.26 0.82
-0.8 0.58 -0.19
-20.25 14.79 2.19
-0.8 0.58 -0.16
-20.19 14.74 3.07
-10.17 7.42 -1.55
-10.95 8 2.15
-12.79 9.34 -1.39
-9.53 6.96 2.29
-12.69 9.27 -0.82
-20.14 14.71 5.76
-12.7 9.28 -0.27
-9.39 6.85 3.11
-5.33 3.92 -1.77
-5.98 4.4 -1.72
-21.83 16.06 1.42
-20.1 14.79 2.18
-0.82 0.61 -0.16
-9.98 7.34 1.52
-10.14 7.46 -1.55
-9.91 7.29 1.95
-12.7 9.34 -1.38
-9.5 6.99 2.29
-12.68 9.33 -0.82
-20.02 14.73 5.74
-9.23 6.79 3.07
-5.31 3.93 -1.77
-21.74 16.11 0.47
-5.97 4.42 -1.72
-21.74 16.11 1.42
-19.99 14.81 2.18
-0.81 0.6 -0.16
-19.94 14.78 3.05
-10.11 7.49 -1.55
-9.92 7.35 1.96
-12.67 9.39 -1.38
-9.54 7.07 2.31
-18.71 13.86 -1.22
-9.49 7.03 2.73
-21.77 16.13 -0.47
-9.44 6.99 3.15
-5.28 3.94 -1.77
-22.88 17.07 0.5
-5.96 4.45 -1.72
-22.94 17.12 1.5
-19.85 14.81 2.17
-0.81 0.6 -0.16
-19.83 14.79 3.04
-10.09 7.53 -1.55
-11.96 8.92 2.36
-12.63 9.42 -1.38
-10.85 8.1 2.63
-18.64 13.91 -1.22
-9.45 7.05 2.72
-22.96 17.13 -0.5
-10.23 7.63 3.42
-5.27 3.96 -1.77
-22.86 17.18 0.5
-5.94 4.47 -1.72
-22.93 17.24 1.5
-19.74 14.84 2.16
-0.8 0.6 -0.16
-19.71 14.82 3.03
-10.07 7.57 -1.55
-11.93 8.96 2.36
-12.62 9.48 -1.38
-12.34 9.28 3
-18.55 13.95 -1.22
-9.43 7.08 2.72
-22.96 17.26 -0.5
-9.28 6.97 3.11
-5.25 3.97 -1.76
-22.93 17.36 0.5
-5.92 4.48 -1.71
-22.97 17.39 1.51
-19.61 14.85 2.15
-0.8 0.6 -0.16
-19.6 14.84 3.02
-10.03 7.6 -1.55
-11.89 9 2.36
-10.45 7.91 -1.15
-19.7 14.91 4.8
-18.43 13.95 -1.21
-9.3 7.04 2.69
-22.99 17.4 -0.5
-9.55 7.23 3.21
-5.23 3.99 -1.76
-18.71 14.27 0.41
-5.9 4.5 -1.71
-18.68 14.25 1.23
-19.5 14.87 2.15
-0.8 0.61 -0.16
-11.84 9.03 1.83
-10 7.63 -1.54
-19.59 14.94 3.9
-12.6 9.61 -1.39
-11.96 9.12 2.92
-18.49 14.1 -1.22
-11.84 9.03 3.44
-18.74 14.29 -0.41
-19.37 14.77 6.53
-5.21 4 -1.76
-18.6 14.28 0.41
-5.86 4.5 -1.71
-18.58 14.27 1.23
-19.38 14.88 2.14
-0.8 0.62 -0.16
-11.8 9.06 1.83
-9.97 7.66 -1.54
-10.85 8.33 2.17
-12.56 9.64 -1.39
-11.03 8.47 2.7
-18.52 14.22 -1.22
-9.32 7.15 2.71
-18.64 14.31 -0.41
-11.89 9.13 4.02
-5.19 4.01 -1.76
-18.58 14.37 0.41
-5.74 4.44 -1.67
-18.58 14.37 1.23
-19.25 14.89 2.13
-8.04 6.22 -1.61
-11.78 9.11 1.83
-9.96 7.7 -1.55
-9.55 7.39 1.91
-12.54 9.7 -1.39
-11.99 9.28 2.95
-18.53 14.34 -1.23
-9.53 7.37 2.78
-18.61 14.39 -0.41
-9.15 7.08 3.1
-5.17 4.03 -1.76
-18.59 14.49 0.41
-5.75 4.48 -1.68
-18.6 14.49 1.24
-19.14 14.91 2.12
-8.01 6.24 -1.61
-11.78 9.18 1.83
-9.94 7.75 -1.55
-9.29 7.24 1.87
-12.49 9.73 -1.39
-9.38 7.31 2.31
-18.55 14.45 -1.23
-9.42 7.34 2.76
-18.61 14.5 -0.41
-8.93 6.96 3.03
-5.15 4.04 -1.76
-18.6 14.6 0.41
-5.73 4.49 -1.68
-18.61 14.61 1.24
-11.72 9.2 1.3
-7.99 6.27 -1.61
-18.99 14.91 2.96
-9.92 7.79 -1.55
-9.25 7.26 1.86
-12.51 9.82 -1.39
-9.21 7.23 2.28
-18.56 14.57 -1.24
-9.24 7.25 2.71
-18.64 14.63 -0.41
-8.97 7.04 3.06
-5.14 4.06 -1.75
-18.62 14.71 0.41
-5.71 4.51 -1.68
-18.62 14.71 1.24
-11.67 9.22 1.3
-7.96 6.29 -1.61
-18.88 14.92 2.95
-9.87 7.8 -1.54
-9.22 7.29 1.86
-12.44 9.83 -1.39
-9.12 7.2 2.26
-18.59 14.68 -1.24
-11.35 8.96 3.34
-18.65 14.74 -0.41
-18.78 14.84 6.41
-5.11 4.07 -1.75
-18.64 14.83 0.42
-5.7 4.53 -1.68
-18.64 14.83 1.25
-11.61 9.24 1.3
-7.94 6.32 -1.61
-18.77 14.93 2.94
-9.85 7.84 -1.55
-9.04 7.2 1.83
-12.38 9.85 -1.38
-9.07 7.21 2.25
-18.61 14.81 -1.25
-9.11 7.25 2.69
-18.67 14.85 -0.42
-18.61 14.81 6.37
-5.09 4.08 -1.75
-18.65 14.95 0.42
-5.7 4.57 -1.69
-11.58 9.28 0.78
-11.58 9.28 1.3
-7.91 6.34 -1.61
-18.6 14.91 2.93
-9.84 7.89 -1.55
-18.58 14.9 3.77
-12.34 9.89 -1.38
-9.06 7.26 2.26
-18.63 14.94 -1.25
-18.54 14.86 5.48
-18.66 14.96 -0.42
-11.25 9.02 3.86
-5.07 4.09 -1.75
-18.55 14.98 0.42
-5.69 4.59 -1.69
-11.51 9.3 0.78
-11.6 9.37 1.3
-7.88 6.36 -1.6
-18.48 14.92 2.92
-9.8 7.91 -1.55
-18.47 14.92 3.76
-12.32 9.95 -1.39
-18.45 14.89 4.61
-18.55 14.98 -1.25
-18.43 14.88 5.47
-18.55 14.97 -0.42
-18.39 14.85 6.33
-5.05 4.11 -1.74
-18.43 14.99 0.41
-5.64 4.58 -1.68
-11.49 9.34 0.78
-18.4 14.97 2.08
-7.86 6.39 -1.61
-18.37 14.94 2.91
-9.76 7.94 -1.54
-18.36 14.93 3.75
-12.25 9.97 -1.38
-10.4 8.46 2.61
-18.44 15 -1.25
-18.31 14.89 5.45
-18.44 15 -0.41
-11.17 9.09 3.86
-5.04 4.13 -1.74
-11.47 9.4 0.26
-5.6 4.59 -1.67
-11.45 9.38 0.78
-18.29 14.98 2.07
-7.84 6.42 -1.6
-18.25 14.95 2.9
-9.71 7.95 -1.54
-18.25 14.95 3.74
-12.18 9.97 -1.38
-18.22 14.92 4.58
-18.32 15 -1.24
-18.21 14.91 5.43
-18.33 15.02 -0.41
-18.16 14.88 6.29
-5.02 4.14 -1.74
-11.42 9.42 0.26
-5.59 4.61 -1.67
-11.45 9.44 0.78
-18.18 14.99 2.06
-7.82 6.44 -1.6
-18.16 14.97 2.89
-9.67 7.97 -1.54
-18.13 14.95 3.72
-12.14 10 -1.38
-18.12 14.94 4.57
-17.72 14.61 -1.2
-18.1 14.92 5.42
-18.22 15.02 -0.41
-18.06 14.89 6.27
-4.99 4.14 -1.74
-11.39 9.46 0.26
-5.61 4.65 -1.68
-18.09 15.02 1.23
-18.07 15 2.05
-7.79 6.47 -1.6
-18.04 14.98 2.88
-9.63 8 -1.54
-18.03 14.97 3.71
-12.06 10.02 -1.37
-18.01 14.95 4.55
-17.69 14.69 -1.2
-18 14.94 5.4
-11.43 9.49 -0.26
-17.94 14.89 6.25
-4.96 4.15 -1.73
-11.35 9.5 0.26
-5.59 4.68 -1.68
-17.98 15.04 1.23
-17.95 15.02 2.05
-7.75 6.49 -1.6
-17.93 15 2.87
-9.57 8.01 -1.53
-17.92 15 3.7
-11.41 9.55 -1.3
-11.52 9.64 2.92
-18 15.06 -1.23
-17.89 14.97 5.38
-11.37 9.51 -0.26
-17.83 14.92 6.23
-4.95 4.17 -1.74
-11.37 9.58 0.26
-5.53 4.66 -1.67
-17.87 15.06 1.22
-17.84 15.04 2.04
-7.73 6.51 -1.6
-17.82 15.01 2.86
-9.55 8.04 -1.53
-17.81 15.01 3.69
-11.35 9.56 -1.3
-12.04 10.15 3.06
-11.35 9.56 -0.78
-17.78 14.98 5.37
-11.34 9.55 -0.26
-17.73 14.94 6.21
-4.94 4.19 -1.74
-17.76 15.07 0.41
-5.49 4.66 -1.66
-17.75 15.06 1.22
-17.74 15.05 2.04
-7.71 6.55 -1.6
-17.71 15.03 2.85
-9.49 8.05 -1.53
-17.71 15.03 3.68
-11.28 9.58 -1.29
-17.69 15.01 4.51
-11.3 9.59 -0.78
-17.66 14.99 5.35
-11.32 9.61 -0.26
-11.56 9.81 4.06
-4.92 4.2 -1.73
-17.66 15.09 0.41
-5.48 4.68 -1.66
-17.64 15.07 1.22
-17.63 15.07 2.03
-7.69 6.57 -1.6
-17.6 15.04 2.84
-9.46 8.08 -1.53
-17.59 15.04 3.67
-11.23 9.6 -1.29
-17.58 15.02 4.5
-11.28 9.64 -0.78
-17.57 15.02 5.34
-11.31 9.66 -0.26
-11.54 9.86 4.07
-4.89 4.21 -1.73
-17.55 15.11 0.4
-5.46 4.7 -1.66
-17.54 15.09 1.21
-17.51 15.07 2.02
-7.66 6.6 -1.6
-17.51 15.07 2.84
-9.41 8.1 -1.53
-17.49 15.05 3.65
-11.17 9.61 -1.29
-17.47 15.04 4.48
-11.25 9.68 -0.78
-10.16 8.74 3.09
-17.56 15.11 -0.4
-17.42 14.99 6.16
-4.87 4.23 -1.73
-17.43 15.11 0.4
-5.43 4.71 -1.66
-17.43 15.11 1.21
-17.4 15.09 2.02
-7.62 6.61 -1.6
-17.38 15.07 2.82
-9.39 8.14 -1.53
-17.38 15.07 3.64
-11.14 9.66 -1.29
-17.36 15.05 4.47
-11.25 9.75 -0.78
-11.65 10.1 3.56
-17.46 15.13 -0.4
-17.3 15 6.14
-4.86 4.24 -1.73
-17.33 15.12 0.4
-5.41 4.72 -1.66
-17.33 15.12 1.21
-17.31 15.1 2.01
-7.61 6.64 -1.6
-17.28 15.08 2.82
-9.34 8.15 -1.52
-17.28 15.08 3.63
-11.12 9.7 -1.29
-17.25 15.05 4.45
-11.26 9.83 -0.78
-11.6 10.12 3.55
-17.35 15.14 -0.4
-17.21 15.02 6.12
-4.84 4.25 -1.73
-17.23 15.14 0.4
-5.39 4.74 -1.66
-17.22 15.14 1.2
-17.2 15.12 2
-7.58 6.66 -1.6
-17.17 15.09 2.81
-9.32 8.19 -1.52
-17.18 15.09 3.62
-11.1 9.75 -1.29
-17.15 15.08 4.44
-17.24 15.15 -1.2
-17.13 15.06 5.27
-17.25 15.16 -0.4
-17.11 15.04 6.11
-4.83 4.27 -1.73
-17.12 15.15 0.4
-5.38 4.76 -1.66
-17.11 15.14 1.2
-17.1 15.13 2
-7.56 6.69 -1.6
-17.07 15.11 2.8
-9.24 8.17 -1.51
-17.06 15.1 3.61
-11.05 9.78 -1.29
-17.05 15.09 4.43
-17.14 15.17 -1.2
-17.04 15.08 5.25
-17.13 15.16 -0.4
-17.03 15.07 6.09
-4.8 4.28 -1.72
-17.02 15.17 0.4
-5.36 4.77 -1.66
-16.99 15.14 1.99
-7.54 6.72 -1.6
-16.98 15.13 2.79
-9.19 8.19 -1.51
-16.96 15.12 3.6
-11.03 9.83 -1.29
-16.95 15.1 4.41
-17.03 15.18 -1.2
-16.94 15.1 5.24
-17.03 15.18 -0.4
-8.91 7.94 3.2
-4.78 4.29 -1.72
-16.92 15.18 0.4
-5.33 4.79 -1.65
-16.88 15.15 1.98
-7.51 6.74 -1.6
-16.87 15.14 2.78
-9.17 8.23 -1.51
-16.87 15.13 3.59
-11.02 9.89 -1.3
-11.56 10.38 3.02
-16.93 15.19 -1.19
-16.84 15.11 5.22
-16.93 15.19 -0.4
-16.81 15.08 6.05
-4.77 4.31 -1.72
-16.81 15.19 0.4
-5.3 4.79 -1.65
-16.78 15.17 1.98
-7.49 6.76 -1.6
-16.76 15.14 2.77
-9.13 8.25 -1.51
-11.57 10.46 2.47
-11.03 9.96 -1.3
-11.54 10.43 3.02
-16.82 15.2 -1.19
-16.74 15.12 5.21
-16.83 15.21 -0.4
-11.68 10.56 4.22
-4.75 4.32 -1.72
-16.71 15.21 0.39
-5.29 4.81 -1.65
-16.7 15.19 1.18
-16.69 15.18 1.97
-7.46 6.79 -1.6
-16.66 15.16 2.77
-9.08 8.27 -1.51
-11.55 10.51 2.47
-11.01 10.02 -1.3
-11.58 10.54 3.04
-16.72 15.22 -1.18
-16.64 15.14 5.19
-16.73 15.22 -0.39
-8.88 8.08 3.22
-4.74 4.34 -1.72
-16.61 15.22 0.39
-5.28 4.84 -1.65
-16.6 15.21 1.18
-16.59 15.2 1.97
-7.44 6.82 -1.6
-16.57 15.18 2.76
-9.06 8.3 -1.51
-16.55 15.17 3.56
-11.02 10.1 -1.31
-16.54 15.16 4.36
-16.58 15.2 -1.18
-16.52 15.14 5.17
-16.62 15.23 -0.39
-8.84 8.1 3.21
-4.71 4.34 -1.72
-16.51 15.23 0.39
-5.29 4.88 -1.66
-16.5 15.22 1.18
-16.47 15.19 1.96
-7.42 6.84 -1.6
-11.48 10.59 1.92
-9.05 8.35 -1.51
-16.46 15.18 3.55
-11.04 10.18 -1.31
-16.43 15.16 4.35
-16.49 15.21 -1.18
-11.6 10.7 3.64
-16.52 15.24 -0.39
-8.78 8.1 3.2
-4.7 4.36 -1.72
-16.4 15.24 0.39
-16.4 15.24 1.17
-16.38 15.22 1.96
-5.34 4.96 -1.15
-11.46 10.65 1.92
-9.01 8.37 -1.51
-16.36 15.2 3.54
-11.02 10.23 -1.32
-16.33 15.17 4.33
-16.41 15.24 -1.17
-8.72 8.1 2.75
-16.43 15.26 -0.39
-14.87 13.81 5.44
-4.68 4.38 -1.72
-16.3 15.26 0.39
-16.3 15.26 1.17
-11.47 10.73 1.37
-5.31 4.97 -1.15
-16.25 15.2 2.73
-8.97 8.4 -1.51
-16.26 15.22 3.53
-11.07 10.36 -1.33
-16.23 15.19 4.32
-16.31 15.26 -1.17
-16.24 15.19 5.13
-16.33 15.28 -0.39
-9.54 8.92 3.5
-4.66 4.4 -1.72
-16.2 15.27 0.39
-16.19 15.26 1.17
-11.4 10.74 1.37
-5.3 4.99 -1.15
-8.92 8.4 -1.5
-16.16 15.23 3.52
-11.13 10.49 -1.34
-9.52 8.97 2.54
-15.92 15 -1.15
-16.13 15.2 5.12
-16.22 15.28 -0.39
-8.65 8.15 3.18
-4.65 4.41 -1.72
-16.11 15.28 0.39
-16.1 15.27 1.16
-11.38 10.79 1.37
-7.3 6.93 -1.59
-8.87 8.42 -1.5
-16.06 15.23 3.51
-11.12 10.54 -1.34
-16.05 15.22 4.3
-16.11 15.29 -1.16
-16.02 15.2 5.1
-16.12 15.3 -0.39
-8.61 8.17 3.18
-4.62 4.42 -1.71
-16.02 15.3 0.39
-11.31 10.81 0.82
-5.12 4.89 0.62
-7.28 6.95 -1.59
-8.85 8.45 -1.5
-15.96 15.24 3.5
-11.07 10.58 -1.34
-15.94 15.23 4.29
-16.02 15.31 -1.16
-8.92 8.52 2.85
-16.03 15.31 -0.39
-11.52 11.01 4.27
-4.6 4.43 -1.71
-11.29 10.86 0.27
-11.28 10.85 0.82
-7.25 6.97 -1.59
-5.09 4.9 0.87
-8.8 8.47 -1.5
-15.87 15.26 3.49
-11.04 10.62 -1.34
-15.84 15.24 4.27
-11.34 10.91 -0.82
-15.85 15.25 5.08
-11.31 10.88 -0.27
-8.73 8.39 3.24
-4.59 4.44 -1.71
-11.26 10.91 0.27
-15.81 15.32 1.15
-7.22 7 -1.59
-5.07 4.91 0.87
-8.77 8.49 -1.5
-15.77 15.28 3.48
-10.99 10.65 -1.34
-15.74 15.25 4.26
-11.28 10.93 -0.82
-9.05 8.77 2.91
-11.28 10.93 -0.27
-8.65 8.38 3.23
-4.57 4.46 -1.71
-15.71 15.33 0.38
-15.7 15.32 1.15
-5.06 4.93 0.62
-7.2 7.03 -1.59
-5.05 4.92 0.87
-8.73 8.52 -1.5
-15.68 15.29 3.47
-10.97 10.7 -1.34
-9.16 8.94 2.49
-11.25 10.97 -0.82
-8.65 8.44 2.79
-11.29 11.01 -0.28
-7.51 7.33 2.81
-4.56 4.48 -1.71
-15.63 15.35 0.38
-15.61 15.34 1.15
-5.04 4.95 0.62
-7.18 7.06 -1.59
-5.03 4.94 0.87
-8.7 8.55 -1.5
-15.58 15.3 3.46
-10.94 10.74 -1.34
-9.07 8.91 2.47
-11.26 11.06 -0.83
-12.11 11.9 3.92
-15.63 15.35 -0.38
-7.48 7.35 2.81
-4.53 4.48 -1.71
-15.53 15.36 0.38
-15.51 15.35 1.14
-5.01 4.96 0.62
-7.16 7.08 -1.59
-5.01 4.96 0.87
-8.71 8.62 -1.5
-15.48 15.32 3.45
-10.93 10.82 -1.35
-9.37 9.27 2.56
-15.56 15.39 -1.15
-12.1 11.97 3.93
-15.52 15.36 -0.38
-9.63 9.53 3.63
-4.51 4.5 -1.71
-15.43 15.37 0.38
-15.43 15.37 1.14
-4.99 4.97 0.62
-7.13 7.1 -1.59
-4.99 4.97 0.86
-5.38 5.35 -0.93
-4.99 4.97 1.12
-10.93 10.89 -1.35
-15.36 15.3 4.21
-15.45 15.39 -1.14
-15.36 15.3 5.01
-15.44 15.38 -0.38
-8.47 8.44 3.21
-4.5 4.52 -1.71
-15.33 15.38 0.38
-15.33 15.38 1.14
-4.98 4.99 0.62
-7.1 7.12 -1.59
-4.96 4.97 0.86
-5.37 5.38 -0.93
-4.97 4.99 1.12
-8.66 8.69 -1.07
-15.27 15.32 4.2
-15.35 15.4 -1.14
-15.27 15.32 4.99
-15.35 15.4 -0.38
-8.33 8.36 3.16
-4.49 4.53 -1.71
-15.24 15.4 0.38
-15.23 15.38 1.13
-4.96 5.01 0.62
-7.08 7.15 -1.59
-4.94 4.99 0.86
-5.36 5.41 -0.93
-4.96 5.01 1.12
-10.87 10.98 -1.35
-12.01 12.13 3.32
-15.27 15.42 -1.14
-8.62 8.71 2.83
-15.25 15.4 -0.38
-8.28 8.37 3.15
-4.47 4.54 -1.71
-15.15 15.41 0.38
-15.14 15.4 1.13
-4.93 5.02 0.62
-7.05 7.17 -1.59
-4.92 5.01 0.86
-5.35 5.44 -0.94
-4.92 5.01 1.11
-10.84 11.03 -1.35
-11.97 12.17 3.32
-15.17 15.43 -1.13
-8.85 9.01 2.92
-15.15 15.41 -0.38
-9.48 9.64 3.62
-4.44 4.55 -1.7
-4.93 5.05 0.12
-4.92 5.04 0.37
-4.91 5.03 0.61
-7.03 7.2 -1.59
-4.9 5.02 0.86
-4.99 5.11 -0.88
-4.89 5.01 1.11
-4.93 5.05 -0.62
-12.35 12.65 3.44
-4.95 5.07 -0.37
-8.81 9.03 2.91
-4.93 5.05 -0.12
-14.94 15.31 5.73
-4.43 4.57 -1.7
-4.88 5.03 0.12
-4.89 5.05 0.37
-4.89 5.04 0.61
-4.91 5.07 -1.12
-4.88 5.03 0.86
-4.92 5.08 -0.87
-4.88 5.03 1.11
-4.9 5.05 -0.62
-9.71 10.01 2.71
-9.59 9.89 3.18
-4.89 5.04 -0.12
-8.26 8.52 3.18
-4.42 4.59 -1.71
-4.88 5.07 0.12
-4.89 5.08 0.37
-4.87 5.06 0.61
-4.9 5.09 -1.12
-4.85 5.03 0.86
-4.92 5.11 -0.87
-4.85 5.04 1.11
-4.9 5.09 -0.62
-9.66 10.03 2.71
-4.9 5.09 -0.37
-14.81 15.38 4.93
-4.91 5.1 -0.12
-14.78 15.35 5.71
-4.4 4.6 -1.71
-14.78 15.45 0.37
-14.76 15.44 1.12
-4.86 5.08 0.61
-6.94 7.26 -1.59
-4.83 5.05 0.86
-5.37 5.62 -0.95
-4.83 5.06 1.11
-10.69 11.17 -1.35
-9.64 10.08 2.71
-14.8 15.47 -1.12
-8.89 9.29 2.97
-14.79 15.46 -0.37
-14.68 15.35 5.69
-4.38 4.62 -1.71
-14.69 15.47 0.37
-14.68 15.46 1.12
-4.83 5.09 0.61
-6.93 7.29 -1.59
-4.81 5.06 0.86
-5.36 5.64 -0.96
-4.81 5.07 1.11
-10.66 11.23 -1.35
-14.63 15.41 4.13
-14.71 15.49 -1.12
-11.87 12.5 3.98
-14.68 15.46 -0.37
-14.62 15.4 5.69
-4.36 4.63 -1.7
-14.6 15.47 0.37
-14.6 15.47 1.11
-4.81 5.09 0.61
-6.9 7.31 -1.59
-4.78 5.07 0.86
-5.38 5.7 -0.96
-9.76 10.34 2.25
-10.68 11.31 -1.36
-14.62 15.49 4.14
-14.64 15.51 -1.12
-14.63 15.5 4.92
-14.61 15.48 -0.37
-14.64 15.51 5.72
-4.35 4.64 -1.71
-14.6 15.58 0.37
-14.6 15.58 1.12
-4.79 5.11 0.61
-6.87 7.33 -1.59
-4.77 5.09 0.86
-8.33 8.89 -1.5
-14.63 15.62 3.39
-10.59 11.3 -1.35
-14.61 15.59 4.15
-14.62 15.6 -1.12
-14.65 15.63 4.95
-14.63 15.61 -0.37
-11.62 12.4 4.55
-4.33 4.65 -1.7
-14.61 15.7 0.37
-10.27 11.04 0.79
-4.77 5.13 0.61
-6.84 7.36 -1.59
-4.74 5.1 0.85
-8.29 8.91 -1.49
-14.64 15.74 3.4
-10.48 11.26 -1.35
-14.64 15.73 4.18
-14.62 15.72 -1.13
-14.64 15.74 4.96
-14.65 15.75 -0.38
-14.66 15.76 5.77
-4.32 4.68 -1.71
-10.3 11.15 0.26
-10.18 11.02 0.79
-4.75 5.14 0.61
-6.82 7.38 -1.59
-4.72 5.11 0.85
-8.24 8.92 -1.49
-14.66 15.87 3.42
-10.42 11.28 -1.34
-14.65 15.86 4.2
-14.63 15.83 -1.13
-14.66 15.87 4.99
-14.63 15.83 -0.38
-14.68 15.9 5.8
-4.3 4.69 -1.71
-10.23 11.15 0.26
-10.14 11.06 0.79
-4.73 5.16 0.61
-6.79 7.41 -1.59
-4.7 5.12 0.85
-8.21 8.95 -1.49
-11.55 12.6 2.71
-10.37 11.31 -1.34
-14.67 16 4.22
-14.45 15.76 -1.12
-14.68 16 5.01
-14.54 15.86 -0.38
-7.62 8.31 3.02
-4.28 4.7 -1.7
-10.18 11.18 0.26
-10.14 11.14 0.79
-4.72 5.18 0.61
-6.76 7.43 -1.59
-4.68 5.14 0.85
-8.18 8.98 -1.49
-11.49 12.62 2.7
-10.36 11.38 -1.35
-14.68 16.12 4.24
-14.37 15.79 -1.12
-8.55 9.39 2.93
-14.68 16.12 -0.38
-7.21 7.91 2.87
-4.26 4.71 -1.7
-10.17 11.24 0.26
-11.62 12.84 0.91
-11.66 12.89 1.52
-6.74 7.45 -1.59
-4.66 5.15 0.85
-8.14 9 -1.49
-11.46 12.67 2.71
-10.34 11.42 -1.35
-14.7 16.24 4.26
-14.7 16.24 -1.15
-14.73 16.28 5.07
-10.32 11.4 -0.27
-7.15 7.91 2.86
-4.25 4.73 -1.7
-10.18 11.33 0.27
-11.59 12.9 0.91
-14.73 16.39 1.93
-6.71 7.47 -1.59
-4.64 5.16 0.85
-8.09 9 -1.49
-11.45 12.75 2.71
-10.28 11.44 -1.35
-11.29 12.56 3.28
-10.38 11.55 -0.81
-14.74 16.41 5.09
-10.27 11.43 -0.27
-14.75 16.42 5.91
-4.24 4.75 -1.71
-11.51 12.9 0.3
-14.71 16.49 1.16
-14.74 16.52 1.94
-6.68 7.49 -1.59
-8.06 9.04 -1.49
-14.74 16.53 3.51
-10.13 11.36 -1.33
-11.22 12.58 3.28
-10.33 11.59 -0.81
-8.36 9.38 2.9
-10.23 11.47 -0.27
-7.19 8.06 2.9
-4.22 4.76 -1.71
-11.51 13 0.3
-14.72 16.62 1.16
-14.76 16.66 1.95
-6.67 7.53 -1.59
-14.77 16.67 2.73
-8.03 9.07 -1.49
-14.76 16.66 3.52
-10.08 11.38 -1.33
-11.19 12.64 3.28
-10.29 11.62 -0.81
-11 12.42 3.83
-10.21 11.53 -0.27
-7.29 8.23 2.94
-4.19 4.77 -1.7
-14.76 16.78 0.39
-14.76 16.77 1.17
-14.77 16.79 1.96
-6.63 7.54 -1.59
-14.79 16.81 2.75
-7.97 9.06 -1.48
-14.77 16.79 3.54
-10.04 11.42 -1.33
-14.78 16.8 4.35
-10.27 11.67 -0.81
-10.96 12.46 3.83
-10.24 11.64 -0.27
-10.66 12.11 4.32
-4.18 4.78 -1.7
-14.77 16.91 0.39
-14.77 16.91 1.18
-14.8 16.94 1.97
-6.61 7.56 -1.59
-14.81 16.95 2.76
-7.95 9.1 -1.48
-14.8 16.94 3.56
-10.01 11.46 -1.33
-14.79 16.93 4.37
-10.25 11.73 -0.82
-14.82 16.97 5.2
-14.8 16.94 -0.39
-7.2 8.24 2.93
-4.16 4.79 -1.7
-14.79 17.05 0.39
-14.78 17.03 1.18
-14.81 17.08 1.98
-6.58 7.59 -1.59
-14.81 17.07 2.77
-7.89 9.1 -1.48
-14.81 17.08 3.58
-9.99 11.52 -1.33
-14.8 17.07 4.39
-11.35 13.09 -0.91
-14.83 17.1 5.22
-14.7 16.95 -0.39
-14.84 17.11 6.07
-4.15 4.82 -1.7
-14.81 17.2 0.4
-14.67 17.04 1.18
-14.84 17.22 1.99
-6.56 7.61 -1.59
-14.84 17.22 2.79
-7.85 9.11 -1.48
-14.83 17.22 3.6
-9.95 11.55 -1.33
-14.83 17.22 4.42
-13.83 16.05 -1.11
-14.85 17.24 5.25
-14.85 17.24 -0.4
-14.87 17.26 6.11
-4.13 4.82 -1.7
-14.83 17.34 0.4
-14.6 17.06 1.18
-14.86 17.36 2
-6.54 7.64 -1.59
-14.86 17.36 2.81
-7.81 9.13 -1.47
-14.85 17.35 3.62
-9.9 11.57 -1.33
-14.85 17.36 4.44
-13.73 16.05 -1.11
-14.86 17.36 5.28
-14.86 17.36 -0.4
-14.9 17.42 6.14
-4.11 4.83 -1.7
-14.86 17.49 0.4
-14.5 17.08 1.17
-14.87 17.51 2.01
-6.5 7.66 -1.59
-14.88 17.52 2.82
-7.77 9.15 -1.47
-14.87 17.5 3.64
-9.87 11.62 -1.33
-14.86 17.5 4.46
-13.65 16.08 -1.11
-7.31 8.61 2.61
-14.87 17.51 -0.4
-14.9 17.54 6.17
-4.09 4.85 -1.7
-14.86 17.63 0.4
-14.41 17.1 1.17
-14.88 17.66 2.02
-6.48 7.68 -1.59
-14.9 17.67 2.84
-7.73 9.17 -1.47
-14.88 17.65 3.66
-9.83 11.66 -1.33
-14.88 17.65 4.49
-13.57 16.1 -1.1
-14.9 17.67 5.34
-14.89 17.67 -0.4
-6.91 8.2 2.87
-4.07 4.86 -1.7
-14.88 17.78 0.4
-14.31 17.1 1.17
-14.91 17.82 2.03
-6.44 7.7 -1.59
-14.89 17.8 2.85
-7.71 9.21 -1.47
-14.91 17.82 3.68
-9.79 11.71 -1.34
-14.89 17.8 4.51
-13.54 16.19 -1.11
-7.14 8.54 2.57
-14.91 17.82 -0.41
-14.93 17.84 6.23
-4.06 4.88 -1.7
-14.91 17.94 0.41
-14.22 17.11 1.17
-14.93 17.96 2.04
-6.42 7.73 -1.59
-14.92 17.96 2.87
-7.65 9.21 -1.47
-14.93 17.96 3.7
-14.91 17.94 4.53
-13.55 16.3 -1.11
-14.93 17.96 5.39
-14.94 17.97 -0.41
-14.96 18 6.27
-4.04 4.9 -1.7
-14.92 18.08 0.41
-14.11 17.11 1.16
-14.95 18.12 2.05
-6.4 7.75 -1.59
-14.94 18.11 2.88
-7.62 9.24 -1.47
-14.94 18.11 3.72
-9 10.92 -1.24
-14.93 18.1 4.56
-13.61 16.5 -1.12
-14.96 18.14 5.43
-14.94 18.11 -0.41
-6.9 8.37 2.91
-4.02 4.9 -1.7
-14.96 18.24 0.41
-14.01 17.09 1.16
-14.97 18.26 2.07
-6.38 7.78 -1.59
-14.97 18.26 2.9
-7.61 9.28 -1.47
-7.11 8.67 1.78
-9 10.98 -1.24
-6.95 8.47 2.13
-13.65 16.65 -1.13
-7.1 8.66 2.59
-14.97 18.26 -0.41
-6.63 8.09 2.8
-4 4.92 -1.7
-14.97 18.39 0.41
-13.89 17.07 1.15
-14.99 18.42 2.08
-6.34 7.8 -1.59
-14.99 18.42 2.92
-7.58 9.32 -1.48
-7.07 8.69 1.77
-9 11.06 -1.25
-7.01 8.61 2.16
-13.6 16.71 -1.13
-15 18.43 5.49
-15 18.43 -0.41
-6.59 8.1 2.8
-4 4.94 -1.7
-14.99 18.54 0.42
-13.82 17.1 1.15
-15.01 18.57 2.09
-5.55 6.87 -1.4
-6.95 8.6 1.36
-5.53 6.84 -1.08
-6.96 8.61 1.75
-8.87 10.97 -1.23
-6.9 8.53 2.13
-13.64 16.87 -1.14
-15.03 18.6 5.52
-15.02 18.58 -0.42
-6.91 8.55 2.95
-3.98 4.97 -1.71
-15.01 18.71 0.42
-13.73 17.12 1.15
-5.4 6.73 -1.68
-15.03 18.74 2.1
-5.51 6.87 -1.4
-9.89 12.33 1.94
-5.5 6.86 -1.08
-6.84 8.53 1.73
-8.92 11.12 -1.25
-15.03 18.73 4.67
-14.35 17.89 -1.2
-6.87 8.56 2.53
-15.04 18.75 -0.42
-6.89 8.58 2.95
-3.97 4.98 -1.71
-15.04 18.87 0.42
-9.93 12.45 0.83
-5.36 6.72 -1.67
-9.91 12.43 1.39
-5.5 6.89 -1.4
-6.84 8.58 1.35
-7.51 9.42 -1.48
-6.87 8.62 1.75
-8.88 11.14 -1.25
-9.74 12.22 3.04
-14.03 17.6 -1.18
-6.66 8.35 2.47
-15.06 18.89 -0.42
-6.66 8.36 2.86
-3.94 4.98 -1.7
-9.91 12.53 0.28
-9.86 12.46 0.83
-5.37 6.79 -1.68
-9.85 12.45 1.39
-6.24 7.88 -1.59
-9.84 12.43 1.95
-7.49 9.47 -1.48
-15.07 19.05 3.85
-8.77 11.08 -1.24
-6.79 8.59 2.13
-15.04 19.01 -1.27
-6.6 8.35 2.46
-15.08 19.06 -0.42
-6.49 8.21 2.8
-3.93 5 -1.7
-9.85 12.53 0.28
-9.84 12.52 0.83
-5.46 6.95 -1.72
-9.84 12.53 1.39
-6.21 7.9 -1.59
-6.8 8.66 1.35
-7.44 9.47 -1.48
-15.1 19.22 3.87
-8.71 11.09 -1.23
-9.64 12.27 3.03
-8.68 11.05 -0.74
-6.73 8.57 2.52
-8.64 11 -0.24
-6.26 7.96 2.71
-3.91 5.01 -1.7
-8.52 10.93 0.24
-5.43 6.96 -1.72
-15.11 19.38 2.15
-6.17 7.92 -1.59
-15.11 19.38 3.02
-7.41 9.5 -1.48
-15.12 19.39 3.89
-8.66 11.11 -1.23
-6.64 8.51 2.1
-8.62 11.06 -0.73
-6.57 8.42 2.47
-8.58 11 -0.24
-7.98 10.24 3.48
-3.9 5.03 -1.71
-8.47 10.94 0.24
-8.4 10.85 0.72
-5.38 6.95 -1.71
-15.13 19.54 2.16
-6.15 7.94 -1.59
-15.14 19.55 3.04
-7.4 9.55 -1.48
-6.7 8.65 1.73
-8.62 11.13 -1.23
-6.65 8.58 2.11
-8.59 11.09 -0.74
-8.03 10.37 3.03
-8.54 11.03 -0.24
-6.4 8.26 2.8
-3.88 5.05 -1.71
-8.43 10.97 0.24
-8.35 10.86 0.72
-5.33 6.94 -1.7
-8.28 10.77 1.19
-6.13 7.97 -1.59
-8.22 10.69 1.66
-7.38 9.59 -1.49
-8.15 10.6 2.12
-8.62 11.21 -1.24
-6.55 8.52 2.09
-8.57 11.15 -0.74
-7.97 10.37 3.02
-8.5 11.06 -0.24
-6.2 8.07 2.73
-3.86 5.05 -1.7
-8.42 11.03 0.24
-8.31 10.89 0.72
-5.3 6.95 -1.7
-8.23 10.78 1.19
-6.1 7.99 -1.59
-8.16 10.69 1.65
-7.36 9.63 -1.49
-8.09 10.6 2.11
-8.59 11.25 -1.24
-8.03 10.51 2.57
-8.56 11.21 -0.74
-6.52 8.54 2.48
-8.51 11.14 -0.24
-6.26 8.21 2.77
-3.84 5.07 -1.71
-8.41 11.1 0.24
-8.3 10.96 0.72
-5.28 6.97 -1.7
-8.2 10.82 1.19
-6.06 8 -1.59
-8.13 10.72 1.65
-7.35 9.7 -1.49
-8.07 10.65 2.12
-8.57 11.31 -1.24
-6.49 8.56 2.48
-15.2 20.06 -0.44
-7.77 10.25 3.45
-3.83 5.09 -1.71
-15.19 20.19 0.44
-5.26 6.99 -1.7
-8.18 10.87 1.19
-6.04 8.03 -1.59
-8.11 10.78 1.66
-7.32 9.72 -1.49
-8.06 10.71 2.12
-8.62 11.46 -1.25
-7.98 10.61 2.58
-15.05 20 -1.31
-7.91 10.51 3.04
-15.22 20.23 -0.44
-7.73 10.27 3.44
-3.81 5.11 -1.71
-15.2 20.35 0.44
-12.72 17.03 1.11
-5.24 7.02 -1.7
-8.18 10.96 1.2
-6.01 8.05 -1.59
-8.09 10.84 1.66
-7.27 9.74 -1.49
-8.03 10.76 2.13
-8.64 11.57 -1.26
-13.55 18.15 -1.19
-15.25 20.43 5.89
-15.05 20.16 -0.44
-7.23 9.68 3.24
-3.8 5.12 -1.71
-16.53 22.29 0.48
-12.63 17.04 1.11
-5.23 7.05 -1.71
-15.27 20.59 2.24
-5.99 8.07 -1.59
-15.34 20.69 3.16
-7.24 9.76 -1.49
-8.02 10.81 2.13
-9.07 12.23 -1.33
-16.46 22.2 5.37
-13.19 17.79 -1.16
-15.27 20.59 5.92
-15.35 20.69 -0.45
-8.08 10.89 3.63
-3.78 5.13 -1.71
-16.41 22.3 0.48
-12.55 17.05 1.11
-5.19 7.06 -1.7
-15.28 20.77 2.26
-5.96 8.09 -1.59
-6.97 9.47 1.44
-7.2 9.78 -1.49
-9.03 12.27 -1.33
-6.41 8.71 2.1
-13.37 18.17 -1.18
-7.98 10.84 3.11
-14.86 20.2 -0.44
-9.25 12.57 4.18
-3.78 5.17 -1.71
-16.31 22.31 0.48
-12.46 17.05 1.11
-5.17 7.08 -1.7
-15.32 20.96 2.27
-5.93 8.11 -1.59
-6.96 9.52 1.45
