# .PCD v0.7 - Point Cloud Data file format
VERSION 0.7
FIELDS x y z
SIZE 4 4 4
TYPE F F F
COUNT 1 1 1
WIDTH 2912
HEIGHT 1
VIEWPOINT 0 0 0 1 0 0 0
POINTS 2912
DATA ascii
5.45 9.04 -1.67
6.99 11.58 -1.66
10.6 17.57 -1.8
20.94 34.7 -0.71
3.28 5.39 -1.69
21.05 34.6 0.71
3.8 6.25 -1.69
4.5 7.4 -1.68
5.49 9.02 -1.67
7.03 11.55 -1.66
10.66 17.52 -1.79
21.06 34.62 -0.71
3.29 5.37 -1.69
21.15 34.53 0.71
3.82 6.23 -1.69
4.52 7.37 -1.68
5.51 9 -1.67
7.06 11.53 -1.66
10.72 17.49 -1.79
21.16 34.54 -0.71
3.31 5.36 -1.69
21.27 34.45 0.71
3.84 6.21 -1.69
4.55 7.37 -1.68
5.54 8.97 -1.67
7.1 11.5 -1.66
10.77 17.44 -1.79
21.28 34.47 -0.71
3.34 5.36 -1.69
21.38 34.37 0.71
3.85 6.19 -1.68
4.57 7.34 -1.68
5.57 8.95 -1.67
7.14 11.48 -1.66
10.83 17.41 -1.79
21.4 34.4 -0.71
3.35 5.35 -1.69
21.51 34.3 0.71
3.88 6.18 -1.68
4.6 7.33 -1.68
5.6 8.93 -1.67
7.17 11.44 -1.66
10.86 17.32 -1.79
21.52 34.31 -0.71
3.37 5.33 -1.69
3.9 6.18 -1.69
4.62 7.31 -1.68
5.64 8.91 -1.67
7.22 11.41 -1.66
10.85 17.16 -1.78
3.38 5.31 -1.69
3.92 6.16 -1.69
4.64 7.29 -1.68
5.66 8.89 -1.67
7.25 11.39 -1.66
10.86 17.05 -1.77
3.4 5.3 -1.69
3.94 6.14 -1.69
4.67 7.27 -1.68
5.69 8.86 -1.67
7.29 11.36 -1.66
10.9 16.97 -1.76
3.43 5.3 -1.69
3.96 6.12 -1.68
4.7 7.26 -1.68
5.72 8.84 -1.67
7.33 11.33 -1.66
10.94 16.91 -1.76
3.45 5.29 -1.69
3.98 6.11 -1.68
4.72 7.24 -1.68
5.75 8.82 -1.67
7.36 11.29 -1.65
10.97 16.83 -1.76
3.47 5.28 -1.69
4.01 6.1 -1.69
4.74 7.22 -1.68
5.78 8.8 -1.67
7.39 11.26 -1.65
11.01 16.77 -1.75
3.48 5.27 -1.69
21.58 32.61 0.68
4.03 6.09 -1.69
4.77 7.21 -1.68
5.81 8.77 -1.67
7.43 11.24 -1.65
11.02 16.65 -1.75
21.57 32.59 -2.05
21.59 32.63 -0.68
3.5 5.25 -1.69
21.7 32.55 0.68
4.04 6.07 -1.68
4.79 7.19 -1.68
5.83 8.75 -1.67
7.48 11.22 -1.66
11.06 16.6 -1.75
21.7 32.55 -0.68
3.52 5.24 -1.69
21.81 32.48 0.68
4.06 6.04 -1.68
4.82 7.17 -1.68
5.86 8.73 -1.67
7.51 11.19 -1.65
11.09 16.52 -1.74
21.82 32.5 -0.68
3.54 5.24 -1.69
21.94 32.43 0.68
4.08 6.03 -1.68
4.84 7.15 -1.68
5.89 8.71 -1.67
7.55 11.15 -1.65
11.13 16.45 -1.74
21.94 32.43 -0.68
3.56 5.22 -1.69
22.07 32.37 0.68
4.1 6.01 -1.68
4.86 7.12 -1.68
5.92 8.69 -1.67
7.58 11.12 -1.65
11.16 16.37 -1.73
22.06 32.37 -0.68
3.57 5.2 -1.69
22.19 32.31 0.68
4.13 6.01 -1.68
4.88 7.11 -1.68
5.95 8.66 -1.66
7.62 11.1 -1.65
11.19 16.29 -1.73
22.19 32.31 -0.68
3.59 5.19 -1.69
22.31 32.25 0.68
4.14 5.99 -1.68
4.91 7.09 -1.68
5.98 8.64 -1.66
7.66 11.07 -1.65
11.22 16.22 -1.73
22.32 32.25 -0.68
3.61 5.18 -1.69
22.43 32.18 0.68
4.16 5.96 -1.68
4.93 7.08 -1.68
6.01 8.61 -1.66
7.7 11.04 -1.65
11.26 16.15 -1.72
22.41 32.15 -2.05
22.44 32.19 -0.68
3.63 5.17 -1.69
4.18 5.95 -1.68
4.96 7.06 -1.68
6.04 8.59 -1.66
7.73 11.01 -1.65
11.31 16.1 -1.72
3.65 5.16 -1.69
4.2 5.94 -1.68
4.98 7.03 -1.67
6.07 8.58 -1.66
7.77 10.98 -1.65
11.34 16.03 -1.72
3.66 5.13 -1.69
4.22 5.93 -1.68
5 7.01 -1.67
6.09 8.55 -1.66
7.81 10.96 -1.65
11.35 15.93 -1.71
33.12 46.46 -1
3.68 5.12 -1.69
4.24 5.91 -1.68
5.02 6.99 -1.67
6.11 8.51 -1.66
7.84 10.92 -1.65
11.39 15.87 -1.71
33.35 46.45 -1
3.7 5.12 -1.69
4.26 5.89 -1.68
5.05 6.98 -1.67
6.15 8.5 -1.66
7.88 10.9 -1.65
11.43 15.8 -1.71
33.55 46.38 -1
3.72 5.11 -1.69
4.28 5.88 -1.68
5.07 6.96 -1.67
6.18 8.48 -1.66
7.91 10.86 -1.65
11.46 15.72 -1.7
33.77 46.34 -1
3.74 5.09 -1.69
4.3 5.86 -1.68
5.09 6.94 -1.67
6.21 8.46 -1.66
7.95 10.84 -1.65
11.47 15.62 -1.7
33.98 46.29 -1
3.75 5.07 -1.69
4.32 5.84 -1.68
5.12 6.92 -1.67
6.24 8.43 -1.66
7.99 10.8 -1.65
11.48 15.52 -1.69
34.16 46.2 -1
3.77 5.06 -1.69
4.34 5.83 -1.68
5.14 6.91 -1.67
6.26 8.4 -1.66
8.02 10.78 -1.65
11.49 15.43 -1.68
23.47 31.53 -2.06
34.38 46.19 -1.01
3.79 5.05 -1.69
4.35 5.81 -1.68
5.17 6.89 -1.67
6.28 8.38 -1.66
8.06 10.75 -1.65
11.5 15.34 -1.68
34.6 46.15 -1.01
3.8 5.03 -1.69
4.37 5.79 -1.68
5.19 6.87 -1.67
6.31 8.36 -1.66
8.09 10.71 -1.65
11.52 15.26 -1.67
34.82 46.1 -1.01
3.82 5.03 -1.69
4.4 5.79 -1.68
5.2 6.84 -1.67
6.34 8.34 -1.66
8.13 10.69 -1.65
11.54 15.16 -1.67
3.83 5 -1.69
4.42 5.76 -1.68
5.23 6.82 -1.67
6.37 8.31 -1.66
8.17 10.66 -1.65
11.56 15.09 -1.66
3.85 4.99 -1.69
4.44 5.75 -1.68
5.25 6.81 -1.67
6.39 8.28 -1.66
8.21 10.63 -1.65
11.58 15 -1.66
34.05 44.1 -0.97
3.86 4.97 -1.69
4.45 5.72 -1.67
5.28 6.79 -1.67
6.42 8.25 -1.66
8.24 10.6 -1.65
11.6 14.92 -1.65
34.09 43.86 -0.97
3.88 4.96 -1.69
4.47 5.71 -1.67
5.3 6.77 -1.67
6.45 8.24 -1.66
8.27 10.56 -1.65
11.63 14.85 -1.65
3.9 4.95 -1.69
34.41 43.64 0.97
4.49 5.7 -1.68
5.31 6.73 -1.67
6.48 8.21 -1.66
8.31 10.54 -1.65
11.66 14.78 -1.65
3.91 4.93 -1.69
34.43 43.34 0.97
4.51 5.68 -1.68
5.34 6.72 -1.67
6.5 8.19 -1.66
8.35 10.51 -1.65
11.68 14.71 -1.64
3.93 4.92 -1.69
34.44 43.06 0.96
4.53 5.66 -1.67
5.36 6.7 -1.67
6.52 8.16 -1.65
8.38 10.48 -1.65
11.7 14.63 -1.64
3.95 4.9 -1.69
34.5 42.83 0.96
4.54 5.64 -1.67
5.39 6.69 -1.67
6.55 8.14 -1.65
8.42 10.45 -1.65
11.73 14.56 -1.64
3.96 4.89 -1.69
4.57 5.63 -1.67
5.4 6.66 -1.67
6.58 8.11 -1.65
8.44 10.41 -1.65
11.77 14.51 -1.63
3.98 4.87 -1.69
4.59 5.62 -1.67
5.42 6.64 -1.67
6.61 8.09 -1.65
8.48 10.38 -1.65
11.8 14.44 -1.63
3.99 4.85 -1.68
4.61 5.6 -1.67
5.44 6.62 -1.67
6.63 8.06 -1.65
8.51 10.34 -1.64
11.79 14.33 -1.62
4.01 4.84 -1.68
4.63 5.58 -1.67
5.47 6.6 -1.67
6.65 8.03 -1.65
8.55 10.31 -1.64
11.82 14.27 -1.62
4.03 4.82 -1.68
4.64 5.56 -1.67
5.49 6.57 -1.66
6.68 8 -1.65
8.59 10.28 -1.64
11.86 14.2 -1.62
4.05 4.81 -1.68
4.67 5.55 -1.67
5.51 6.55 -1.66
6.72 7.98 -1.65
8.61 10.24 -1.64
11.89 14.13 -1.62
4.06 4.79 -1.68
4.69 5.53 -1.67
5.52 6.52 -1.66
6.74 7.96 -1.65
8.64 10.21 -1.64
11.91 14.07 -1.61
4.07 4.77 -1.68
4.71 5.52 -1.68
5.54 6.5 -1.66
6.77 7.94 -1.65
8.68 10.18 -1.64
11.93 13.99 -1.61
4.08 4.76 -1.68
19.42 22.62 0.52
4.73 5.51 -1.68
5.57 6.49 -1.66
6.78 7.9 -1.65
8.72 10.15 -1.64
11.97 13.94 -1.61
19.42 22.62 -1.56
19.42 22.62 -0.52
4.11 4.75 -1.68
4.74 5.48 -1.67
5.59 6.47 -1.66
6.81 7.88 -1.65
8.76 10.13 -1.64
12.02 13.9 -1.61
4.12 4.73 -1.68
4.76 5.46 -1.67
5.61 6.45 -1.66
46.45 53.36 6.19
6.84 7.85 -1.65
8.78 10.09 -1.64
12.07 13.86 -1.61
4.14 4.72 -1.68
4.78 5.46 -1.68
5.63 6.42 -1.66
6.86 7.83 -1.65
8.82 10.06 -1.64
12.11 13.81 -1.61
4.14 4.69 -1.68
4.8 5.44 -1.68
5.66 6.4 -1.66
6.89 7.8 -1.65
8.86 10.04 -1.64
12.14 13.75 -1.6
35.23 39.89 -0.93
4.17 4.68 -1.68
25.12 28.24 0.66
4.83 5.43 -1.68
5.67 6.38 -1.66
6.91 7.77 -1.65
8.91 10.02 -1.65
12.2 13.71 -1.61
4.18 4.66 -1.68
25.24 28.19 0.66
4.84 5.4 -1.67
5.7 6.36 -1.66
6.94 7.75 -1.65
8.93 9.97 -1.64
12.24 13.67 -1.61
35.5 39.65 -0.93
4.2 4.65 -1.68
25.33 28.1 0.66
4.86 5.39 -1.67
5.72 6.34 -1.66
6.96 7.72 -1.65
8.95 9.93 -1.64
12.29 13.63 -1.61
35.57 39.45 -0.93
4.21 4.64 -1.68
35.64 39.24 0.93
4.88 5.37 -1.68
5.73 6.31 -1.66
46.63 51.33 6.07
7 7.7 -1.65
8.99 9.89 -1.64
12.33 13.57 -1.6
35.65 39.25 -0.93
4.22 4.62 -1.68
35.76 39.1 0.92
4.9 5.36 -1.68
5.75 6.29 -1.66
7.02 7.67 -1.65
9.03 9.87 -1.64
12.37 13.52 -1.6
35.82 39.16 -0.93
4.24 4.6 -1.68
35.87 38.95 0.92
4.92 5.34 -1.68
5.77 6.27 -1.66
7.04 7.65 -1.65
45.57 49.47 8.26
9.06 9.83 -1.64
12.41 13.47 -1.6
35.92 39 -0.93
4.26 4.59 -1.68
35.99 38.8 0.92
4.93 5.32 -1.67
5.8 6.25 -1.66
45.68 49.24 5.88
7.07 7.62 -1.65
45.56 49.11 8.22
9.09 9.79 -1.64
12.46 13.43 -1.6
36.06 38.87 -0.93
4.28 4.58 -1.68
36.12 38.66 0.92
4.95 5.3 -1.67
5.82 6.23 -1.66
45.71 48.93 5.86
7.09 7.59 -1.65
45.59 48.81 8.2
9.1 9.74 -1.64
12.51 13.39 -1.6
36.2 38.75 -0.93
4.29 4.56 -1.68
36.34 38.63 0.93
4.97 5.29 -1.68
5.84 6.2 -1.66
45.75 48.63 5.84
7.12 7.57 -1.65
45.66 48.53 8.18
9.15 9.73 -1.64
12.55 13.34 -1.6
36.31 38.6 -0.93
4.29 4.53 -1.67
45.84 48.4 1.16
4.99 5.27 -1.68
5.85 6.18 -1.65
45.77 48.33 5.82
7.14 7.54 -1.65
45.65 48.21 8.15
9.18 9.69 -1.64
12.59 13.29 -1.6
36.44 38.48 -0.92
4.32 4.53 -1.68
45.83 48.07 1.16
5.01 5.25 -1.67
45.82 48.06 3.48
5.88 6.16 -1.66
45.8 48.03 5.81
7.16 7.51 -1.64
45.68 47.91 8.13
9.21 9.66 -1.64
12.64 13.26 -1.6
36.56 38.35 -0.92
4.33 4.51 -1.68
45.87 47.78 1.16
5.02 5.23 -1.67
5.9 6.14 -1.66
7.18 7.48 -1.64
45.71 47.61 8.1
9.25 9.63 -1.64
12.68 13.21 -1.6
4.35 4.5 -1.68
45.91 47.5 1.15
5.04 5.22 -1.67
5.93 6.13 -1.66
45.57 47.15 5.74
7.2 7.45 -1.64
45.73 47.31 8.08
9.26 9.58 -1.64
12.73 13.17 -1.6
4.37 4.48 -1.68
45.95 47.19 1.15
5.06 5.2 -1.67
5.94 6.1 -1.65
19.38 19.9 2.43
7.24 7.43 -1.64
9.3 9.55 -1.64
12.78 13.12 -1.6
4.37 4.45 -1.67
19.47 19.86 0.49
5.08 5.18 -1.67
19.46 19.84 1.46
5.95 6.07 -1.65
19.49 19.87 2.44
7.25 7.4 -1.64
19.37 19.75 3.4
9.34 9.53 -1.64
12.81 13.06 -1.6
19.56 19.95 -1.46
19.51 19.9 -0.49
4.38 4.44 -1.67
5.1 5.16 -1.68
19.44 19.69 1.45
5.97 6.05 -1.65
7.28 7.37 -1.64
45.56 46.14 7.96
9.37 9.49 -1.64
12.87 13.03 -1.6
19.58 19.82 -1.46
4.4 4.43 -1.67
45.97 46.24 1.14
5.11 5.14 -1.67
6 6.03 -1.65
7.3 7.34 -1.64
45.62 45.89 7.95
9.39 9.45 -1.64
12.92 12.99 -1.6
4.42 4.42 -1.68
46.03 45.98 1.14
5.12 5.12 -1.67
6.01 6.01 -1.65
45.73 45.69 5.66
7.32 7.31 -1.64
9.42 9.41 -1.64
12.94 12.93 -1.6
4.43 4.4 -1.67
46.06 45.7 1.13
5.14 5.1 -1.67
6.03 5.98 -1.65
45.73 45.37 5.64
7.35 7.29 -1.64
9.45 9.38 -1.63
12.98 12.88 -1.6
4.44 4.38 -1.67
46.14 45.45 1.13
5.16 5.08 -1.67
6.05 5.96 -1.65
45.75 45.07 5.62
7.37 7.26 -1.64
9.49 9.34 -1.63
13.03 12.83 -1.6
4.46 4.36 -1.67
38.19 37.36 0.93
5.18 5.07 -1.67
46.11 45.11 3.38
6.07 5.94 -1.65
7.39 7.23 -1.64
45.76 44.77 7.86
9.52 9.32 -1.64
13.07 12.79 -1.6
4.48 4.35 -1.67
38.36 37.26 0.93
5.19 5.04 -1.67
46.12 44.81 3.37
6.09 5.92 -1.65
7.41 7.19 -1.64
9.55 9.28 -1.64
13.11 12.74 -1.6
4.49 4.33 -1.67
38.57 37.22 0.94
5.21 5.03 -1.67
46.13 44.51 3.36
6.12 5.9 -1.65
7.43 7.17 -1.64
45.78 44.17 7.81
9.57 9.24 -1.63
13.16 12.7 -1.6
22.26 21.48 -1.62
4.51 4.32 -1.67
38.77 37.14 0.94
5.23 5.01 -1.67
46.19 44.25 3.35
6.13 5.87 -1.65
7.46 7.15 -1.64
45.78 43.86 7.78
9.6 9.2 -1.63
19.51 18.69 4.28
13.18 12.63 -1.6
22.27 21.34 -1.62
4.52 4.3 -1.67
38.97 37.08 0.94
5.25 4.99 -1.67
46.22 43.98 3.34
6.14 5.85 -1.65
7.48 7.12 -1.64
45.83 43.6 7.77
9.63 9.17 -1.63
19.52 18.57 4.27
13.22 12.58 -1.6
22.26 21.18 -1.61
4.53 4.28 -1.67
39.2 37.05 0.94
5.26 4.97 -1.67
46.22 43.69 3.33
6.16 5.83 -1.65
45.89 43.38 5.52
7.49 7.08 -1.63
45.83 43.32 7.74
9.67 9.14 -1.63
19.52 18.45 4.25
13.25 12.53 -1.6
22.3 21.08 -1.61
4.54 4.27 -1.67
39.35 36.95 0.94
5.27 4.95 -1.67
46.3 43.47 3.33
6.19 5.81 -1.65
45.93 43.12 5.51
7.51 7.05 -1.63
45.84 43.04 7.72
9.7 9.1 -1.63
19.56 18.36 4.25
13.28 12.47 -1.59
22.3 20.93 -1.6
4.57 4.25 -1.67
39.64 36.93 0.95
5.29 4.93 -1.67
46.28 43.11 3.31
6.21 5.79 -1.65
45.99 42.84 5.5
7.55 7.03 -1.63
46.08 42.92 7.73
9.72 9.06 -1.63
19.62 18.27 4.25
13.32 12.41 -1.59
22.36 20.83 -1.6
4.58 4.24 -1.67
46.3 42.84 1.1
5.3 4.9 -1.67
46.32 42.86 3.31
6.22 5.75 -1.65
46.04 42.59 5.49
7.56 7 -1.63
46.16 42.7 7.72
9.75 9.02 -1.63
13.35 12.35 -1.59
22.43 20.75 -1.6
4.59 4.22 -1.67
46.3 42.56 1.1
5.32 4.89 -1.67
46.32 42.57 3.3
6.24 5.74 -1.65
46.27 42.53 5.5
7.58 6.97 -1.63
46.2 42.47 7.71
9.78 8.99 -1.63
13.38 12.3 -1.59
22.49 20.67 -1.6
4.6 4.2 -1.67
46.33 42.29 1.09
5.34 4.87 -1.67
46.31 42.28 3.29
6.27 5.73 -1.65
46.29 42.26 5.48
7.6 6.94 -1.63
46.19 42.17 7.68
9.81 8.96 -1.63
13.41 12.25 -1.59
22.54 20.58 -1.6
4.62 4.18 -1.67
46.36 42.03 1.09
5.35 4.85 -1.67
46.39 42.05 3.28
6.29 5.7 -1.65
46.3 41.96 5.47
7.63 6.91 -1.63
46.23 41.91 7.66
9.83 8.91 -1.63
13.45 12.19 -1.59
22.6 20.49 -1.6
42.4 38.43 -1
4.63 4.17 -1.67
46.39 41.76 1.09
5.36 4.83 -1.67
46.38 41.76 3.27
6.31 5.68 -1.65
46.37 41.74 5.46
7.65 6.89 -1.63
46.25 41.64 7.64
9.86 8.88 -1.63
13.49 12.15 -1.59
22.66 20.4 -1.6
4.65 4.15 -1.67
28.59 25.55 0.67
5.38 4.81 -1.67
46.43 41.5 3.26
6.32 5.65 -1.65
46.37 41.44 5.44
7.68 6.86 -1.63
46.27 41.35 7.62
9.89 8.84 -1.63
13.54 12.1 -1.59
22.71 20.3 -1.6
4.65 4.13 -1.67
5.4 4.79 -1.67
46.45 41.23 3.26
6.34 5.63 -1.65
46.39 41.17 5.43
7.7 6.84 -1.63
46.33 41.12 7.61
9.92 8.8 -1.63
13.57 12.05 -1.59
22.79 20.22 -1.6
4.67 4.11 -1.67
5.41 4.76 -1.66
46.45 40.93 3.24
6.37 5.61 -1.65
46.41 40.9 5.41
7.71 6.79 -1.63
46.31 40.82 7.58
9.95 8.77 -1.63
13.6 11.99 -1.59
22.86 20.14 -1.6
4.69 4.1 -1.67
5.42 4.74 -1.66
46.49 40.69 3.24
6.39 5.59 -1.65
46.5 40.69 5.41
7.74 6.77 -1.63
46.38 40.59 7.57
9.98 8.73 -1.63
13.64 11.94 -1.59
22.9 20.04 -1.59
4.7 4.09 -1.67
5.43 4.72 -1.66
6.41 5.57 -1.65
46.64 40.53 5.41
7.75 6.74 -1.63
46.67 40.56 7.59
9.99 8.68 -1.63
13.68 11.89 -1.59
22.97 19.96 -1.59
4.72 4.07 -1.67
5.45 4.7 -1.66
6.42 5.54 -1.65
7.77 6.71 -1.63
10.02 8.64 -1.62
13.72 11.84 -1.59
23.02 19.86 -1.59
4.73 4.05 -1.67
5.47 4.68 -1.66
6.44 5.52 -1.65
47.6 40.79 5.48
7.8 6.68 -1.63
10.05 8.61 -1.62
13.75 11.78 -1.58
23.07 19.76 -1.59
4.74 4.03 -1.67
5.49 4.67 -1.66
6.47 5.51 -1.65
7.81 6.64 -1.62
10.08 8.57 -1.62
13.78 11.72 -1.58
23.12 19.67 -1.59
4.76 4.02 -1.67
5.49 4.64 -1.66
6.49 5.48 -1.65
7.82 6.61 -1.62
10.1 8.53 -1.62
13.84 11.69 -1.58
23.15 19.56 -1.59
4.77 4 -1.67
5.51 4.62 -1.66
6.51 5.46 -1.65
7.85 6.58 -1.62
10.12 8.49 -1.62
13.87 11.63 -1.58
23.21 19.47 -1.59
4.79 3.99 -1.67
5.53 4.61 -1.66
6.52 5.43 -1.65
7.87 6.56 -1.62
10.14 8.45 -1.62
13.9 11.58 -1.58
23.3 19.41 -1.59
43.6 36.32 -0.99
4.79 3.97 -1.67
5.55 4.59 -1.66
6.54 5.41 -1.65
7.88 6.52 -1.62
10.17 8.41 -1.62
13.93 11.53 -1.58
23.36 19.33 -1.59
4.81 3.95 -1.67
5.56 4.57 -1.66
6.56 5.39 -1.65
7.91 6.49 -1.62
10.2 8.38 -1.62
13.97 11.48 -1.58
23.42 19.24 -1.59
44.29 36.38 -1
4.82 3.93 -1.67
5.56 4.53 -1.66
6.58 5.37 -1.65
7.93 6.46 -1.62
10.22 8.34 -1.62
14.01 11.43 -1.58
23.46 19.14 -1.59
4.84 3.92 -1.67
5.58 4.52 -1.66
6.6 5.35 -1.65
7.95 6.44 -1.62
10.24 8.29 -1.62
14.05 11.38 -1.58
23.51 19.03 -1.59
4.86 3.9 -1.67
5.6 4.5 -1.66
6.61 5.31 -1.65
7.97 6.41 -1.62
10.27 8.26 -1.62
14.09 11.33 -1.58
23.56 18.95 -1.58
4.86 3.88 -1.67
5.62 4.49 -1.66
6.63 5.29 -1.65
8 6.38 -1.62
10.29 8.22 -1.62
14.12 11.27 -1.58
23.63 18.87 -1.58
4.88 3.87 -1.67
5.64 4.47 -1.66
6.65 5.27 -1.65
8.01 6.35 -1.62
10.32 8.18 -1.62
14.14 11.21 -1.58
23.77 18.84 -1.59
4.9 3.85 -1.67
5.64 4.44 -1.66
6.67 5.25 -1.65
8.03 6.32 -1.62
10.35 8.14 -1.62
14.19 11.17 -1.58
23.74 18.68 -1.58
4.91 3.84 -1.67
5.66 4.42 -1.66
6.68 5.22 -1.65
8.06 6.3 -1.62
10.36 8.09 -1.61
14.22 11.11 -1.58
23.9 18.68 -1.59
4.92 3.82 -1.67
5.67 4.4 -1.66
6.69 5.19 -1.65
8.09 6.27 -1.62
10.39 8.06 -1.61
14.26 11.06 -1.58
4.93 3.8 -1.67
5.69 4.38 -1.66
6.71 5.17 -1.65
8.09 6.23 -1.62
10.41 8.02 -1.61
14.28 11 -1.58
4.94 3.78 -1.67
5.7 4.36 -1.66
6.73 5.14 -1.65
8.1 6.19 -1.61
10.44 7.98 -1.61
14.31 10.94 -1.58
4.96 3.76 -1.67
5.71 4.34 -1.66
6.75 5.12 -1.65
8.12 6.16 -1.61
10.47 7.95 -1.61
14.33 10.88 -1.57
47.33 35.92 -1.04
4.98 3.75 -1.67
5.72 4.31 -1.65
6.76 5.09 -1.65
8.14 6.14 -1.61
10.48 7.89 -1.61
14.37 10.83 -1.57
4.99 3.73 -1.67
5.74 4.3 -1.66
6.77 5.06 -1.64
8.17 6.11 -1.62
10.5 7.86 -1.61
20.16 15.08 3.99
14.37 10.75 -1.57
20.21 15.12 4.91
4.99 3.71 -1.67
5.77 4.29 -1.66
6.78 5.04 -1.64
8.19 6.08 -1.62
10.53 7.82 -1.61
14.42 10.71 -1.57
20.32 15.09 4.92
5.01 3.69 -1.67
5.78 4.26 -1.66
6.8 5.01 -1.64
8.2 6.05 -1.61
10.56 7.78 -1.61
14.43 10.64 -1.57
20.39 15.03 4.92
5.03 3.68 -1.67
5.78 4.23 -1.65
6.82 4.99 -1.64
8.22 6.02 -1.61
10.57 7.74 -1.61
14.47 10.6 -1.57
20.46 14.98 4.93
24.36 17.84 -1.58
5.04 3.66 -1.67
5.79 4.21 -1.65
6.84 4.97 -1.64
8.24 5.99 -1.61
10.59 7.69 -1.61
14.49 10.53 -1.57
24.41 17.74 -1.58
5.05 3.64 -1.67
5.82 4.2 -1.66
6.84 4.94 -1.64
8.28 5.97 -1.62
10.61 7.66 -1.61
14.53 10.48 -1.57
24.44 17.63 -1.58
5.06 3.62 -1.67
5.84 4.18 -1.66
6.86 4.91 -1.64
8.3 5.94 -1.62
10.64 7.62 -1.61
14.57 10.43 -1.57
24.34 17.43 -1.57
5.07 3.6 -1.67
5.85 4.16 -1.66
6.89 4.89 -1.64
8.31 5.91 -1.62
10.66 7.58 -1.61
14.6 10.38 -1.57
24.4 17.34 -1.57
5.08 3.58 -1.67
5.85 4.13 -1.65
6.9 4.87 -1.64
8.34 5.88 -1.62
10.68 7.53 -1.6
14.64 10.33 -1.57
5.1 3.57 -1.67
5.86 4.11 -1.65
6.92 4.84 -1.64
8.35 5.85 -1.62
10.69 7.48 -1.6
14.63 10.25 -1.56
5.11 3.55 -1.67
5.88 4.09 -1.65
6.92 4.81 -1.64
8.39 5.83 -1.62
10.71 7.45 -1.6
14.65 10.19 -1.56
5.11 3.53 -1.66
5.9 4.07 -1.66
6.94 4.79 -1.64
8.41 5.81 -1.62
10.74 7.41 -1.6
14.68 10.13 -1.56
5.13 3.51 -1.67
5.91 4.05 -1.66
6.96 4.77 -1.64
8.43 5.77 -1.62
10.77 7.37 -1.6
14.68 10.06 -1.56
24.17 16.56 -1.54
5.14 3.5 -1.67
5.92 4.02 -1.65
6.97 4.74 -1.64
8.45 5.74 -1.62
10.79 7.33 -1.6
14.72 10.01 -1.56
24.12 16.4 -1.53
5.15 3.48 -1.67
5.94 4.01 -1.65
6.99 4.72 -1.64
8.46 5.71 -1.62
10.79 7.28 -1.6
14.74 9.95 -1.56
24.12 16.27 -1.52
5.17 3.46 -1.67
5.95 3.99 -1.65
7 4.69 -1.64
8.49 5.69 -1.62
10.82 7.24 -1.6
14.76 9.89 -1.55
24.17 16.18 -1.52
5.17 3.44 -1.66
5.97 3.97 -1.66
7.01 4.66 -1.64
8.52 5.66 -1.62
10.85 7.21 -1.6
14.77 9.82 -1.55
5.19 3.42 -1.66
5.98 3.95 -1.66
7.03 4.64 -1.64
8.54 5.63 -1.62
10.86 7.16 -1.6
14.79 9.76 -1.55
5.19 3.4 -1.66
5.99 3.92 -1.65
7.05 4.62 -1.64
8.56 5.6 -1.62
10.89 7.13 -1.6
14.83 9.71 -1.55
5.21 3.39 -1.67
6 3.9 -1.65
7.06 4.59 -1.64
8.57 5.57 -1.62
10.91 7.09 -1.6
14.85 9.65 -1.55
5.22 3.37 -1.66
6.02 3.88 -1.65
7.08 4.56 -1.64
8.6 5.54 -1.62
10.92 7.04 -1.6
14.89 9.6 -1.55
5.22 3.34 -1.66
6.04 3.87 -1.66
7.08 4.53 -1.63
8.61 5.51 -1.62
10.95 7.01 -1.6
14.86 9.51 -1.54
5.23 3.32 -1.66
6.05 3.84 -1.66
7.1 4.51 -1.63
8.62 5.47 -1.62
10.98 6.98 -1.6
14.92 9.48 -1.55
5.25 3.31 -1.66
6.06 3.82 -1.65
7.12 4.49 -1.64
8.64 5.45 -1.62
11.02 6.95 -1.6
14.95 9.42 -1.55
5.27 3.29 -1.66
6.07 3.8 -1.65
7.13 4.46 -1.64
8.66 5.41 -1.62
11.01 6.89 -1.6
14.99 9.37 -1.55
5.28 3.27 -1.66
6.09 3.78 -1.65
7.14 4.43 -1.63
8.67 5.38 -1.62
11.01 6.83 -1.59
14.99 9.3 -1.54
5.28 3.25 -1.66
6.11 3.76 -1.66
7.16 4.41 -1.63
8.68 5.35 -1.62
11.02 6.79 -1.59
15 9.24 -1.54
5.29 3.23 -1.66
6.12 3.74 -1.65
7.17 4.38 -1.63
8.69 5.31 -1.61
11.05 6.75 -1.59
15.05 9.19 -1.54
5.3 3.21 -1.66
6.12 3.71 -1.65
7.19 4.36 -1.63
8.71 5.28 -1.61
11.07 6.71 -1.59
15.06 9.13 -1.54
5.31 3.2 -1.66
6.14 3.69 -1.65
7.2 4.33 -1.63
8.72 5.24 -1.61
11.08 6.66 -1.59
15.1 9.08 -1.54
5.32 3.18 -1.66
6.16 3.67 -1.65
7.21 4.3 -1.63
8.74 5.21 -1.61
11.11 6.63 -1.59
15.13 9.02 -1.54
5.32 3.15 -1.66
6.17 3.65 -1.66
7.23 4.28 -1.63
8.75 5.18 -1.61
11.13 6.59 -1.59
15.15 8.97 -1.54
5.34 3.14 -1.66
6.18 3.63 -1.66
7.25 4.26 -1.63
8.77 5.15 -1.61
11.18 6.56 -1.59
15.17 8.91 -1.54
5.35 3.12 -1.66
6.18 3.6 -1.65
7.27 4.23 -1.63
8.78 5.12 -1.61
11.18 6.51 -1.59
15.21 8.86 -1.54
5.37 3.1 -1.66
6.2 3.58 -1.65
7.28 4.2 -1.63
8.8 5.08 -1.61
11.19 6.46 -1.59
15.24 8.8 -1.54
24.36 14.08 -1.47
5.38 3.08 -1.66
6.22 3.56 -1.65
7.28 4.17 -1.63
8.82 5.05 -1.61
11.21 6.42 -1.59
15.26 8.75 -1.54
5.38 3.06 -1.66
6.23 3.54 -1.65
7.3 4.15 -1.63
8.83 5.02 -1.61
11.24 6.39 -1.59
15.28 8.69 -1.54
24.37 13.86 -1.47
5.39 3.04 -1.66
6.24 3.52 -1.65
7.32 4.13 -1.63
8.85 4.99 -1.61
11.26 6.35 -1.59
15.3 8.63 -1.54
24.38 13.75 -1.47
5.41 3.03 -1.66
6.24 3.49 -1.65
7.34 4.11 -1.63
8.86 4.96 -1.61
11.27 6.31 -1.59
15.31 8.57 -1.54
24.4 13.65 -1.47
5.41 3 -1.66
6.26 3.47 -1.65
7.35 4.08 -1.63
8.88 4.93 -1.61
11.31 6.27 -1.59
15.35 8.52 -1.54
24.38 13.53 -1.46
5.42 2.98 -1.66
6.28 3.46 -1.65
7.36 4.05 -1.63
8.9 4.9 -1.61
11.32 6.23 -1.59
15.38 8.46 -1.54
24.42 13.44 -1.46
5.43 2.96 -1.66
79.01 43.13 1.57
6.28 3.43 -1.65
7.38 4.03 -1.63
8.91 4.87 -1.61
11.35 6.2 -1.59
15.39 8.4 -1.53
24.43 13.34 -1.46
17.78 9.71 -0.35
5.44 2.94 -1.66
79.43 43 1.58
6.3 3.41 -1.65
7.4 4 -1.63
8.92 4.83 -1.61
11.38 6.16 -1.59
15.42 8.35 -1.53
17.75 9.61 -1.06
5.46 2.93 -1.66
17.75 9.53 0.35
6.3 3.38 -1.65
7.41 3.98 -1.63
8.94 4.8 -1.61
11.41 6.13 -1.59
15.45 8.29 -1.53
17.76 9.54 -1.06
5.47 2.91 -1.66
17.75 9.45 0.35
6.3 3.36 -1.65
7.43 3.96 -1.64
8.96 4.77 -1.61
11.43 6.09 -1.59
15.48 8.24 -1.53
17.73 9.44 -1.05
5.47 2.89 -1.66
17.77 9.38 0.35
6.32 3.34 -1.65
7.43 3.92 -1.63
8.98 4.74 -1.61
11.45 6.05 -1.59
15.5 8.18 -1.53
5.48 2.87 -1.66
17.78 9.31 0.35
6.34 3.32 -1.65
7.45 3.9 -1.63
8.99 4.71 -1.61
11.47 6 -1.59
15.51 8.12 -1.53
24.47 12.81 -1.45
5.49 2.85 -1.66
17.8 9.24 0.35
6.34 3.29 -1.65
7.47 3.88 -1.64
9 4.67 -1.61
11.49 5.96 -1.59
15.53 8.06 -1.53
24.51 12.72 -1.45
17.87 9.28 -0.35
5.5 2.83 -1.66
6.35 3.27 -1.65
7.49 3.85 -1.64
9.02 4.64 -1.61
11.52 5.93 -1.59
11.26 5.79 -1.11
11.29 5.81 -0.67
17.93 9.22 -0.35
5.51 2.81 -1.66
6.36 3.24 -1.65
7.5 3.83 -1.64
9.03 4.61 -1.61
11.53 5.88 -1.59
11.23 5.73 -1.1
11.3 5.77 -0.67
5.52 2.79 -1.66
6.38 3.23 -1.65
7.5 3.79 -1.63
9.06 4.58 -1.61
11.55 5.84 -1.59
11.2 5.66 -1.1
11.29 5.71 -0.66
5.52 2.77 -1.66
6.39 3.21 -1.65
7.51 3.77 -1.63
9.07 4.55 -1.61
11.57 5.81 -1.59
11.21 5.63 -1.1
11.27 5.65 -0.66
5.53 2.75 -1.66
6.4 3.19 -1.65
7.53 3.75 -1.63
9.08 4.52 -1.61
11.59 5.76 -1.59
11.21 5.58 -1.1
11.27 5.61 -0.66
5.55 2.73 -1.66
6.4 3.15 -1.65
7.55 3.72 -1.64
9.1 4.48 -1.61
11.6 5.72 -1.59
11.21 5.52 -1.09
11.27 5.55 -0.66
11.54 5.69 -0.22
5.56 2.71 -1.66
6.41 3.13 -1.65
7.56 3.69 -1.63
9.12 4.45 -1.61
11.6 5.67 -1.59
11.2 5.47 -1.09
11.26 5.5 -0.66
11.5 5.62 -0.22
5.57 2.7 -1.66
6.42 3.11 -1.65
7.56 3.66 -1.63
9.13 4.42 -1.61
11.62 5.63 -1.59
11.18 5.41 -1.09
11.24 5.44 -0.65
11.49 5.57 -0.22
5.56 2.67 -1.65
6.43 3.09 -1.65
7.57 3.64 -1.63
9.15 4.39 -1.61
11.63 5.58 -1.58
11.15 5.35 -1.08
11.23 5.39 -0.65
11.42 5.48 -0.22
5.57 2.65 -1.65
6.44 3.06 -1.65
7.59 3.61 -1.63
9.16 4.36 -1.61
11.66 5.55 -1.59
11.16 5.31 -1.08
11.23 5.35 -0.65
11.44 5.44 -0.22
5.59 2.64 -1.66
6.44 3.04 -1.64
7.6 3.59 -1.63
9.16 4.32 -1.6
11.66 5.5 -1.58
11.17 5.27 -1.08
11.22 5.29 -0.65
11.46 5.4 -0.22
5.6 2.62 -1.66
6.45 3.01 -1.64
21.07 9.84 1.22
7.61 3.56 -1.63
9.19 4.29 -1.61
11.67 5.45 -1.58
11.16 5.22 -1.08
11.23 5.24 -0.65
5.61 2.6 -1.66
6.47 2.99 -1.65
21.08 9.76 1.22
7.61 3.52 -1.63
9.21 4.26 -1.61
11.69 5.41 -1.58
11.17 5.17 -1.08
11.22 5.2 -0.65
5.61 2.57 -1.65
6.48 2.97 -1.65
21.11 9.68 1.22
7.63 3.5 -1.63
9.23 4.23 -1.61
11.71 5.37 -1.58
11.16 5.12 -1.07
11.24 5.16 -0.65
5.62 2.56 -1.65
6.5 2.95 -1.65
21.19 9.63 1.22
7.64 3.47 -1.63
9.23 4.2 -1.61
11.73 5.33 -1.58
11.17 5.08 -1.07
11.22 5.1 -0.65
5.64 2.54 -1.66
21.11 9.5 0.4
6.49 2.92 -1.64
21.12 9.51 1.21
7.66 3.45 -1.63
9.25 4.16 -1.61
11.74 5.29 -1.58
11.17 5.03 -1.07
11.21 5.05 -0.64
5.64 2.52 -1.66
21.22 9.47 0.41
6.5 2.9 -1.64
21.28 9.49 1.22
7.66 3.42 -1.63
9.27 4.13 -1.61
11.77 5.25 -1.58
11.18 4.99 -1.07
11.23 5.01 -0.64
5.66 2.5 -1.66
6.51 2.88 -1.64
21.15 9.35 1.21
7.67 3.39 -1.63
9.28 4.1 -1.61
11.78 5.21 -1.58
11.19 4.95 -1.07
11.24 4.97 -0.64
5.66 2.48 -1.65
6.53 2.86 -1.65
21.14 9.26 1.21
7.68 3.36 -1.63
9.29 4.07 -1.61
11.8 5.17 -1.58
11.19 4.9 -1.07
11.25 4.93 -0.64
5.67 2.46 -1.65
6.54 2.83 -1.64
7.69 3.34 -1.63
9.3 4.03 -1.61
11.82 5.12 -1.58
11.2 4.85 -1.07
11.27 4.88 -0.64
5.68 2.44 -1.66
6.54 2.81 -1.64
7.71 3.31 -1.63
9.32 4 -1.61
11.83 5.08 -1.58
11.21 4.81 -1.07
11.27 4.84 -0.64
5.69 2.42 -1.66
6.55 2.79 -1.64
7.72 3.28 -1.63
9.33 3.97 -1.61
11.84 5.03 -1.58
11.22 4.77 -1.07
11.27 4.79 -0.64
5.7 2.4 -1.66
6.56 2.76 -1.64
7.72 3.25 -1.63
9.35 3.94 -1.61
11.86 4.99 -1.58
11.22 4.73 -1.07
11.28 4.75 -0.64
5.7 2.38 -1.66
6.57 2.74 -1.64
7.73 3.23 -1.63
9.36 3.91 -1.61
11.88 4.96 -1.58
11.23 4.69 -1.06
11.3 4.71 -0.64
5.7 2.36 -1.65
6.58 2.72 -1.64
7.74 3.2 -1.63
9.36 3.87 -1.6
11.9 4.92 -1.58
11.23 4.64 -1.06
11.31 4.67 -0.64
11.52 4.76 -0.22
5.72 2.34 -1.66
6.58 2.7 -1.64
7.76 3.17 -1.63
9.38 3.84 -1.61
11.91 4.88 -1.58
11.25 4.6 -1.06
11.33 4.64 -0.64
11.54 4.72 -0.22
5.74 2.33 -1.66
6.59 2.67 -1.64
7.75 3.14 -1.63
9.39 3.81 -1.6
11.92 4.83 -1.58
11.27 4.57 -1.06
11.36 4.6 -0.64
11.56 4.68 -0.22
5.74 2.3 -1.66
6.6 2.65 -1.64
7.77 3.12 -1.63
9.4 3.77 -1.6
11.94 4.79 -1.58
11.28 4.52 -1.06
11.38 4.56 -0.64
11.57 4.64 -0.22
5.74 2.28 -1.66
6.62 2.63 -1.64
7.79 3.09 -1.63
9.42 3.74 -1.6
11.96 4.75 -1.58
11.3 4.49 -1.06
11.38 4.52 -0.64
11.59 4.6 -0.22
5.75 2.26 -1.66
6.63 2.6 -1.64
7.8 3.06 -1.63
9.43 3.7 -1.6
11.98 4.71 -1.58
11.33 4.45 -1.06
11.38 4.47 -0.64
11.61 4.56 -0.22
5.77 2.24 -1.66
6.63 2.58 -1.64
7.8 3.03 -1.63
9.43 3.67 -1.6
12 4.67 -1.58
11.35 4.41 -1.07
11.4 4.43 -0.64
11.62 4.52 -0.22
5.78 2.22 -1.66
6.64 2.55 -1.64
7.81 3.01 -1.63
9.44 3.63 -1.6
12.02 4.63 -1.58
11.37 4.38 -1.07
11.41 4.39 -0.64
5.78 2.2 -1.66
6.65 2.53 -1.64
7.82 2.98 -1.63
9.46 3.6 -1.6
12.03 4.58 -1.58
11.39 4.34 -1.07
11.43 4.36 -0.64
5.78 2.18 -1.66
6.67 2.51 -1.64
7.83 2.95 -1.63
9.47 3.57 -1.6
12.05 4.54 -1.58
11.43 4.31 -1.07
5.79 2.16 -1.66
6.67 2.49 -1.64
7.83 2.92 -1.63
9.46 3.53 -1.6
12.05 4.49 -1.58
11.5 4.29 -1.07
11.53 4.3 -0.64
5.8 2.14 -1.66
6.67 2.46 -1.64
7.86 2.9 -1.63
9.48 3.5 -1.6
11.97 4.42 -1.57
11.6 4.28 -1.08
5.81 2.12 -1.66
6.68 2.44 -1.64
7.87 2.87 -1.63
9.49 3.47 -1.6
11.96 4.37 -1.56
11.7 4.27 -1.09
5.82 2.1 -1.66
6.7 2.42 -1.64
7.86 2.84 -1.62
9.51 3.43 -1.6
11.97 4.32 -1.56
11.82 4.27 -1.1
5.81 2.08 -1.65
6.71 2.4 -1.65
7.87 2.81 -1.62
9.52 3.4 -1.6
12 4.29 -1.56
12.01 4.29 -1.12
5.82 2.06 -1.65
6.72 2.37 -1.65
7.89 2.79 -1.63
9.53 3.37 -1.6
12.12 4.28 -1.58
12.15 4.29 -1.13
5.83 2.04 -1.65
6.72 2.35 -1.64
7.9 2.76 -1.63
9.52 3.33 -1.6
12.14 4.24 -1.58
12.36 4.32 -1.15
12.28 4.29 -0.68
5.84 2.02 -1.66
6.73 2.33 -1.64
7.91 2.73 -1.63
9.55 3.3 -1.6
12.16 4.2 -1.58
12.47 4.31 -1.15
5.85 2 -1.66
6.74 2.3 -1.64
7.91 2.7 -1.62
9.55 3.26 -1.6
12.17 4.16 -1.58
12.77 4.36 -1.18
5.84 1.97 -1.65
6.75 2.28 -1.65
7.92 2.67 -1.62
9.56 3.23 -1.6
12.19 4.12 -1.58
12.98 4.38 -1.2
5.85 1.95 -1.65
6.75 2.26 -1.64
7.93 2.65 -1.63
9.56 3.2 -1.6
12.2 4.08 -1.58
13.15 4.39 -1.21
5.87 1.94 -1.66
6.75 2.23 -1.64
7.95 2.62 -1.63
9.57 3.16 -1.6
12.21 4.03 -1.58
13.34 4.4 -1.23
5.87 1.92 -1.66
6.77 2.21 -1.64
7.96 2.6 -1.63
9.59 3.13 -1.6
12.22 3.99 -1.58
13.57 4.43 -1.25
5.87 1.89 -1.65
6.77 2.18 -1.64
7.96 2.57 -1.63
9.6 3.09 -1.6
12.22 3.94 -1.58
13.84 4.46 -1.27
5.87 1.87 -1.65
6.78 2.16 -1.64
7.98 2.54 -1.63
9.61 3.06 -1.6
12.23 3.9 -1.58
14.04 4.47 -1.29
5.88 1.85 -1.65
6.79 2.14 -1.64
7.99 2.51 -1.63
9.6 3.02 -1.59
12.26 3.85 -1.58
14.35 4.51 -1.32
14.28 4.49 -0.78
5.89 1.83 -1.65
6.79 2.11 -1.64
8 2.48 -1.63
9.62 2.99 -1.6
12.26 3.81 -1.58
14.53 4.51 -1.33
5.89 1.81 -1.65
6.8 2.09 -1.64
8 2.46 -1.63
9.63 2.96 -1.6
12.27 3.77 -1.58
14.78 4.54 -1.35
5.9 1.79 -1.65
6.81 2.06 -1.64
8.01 2.43 -1.63
9.65 2.92 -1.6
12.28 3.72 -1.58
16.55 5.02 -1.51
5.9 1.77 -1.65
6.82 2.04 -1.64
8.02 2.4 -1.63
9.65 2.89 -1.6
12.28 3.68 -1.57
16.55 4.96 -1.51
5.91 1.75 -1.65
6.82 2.02 -1.64
8.02 2.37 -1.63
9.64 2.85 -1.59
12.3 3.63 -1.57
16.58 4.9 -1.51
5.92 1.73 -1.65
6.82 1.99 -1.64
8.04 2.35 -1.63
9.66 2.82 -1.59
12.31 3.59 -1.57
16.58 4.84 -1.51
5.93 1.71 -1.65
6.83 1.97 -1.64
8.05 2.32 -1.63
9.68 2.79 -1.59
12.31 3.54 -1.57
16.61 4.78 -1.51
5.93 1.68 -1.65
6.84 1.95 -1.64
8.05 2.29 -1.63
9.69 2.76 -1.6
12.32 3.5 -1.57
16.63 4.73 -1.51
5.93 1.66 -1.65
6.84 1.92 -1.64
8.05 2.26 -1.63
9.71 2.72 -1.6
12.34 3.46 -1.57
16.65 4.67 -1.51
5.93 1.64 -1.65
6.85 1.9 -1.64
8.06 2.23 -1.63
9.71 2.69 -1.6
12.35 3.42 -1.57
16.66 4.62 -1.51
5.94 1.62 -1.65
6.85 1.87 -1.64
8.07 2.2 -1.63
9.72 2.66 -1.6
12.35 3.38 -1.57
16.66 4.55 -1.51
5.95 1.6 -1.65
6.86 1.85 -1.64
8.08 2.18 -1.63
9.74 2.62 -1.6
12.36 3.33 -1.57
16.68 4.49 -1.51
5.95 1.58 -1.65
6.87 1.82 -1.64
8.07 2.14 -1.62
9.75 2.59 -1.6
12.38 3.28 -1.57
16.69 4.43 -1.51
5.95 1.56 -1.65
6.88 1.8 -1.64
8.08 2.12 -1.62
9.75 2.55 -1.6
12.39 3.24 -1.57
16.68 4.37 -1.51
5.96 1.54 -1.65
6.88 1.78 -1.64
8.09 2.09 -1.62
9.75 2.52 -1.6
12.4 3.2 -1.57
16.7 4.31 -1.51
5.97 1.52 -1.65
6.88 1.75 -1.64
8.1 2.06 -1.62
9.76 2.48 -1.59
12.41 3.16 -1.57
16.7 4.25 -1.51
5.98 1.5 -1.65
6.88 1.73 -1.64
8.11 2.03 -1.62
9.76 2.45 -1.59
12.41 3.11 -1.57
16.73 4.19 -1.51
25.94 6.5 -1.4
5.98 1.48 -1.65
6.89 1.7 -1.64
8.11 2 -1.62
9.77 2.41 -1.59
12.43 3.07 -1.57
16.71 4.13 -1.51
5.98 1.46 -1.65
6.9 1.68 -1.64
8.11 1.97 -1.62
9.78 2.38 -1.59
12.45 3.03 -1.57
16.74 4.07 -1.51
5.98 1.43 -1.65
6.91 1.66 -1.64
8.12 1.95 -1.62
9.78 2.34 -1.59
12.47 2.99 -1.57
16.75 4.02 -1.51
5.99 1.41 -1.65
6.9 1.63 -1.64
8.12 1.92 -1.62
9.78 2.31 -1.59
12.47 2.94 -1.57
16.76 3.96 -1.51
6 1.4 -1.65
6.91 1.61 -1.64
8.13 1.89 -1.62
9.79 2.28 -1.59
12.47 2.9 -1.57
16.77 3.9 -1.51
6.01 1.38 -1.65
6.93 1.59 -1.64
8.13 1.86 -1.62
9.81 2.24 -1.59
12.49 2.86 -1.57
16.79 3.84 -1.51
6 1.35 -1.65
6.93 1.56 -1.64
8.14 1.83 -1.62
9.81 2.21 -1.59
12.49 2.81 -1.57
16.77 3.77 -1.5
6.02 1.33 -1.65
6.94 1.53 -1.64
8.14 1.8 -1.62
9.8 2.17 -1.59
12.51 2.77 -1.57
16.78 3.71 -1.5
6.03 1.31 -1.65
6.93 1.51 -1.64
8.16 1.78 -1.62
9.81 2.14 -1.59
12.51 2.72 -1.57
16.79 3.65 -1.5
6.04 1.29 -1.65
6.94 1.48 -1.64
8.16 1.74 -1.62
9.81 2.1 -1.59
12.51 2.68 -1.57
16.83 3.6 -1.51
6.03 1.27 -1.65
6.95 1.46 -1.64
8.16 1.72 -1.62
9.82 2.07 -1.59
12.51 2.63 -1.57
16.84 3.54 -1.51
6.03 1.25 -1.65
6.97 1.44 -1.64
8.16 1.69 -1.62
9.83 2.03 -1.59
12.53 2.59 -1.57
16.86 3.48 -1.51
6.03 1.22 -1.65
6.98 1.42 -1.64
8.17 1.66 -1.62
9.83 2 -1.59
12.54 2.55 -1.57
16.87 3.43 -1.51
6.05 1.2 -1.65
6.97 1.39 -1.64
8.18 1.63 -1.62
9.82 1.96 -1.59
12.53 2.5 -1.57
16.9 3.37 -1.51
6.05 1.19 -1.65
6.97 1.37 -1.64
8.18 1.6 -1.62
9.84 1.93 -1.59
12.52 2.45 -1.57
16.93 3.32 -1.51
6.06 1.16 -1.65
6.98 1.34 -1.64
8.18 1.57 -1.62
9.85 1.89 -1.59
12.54 2.41 -1.57
16.93 3.25 -1.51
6.04 1.14 -1.65
7 1.32 -1.64
8.19 1.55 -1.62
9.85 1.86 -1.59
12.54 2.37 -1.57
16.91 3.2 -1.51
26.12 4.93 -1.39
6.06 1.12 -1.65
6.99 1.29 -1.64
8.2 1.52 -1.62
9.86 1.83 -1.59
12.55 2.32 -1.57
16.92 3.13 -1.51
26.14 4.84 -1.39
6.07 1.1 -1.65
6.99 1.27 -1.64
8.21 1.49 -1.62
9.86 1.79 -1.59
12.55 2.28 -1.57
16.92 3.07 -1.5
6.07 1.08 -1.65
6.99 1.24 -1.64
8.21 1.46 -1.62
9.87 1.75 -1.59
12.54 2.23 -1.56
16.92 3.01 -1.5
6.08 1.06 -1.65
7 1.22 -1.64
8.21 1.43 -1.62
9.89 1.73 -1.59
12.55 2.19 -1.56
16.92 2.95 -1.5
6.07 1.04 -1.65
7.01 1.2 -1.64
8.22 1.4 -1.62
9.89 1.69 -1.59
12.55 2.14 -1.56
16.92 2.89 -1.5
6.08 1.02 -1.65
7.01 1.17 -1.64
8.23 1.38 -1.62
9.88 1.65 -1.59
12.58 2.1 -1.57
16.91 2.83 -1.5
26.37 4.41 -1.4
6.09 0.99 -1.65
7.01 1.14 -1.64
8.24 1.35 -1.62
9.89 1.62 -1.59
12.59 2.06 -1.57
16.9 2.76 -1.5
26.39 4.31 -1.4
6.09 0.97 -1.65
7.02 1.12 -1.64
8.24 1.32 -1.62
9.9 1.58 -1.59
12.57 2.01 -1.56
16.92 2.71 -1.5
6.09 0.95 -1.65
7.02 1.1 -1.64
8.23 1.29 -1.62
9.92 1.55 -1.59
12.58 1.97 -1.56
16.91 2.64 -1.5
6.09 0.93 -1.65
7.03 1.07 -1.64
8.24 1.26 -1.62
9.93 1.52 -1.59
12.6 1.93 -1.57
16.89 2.58 -1.5
6.1 0.91 -1.65
7.03 1.05 -1.64
8.25 1.23 -1.62
9.93 1.48 -1.59
12.61 1.88 -1.57
16.91 2.52 -1.5
26.45 3.94 -1.4
6.1 0.89 -1.65
7.03 1.02 -1.64
8.26 1.2 -1.62
9.93 1.45 -1.59
12.62 1.84 -1.57
16.94 2.47 -1.5
6.1 0.87 -1.65
7.03 1 -1.64
8.26 1.17 -1.62
9.95 1.41 -1.59
12.61 1.79 -1.56
16.93 2.41 -1.5
6.11 0.85 -1.65
7.04 0.98 -1.64
8.26 1.14 -1.62
9.96 1.38 -1.59
12.62 1.75 -1.56
16.94 2.35 -1.5
6.1 0.82 -1.65
7.04 0.95 -1.64
8.26 1.12 -1.62
9.97 1.35 -1.59
12.65 1.71 -1.57
16.93 2.29 -1.49
6.11 0.8 -1.65
7.05 0.93 -1.64
8.27 1.09 -1.62
9.95 1.31 -1.59
12.66 1.66 -1.57
16.95 2.23 -1.5
6.11 0.78 -1.65
7.04 0.9 -1.64
8.27 1.06 -1.62
9.96 1.27 -1.59
12.68 1.62 -1.57
16.96 2.17 -1.5
6.12 0.76 -1.65
7.04 0.88 -1.64
8.28 1.03 -1.62
9.97 1.24 -1.59
12.68 1.58 -1.57
16.95 2.11 -1.49
6.13 0.74 -1.65
7.06 0.85 -1.64
8.28 1 -1.62
9.97 1.2 -1.59
12.69 1.53 -1.57
16.97 2.05 -1.5
6.12 0.72 -1.65
7.06 0.83 -1.64
8.29 0.97 -1.62
9.98 1.17 -1.59
12.71 1.49 -1.57
16.98 1.99 -1.5
6.13 0.7 -1.65
7.07 0.81 -1.64
8.29 0.94 -1.62
9.98 1.14 -1.59
12.74 1.45 -1.57
16.98 1.93 -1.5
6.14 0.68 -1.66
7.06 0.78 -1.64
8.31 0.92 -1.62
9.98 1.1 -1.59
12.73 1.41 -1.57
17 1.88 -1.5
26.38 2.91 -1.39
6.15 0.66 -1.66
7.07 0.76 -1.64
8.3 0.89 -1.62
10 1.07 -1.59
12.74 1.36 -1.57
17 1.82 -1.5
6.15 0.64 -1.66
7.08 0.73 -1.64
8.3 0.86 -1.62
10 1.03 -1.59
12.74 1.32 -1.57
17.03 1.76 -1.5
26.4 2.73 -1.39
6.14 0.61 -1.65
7.09 0.71 -1.64
8.3 0.83 -1.62
10.01 1 -1.59
12.74 1.27 -1.57
17.04 1.7 -1.5
26.51 2.65 -1.4
6.15 0.59 -1.66
7.09 0.68 -1.64
8.32 0.8 -1.62
10.01 0.96 -1.59
12.76 1.23 -1.57
17.07 1.64 -1.5
26.42 2.54 -1.39
6.16 0.57 -1.66
7.08 0.66 -1.64
8.33 0.77 -1.63
10.01 0.93 -1.59
12.76 1.18 -1.57
17.08 1.58 -1.5
26.43 2.45 -1.39
6.16 0.55 -1.66
7.09 0.63 -1.64
8.33 0.74 -1.63
10.02 0.89 -1.59
12.76 1.14 -1.57
17.11 1.53 -1.5
26.56 2.37 -1.4
6.16 0.53 -1.66
7.09 0.61 -1.64
8.32 0.71 -1.62
10.03 0.86 -1.59
12.77 1.09 -1.57
17.14 1.47 -1.5
26.64 2.28 -1.4
6.16 0.51 -1.66
7.1 0.58 -1.64
8.34 0.69 -1.63
10.03 0.82 -1.59
12.77 1.05 -1.57
17.16 1.41 -1.51
26.65 2.19 -1.4
6.16 0.49 -1.66
7.1 0.56 -1.64
8.34 0.66 -1.63
10.03 0.79 -1.59
12.78 1.01 -1.57
17.16 1.35 -1.51
26.66 2.1 -1.4
6.16 0.46 -1.66
7.09 0.53 -1.64
8.34 0.63 -1.63
10.03 0.75 -1.59
12.78 0.96 -1.57
17.18 1.29 -1.51
26.66 2 -1.4
6.17 0.44 -1.66
42.2 3.02 0.74
7.1 0.51 -1.64
42.18 3.02 2.22
8.34 0.6 -1.63
10.03 0.72 -1.59
12.78 0.92 -1.57
17.19 1.23 -1.51
26.67 1.91 -1.4
6.17 0.42 -1.66
7.1 0.49 -1.64
8.33 0.57 -1.62
10.05 0.69 -1.6
12.79 0.87 -1.57
17.2 1.18 -1.51
26.61 1.82 -1.4
42.54 2.91 -0.74
6.16 0.4 -1.65
42.23 2.74 0.74
7.11 0.46 -1.64
42.22 2.74 2.22
8.34 0.54 -1.62
10.04 0.65 -1.59
12.78 0.83 -1.57
17.17 1.11 -1.51
26.5 1.72 -1.39
42.5 2.76 -0.74
6.17 0.38 -1.66
42.21 2.59 0.74
7.11 0.44 -1.64
42.21 2.59 2.22
8.35 0.51 -1.63
10.03 0.62 -1.59
12.79 0.78 -1.57
17.17 1.05 -1.5
26.48 1.62 -1.39
42.5 2.61 -0.74
6.17 0.36 -1.66
42.23 2.44 0.74
7.1 0.41 -1.64
42.23 2.44 2.22
8.34 0.48 -1.62
10.04 0.58 -1.59
12.79 0.74 -1.57
17.13 0.99 -1.5
26.48 1.53 -1.39
42.52 2.46 -0.74
6.18 0.33 -1.66
42.25 2.29 0.74
7.1 0.38 -1.64
42.22 2.29 2.22
8.35 0.45 -1.63
10.04 0.54 -1.59
12.78 0.69 -1.57
17.13 0.93 -1.5
26.5 1.44 -1.39
42.52 2.3 -0.74
6.18 0.31 -1.66
42.26 2.14 0.74
7.11 0.36 -1.64
42.25 2.14 2.22
8.34 0.42 -1.62
10.04 0.51 -1.59
12.77 0.65 -1.57
17.13 0.87 -1.5
42.54 2.15 -0.74
6.17 0.29 -1.66
42.27 2 0.74
7.11 0.34 -1.64
42.26 2 2.22
8.34 0.39 -1.62
10.04 0.48 -1.59
12.75 0.6 -1.57
17.13 0.81 -1.5
42.54 2.01 -0.74
6.17 0.27 -1.65
42.26 1.85 0.74
7.11 0.31 -1.64
42.28 1.85 2.22
8.34 0.37 -1.62
10.04 0.44 -1.59
12.75 0.56 -1.57
17.14 0.75 -1.5
42.6 1.86 -0.74
6.18 0.25 -1.66
42.28 1.71 0.74
7.1 0.29 -1.64
42.29 1.71 2.22
8.35 0.34 -1.62
10.03 0.4 -1.59
12.73 0.51 -1.56
17.14 0.69 -1.5
6.18 0.23 -1.66
42.29 1.55 0.74
7.11 0.26 -1.64
42.28 1.55 2.22
8.34 0.31 -1.62
10.02 0.37 -1.59
12.72 0.47 -1.56
17.15 0.63 -1.5
25.78 0.95 -1.35
6.18 0.21 -1.66
42.3 1.42 0.74
7.11 0.24 -1.64
42.29 1.42 2.22
8.32 0.28 -1.62
10.02 0.34 -1.59
12.71 0.43 -1.56
17.14 0.57 -1.5
6.17 0.18 -1.65
42.32 1.27 0.74
7.11 0.21 -1.64
42.32 1.27 2.22
8.32 0.25 -1.62
10.02 0.3 -1.59
12.71 0.38 -1.56
17.15 0.51 -1.5
6.17 0.16 -1.65
42.32 1.12 0.74
7.11 0.19 -1.64
42.33 1.12 2.22
8.32 0.22 -1.62
10.01 0.27 -1.59
12.72 0.34 -1.56
17.15 0.46 -1.5
6.18 0.14 -1.66
42.33 0.97 0.74
7.1 0.16 -1.64
42.33 0.97 2.22
8.33 0.19 -1.62
10.01 0.23 -1.59
12.72 0.29 -1.56
17.15 0.39 -1.5
6.18 0.12 -1.66
42.35 0.83 0.74
7.1 0.14 -1.64
42.34 0.83 2.22
8.31 0.16 -1.62
10 0.2 -1.58
12.71 0.25 -1.56
17.17 0.34 -1.5
6.18 0.1 -1.66
42.37 0.68 0.74
7.1 0.11 -1.64
42.36 0.68 2.22
8.29 0.13 -1.61
10 0.16 -1.58
12.72 0.2 -1.56
17.17 0.27 -1.5
25.05 0.4 -0.44
6.16 0.08 -1.65
7.1 0.09 -1.64
8.3 0.1 -1.61
9.98 0.13 -1.58
12.74 0.16 -1.56
17.16 0.22 -1.5
25 0.31 -0.44
6.16 0.06 -1.65
42.37 0.38 0.74
7.1 0.06 -1.64
42.39 0.38 2.22
8.29 0.07 -1.61
9.99 0.09 -1.58
12.72 0.11 -1.56
17.16 0.15 -1.5
24.98 0.22 -0.44
6.17 0.03 -1.65
7.08 0.04 -1.63
8.29 0.05 -1.61
9.99 0.06 -1.58
12.73 0.07 -1.56
17.16 0.1 -1.5
24.99 0.14 -0.44
6.16 0.01 -1.65
42.41 0.09 0.74
7.08 0.01 -1.63
42.39 0.09 2.22
8.3 0.02 -1.61
10 0.02 -1.58
12.71 0.03 -1.56
17.16 0.03 -1.5
24.96 0.05 -0.44
6.17 -0.01 -1.65
7.08 -0.01 -1.63
42.46 -0.06 2.23
8.28 -0.01 -1.61
10 -0.01 -1.58
12.71 -0.02 -1.56
17.16 -0.02 -1.5
25.02 -0.03 -0.44
6.14 -0.03 -1.65
7.08 -0.04 -1.63
8.28 -0.04 -1.61
9.99 -0.05 -1.58
12.7 -0.06 -1.56
17.15 -0.09 -1.5
25.06 -0.12 -0.44
6.15 -0.05 -1.65
7.07 -0.06 -1.63
8.28 -0.07 -1.61
9.97 -0.08 -1.58
12.71 -0.11 -1.56
17.15 -0.14 -1.5
25.06 -0.21 -0.44
6.15 -0.07 -1.65
7.07 -0.08 -1.63
8.28 -0.1 -1.61
9.96 -0.12 -1.58
12.71 -0.15 -1.56
17.16 -0.21 -1.5
25.05 -0.3 -0.44
6.15 -0.09 -1.65
7.07 -0.11 -1.63
8.27 -0.12 -1.61
9.99 -0.15 -1.58
12.68 -0.19 -1.56
17.16 -0.26 -1.5
6.14 -0.11 -1.65
7.07 -0.13 -1.63
8.27 -0.15 -1.61
10 -0.19 -1.58
12.69 -0.24 -1.56
17.16 -0.32 -1.5
6.13 -0.14 -1.64
7.08 -0.16 -1.63
8.27 -0.18 -1.61
10 -0.22 -1.58
12.69 -0.28 -1.56
17.14 -0.38 -1.5
6.13 -0.16 -1.64
7.07 -0.18 -1.63
8.27 -0.21 -1.61
9.99 -0.26 -1.58
12.69 -0.33 -1.56
17.14 -0.44 -1.5
25.94 -0.67 -1.36
6.13 -0.18 -1.64
7.07 -0.21 -1.63
8.28 -0.24 -1.61
9.99 -0.29 -1.58
12.68 -0.37 -1.56
17.15 -0.5 -1.5
6.13 -0.2 -1.64
7.07 -0.23 -1.63
8.29 -0.27 -1.61
9.99 -0.33 -1.58
12.67 -0.42 -1.56
17.17 -0.57 -1.5
6.13 -0.22 -1.64
7.07 -0.26 -1.63
8.27 -0.3 -1.61
9.99 -0.36 -1.58
12.66 -0.46 -1.56
17.15 -0.62 -1.5
6.12 -0.24 -1.64
7.07 -0.28 -1.63
8.28 -0.33 -1.61
10 -0.4 -1.58
12.66 -0.5 -1.56
17.15 -0.68 -1.5
6.12 -0.26 -1.64
48.42 -2.09 0.85
7.08 -0.31 -1.63
8.28 -0.36 -1.61
9.97 -0.43 -1.58
12.67 -0.55 -1.56
17.15 -0.74 -1.5
6.12 -0.29 -1.64
48.33 -2.26 0.84
7.06 -0.33 -1.63
8.28 -0.39 -1.61
9.98 -0.47 -1.58
12.66 -0.59 -1.56
17.13 -0.8 -1.5
6.13 -0.31 -1.64
48.15 -2.41 0.84
7.06 -0.35 -1.63
8.29 -0.41 -1.61
9.98 -0.5 -1.58
12.65 -0.63 -1.56
17.12 -0.86 -1.5
6.12 -0.33 -1.64
7.07 -0.38 -1.63
8.28 -0.44 -1.61
9.98 -0.53 -1.58
12.64 -0.68 -1.55
17.14 -0.92 -1.5
6.12 -0.35 -1.64
7.07 -0.4 -1.63
8.28 -0.47 -1.61
9.97 -0.57 -1.58
12.64 -0.72 -1.55
17.12 -0.98 -1.5
6.12 -0.37 -1.64
7.07 -0.43 -1.63
8.28 -0.5 -1.61
9.96 -0.6 -1.58
12.65 -0.77 -1.56
17.11 -1.04 -1.5
6.12 -0.39 -1.64
7.06 -0.45 -1.63
8.28 -0.53 -1.61
9.96 -0.64 -1.58
12.65 -0.81 -1.56
17.1 -1.09 -1.5
6.13 -0.41 -1.65
7.06 -0.48 -1.63
53.14 -3.58 2.79
8.28 -0.56 -1.61
9.96 -0.67 -1.58
12.63 -0.85 -1.55
17.11 -1.15 -1.5
6.13 -0.44 -1.65
7.06 -0.5 -1.63
8.27 -0.59 -1.61
9.96 -0.71 -1.58
12.63 -0.9 -1.55
17.1 -1.22 -1.5
6.11 -0.46 -1.64
7.05 -0.53 -1.63
8.27 -0.62 -1.61
9.94 -0.74 -1.58
12.63 -0.94 -1.56
17.09 -1.28 -1.5
6.11 -0.48 -1.64
7.06 -0.55 -1.64
8.27 -0.65 -1.61
9.92 -0.78 -1.58
12.64 -0.99 -1.56
17.08 -1.34 -1.5
6.13 -0.5 -1.65
7.04 -0.58 -1.63
8.27 -0.68 -1.61
9.92 -0.81 -1.58
12.63 -1.03 -1.56
17.08 -1.4 -1.5
6.12 -0.52 -1.65
7.05 -0.6 -1.63
8.27 -0.7 -1.61
9.92 -0.84 -1.58
12.62 -1.07 -1.56
17.09 -1.45 -1.5
6.12 -0.54 -1.65
7.06 -0.62 -1.64
8.25 -0.73 -1.61
9.92 -0.88 -1.58
12.62 -1.12 -1.56
17.08 -1.51 -1.5
6.11 -0.56 -1.64
32.96 -3.03 0.58
7.06 -0.65 -1.64
8.25 -0.76 -1.61
9.92 -0.91 -1.58
12.6 -1.16 -1.55
17.08 -1.57 -1.5
26.43 -2.43 -1.39
6.11 -0.58 -1.65
7.05 -0.67 -1.63
8.25 -0.79 -1.61
9.9 -0.95 -1.58
12.6 -1.2 -1.55
17.07 -1.63 -1.5
26.18 -2.5 -1.38
6.11 -0.6 -1.65
7.04 -0.7 -1.63
8.25 -0.82 -1.61
9.91 -0.98 -1.58
12.6 -1.25 -1.55
17.04 -1.69 -1.5
25.95 -2.57 -1.37
6.12 -0.63 -1.65
7.03 -0.72 -1.63
8.24 -0.85 -1.61
57.11 -5.86 5.02
9.91 -1.02 -1.58
12.58 -1.29 -1.55
17.07 -1.75 -1.5
25.89 -2.66 -1.36
6.11 -0.65 -1.65
31.32 -3.33 0.55
7.04 -0.75 -1.63
30.51 -3.24 1.61
8.23 -0.88 -1.61
9.9 -1.05 -1.58
12.57 -1.34 -1.55
17.04 -1.81 -1.5
25.85 -2.75 -1.36
6.11 -0.67 -1.65
30.74 -3.37 0.54
7.04 -0.77 -1.63
8.23 -0.9 -1.61
9.89 -1.09 -1.58
12.57 -1.38 -1.55
17.04 -1.87 -1.5
25.85 -2.84 -1.36
6.1 -0.69 -1.65
31.46 -3.56 0.55
7.03 -0.79 -1.63
8.22 -0.93 -1.61
9.89 -1.12 -1.58
12.56 -1.42 -1.55
17.03 -1.93 -1.5
25.96 -2.93 -1.37
6.11 -0.71 -1.65
30.31 -3.53 0.53
7.02 -0.82 -1.63
8.23 -0.96 -1.61
9.88 -1.15 -1.58
12.55 -1.46 -1.55
17.03 -1.98 -1.5
25.93 -3.02 -1.37
6.11 -0.73 -1.65
7.02 -0.84 -1.63
8.23 -0.99 -1.61
9.88 -1.19 -1.58
12.54 -1.51 -1.55
17.01 -2.04 -1.5
25.83 -3.1 -1.36
30.43 -3.66 -0.53
6.1 -0.75 -1.65
31.3 -3.87 0.55
7.02 -0.87 -1.63
8.21 -1.01 -1.61
9.88 -1.22 -1.58
12.53 -1.55 -1.55
17.02 -2.1 -1.5
25.82 -3.19 -1.36
6.09 -0.78 -1.65
29.96 -3.82 0.53
7.02 -0.9 -1.63
8.21 -1.05 -1.61
9.88 -1.26 -1.58
12.52 -1.6 -1.55
16.99 -2.17 -1.5
25.8 -3.29 -1.36
6.09 -0.8 -1.65
7.02 -0.92 -1.63
29.39 -3.85 1.55
8.2 -1.07 -1.61
30.28 -3.96 2.67
9.86 -1.29 -1.57
12.52 -1.64 -1.55
17 -2.23 -1.5
25.78 -3.38 -1.36
30.59 -4.01 -0.54
6.09 -0.82 -1.65
30.84 -4.14 0.54
7.01 -0.94 -1.63
29.13 -3.91 1.54
8.21 -1.1 -1.61
9.86 -1.32 -1.58
12.51 -1.68 -1.55
17.01 -2.28 -1.5
25.8 -3.47 -1.36
30.37 -4.08 -0.53
6.09 -0.84 -1.65
7.01 -0.96 -1.63
28.92 -3.98 1.53
8.21 -1.13 -1.61
31.43 -4.33 2.78
9.86 -1.36 -1.58
12.5 -1.72 -1.55
16.98 -2.34 -1.5
25.81 -3.55 -1.37
30.07 -4.14 -0.53
6.08 -0.86 -1.65
29.51 -4.17 0.52
7 -0.99 -1.63
8.19 -1.16 -1.61
30.7 -4.34 2.71
9.85 -1.39 -1.58
12.5 -1.77 -1.55
16.98 -2.4 -1.5
25.85 -3.66 -1.37
6.07 -0.88 -1.64
29.1 -4.21 0.51
7.01 -1.02 -1.64
8.19 -1.19 -1.61
31.79 -4.6 2.81
9.85 -1.43 -1.58
12.49 -1.81 -1.55
16.95 -2.45 -1.5
25.87 -3.75 -1.37
30.2 -4.37 -0.53
6.07 -0.9 -1.65
29.49 -4.38 0.52
7 -1.04 -1.63
8.19 -1.22 -1.61
9.82 -1.46 -1.57
12.48 -1.85 -1.55
16.96 -2.52 -1.5
25.9 -3.85 -1.37
6.09 -0.92 -1.65
6.99 -1.06 -1.63
8.19 -1.24 -1.61
29.31 -4.45 2.59
9.83 -1.49 -1.57
12.48 -1.9 -1.55
16.97 -2.58 -1.5
25.93 -3.94 -1.37
29.59 -4.5 -0.52
6.08 -0.95 -1.65
6.98 -1.09 -1.63
24.35 -3.8 1.29
8.18 -1.27 -1.61
29.45 -4.59 2.61
9.82 -1.53 -1.57
12.45 -1.94 -1.55
16.97 -2.64 -1.5
25.93 -4.04 -1.38
29.89 -4.66 -0.53
6.07 -0.97 -1.65
30.65 -4.88 0.54
6.99 -1.11 -1.63
24.37 -3.88 1.29
8.17 -1.3 -1.61
9.83 -1.57 -1.58
12.45 -1.98 -1.55
16.95 -2.7 -1.5
25.96 -4.13 -1.38
21.39 -3.41 -0.38
6.06 -0.99 -1.64
29.1 -4.74 0.51
6.98 -1.14 -1.63
24.47 -3.99 1.3
8.16 -1.33 -1.61
28.88 -4.71 2.56
9.82 -1.6 -1.58
12.44 -2.03 -1.55
16.92 -2.76 -1.5
21.23 -3.46 -1.13
6.06 -1.01 -1.65
24.38 -4.06 0.43
6.97 -1.16 -1.63
24.39 -4.06 1.3
8.16 -1.36 -1.61
30.62 -5.1 2.72
9.8 -1.63 -1.57
12.45 -2.07 -1.55
16.93 -2.82 -1.5
20.91 -3.48 -1.11
24.42 -4.07 -0.43
6.06 -1.03 -1.65
31.81 -5.41 0.56
6.96 -1.18 -1.63
8.16 -1.39 -1.61
28.65 -4.87 2.54
9.8 -1.67 -1.57
12.43 -2.11 -1.55
16.91 -2.88 -1.5
26 -4.42 -1.38
24.46 -4.16 -0.43
6.05 -1.05 -1.65
28.55 -4.95 0.51
6.96 -1.21 -1.63
8.16 -1.42 -1.61
28.84 -5 2.56
9.79 -1.7 -1.57
12.41 -2.15 -1.55
16.92 -2.93 -1.5
26.03 -4.52 -1.38
26.23 -4.55 -0.46
6.05 -1.07 -1.65
30.07 -5.33 0.53
6.97 -1.24 -1.63
29.23 -5.19 1.56
8.15 -1.45 -1.61
29.8 -5.29 2.65
9.79 -1.74 -1.57
12.4 -2.2 -1.55
16.91 -3 -1.5
19.94 -3.54 -1.06
20.05 -3.56 -0.36
6.03 -1.09 -1.64
28.35 -5.13 0.5
6.96 -1.26 -1.63
8.14 -1.47 -1.61
28.68 -5.19 2.55
9.78 -1.77 -1.57
12.38 -2.24 -1.55
16.88 -3.05 -1.5
26.09 -4.72 -1.39
19.76 -3.57 -0.35
6.04 -1.11 -1.65
6.96 -1.28 -1.63
28.19 -5.19 1.5
8.14 -1.5 -1.61
28.71 -5.29 2.55
9.76 -1.8 -1.57
12.38 -2.28 -1.55
16.86 -3.11 -1.5
18.17 -3.35 -0.97
19.48 -3.59 -0.35
6.04 -1.13 -1.65
32.04 -6.01 0.57
6.94 -1.3 -1.63
32.41 -6.08 1.73
8.14 -1.53 -1.61
9.76 -1.83 -1.57
12.38 -2.32 -1.55
16.68 -3.13 -1.48
17.9 -3.36 -0.95
19.21 -3.61 -0.34
6.04 -1.16 -1.65
28.29 -5.42 0.5
6.94 -1.33 -1.63
29.16 -5.59 1.56
8.13 -1.56 -1.61
28.7 -5.5 2.56
9.74 -1.87 -1.57
12.35 -2.37 -1.54
16.46 -3.16 -1.47
17.63 -3.38 -0.94
19.01 -3.64 -0.34
6.03 -1.18 -1.65
31.51 -6.15 0.56
6.94 -1.35 -1.63
8.12 -1.59 -1.61
28.95 -5.65 2.58
9.74 -1.9 -1.57
12.34 -2.41 -1.54
16.26 -3.18 -1.45
17.4 -3.4 -0.93
18.76 -3.66 -0.33
6.01 -1.2 -1.64
28.4 -5.65 0.51
6.93 -1.38 -1.63
8.12 -1.61 -1.61
9.74 -1.94 -1.57
12.34 -2.45 -1.54
16.04 -3.19 -1.43
17.17 -3.42 -0.92
18.5 -3.68 -0.33
6.02 -1.22 -1.64
29.11 -5.9 0.52
6.93 -1.4 -1.63
28.41 -5.75 1.52
8.12 -1.64 -1.61
9.72 -1.97 -1.57
12.31 -2.49 -1.54
15.87 -3.21 -1.42
17.04 -3.45 -0.91
26.29 -5.33 -0.47
6.01 -1.24 -1.65
30.17 -6.21 0.54
6.92 -1.42 -1.63
28.22 -5.81 1.51
8.11 -1.67 -1.61
9.71 -2 -1.57
12.31 -2.54 -1.54
15.75 -3.24 -1.41
16.92 -3.48 -0.91
26.31 -5.42 -0.47
6.02 -1.26 -1.65
27.3 -5.72 0.49
6.92 -1.45 -1.63
8.1 -1.7 -1.61
27.91 -5.85 2.49
9.71 -2.04 -1.57
12.27 -2.57 -1.54
15.68 -3.29 -1.4
16.71 -3.5 -0.89
26.32 -5.52 -0.47
6.01 -1.28 -1.65
26.96 -5.75 0.48
6.91 -1.47 -1.63
8.09 -1.73 -1.61
28.29 -6.03 2.53
9.71 -2.07 -1.57
12.27 -2.62 -1.54
15.63 -3.33 -1.4
16.47 -3.51 -0.88
6 -1.3 -1.64
26.92 -5.84 0.48
6.91 -1.5 -1.63
28.43 -6.17 1.52
8.09 -1.76 -1.61
28.09 -6.09 2.51
9.7 -2.1 -1.57
12.25 -2.66 -1.54
16.38 -3.55 -1.47
16.26 -3.53 -0.87
26.28 -5.7 -0.47
5.99 -1.32 -1.64
6.91 -1.52 -1.63
8.09 -1.78 -1.61
27.88 -6.15 2.5
9.68 -2.14 -1.57
12.24 -2.7 -1.54
16.4 -3.62 -1.47
15.79 -3.48 -0.85
5.99 -1.34 -1.65
31.03 -6.96 0.56
6.9 -1.55 -1.63
28.87 -6.47 1.55
8.09 -1.81 -1.61
28.1 -6.3 2.52
9.68 -2.17 -1.57
12.21 -2.74 -1.54
16.79 -3.76 -1.51
15.54 -3.49 -0.83
29.39 -6.59 -0.53
5.99 -1.37 -1.65
28.33 -6.46 0.51
6.89 -1.57 -1.63
28.71 -6.54 1.54
8.08 -1.84 -1.61
28.68 -6.54 2.57
9.67 -2.21 -1.57
12.2 -2.78 -1.54
16.73 -3.81 -1.5
15.33 -3.49 -0.82
5.99 -1.39 -1.65
28.09 -6.51 0.5
6.89 -1.6 -1.63
8.06 -1.87 -1.61
9.67 -2.24 -1.57
12.19 -2.82 -1.54
16.63 -3.85 -1.49
15.14 -3.51 -0.81
28.38 -6.57 -0.51
5.98 -1.41 -1.65
29.6 -6.97 0.53
6.88 -1.62 -1.63
27.82 -6.55 1.5
8.05 -1.9 -1.61
28.47 -6.7 2.56
9.65 -2.27 -1.57
12.18 -2.87 -1.54
18.9 -4.45 -1.7
14.95 -3.52 -0.8
24.9 -5.86 -0.45
5.97 -1.43 -1.64
29.56 -7.07 0.53
6.88 -1.65 -1.63
8.05 -1.93 -1.61
9.64 -2.31 -1.57
12.19 -2.91 -1.54
18.87 -4.51 -1.7
14.74 -3.53 -0.79
5.98 -1.45 -1.65
6.87 -1.67 -1.63
8.05 -1.95 -1.61
30.45 -7.39 2.74
9.63 -2.34 -1.57
12.15 -2.95 -1.54
18.89 -4.58 -1.7
14.55 -3.53 -0.78
5.97 -1.47 -1.65
6.86 -1.69 -1.63
8.04 -1.98 -1.61
28.24 -6.96 2.54
9.62 -2.37 -1.57
12.12 -2.98 -1.53
18.9 -4.66 -1.7
14.38 -3.54 -0.78
5.96 -1.49 -1.65
29.11 -7.28 0.52
6.86 -1.72 -1.63
29.74 -7.44 1.61
8.03 -2.01 -1.61
9.62 -2.41 -1.57
12.08 -3.02 -1.53
18.91 -4.73 -1.71
14.22 -3.56 -0.77
5.94 -1.51 -1.64
28.96 -7.35 0.52
6.85 -1.74 -1.63
28.15 -7.14 1.52
8.03 -2.04 -1.61
9.61 -2.44 -1.57
12.06 -3.06 -1.53
14.43 -3.66 -1.3
14.08 -3.57 -0.76
23.5 -5.96 -0.42
5.94 -1.53 -1.64
6.85 -1.76 -1.63
28.87 -7.43 1.56
8.02 -2.06 -1.61
29.96 -7.71 2.71
9.59 -2.47 -1.57
12.04 -3.1 -1.53
13.36 -3.44 -1.21
15.47 -3.98 -0.84
23.21 -5.98 -0.42
5.94 -1.55 -1.65
6.84 -1.79 -1.63
8.01 -2.09 -1.61
28.85 -7.54 2.61
9.58 -2.5 -1.57
12.02 -3.14 -1.52
14.4 -3.76 -1.3
22.99 -6 -0.41
5.94 -1.57 -1.65
28.13 -7.45 0.51
6.83 -1.81 -1.63
8.01 -2.12 -1.61
28.48 -7.54 2.58
9.57 -2.54 -1.57
11.98 -3.17 -1.52
18.94 -5.01 -1.71
15.14 -4.01 -0.82
22.81 -6.04 -0.41
5.93 -1.59 -1.64
28.52 -7.66 0.52
6.83 -1.83 -1.63
28.3 -7.6 1.54
7.99 -2.15 -1.61
9.57 -2.57 -1.57
11.91 -3.2 -1.51
18.93 -5.08 -1.71
14.94 -4.01 -0.81
22.65 -6.08 -0.41
5.91 -1.61 -1.64
6.83 -1.86 -1.63
31.24 -8.51 1.7
7.98 -2.17 -1.61
9.56 -2.6 -1.57
11.84 -3.22 -1.51
18.93 -5.15 -1.72
14.78 -4.03 -0.8
5.92 -1.63 -1.65
6.82 -1.88 -1.63
7.98 -2.2 -1.61
28.48 -7.86 2.58
9.54 -2.63 -1.57
11.73 -3.24 -1.49
18.94 -5.23 -1.72
14.63 -4.04 -0.8
5.91 -1.66 -1.65
6.81 -1.91 -1.63
7.98 -2.23 -1.61
29.27 -8.2 2.66
9.53 -2.67 -1.57
11.69 -3.27 -1.49
18.94 -5.3 -1.72
14.48 -4.05 -0.79
5.91 -1.68 -1.65
36.31 -10.3 0.66
6.81 -1.93 -1.63
28.53 -8.09 1.55
7.97 -2.26 -1.61
9.52 -2.7 -1.57
11.5 -3.26 -1.47
18.94 -5.37 -1.72
14.36 -4.07 -0.78
21.64 -6.14 -0.39
5.91 -1.7 -1.65
6.8 -1.95 -1.63
28.53 -8.2 1.56
7.95 -2.28 -1.61
9.51 -2.73 -1.57
11.43 -3.28 -1.46
18.94 -5.44 -1.72
14.23 -4.09 -0.78
5.89 -1.71 -1.64
6.79 -1.98 -1.63
7.95 -2.31 -1.61
9.5 -2.76 -1.57
11.39 -3.32 -1.46
14 -4.07 -1.28
5.88 -1.73 -1.64
6.79 -2 -1.63
36.99 -10.91 2.02
7.95 -2.34 -1.61
9.48 -2.8 -1.57
11.39 -3.36 -1.46
13.98 -4.12 -1.28
13.97 -4.12 -0.76
5.88 -1.76 -1.64
6.77 -2.02 -1.63
7.93 -2.37 -1.61
9.47 -2.83 -1.56
11.31 -3.38 -1.45
18.94 -5.65 -1.73
20.67 -6.17 -0.38
5.89 -1.78 -1.65
6.77 -2.05 -1.63
7.93 -2.4 -1.61
9.46 -2.86 -1.57
11.38 -3.44 -1.46
12.38 -3.75 -1.13
20.5 -6.2 -0.37
5.88 -1.8 -1.65
6.76 -2.07 -1.63
37.45 -11.47 2.05
7.91 -2.42 -1.61
9.45 -2.89 -1.56
11.39 -3.49 -1.46
12.4 -3.8 -1.13
20.29 -6.21 -0.37
5.86 -1.82 -1.64
6.77 -2.1 -1.64
7.91 -2.45 -1.61
9.44 -2.93 -1.56
11.58 -3.59 -1.49
12.14 -3.77 -1.11
20.21 -6.27 -1.11
20.09 -6.23 -0.37
5.87 -1.84 -1.65
6.75 -2.12 -1.63
7.9 -2.48 -1.61
34.64 -10.87 3.18
9.42 -2.96 -1.56
11.56 -3.63 -1.49
11.73 -3.68 -1.08
19.99 -6.28 -1.1
20 -6.28 -0.37
5.87 -1.86 -1.65
6.74 -2.14 -1.63
7.9 -2.51 -1.61
9.41 -2.99 -1.56
11.56 -3.67 -1.49
11.6 -3.69 -1.06
19.81 -6.29 -1.09
19.91 -6.33 -0.36
5.87 -1.89 -1.65
6.73 -2.16 -1.63
7.89 -2.54 -1.61
9.4 -3.02 -1.56
11.65 -3.75 -1.5
11.46 -3.69 -1.05
19.63 -6.31 -1.08
19.81 -6.37 -0.36
5.85 -1.91 -1.65
6.73 -2.19 -1.63
34.63 -11.27 1.91
7.87 -2.56 -1.61
9.4 -3.06 -1.57
36.64 -11.93 4.73
11.63 -3.78 -1.5
11.35 -3.69 -1.04
19.71 -6.42 -0.36
5.84 -1.92 -1.65
34.83 -11.47 0.64
6.73 -2.22 -1.64
36.16 -11.91 2
7.86 -2.59 -1.61
9.38 -3.09 -1.56
34.71 -11.43 4.49
11.41 -3.76 -1.48
11.22 -3.7 -1.03
19.61 -6.46 -0.36
5.82 -1.94 -1.65
