# .PCD v0.7 - Point Cloud Data file format
VERSION 0.7
FIELDS x y z
SIZE 4 4 4
TYPE F F F
COUNT 1 1 1
WIDTH 2937
HEIGHT 1
VIEWPOINT 0 0 0 1 0 0 0
POINTS 2937
DATA ascii
5.69 -1.51 -1.58
6.53 -1.74 -1.56
7.51 -2 -1.51
8.71 -2.31 -1.43
11.08 -2.95 -1.41
15.19 -4.04 -1.38
21.28 -5.66 -1.15
30.55 -8.12 -0.55
5.69 -1.53 -1.58
6.52 -1.76 -1.56
7.47 -2.01 -1.5
8.66 -2.34 -1.42
10.83 -2.92 -1.38
15.19 -4.1 -1.38
21.26 -5.73 -1.15
30.62 -8.26 -0.55
5.68 -1.55 -1.58
6.5 -1.78 -1.55
7.39 -2.02 -1.49
8.65 -2.37 -1.42
10.77 -2.95 -1.37
15.18 -4.15 -1.38
21.28 -5.82 -1.16
30.58 -8.36 -0.55
5.69 -1.58 -1.58
6.49 -1.8 -1.56
7.37 -2.04 -1.49
8.55 -2.37 -1.41
10.78 -2.99 -1.37
15.16 -4.2 -1.38
21.26 -5.9 -1.16
30.39 -8.43 -0.55
5.69 -1.6 -1.59
6.49 -1.82 -1.56
7.34 -2.06 -1.48
8.54 -2.4 -1.41
10.7 -3.01 -1.37
15.15 -4.26 -1.38
21.21 -5.96 -1.15
30.34 -8.53 -0.55
5.68 -1.62 -1.58
22.1 -6.3 0.4
6.46 -1.84 -1.55
22.06 -6.29 1.2
7.29 -2.08 -1.47
8.52 -2.43 -1.4
21.96 -6.26 2.8
10.6 -3.02 -1.35
15.15 -4.32 -1.38
8.35 -2.38 -0.45
30.24 -8.62 -0.55
5.65 -1.63 -1.58
6.45 -1.86 -1.55
7.27 -2.1 -1.47
21.96 -6.34 2
8.52 -2.46 -1.4
21.89 -6.32 2.8
10.51 -3.03 -1.34
9.13 -2.64 -0.83
21.18 -6.11 -1.16
30.07 -8.68 -0.55
5.64 -1.65 -1.58
22 -6.43 0.4
6.43 -1.88 -1.55
21.95 -6.42 1.2
7.23 -2.11 -1.46
21.9 -6.4 2
8.44 -2.47 -1.39
21.81 -6.38 2.79
10.54 -3.08 -1.35
8.7 -2.54 -0.79
21.16 -6.19 -1.16
30.08 -8.79 -0.55
5.64 -1.67 -1.58
21.88 -6.48 0.4
6.38 -1.89 -1.54
21.84 -6.47 1.19
7.22 -2.14 -1.46
21.78 -6.45 1.99
8.33 -2.47 -1.38
21.72 -6.43 2.78
10.32 -3.06 -1.32
8.51 -2.52 -0.78
21.17 -6.27 -1.16
8.16 -2.41 -0.15
5.62 -1.68 -1.57
21.78 -6.53 0.4
6.38 -1.91 -1.54
21.74 -6.52 1.19
7.2 -2.16 -1.46
21.67 -6.5 1.98
8.11 -2.43 -1.34
21.66 -6.49 2.78
8.19 -2.46 -1.05
9.14 -2.74 -0.83
21.19 -6.35 -1.16
22.2 -6.66 -0.4
5.6 -1.7 -1.57
21.68 -6.58 0.4
6.35 -1.93 -1.53
21.63 -6.57 1.18
7.11 -2.16 -1.44
21.6 -6.56 1.97
8.14 -2.47 -1.35
21.56 -6.55 2.77
7.93 -2.41 -1.02
8.29 -2.52 -0.76
8.19 -2.49 -0.45
22.04 -6.69 -0.4
5.59 -1.72 -1.57
21.6 -6.64 0.39
6.29 -1.93 -1.52
21.54 -6.62 1.18
7.14 -2.2 -1.45
21.51 -6.61 1.97
8.1 -2.49 -1.34
21.48 -6.6 2.76
7.81 -2.4 -1
8.26 -2.54 -0.76
9.06 -2.79 -0.5
5.56 -1.73 -1.56
21.52 -6.69 0.39
6.28 -1.95 -1.52
21.45 -6.67 1.18
7.11 -2.21 -1.45
21.41 -6.66 1.96
8.19 -2.55 -1.36
21.38 -6.65 2.75
7.77 -2.42 -1
9.12 -2.84 -0.84
8.92 -2.77 -0.49
21.89 -6.81 -0.4
5.51 -1.74 -1.55
21.42 -6.75 0.39
6.25 -1.97 -1.51
21.36 -6.73 1.17
7.07 -2.23 -1.44
21.31 -6.71 1.96
8.21 -2.59 -1.36
21.31 -6.71 2.74
7.74 -2.44 -1
13.47 -4.24 -1.24
8.91 -2.81 -0.49
21.87 -6.89 -0.4
5.5 -1.76 -1.55
21.32 -6.8 0.39
6.21 -1.98 -1.51
21.29 -6.79 1.17
7.1 -2.27 -1.45
21.23 -6.77 1.95
8.22 -2.62 -1.37
21.22 -6.77 2.74
7.18 -2.29 -0.93
13.63 -4.35 -1.25
12.98 -4.14 -0.71
21.81 -6.96 -0.4
5.52 -1.78 -1.55
21.23 -6.85 0.39
6.18 -2 -1.5
21.19 -6.84 1.17
7.12 -2.3 -1.45
21.14 -6.82 1.94
8.22 -2.65 -1.37
21.14 -6.82 2.73
7.02 -2.27 -0.91
13.13 -4.24 -1.21
12.85 -4.15 -0.71
21.71 -7.01 -0.4
5.52 -1.8 -1.56
21.15 -6.9 0.39
6.19 -2.02 -1.5
21.1 -6.89 1.16
7.08 -2.31 -1.45
21.07 -6.88 1.94
8.22 -2.68 -1.37
21.04 -6.87 2.72
6.88 -2.25 -0.89
12.88 -4.2 -1.19
12.83 -4.19 -0.71
21.63 -7.06 -0.4
5.47 -1.81 -1.54
21.06 -6.96 0.39
6.19 -2.04 -1.5
21.01 -6.94 1.16
7.08 -2.34 -1.45
20.98 -6.93 1.93
8.28 -2.73 -1.38
20.97 -6.93 2.71
6.77 -2.24 -0.88
12.84 -4.24 -1.18
12.8 -4.23 -0.71
21.49 -7.1 -0.4
5.43 -1.81 -1.53
20.97 -7.01 0.39
6.11 -2.04 -1.49
20.93 -6.99 1.16
7.05 -2.36 -1.45
20.87 -6.98 1.93
6.78 -2.27 -1.13
20.87 -6.97 2.7
6.66 -2.23 -0.86
13.23 -4.42 -1.22
13.65 -4.56 -0.75
21.4 -7.15 -0.39
5.39 -1.82 -1.52
20.88 -7.06 0.38
6.1 -2.06 -1.49
20.85 -7.05 1.15
7.07 -2.39 -1.45
20.8 -7.03 1.92
6.68 -2.26 -1.12
20.78 -7.03 2.69
6.59 -2.23 -0.85
13.21 -4.46 -1.22
13.73 -4.64 -0.76
21.32 -7.21 -0.39
5.4 -1.85 -1.53
20.79 -7.11 0.38
6.14 -2.1 -1.5
20.76 -7.1 1.15
7 -2.39 -1.44
20.72 -7.09 1.92
6.55 -2.24 -1.1
20.67 -7.07 2.68
6.53 -2.23 -0.85
8.05 -2.75 -0.74
10.27 -3.51 -0.57
21.26 -7.27 -0.39
5.42 -1.87 -1.54
20.71 -7.16 0.38
6.13 -2.12 -1.5
20.67 -7.15 1.15
7 -2.42 -1.44
20.63 -7.13 1.91
6.46 -2.23 -1.08
20.59 -7.12 2.68
8.09 -2.8 -1.05
13.64 -4.72 -1.26
14.11 -4.88 -0.78
13.35 -4.62 -0.25
5.42 -1.9 -1.54
20.63 -7.22 0.38
6.12 -2.14 -1.5
20.58 -7.2 1.14
6.99 -2.44 -1.44
20.55 -7.19 1.9
6.36 -2.22 -1.07
20.51 -7.17 2.67
10.05 -3.52 -1.31
13.67 -4.78 -1.27
14.27 -4.99 -0.79
13.51 -4.73 -0.25
5.39 -1.91 -1.53
20.55 -7.27 0.38
6.08 -2.15 -1.49
20.51 -7.25 1.14
6.93 -2.45 -1.43
20.46 -7.24 1.9
6.29 -2.23 -1.06
20.42 -7.22 2.66
9.9 -3.5 -1.29
13.92 -4.92 -1.29
10.14 -3.59 -0.56
13.73 -4.86 -0.25
5.39 -1.93 -1.53
20.47 -7.32 0.38
6.04 -2.16 -1.48
20.42 -7.3 1.14
6.98 -2.5 -1.44
20.38 -7.29 1.89
6.24 -2.23 -1.05
20.33 -7.27 2.65
14.04 -5.02 -1.3
10.14 -3.63 -0.56
13.96 -4.99 -0.26
5.4 -1.95 -1.54
20.37 -7.37 0.38
6.05 -2.19 -1.48
20.34 -7.35 1.13
7.04 -2.54 -1.45
20.3 -7.34 1.89
6.21 -2.24 -1.05
20.25 -7.32 2.64
8.6 -3.11 -1.12
14.12 -5.11 -1.31
10.13 -3.66 -0.56
14.22 -5.14 -0.26
5.4 -1.97 -1.54
10.27 -3.75 0.19
6.06 -2.21 -1.49
20.26 -7.4 1.13
7.02 -2.56 -1.45
20.22 -7.38 1.88
6.17 -2.25 -1.04
20.14 -7.36 2.63
9.96 -3.64 -1.3
14.19 -5.18 -1.32
15.26 -5.57 -0.85
20.76 -7.58 -0.39
5.42 -2 -1.55
20.24 -7.47 0.38
6.06 -2.24 -1.49
20.18 -7.45 1.13
7.02 -2.59 -1.46
20.14 -7.44 1.88
6.14 -2.27 -1.04
20.08 -7.41 2.63
10.08 -3.72 -1.32
14.18 -5.23 -1.32
15.42 -5.69 -0.86
20.61 -7.61 -0.38
5.38 -2.01 -1.54
10.15 -3.79 0.19
6.05 -2.26 -1.49
20.1 -7.5 1.12
7.03 -2.62 -1.46
20.06 -7.49 1.87
6.09 -2.27 -1.03
20.02 -7.47 2.62
10.06 -3.75 -1.32
11.67 -4.36 -1.09
15.6 -5.82 -0.87
20.51 -7.65 -0.38
5.37 -2.03 -1.54
20.05 -7.56 0.37
6.02 -2.27 -1.49
20.02 -7.55 1.12
7.01 -2.64 -1.46
19.93 -7.52 1.86
6.04 -2.28 -1.02
19.94 -7.52 2.62
9.74 -3.67 -1.28
8.42 -3.18 -0.79
9.43 -3.56 -0.53
20.41 -7.7 -0.38
5.38 -2.05 -1.54
5.99 -2.28 -1.48
6.99 -2.66 -1.45
19.92 -7.59 1.86
5.91 -2.25 -1
8.73 -3.33 -1.15
8.32 -3.17 -0.78
10.03 -3.82 -0.56
20.34 -7.75 -0.38
5.38 -2.07 -1.54
19.98 -7.7 0.37
5.96 -2.3 -1.47
19.93 -7.68 1.12
6.93 -2.67 -1.44
19.98 -7.7 1.87
5.66 -2.18 -0.96
8.72 -3.36 -1.15
8.31 -3.2 -0.78
9.99 -3.85 -0.56
20.27 -7.81 -0.38
5.34 -2.08 -1.54
20.02 -7.79 0.37
5.93 -2.31 -1.47
9.32 -3.63 0.52
6.92 -2.69 -1.44
20 -7.78 1.88
5.6 -2.18 -0.95
19.92 -7.75 2.62
7.96 -3.1 -1.05
14.21 -5.53 -1.33
9.86 -3.84 -0.55
9.93 -3.86 -0.19
5.24 -2.06 -1.51
9.48 -3.73 0.18
5.92 -2.33 -1.47
9.3 -3.66 0.52
5.57 -2.19 -1.16
9.83 -3.86 0.92
5.53 -2.17 -0.94
19.98 -7.85 2.64
8.48 -3.33 -1.12
13.09 -5.14 -1.23
9.68 -3.8 -0.54
5.28 -2.1 -1.52
9.38 -3.72 0.18
5.91 -2.35 -1.47
10.91 -4.33 0.62
5.52 -2.19 -1.15
20.1 -7.98 1.89
5.47 -2.17 -0.93
20.05 -7.96 2.65
8.79 -3.49 -1.16
13.09 -5.2 -1.23
9.96 -3.96 -0.56
9.94 -3.95 -0.19
5.26 -2.11 -1.52
9.4 -3.77 0.18
5.89 -2.36 -1.47
10.87 -4.36 0.61
5.46 -2.19 -1.14
9.99 -4.01 0.94
5.42 -2.17 -0.93
20.09 -8.06 2.66
8.19 -3.29 -0.77
16.15 -6.48 -0.91
9.89 -3.97 -0.19
5.23 -2.12 -1.51
9.95 -4.03 0.19
5.9 -2.39 -1.47
10.84 -4.39 0.61
5.41 -2.19 -1.13
20.26 -8.21 1.91
5.36 -2.17 -0.92
20.19 -8.18 2.67
7.84 -3.17 -1.04
8.18 -3.31 -0.77
20.9 -8.47 -1.18
10.22 -4.14 -0.19
5.26 -2.15 -1.52
10.02 -4.1 0.19
5.93 -2.43 -1.48
10.47 -4.28 0.59
5.33 -2.18 -1.12
11.68 -4.78 1.1
5.3 -2.17 -0.91
20.25 -8.29 2.69
7.82 -3.2 -1.04
8.16 -3.34 -0.77
9.51 -3.89 -0.54
7.15 -2.92 -0.13
5.27 -2.18 -1.53
10.06 -4.16 0.19
5.92 -2.45 -1.48
10.24 -4.23 0.58
5.27 -2.18 -1.11
20.38 -8.42 1.93
5.26 -2.17 -0.9
10.3 -4.25 1.37
7.98 -3.3 -1.06
7.98 -3.3 -0.75
13.4 -5.54 -0.76
7.16 -2.96 -0.14
5.25 -2.19 -1.52
9.92 -4.14 0.19
5.92 -2.47 -1.48
11.58 -4.83 0.66
5.23 -2.18 -1.1
8.86 -3.7 0.84
5.2 -2.17 -0.89
10.31 -4.3 1.37
8.06 -3.36 -1.07
8.03 -3.35 -0.76
13.28 -5.54 -0.75
7.11 -2.97 -0.13
5.24 -2.21 -1.52
9.62 -4.05 0.18
5.95 -2.51 -1.49
10.41 -4.39 0.59
5.19 -2.19 -1.09
8.41 -3.54 0.8
5.14 -2.17 -0.88
10.28 -4.33 1.37
8.06 -3.4 -1.07
11.51 -4.85 -1.09
9.34 -3.94 -0.53
7.13 -3 -0.14
5.22 -2.22 -1.52
9.59 -4.08 0.18
5.94 -2.53 -1.49
9.98 -4.25 0.57
5.13 -2.18 -1.08
8.43 -3.59 0.8
5.11 -2.17 -0.88
10.19 -4.34 1.36
8.13 -3.46 -0.77
14.32 -6.09 -0.82
5.2 -2.23 -1.52
9.18 -3.94 0.17
5.91 -2.54 -1.49
9.22 -3.96 0.53
5.08 -2.18 -1.08
8.42 -3.62 0.8
5.08 -2.18 -0.88
10.12 -4.35 1.35
7.97 -3.42 -1.06
8.11 -3.48 -0.77
10.39 -4.47 -0.59
9.44 -4.05 -0.18
4.99 -2.16 -1.46
9.13 -3.96 0.17
5.92 -2.57 -1.49
8.71 -3.78 0.5
5.06 -2.2 -1.07
8.36 -3.62 0.8
5.05 -2.19 -0.87
9.89 -4.29 1.32
7.9 -3.43 -1.06
8.95 -3.88 1.55
8.05 -3.49 -0.77
10.3 -4.47 2.18
7.68 -3.33 -0.44
9.25 -4.01 -0.18
9.03 -3.92 2.64
5.2 -2.28 -1.52
11.89 -5.21 0.23
5.2 -2.28 -1.31
5.05 -2.21 -1.07
8.38 -3.67 0.8
9.76 -4.27 1.31
7.9 -3.46 -1.06
8.92 -3.9 1.54
7.95 -3.48 -0.76
7.62 -3.34 -0.44
9.1 -3.98 2.29
9.27 -4.06 -0.18
5.2 -2.3 -1.52
7.82 -3.45 0.15
5.18 -2.29 -1.31
8.61 -3.81 0.49
5.03 -2.22 -1.07
8.44 -3.73 0.81
7.77 -3.44 -1.35
9.72 -4.3 1.3
7.86 -3.47 -1.06
10.17 -4.49 1.76
7.95 -3.51 -0.76
10.34 -4.57 2.2
7.61 -3.36 -0.44
9.08 -4.01 2.29
9.18 -4.06 -0.18
9.58 -4.23 2.81
5.17 -2.31 -1.52
7.34 -3.28 0.14
5.19 -2.32 -1.31
8.14 -3.63 0.47
5.01 -2.24 -1.07
8.41 -3.76 0.81
8.06 -3.6 -1.4
10.1 -4.51 1.36
7.52 -3.36 -1.01
8.88 -3.97 1.54
7.99 -3.57 -0.77
9.08 -4.05 -0.52
9.04 -4.04 2.29
7.56 -3.38 -0.14
5.17 -2.33 -1.52
6.7 -3.02 0.13
5.19 -2.34 -1.31
8.08 -3.64 0.46
4.98 -2.24 -1.06
8.4 -3.78 0.81
8.11 -3.66 -1.41
10.06 -4.53 1.35
8.1 -3.65 -1.09
8.88 -4 1.54
7.88 -3.55 -0.76
10.35 -4.66 2.21
8.82 -3.98 -0.51
9.01 -4.06 2.28
7.54 -3.4 -0.14
8.92 -4.02 2.62
5.17 -2.35 -1.52
6.95 -3.16 0.13
5.2 -2.36 -1.32
4.95 -2.25 -1.06
8.41 -3.82 0.81
7.57 -3.44 1.02
8.73 -3.97 1.52
7.86 -3.57 -0.76
7.63 -3.47 -0.44
9.02 -4.1 2.29
9.16 -4.16 -0.18
8.88 -4.03 2.61
5.16 -2.36 -1.52
7.77 -3.57 0.15
5.18 -2.37 -1.32
7.32 -3.36 0.42
4.92 -2.25 -1.05
8.34 -3.82 0.8
7.12 -3.27 -1.24
10.42 -4.78 1.41
7.49 -3.44 -1.01
8.74 -4.01 1.52
7.98 -3.66 -0.77
8.8 -4.03 -0.51
9.04 -4.14 2.29
9.21 -4.22 -0.18
8.94 -4.1 2.64
5.15 -2.38 -1.52
7.06 -3.27 0.14
5.87 -2.72 -1.49
7.29 -3.38 0.42
4.88 -2.26 -1.04
8.36 -3.87 0.81
8 -3.7 -1.4
7.59 -3.51 1.03
7.41 -3.43 -1
8.68 -4.02 1.51
7.89 -3.65 -0.76
8.77 -4.06 -0.51
9.06 -4.19 2.3
7.7 -3.56 -0.15
8.92 -4.13 2.63
5.21 -2.43 -1.54
7.28 -3.4 0.14
4.68 -2.19 -1.19
7.13 -3.33 0.41
4.82 -2.25 -1.03
8.39 -3.92 0.81
8.08 -3.77 -1.41
7.6 -3.55 1.03
7.39 -3.45 -1
8.72 -4.08 1.52
8.06 -3.76 -0.78
8.79 -4.11 -0.51
9.03 -4.22 2.3
6.51 -3.04 -0.13
8.94 -4.18 2.64
5.16 -2.43 -1.53
4.64 -2.19 -1.18
7.26 -3.42 0.42
4.65 -2.19 -1
9.46 -4.46 0.91
8.07 -3.81 -1.41
7.56 -3.56 1.03
7.63 -3.6 -1.04
8.73 -4.12 1.53
8.66 -4.08 -0.84
8.95 -4.22 -0.52
8.98 -4.23 2.29
5.17 -2.46 -1.53
6.25 -2.97 0.12
4.61 -2.19 -1.18
19.16 -9.12 1.11
4.58 -2.18 -0.99
9.52 -4.53 0.92
7.84 -3.73 -1.37
7.57 -3.6 1.03
7.58 -3.61 -1.03
8.74 -4.16 1.53
8.09 -3.85 -0.78
10.28 -4.89 2.21
8.75 -4.16 -0.51
9.01 -4.29 2.3
7.21 -3.43 -0.14
9.2 -4.38 2.73
5.11 -2.45 -1.52
6.34 -3.04 0.12
4.55 -2.19 -1.17
8.21 -3.94 0.48
4.55 -2.18 -0.98
8.14 -3.91 0.79
8.01 -3.84 -1.41
7.52 -3.61 1.02
7.7 -3.7 -1.05
8.35 -4.01 1.47
8.08 -3.88 -0.78
7.32 -3.51 -0.43
5.11 -2.47 -1.52
6.29 -3.05 0.12
4.5 -2.18 -1.15
8.17 -3.96 0.48
4.5 -2.18 -0.97
8.24 -3.99 0.8
8.02 -3.88 -1.41
10.41 -5.04 1.42
7.59 -3.68 -1.04
8.34 -4.04 1.47
9.88 -4.78 2.13
7.32 -3.55 -0.43
8.98 -4.35 2.3
8.77 -4.25 -0.17
5.11 -2.5 -1.52
6.35 -3.1 0.12
4.46 -2.18 -1.15
6.6 -3.23 0.39
4.46 -2.18 -0.96
7.51 -3.67 0.73
7.24 -3.54 -1.28
10.24 -5 1.4
7.54 -3.68 -1.03
8.41 -4.11 1.48
7.99 -3.9 -0.78
9.89 -4.83 2.14
8.62 -4.21 -0.5
9.13 -4.46 2.35
7.26 -3.55 -0.14
5.12 -2.52 -1.53
6.32 -3.12 0.12
4.43 -2.18 -1.14
18.91 -9.32 1.1
4.4 -2.17 -0.95
7.71 -3.8 0.75
7.93 -3.91 -1.4
8.51 -4.2 1.17
7.71 -3.8 -1.06
7.94 -3.92 -0.77
9.89 -4.87 2.14
8.38 -4.13 -0.49
9.13 -4.5 2.35
7.33 -3.62 -0.14
8.94 -4.41 2.67
5.17 -2.57 -1.55
8.73 -4.34 0.17
4.4 -2.19 -1.14
18.86 -9.38 1.1
4.38 -2.18 -0.95
7.64 -3.8 0.75
7.05 -3.51 -1.25
7.86 -3.91 1.08
7.91 -3.94 -1.09
9.77 -4.86 2.12
5.35 -2.66 -0.31
9.13 -4.54 2.36
7.28 -3.62 -0.14
8.92 -4.44 2.67
5.17 -2.59 -1.55
6.26 -3.14 0.12
4.36 -2.19 -1.13
18.84 -9.45 1.1
4.34 -2.18 -0.94
5.62 -2.82 0.55
7.89 -3.96 -1.4
7.39 -3.71 1.02
6.84 -3.43 -0.67
9.75 -4.89 2.12
8.76 -4.4 -0.51
6.69 -3.35 -0.13
5.18 -2.62 -1.55
6.24 -3.16 0.12
4.31 -2.18 -1.11
5.8 -2.93 0.34
4.32 -2.18 -0.94
7.17 -3.63 0.7
7.91 -4 -1.4
7.38 -3.73 1.02
8.02 -4.06 -1.1
8.44 -4.27 1.5
6.7 -3.39 -0.66
9.9 -5.01 2.16
5.33 -2.69 -0.31
9.97 -5.04 2.58
6.34 -3.21 -0.12
8.87 -4.49 2.66
5.17 -2.64 -1.55
6.99 -3.57 0.14
4.28 -2.18 -1.11
18.71 -9.55 1.1
4.28 -2.18 -0.93
7.41 -3.78 0.73
7.64 -3.9 1.05
8.31 -4.24 -1.15
8.47 -4.32 1.51
6.8 -3.47 -0.67
7.44 -3.8 -0.44
9.06 -4.62 2.35
8.9 -4.54 2.68
5.15 -2.65 -1.55
7.1 -3.65 0.14
4.25 -2.19 -1.1
18.65 -9.6 1.1
4.23 -2.18 -0.92
7.49 -3.86 0.74
7.68 -3.95 -1.37
8.19 -4.22 1.13
8.46 -4.36 1.51
6.95 -3.58 -0.68
8.92 -4.59 1.95
9.03 -4.65 2.35
6.44 -3.32 -0.13
8.1 -4.17 2.44
5.14 -2.67 -1.55
6.22 -3.23 0.12
4.23 -2.2 -1.1
6.75 -3.51 0.4
4.19 -2.18 -0.92
7.37 -3.83 0.73
7.59 -3.94 -1.35
7.8 -4.05 1.08
7.87 -4.09 -1.09
7.68 -3.99 1.37
6.9 -3.58 -0.68
7.66 -3.98 1.68
7.62 -3.96 -0.45
9.78 -5.08 2.54
6.45 -3.35 -0.13
8.09 -4.2 2.44
5.15 -2.69 -1.56
8.48 -4.44 0.17
4.22 -2.21 -1.1
8.23 -4.31 0.49
4.16 -2.18 -0.91
7.69 -4.02 0.76
7.71 -4.03 -1.38
7.71 -4.04 1.07
7.93 -4.15 -1.1
7.62 -3.99 1.36
6.88 -3.6 -0.68
7.64 -4 1.68
7.55 -3.95 -0.45
9.76 -5.11 2.54
9.1 -4.77 2.75
5.15 -2.72 -1.56
5.22 -2.75 0.1
4.19 -2.21 -1.09
4.14 -2.19 -0.91
7.68 -4.06 0.76
7.67 -4.05 -1.37
7.25 -3.83 1.01
7.65 -4.04 1.37
6.26 -3.3 -0.62
7.63 -4.03 1.68
7.63 -4.03 -0.45
9.77 -5.16 2.55
9.21 -4.86 2.79
5.17 -2.75 -1.57
5.53 -2.94 0.11
4.17 -2.22 -1.09
4.12 -2.19 -0.91
7.67 -4.08 0.76
7.32 -3.9 1.02
9.25 -4.92 -1.29
7.65 -4.07 1.37
6.18 -3.29 -0.61
7.59 -4.04 1.67
5.08 -2.7 -0.3
8.33 -4.43 2.18
5.41 -2.88 -0.11
8.59 -4.57 2.61
5.16 -2.77 -1.57
5.26 -2.82 0.1
4.16 -2.23 -1.09
4.09 -2.19 -0.9
7.67 -4.11 0.76
6.75 -3.62 -1.21
8.09 -4.34 1.13
6.94 -3.72 -0.97
7.71 -4.13 1.39
6.17 -3.31 -0.61
9.3 -4.99 2.05
5.08 -2.72 -0.3
8.21 -4.41 2.15
9.09 -4.88 2.76
5.14 -2.78 -1.57
5.2 -2.82 0.1
4.15 -2.25 -1.09
6.16 -3.34 0.37
4.06 -2.2 -0.9
7.68 -4.16 0.76
6.95 -3.76 -1.25
7.26 -3.93 1.01
6.91 -3.74 -0.97
7.69 -4.17 1.39
6.16 -3.34 -0.61
9.39 -5.08 2.07
5.43 -2.94 -0.32
8.11 -4.39 2.13
5.33 -2.88 -0.11
7.83 -4.24 2.39
5.14 -2.81 -1.57
5.23 -2.85 0.1
4.13 -2.25 -1.09
5.51 -3.01 0.33
6.34 -3.46 -1.4
7.3 -3.98 0.73
7.73 -4.22 -1.39
9.27 -5.06 1.3
6.77 -3.7 -0.95
7.59 -4.15 1.37
10.7 -5.84 2.37
5.62 -3.07 -0.34
7.98 -4.36 2.1
4.95 -2.7 -0.1
7.81 -4.26 2.38
5.14 -2.83 -1.57
5.2 -2.86 0.1
4.1 -2.26 -1.08
6.12 -3.37 0.37
6.44 -3.54 -1.43
5.5 -3.03 0.55
6.91 -3.8 -1.25
5.77 -3.17 0.81
6.88 -3.78 -0.96
10.51 -5.78 1.9
6.74 -3.71 -0.67
7.37 -4.05 1.64
5.33 -2.93 -0.32
7.41 -4.07 1.95
5.23 -2.88 -0.1
5.13 -2.85 -1.57
5.21 -2.89 0.1
4.07 -2.26 -1.08
6.04 -3.35 0.36
6.46 -3.58 -1.44
7.24 -4.02 0.72
7.51 -4.17 -1.36
5.81 -3.22 0.82
7.1 -3.94 -1
6.83 -3.78 -0.68
10.37 -5.75 2.3
5.81 -3.22 -0.35
9.22 -5.12 2.83
5.19 -2.9 0.1
4.04 -2.26 -1.07
5.98 -3.35 0.36
6.52 -3.64 -1.45
5.79 -3.24 0.58
7.39 -4.13 -1.34
8 -4.47 1.13
7.18 -4.02 -1.01
7 -3.91 1.27
6.71 -3.75 -0.67
7.05 -3.94 1.57
5.7 -3.19 -0.34
7.85 -4.39 2.08
4.99 -2.79 -0.1
9.35 -5.23 2.87
3.9 -2.2 -1.2
5.22 -2.94 0.1
4.01 -2.26 -1.06
8.09 -4.56 0.49
6.44 -3.63 -1.44
5.77 -3.26 0.58
7.32 -4.12 -1.33
6.98 -3.93 0.98
7.15 -4.03 -1.01
6.84 -3.86 1.24
6.77 -3.82 -0.68
8.64 -4.87 1.93
5.23 -2.95 -0.31
10.46 -5.9 2.77
5.48 -3.09 -0.11
9.28 -5.23 2.86
3.87 -2.2 -1.19
5.42 -3.08 0.11
3.98 -2.26 -1.06
6.43 -3.65 -1.44
5.79 -3.29 0.58
7.41 -4.21 -1.35
10.72 -6.09 1.51
7.68 -4.36 -1.08
7.36 -4.18 1.34
6.69 -3.8 -0.67
8.72 -4.96 1.95
5.21 -2.96 -0.31
7.36 -4.18 1.95
5.29 -3.01 -0.11
8.08 -4.59 2.49
3.85 -2.2 -1.19
5.44 -3.12 0.11
3.94 -2.26 -1.05
5.34 -3.06 0.32
6.55 -3.75 -1.47
6.98 -4 -1.27
11.48 -6.58 1.62
6.85 -3.92 -0.97
6.75 -3.87 -0.68
8.3 -4.75 1.86
5.15 -2.95 -0.31
7.29 -4.18 1.94
6.94 -3.97 -0.14
8.07 -4.62 2.49
3.82 -2.2 -1.18
5.27 -3.05 0.11
3.82 -2.2 -1.02
5.41 -3.13 0.33
6.36 -3.68 -1.43
5.36 -3.09 0.54
7.14 -4.12 -1.31
8.33 -4.81 1.18
6.81 -3.93 -0.97
7.64 -4.41 1.4
6.96 -4.02 -0.7
7.44 -4.3 1.67
5.15 -2.98 -0.31
8.74 -5.05 2.33
5.23 -3.02 -0.11
8.01 -4.63 2.48
3.79 -2.2 -1.17
5.31 -3.09 0.11
3.77 -2.2 -1.01
5.46 -3.18 0.33
6.48 -3.78 -1.46
7.12 -4.15 0.72
6.84 -3.98 -1.25
11.57 -6.74 1.64
7 -4.08 -0.99
7.57 -4.41 1.39
6.74 -3.92 -0.68
5.93 -3.45 -0.36
8.16 -4.75 2.18
8.01 -4.66 2.48
3.75 -2.2 -1.16
5.24 -3.08 0.11
3.74 -2.2 -1
5.44 -3.19 0.33
6.43 -3.77 -1.45
6.97 -4.09 -1.28
7.05 -4.13 1
7.55 -4.43 1.39
6.68 -3.92 -0.68
7.26 -4.26 1.64
5.3 -3.11 -0.32
10.47 -6.15 2.8
6.02 -3.53 -0.12
3.71 -2.2 -1.16
5.43 -3.21 0.11
3.71 -2.2 -1
5.78 -3.42 0.35
6.25 -3.7 -1.41
7.19 -4.25 0.73
6.39 -3.78 -1.18
6.94 -4.1 0.99
7.14 -4.22 -1.02
5.38 -3.18 -0.55
7.7 -4.55 1.74
5.44 -3.21 -0.33
10.66 -6.31 2.86
5.67 -3.35 -0.12
8.01 -4.74 2.49
3.69 -2.2 -1.15
5.83 -3.48 0.12
3.67 -2.19 -0.99
5.45 -3.25 0.33
6.42 -3.83 -1.45
7.09 -4.23 0.72
7.1 -4.23 -1.31
7.5 -4.47 1.07
6.61 -3.94 -0.95
9.76 -5.82 1.8
5.52 -3.29 -0.56
6.84 -4.08 1.55
6.41 -3.82 1.72
8.65 -5.16 2.7
3.66 -2.2 -1.15
5.91 -3.55 0.12
3.64 -2.19 -0.98
5.22 -3.13 0.32
5.66 -3.4 -1.28
7.07 -4.25 0.72
7.41 -4.45 1.06
6.48 -3.89 -0.93
7.44 -4.47 1.38
5.38 -3.23 -0.55
7.13 -4.28 1.62
5.1 -3.07 -0.31
8.36 -5.03 2.25
5.68 -3.41 -0.12
3.64 -2.21 -1.14
5.2 -3.15 0.11
3.62 -2.19 -0.98
5.21 -3.15 0.32
6.42 -3.89 -1.46
7.03 -4.26 0.72
5.35 -3.24 0.77
6.81 -4.12 -0.98
5.92 -3.59 1.1
5.39 -3.27 -0.55
6.68 -4.04 1.52
5.04 -3.05 -0.31
7.29 -4.41 1.97
5.7 -3.45 -0.12
3.61 -2.2 -1.13
3.59 -2.19 -0.97
5.26 -3.21 0.32
6.14 -3.75 -1.4
6.23 -3.8 0.64
6.62 -4.04 -1.23
5.32 -3.25 0.77
6.81 -4.16 -0.98
5.9 -3.6 1.1
5.35 -3.27 -0.55
7.41 -4.52 1.69
5.69 -3.48 -0.35
8.3 -5.07 2.25
5.72 -3.49 -0.12
7.92 -4.83 2.49
3.58 -2.2 -1.13
5.32 -3.27 0.11
3.57 -2.19 -0.97
5.21 -3.21 0.32
6.3 -3.87 -1.44
5.07 -3.12 0.52
6.79 -4.18 -1.26
9.02 -5.55 1.3
6.35 -3.91 -0.92
5.89 -3.62 1.1
5.31 -3.26 -0.55
6.68 -4.11 1.52
8.29 -5.1 2.25
3.56 -2.21 -1.12
5.23 -3.24 0.11
3.54 -2.19 -0.96
5.19 -3.22 0.32
5.93 -3.67 -1.36
5.08 -3.15 0.52
6.25 -3.87 -1.16
5.27 -3.27 0.76
5.29 -3.28 -0.76
5.88 -3.64 1.1
5.3 -3.29 -0.55
6.66 -4.13 1.52
5.48 -3.39 -0.34
8.24 -5.11 2.24
8.79 -5.45 2.77
3.54 -2.21 -1.12
3.52 -2.2 -0.96
5.16 -3.22 0.32
6.04 -3.77 -1.38
5.42 -3.38 0.56
6.33 -3.96 -1.18
5.27 -3.29 0.76
5.95 -3.72 1.11
5.3 -3.31 -0.55
9.58 -5.98 2.2
5.68 -3.55 -0.35
7.59 -4.74 2.07
5.77 -3.6 -0.12
8.57 -5.36 2.71
3.51 -2.21 -1.11
5.38 -3.39 0.11
3.49 -2.2 -0.95
5.37 -3.38 0.33
6.32 -3.98 -1.45
5.44 -3.42 0.56
6.29 -3.96 -1.18
6.07 -3.82 0.88
5.25 -3.3 -0.76
5.88 -3.7 1.1
5.06 -3.19 -0.52
5.17 -3.25 -0.32
8.22 -5.18 2.24
5.6 -3.53 -0.12
7.63 -4.8 2.42
3.48 -2.21 -1.11
5.41 -3.44 0.11
3.47 -2.2 -0.95
5.2 -3.3 0.32
5.92 -3.76 -1.36
6.22 -3.95 0.9
5.21 -3.3 -0.76
6.39 -4.05 1.2
4.96 -3.15 -0.51
9.54 -6.06 2.2
5.27 -3.34 -0.33
7.23 -4.59 1.98
5.44 -3.45 -0.11
7.53 -4.78 2.39
3.47 -2.22 -1.1
5.35 -3.42 0.11
3.44 -2.2 -0.94
5.23 -3.35 0.33
5.24 -3.35 -1.21
6.16 -3.94 0.64
5.19 -3.32 -0.98
6.2 -3.97 0.9
6.33 -4.05 1.19
5.06 -3.23 -0.53
9.01 -5.76 2.08
5.45 -3.48 -0.34
7.25 -4.63 1.99
5.47 -3.5 -0.11
7.28 -4.66 2.32
3.46 -2.23 -1.1
5.43 -3.5 0.11
3.41 -2.2 -0.94
4.96 -3.19 0.31
5.2 -3.35 -1.2
5.21 -3.35 -0.98
6.12 -3.94 0.89
6.42 -4.14 1.21
5.05 -3.26 -0.53
6.5 -4.19 1.5
5.13 -3.3 -0.32
7.97 -5.13 2.19
5.44 -3.5 -0.11
7.52 -4.84 2.4
3.45 -2.24 -1.1
5.21 -3.38 0.11
3.38 -2.2 -0.93
5.12 -3.32 0.32
5.18 -3.36 -1.2
5.19 -3.37 0.54
5.17 -3.35 -0.98
6.03 -3.92 0.88
6.17 -4 -0.9
6.03 -3.92 1.14
4.88 -3.17 -0.51
6.53 -4.24 1.51
5.56 -3.61 -0.35
7.9 -5.13 2.17
3.44 -2.25 -1.1
5.54 -3.63 0.12
3.36 -2.2 -0.93
5.49 -3.59 0.34
5.15 -3.37 -1.2
5.04 -3.3 0.53
5.15 -3.37 -0.98
5.89 -3.86 0.86
5.82 -3.81 -0.85
4.91 -3.21 -0.51
6.17 -4.04 1.43
5.45 -3.57 -0.34
7.69 -5.03 2.12
5.39 -3.53 -0.11
8.68 -5.68 2.78
3.42 -2.25 -1.1
5.14 -3.39 0.11
3.34 -2.2 -0.92
5.46 -3.6 0.34
5.14 -3.39 -1.2
5 -3.3 0.52
6.04 -3.98 0.89
7.9 -5.21 1.5
4.92 -3.25 -0.52
9.25 -6.1 2.15
5.45 -3.59 -0.34
8.15 -5.38 -0.17
7.62 -5.02 2.45
3.41 -2.27 -1.1
4.95 -3.29 0.1
3.32 -2.21 -0.92
5 -3.32 0.31
5.16 -3.43 -1.2
5.11 -3.39 0.54
6.01 -4 -1.14
6.13 -4.07 0.9
7.63 -5.07 1.45
5.25 -3.49 -0.55
7.36 -4.89 1.72
6.91 -4.59 1.92
5.37 -3.57 -0.11
7.31 -4.86 2.35
3.4 -2.27 -1.09
3.3 -2.21 -0.92
5 -3.34 0.32
5.06 -3.39 0.53
5.66 -3.79 -1.08
6.08 -4.07 0.9
5.14 -3.44 -0.76
6.1 -4.08 1.16
5.55 -3.72 -0.58
7.58 -5.07 1.77
5.76 -3.86 -0.36
6.89 -4.61 1.91
5.38 -3.6 -0.11
3.38 -2.28 -1.09
5.12 -3.45 0.11
3.29 -2.22 -0.92
5.1 -3.44 0.32
6.03 -4.07 -1.41
5 -3.37 0.53
6.9 -4.66 1.02
5.78 -3.9 -0.86
6.09 -4.11 1.16
5.58 -3.76 -0.59
7.05 -4.75 1.65
5.27 -3.56 -0.33
6.77 -4.57 1.89
7.97 -5.37 2.57
3.37 -2.29 -1.09
5.41 -3.67 0.11
5.15 -3.5 -1.44
6.07 -4.12 0.38
5.22 -3.55 -1.23
4.98 -3.38 0.53
4.9 -3.33 0.73
6.18 -4.2 1.18
5.59 -3.8 -0.59
7.29 -4.95 1.71
5.26 -3.57 -0.33
6.73 -4.57 1.88
4.58 -3.11 -0.1
3.34 -2.29 -1.08
4.72 -3.23 0.1
5.25 -3.59 -1.47
6.16 -4.21 -1.45
4.82 -3.3 0.51
5.07 -3.47 -0.97
5.6 -3.83 0.83
4.92 -3.37 -0.73
5.84 -4 1.12
5.41 -3.7 -0.57
6.12 -4.19 1.44
5.08 -3.48 -0.32
6.64 -4.55 1.86
5.42 -3.71 -0.11
8.02 -5.49 2.6
3.32 -2.29 -1.08
4.84 -3.34 0.1
5.24 -3.62 -1.47
6.62 -4.57 0.42
5.52 -3.8 -1.3
5.03 -3.47 0.53
5.58 -3.85 -1.07
5.6 -3.86 0.84
5.8 -4 1.12
5.34 -3.68 -0.57
5.06 -3.49 -0.32
6.73 -4.64 1.89
5.14 -3.54 -0.11
7.09 -4.89 2.31
3.3 -2.29 -1.08
7.88 -5.47 0.17
5.22 -3.63 -1.47
4.87 -3.38 0.31
5.12 -3.56 0.55
6.31 -4.38 -1.22
5.58 -3.88 0.83
6.03 -4.19 1.16
4.66 -3.24 -0.5
7.55 -5.24 1.79
6.68 -4.64 1.88
7.36 -5.11 2.4
3.27 -2.29 -1.07
5.18 -3.62 0.11
5.15 -3.6 -1.45
5.01 -3.51 0.32
5.48 -3.83 -1.3
4.87 -3.41 0.52
5.53 -3.87 0.83
5.08 -3.56 -0.76
5.99 -4.19 1.16
4.48 -3.13 -0.48
6.84 -4.79 1.62
5.34 -3.73 -0.34
5.15 -3.61 -0.11
7.56 -5.29 2.47
3.24 -2.29 -1.06
4.73 -3.34 0.1
5.24 -3.69 -1.48
4.88 -3.44 0.31
5.12 -3.61 -1.22
5.44 -3.84 0.58
5.45 -3.84 -1.06
4.69 -3.31 0.7
5.05 -3.56 -0.76
6.02 -4.24 1.17
4.7 -3.32 -0.5
7.53 -5.31 1.79
4.8 -3.38 -0.31
6.18 -4.36 1.75
5.29 -3.73 1.73
3.18 -2.26 -1.05
5.36 -3.81 0.11
5.26 -3.73 -1.49
4.72 -3.35 0.3
6.12 -4.35 -1.46
4.85 -3.45 0.52
6.01 -4.27 -1.17
4.77 -3.39 0.72
4.99 -3.54 -0.75
6.15 -4.37 1.19
4.75 -3.37 -0.51
4.98 -3.53 1.19
5.24 -3.72 -0.34
6.52 -4.63 1.85
5.49 -3.9 -0.12
7.52 -5.34 2.47
3.11 -2.22 -1.02
5.24 -3.75 0.11
5.23 -3.74 -1.49
6.2 -4.43 -1.48
5.1 -3.65 0.55
5.72 -4.09 -1.11
5.52 -3.95 0.83
4.94 -3.54 -0.75
6.04 -4.32 1.18
4.65 -3.33 -0.5
4.95 -3.54 1.18
5.22 -3.74 -0.34
5.13 -3.67 -0.11
7.49 -5.36 2.47
3.07 -2.21 -1.01
5.24 -3.78 0.11
5.15 -3.71 -1.46
4.8 -3.46 0.31
5.26 -3.8 -1.26
4.72 -3.4 0.51
6.5 -4.69 -1.27
5.15 -3.72 0.78
4.98 -3.59 -0.75
6.05 -4.36 1.18
4.63 -3.34 -0.5
6.16 -4.44 1.48
4.68 -3.37 -0.3
7.77 -5.6 2.21
7.49 -5.4 2.47
3.05 -2.22 -1.01
5.18 -3.76 0.11
5.06 -3.67 -1.44
4.74 -3.44 0.31
5.17 -3.75 -1.24
5.04 -3.66 0.54
5.4 -3.92 -1.06
5.02 -3.65 0.76
4.94 -3.59 -0.75
4.42 -3.21 -0.48
5.94 -4.31 1.43
6.36 -4.62 -0.41
7.74 -5.62 2.21
4.26 -3.09 -0.09
3.03 -2.22 -1.01
5.16 -3.78 0.11
5.25 -3.84 -1.5
4.73 -3.46 0.31
5.06 -3.7 -1.22
5.05 -3.69 0.55
4.92 -3.6 -0.97
4.61 -3.37 0.7
5.96 -4.36 1.17
4.43 -3.24 -0.48
6.18 -4.52 1.49
4.56 -3.34 -0.3
6.97 -5.1 1.99
4.59 -3.36 -0.1
7.33 -5.36 2.43
3 -2.21 -1
4.34 -3.2 0.09
5.27 -3.88 -1.51
4.7 -3.46 0.31
4.78 -3.53 0.52
5.45 -4.02 -1.07
5.15 -3.8 0.79
4.98 -3.67 -0.76
6.17 -4.54 1.21
4.5 -3.32 -0.49
6.26 -4.61 1.51
5.41 -3.98 -0.35
5.1 -3.76 1.46
4.64 -3.41 -0.1
7.13 -5.25 2.37
2.98 -2.21 -0.99
4.9 -3.64 0.11
5.23 -3.88 -1.5
4.71 -3.5 0.31
6.19 -4.6 -1.5
5.39 -4 -1.06
5.13 -3.81 0.78
5.59 -4.15 -0.85
4.94 -3.67 0.97
4.57 -3.39 -0.5
4.43 -3.29 -0.29
6.9 -5.12 1.98
4.66 -3.46 -0.1
7.72 -5.73 2.58
2.97 -2.22 -0.99
4.4 -3.29 0.1
5.16 -3.86 -1.49
4.78 -3.57 -1.16
5.01 -3.74 0.55
5.79 -4.33 -1.14
4.83 -3.61 0.74
5.35 -4 -0.82
4.96 -3.71 0.98
3.81 -2.85 -0.42
6.17 -4.61 1.5
5.24 -3.91 1.51
4.64 -3.47 -0.1
7.71 -5.76 2.58
2.95 -2.22 -0.99
4.69 -3.54 0.1
5.15 -3.88 -1.49
5.1 -3.84 0.33
5.12 -3.85 0.56
5.1 -3.84 0.78
5.06 -3.81 -0.78
6.01 -4.52 1.19
3.86 -2.91 -0.42
6.23 -4.69 1.52
4.39 -3.31 -0.29
5.2 -3.92 1.5
4.63 -3.49 -0.1
6.88 -5.18 2.31
2.94 -2.23 -0.99
4.66 -3.53 0.1
5.14 -3.9 -1.49
4.74 -3.59 0.31
4.91 -3.72 -1.2
5.45 -4.13 0.6
5.22 -3.96 0.8
5.13 -3.89 -0.79
5.79 -4.39 1.15
3.97 -3.01 -0.44
6.51 -4.94 1.59
4.39 -3.33 -0.29
8.45 -6.41 2.45
7.61 -5.77 2.56
2.91 -2.22 -0.98
4.74 -3.62 0.1
5.12 -3.91 -1.49
4.69 -3.58 0.31
4.9 -3.75 -1.2
5.32 -4.07 0.59
5.43 -4.15 0.84
5.36 -4.1 -0.83
6.43 -4.91 1.28
3.97 -3.03 -0.44
6.28 -4.8 1.54
4.35 -3.33 -0.29
8.46 -6.46 2.46
4.8 -3.67 -0.11
4.62 -3.53 1.56
2.88 -2.22 -0.98
4.93 -3.79 -1.44
5.5 -4.23 0.36
5.03 -3.87 -1.23
5.91 -4.55 0.65
5.41 -4.16 -1.08
5.37 -4.13 0.83
6.16 -4.74 1.23
3.99 -3.07 -0.44
6.11 -4.7 1.5
6.31 -4.86 -0.42
8.38 -6.45 2.44
2.87 -2.23 -0.97
5.27 -4.09 0.12
5 -3.88 -1.46
4.45 -3.45 0.3
5.23 -4.06 -1.29
4.98 -3.86 0.55
5.54 -4.3 -1.11
5.26 -4.08 0.82
5.57 -4.32 -0.87
4.14 -3.21 -0.46
6.11 -4.73 1.5
5.58 -4.33 -0.37
7.27 -5.64 2.12
3.93 -3.05 -0.09
2.86 -2.23 -0.97
5.01 -3.91 0.11
5.09 -3.98 -1.49
5.4 -4.21 0.36
4.99 -3.89 -1.23
5.45 -4.25 0.6
5.23 -4.08 -1.05
4.4 -3.44 0.69
3.72 -2.9 -0.58
5.05 -3.94 1.01
3.96 -3.09 -0.44
6.12 -4.78 1.51
5.49 -4.28 -0.36
8.97 -7 2.63
17.38 -13.57 5.91
2.83 -2.22 -0.96
4.44 -3.49 0.1
5.08 -3.99 -1.49
5.48 -4.31 0.37
5.37 -4.23 0.6
4.89 -3.85 -0.99
4.92 -3.87 0.77
5.79 -4.55 -0.9
5.05 -3.97 1.02
3.87 -3.04 -0.43
6.07 -4.78 1.5
5.09 -4.01 -0.34
16.67 -13.11 4.89
18.93 -14.88 6.45
2.8 -2.22 -0.96
4.39 -3.47 0.1
5.02 -3.98 -1.48
5.48 -4.34 0.37
5.37 -4.25 -1.33
9.48 -7.51 1.06
3.6 -2.86 -0.73
4.96 -3.93 0.78
5.78 -4.58 -0.91
3.83 -3.03 -0.43
3.98 -3.15 -0.27
6.74 -5.34 1.98
6.21 -4.92 -0.14
7.59 -6.01 2.59
2.78 -2.22 -0.95
4.41 -3.52 0.1
5.02 -4 -1.48
7.08 -5.65 0.47
9.42 -7.51 1.05
4.89 -3.9 -0.99
5.03 -4.01 0.79
3.72 -2.97 -0.58
5.13 -4.09 1.04
3.74 -2.98 -0.42
5.99 -4.78 1.49
3.99 -3.18 -0.27
6.72 -5.36 1.98
7.56 -6.03 2.59
2.77 -2.23 -0.95
4.4 -3.53 0.1
4.97 -3.99 -1.47
7.59 -6.1 0.51
6.92 -5.56 0.78
6.44 -5.18 -1.31
4.82 -3.87 0.76
4.66 -3.74 -0.73
5.11 -4.11 1.04
3.72 -2.99 -0.42
5.84 -4.69 1.46
4 -3.21 -0.27
5.58 -4.49 1.65
4.27 -3.43 -0.1
7.53 -6.05 2.59
2.75 -2.23 -0.95
4.39 -3.55 0.1
4.98 -4.03 -1.48
4.24 -3.43 0.29
4.96 -4.01 -1.24
4.94 -4 0.56
4.87 -3.94 -0.99
5.18 -4.19 0.82
3.66 -2.96 -0.58
5.01 -4.06 1.02
3.9 -3.16 -0.44
5.71 -4.62 -0.38
4.02 -3.25 -0.09
2.73 -2.23 -0.95
4.36 -3.55 0.1
5.03 -4.1 -1.5
4.14 -3.37 0.28
4.56 -3.71 -1.14
4.57 -3.72 0.52
4.92 -4.01 -1
4.81 -3.92 0.76
4.14 -3.37 -0.66
5.1 -4.15 1.04
3.82 -3.11 -0.43
5.07 -4.13 1.27
5.55 -4.52 1.65
4.07 -3.31 -0.09
2.71 -2.22 -0.94
4.33 -3.56 0.1
5.01 -4.11 -1.5
4.5 -3.7 -1.13
7.24 -5.94 0.82
4.9 -4.02 -1
4.77 -3.91 0.76
4.12 -3.38 -0.65
4.99 -4.09 1.02
3.91 -3.21 -0.44
3.99 -3.27 -0.27
4.62 -3.79 1.38
4.01 -3.29 -0.09
4.13 -3.39 1.43
2.7 -2.23 -0.94
4.17 -3.45 0.09
4.94 -4.08 -1.48
4.15 -3.43 0.28
3.08 -2.55 0.35
4.5 -3.72 -0.93
4.89 -4.04 0.78
3.44 -2.84 -0.55
6.57 -5.42 1.35
3.98 -3.29 -0.45
4.87 -4.03 1.23
4.49 -3.71 -0.31
4.62 -3.82 1.38
3.99 -3.29 -0.09
7.58 -6.27 2.64
2.69 -2.24 -0.94
4.93 -4.1 0.11
4.83 -4.01 -1.45
7.03 -5.85 0.48
4.94 -4.11 -1.25
3.07 -2.55 0.35
4.67 -3.88 -0.96
4.77 -3.97 0.76
5.15 -4.29 1.06
4.08 -3.39 -0.46
4.01 -3.34 -0.27
4.22 -3.51 -0.1
6.38 -5.31 2.22
2.68 -2.24 -0.94
5.04 -4.22 0.11
4.92 -4.13 -1.48
4.97 -4.16 0.34
4.88 -4.09 -1.24
3.08 -2.58 0.35
3.55 -2.97 -0.73
7.07 -5.93 1.13
4.56 -3.82 -0.73
4.16 -3.48 -0.47
4 -3.35 -0.27
5.73 -4.8 1.72
3.88 -3.25 -0.09
6.35 -5.32 2.22
2.66 -2.25 -0.93
4.34 -3.66 0.1
5.04 -4.25 -1.52
3.11 -2.63 0.21
4.69 -3.96 -1.19
4.35 -3.67 0.5
5.99 -5.06 -1.24
2.92 -2.46 0.47
4.9 -4.13 1.02
4.21 -3.55 -0.48
4 -3.37 -0.27
4.13 -3.49 1.25
7.56 -6.38 2.65
2.64 -2.24 -0.93
3.02 -2.57 0.07
5.04 -4.28 -1.53
3.01 -2.56 0.21
4.89 -4.16 -1.25
4.38 -3.72 0.5
6.25 -5.31 -1.3
6.36 -5.4 1.02
4.96 -4.22 1.03
4.07 -3.46 -0.47
4.92 -4.19 1.26
4.07 -3.46 -0.28
5.74 -4.88 1.74
6.31 -5.36 2.22
2.62 -2.24 -0.93
4.83 -4.13 0.11
5.04 -4.31 -1.53
4.47 -3.82 0.31
4.96 -4.25 -1.27
4.55 -3.89 0.52
4.56 -3.91 -0.95
4.34 -3.71 0.7
3.05 -2.61 0.63
3.98 -3.4 -0.46
4.88 -4.17 1.25
5.8 -4.96 1.76
4.38 -3.74 -0.1
6.23 -5.33 2.2
4.21 -3.63 -1.49
8.69 -7.49 0.2
4.32 -3.72 -1.32
4.64 -4 0.32
7.16 -6.17 -1.84
4.2 -3.62 0.48
3.35 -2.89 -0.7
4.64 -4 0.75
3.3 -2.85 -0.54
4.71 -4.06 0.99
4.09 -3.53 -0.47
5.86 -5.05 1.5
3.87 -3.34 -0.27
7.85 -6.76 2.39
4.23 -3.65 -0.1
4.23 -3.67 -1.5
2.81 -2.44 0.07
4.38 -3.8 -1.34
3.31 -2.87 0.23
3.45 -2.99 -0.89
3.35 -2.91 -0.7
4.65 -4.04 0.76
3.29 -2.86 -0.54
4.58 -3.97 0.96
4.23 -3.67 -0.49
5.83 -5.06 1.5
4.05 -3.51 -0.28
6.4 -5.55 2.27
4.25 -3.72 -1.51
2.84 -2.49 0.07
4.41 -3.85 -1.35
3.05 -2.67 0.35
4.95 -4.33 0.81
3.34 -2.92 -0.54
4.6 -4.02 0.97
4.1 -3.58 -0.48
5.8 -5.07 1.5
4.49 -3.93 -0.31
7.8 -6.82 2.39
4.08 -3.57 -0.09
6.33 -5.53 2.25
4.2 -3.7 -1.5
4.39 -3.86 -1.35
4.44 -3.91 -1.15
3.3 -2.91 -0.7
7.66 -6.74 1.25
4.57 -4.02 0.96
4.21 -3.71 -0.49
4.16 -3.66 1.08
4.31 -3.79 -0.3
6.69 -5.89 -0.16
7.61 -6.69 2.72
4.26 -3.78 -1.53
4.41 -3.91 0.1
4.44 -3.94 -1.37
3.04 -2.69 0.21
4.45 -3.95 -1.16
4.25 -3.77 0.5
3.34 -2.96 -0.71
2.39 -2.12 0.39
4.62 -4.1 -0.76
4.72 -4.19 1
4.12 -3.65 1.07
2.81 -2.49 0.87
5.23 -4.64 -0.12
6.42 -5.69 2.3
4.26 -3.81 -1.53
4.28 -3.82 0.1
4.98 -4.45 -1.54
4.56 -4.07 0.32
4.41 -3.94 -1.15
5.09 -4.55 0.6
3.36 -3 -0.71
4.17 -3.73 0.69
4.48 -4 0.95
4.56 -4.08 -0.54
6.22 -5.56 1.62
4.23 -3.78 -0.3
6.25 -5.58 1.93
2.92 -2.61 -0.07
7.53 -6.73 2.71
4.25 -3.83 -1.53
4.28 -3.85 0.1
4.81 -4.33 -1.49
4.09 -3.68 0.29
4.5 -4.05 -1.18
3.02 -2.72 0.36
3.33 -3 -0.71
2.82 -2.53 0.47
4.01 -3.61 -0.66
4.48 -4.03 0.95
3.79 -3.41 -0.45
4.37 -3.93 1.14
4.05 -3.64 -0.29
4.7 -4.22 1.46
2.84 -2.56 -0.07
2.71 -2.44 0.98
4.29 -3.89 -1.55
4.45 -4.03 0.1
4.04 -3.66 -1.26
4.46 -4.04 -1.17
2.8 -2.53 0.33
3.28 -2.97 -0.7
4.41 -3.99 0.73
3.58 -3.25 -0.59
4.96 -4.49 1.06
4.57 -4.14 1.2
7.59 -6.87 2.36
5.55 -5.02 -0.13
15.13 -13.7 5.47
4.24 -3.86 -1.54
4.4 -4.01 0.1
4.58 -4.18 -1.43
3.93 -3.59 0.28
4.15 -3.79 -1.09
2.61 -2.38 0.31
3.24 -2.96 -0.69
2.58 -2.36 0.43
3.38 -3.09 -0.56
4.36 -3.98 0.94
3.81 -3.47 -0.45
4.4 -4.02 1.16
3.99 -3.64 -0.28
4.69 -4.27 1.46
5.95 -5.43 -0.14
13.53 -12.34 4.91
4.25 -3.9 -1.54
4.41 -4.05 0.1
4.37 -4.01 -1.37
4.6 -4.22 0.33
3.73 -3.43 -0.98
4.25 -3.91 0.51
4.38 -4.02 0.73
4.07 -3.74 -0.68
7.99 -7.33 1.72
3.87 -3.55 -0.46
5.36 -4.93 -0.38
2.84 -2.6 0.89
2.87 -2.63 -0.07
4.07 -3.77 -1.28
2.41 -2.23 0.17
3.76 -3.48 -1
2.37 -2.19 0.28
3.45 -3.19 -0.74
4.35 -4.02 0.73
3.43 -3.18 -0.57
4.82 -4.46 1.04
3.75 -3.47 -0.45
5.61 -5.19 1.49
3.71 -3.43 -0.27
7.42 -6.86 2.33
4.97 -4.59 -0.12
13.45 -12.44 4.91
3.19 -2.97 0.08
2.43 -2.26 0.17
4.42 -4.11 -1.17
2.42 -2.26 0.29
4.27 -3.98 0.72
4.35 -4.05 -0.73
4.18 -3.89 0.9
3.74 -3.48 -0.45
5.57 -5.18 1.48
7.53 -7.01 -0.54
2.98 -2.77 0.94
5.17 -4.81 -0.12
2.7 -2.51 0.99
4.1 -3.85 -1.51
5.13 -4.81 0.12
2.91 -2.72 0.21
4.39 -4.11 -1.17
2.82 -2.64 0.34
3.94 -3.69 -0.85
4.11 -3.85 0.69
3.51 -3.29 -0.59
5.19 -4.86 1.13
3.72 -3.49 -0.45
5.55 -5.2 1.48
4.6 -4.31 -0.33
7.36 -6.9 2.33
2.9 -2.72 -0.07
2.81 -2.63 1.03
4.08 -3.85 -1.5
3.19 -3.01 0.08
4.54 -4.29 -1.44
2.9 -2.74 0.21
3.68 -3.47 -0.98
3.98 -3.76 0.48
6.04 -5.7 -1.32
2.83 -2.67 0.48
3.67 -3.46 -0.62
2.64 -2.49 0.57
3.73 -3.52 -0.45
4.48 -4.22 1.2
3.6 -3.4 -0.26
7.34 -6.93 2.33
3.02 -2.85 -0.07
2.76 -2.61 1.02
4.07 -3.87 -1.5
2.9 -2.76 0.07
4.81 -4.57 -1.53
3.39 -3.22 -0.91
7.24 -6.88 0.87
3.39 -3.22 -0.74
2.78 -2.64 0.47
3.65 -3.47 -0.62
4.19 -3.99 0.92
3.71 -3.52 -0.45
6.17 -5.86 1.65
4.51 -4.28 -0.33
5.11 -4.86 -0.12
2.64 -2.51 0.98
4.1 -3.93 -1.52
2.85 -2.73 0.07
4.18 -4 -1.33
2.41 -2.31 0.17
3.47 -3.32 -0.93
5.05 -4.83 0.61
2.82 -2.7 0.48
3.63 -3.47 -0.62
4.56 -4.36 1
6.68 -6.4 -0.81
2.7 -2.58 0.73
2.78 -2.66 -0.2
2.75 -2.63 0.88
4.31 -4.12 -0.1
7.45 -7.13 2.76
4.11 -3.97 -1.53
2.86 -2.75 0.07
2.49 -2.4 0.18
3.62 -3.49 -0.98
2.28 -2.2 0.28
6.08 -5.86 -1.34
4.99 -4.81 0.85
3.61 -3.48 -0.62
2.8 -2.7 0.62
5.25 -5.06 -0.64
2.65 -2.55 0.71
3.78 -3.65 -0.28
2.68 -2.58 0.86
2.74 -2.64 -0.07
2.68 -2.58 1
4.03 -3.91 -1.51
4.79 -4.65 0.35
6.39 -6.21 0.78
3.26 -3.16 -0.72
4 -3.89 0.68
3.63 -3.53 -0.62
2.62 -2.55 0.58
3.82 -3.71 -0.47
2.6 -2.52 0.7
3.01 -2.92 -0.22
2.7 -2.62 -0.07
4.81 -4.67 1.8
4.03 -3.94 -1.51
3.88 -3.8 0.09
4.75 -4.65 -1.53
4.55 -4.45 0.33
3.25 -3.17 -0.88
2.68 -2.62 0.33
3.26 -3.19 -0.72
4.03 -3.94 0.69
3.03 -2.96 -0.52
2.47 -2.41 0.55
3.84 -3.75 -0.47
2.73 -2.67 0.74
4.6 -4.5 -0.34
17.69 -17.29 5.71
2.67 -2.61 -0.07
6 -5.86 2.25
4.02 -3.95 -1.51
2.85 -2.8 0.07
4.61 -4.54 -1.49
4.49 -4.42 0.33
3.34 -3.28 -0.91
2.72 -2.67 0.33
2.91 -2.87 0.5
3.59 -3.54 -0.62
4.57 -4.5 1.02
3.59 -3.53 -0.44
2.73 -2.69 0.75
2.92 -2.87 -0.21
4.9 -4.83 1.59
3.28 -3.23 -0.08
2.69 -2.64 1.01
3.82 -3.78 -1.44
3.83 -3.8 0.09
4.56 -4.52 -1.48
2.31 -2.29 0.17
3.24 -3.21 -0.89
2.73 -2.7 0.34
3.74 -3.7 -0.83
4.27 -4.23 0.74
3.05 -3.03 -0.53
6.08 -6.03 1.36
3.52 -3.49 -0.43
2.7 -2.67 0.74
4.67 -4.63 -0.34
2.68 -2.66 0.87
2.73 -2.7 -0.07
2.66 -2.64 1
4.02 -4.02 -1.52
4.08 -4.07 -1.33
2.5 -2.49 0.18
3.23 -3.23 -0.89
4.19 -4.18 0.52
3.2 -3.19 -0.72
4.25 -4.25 0.74
3.14 -3.14 -0.55
2.47 -2.46 0.55
4.11 -4.1 -0.51
2.68 -2.68 0.74
2.87 -2.87 -0.21
2.35 -2.34 0.77
5 -4.99 -0.12
2.72 -2.72 1.03
4.01 -4.03 -1.52
3.81 -3.83 0.09
4.02 -4.05 -1.32
2.53 -2.55 0.19
5.09 -5.12 -1.4
4.28 -4.3 0.53
3.21 -3.22 -0.72
2.65 -2.66 0.46
3.23 -3.24 -0.56
7.53 -7.57 1.69
2.39 -2.4 0.66
2.93 -2.95 -0.22
2.73 -2.74 0.89
2.84 -2.85 -0.07
2.72 -2.73 1.03
3.86 -3.91 -1.47
3.83 -3.88 0.1
2.69 -2.72 0.2
3.6 -3.64 -1
7.99 -8.09 0.99
5.69 -5.76 -1.28
2.64 -2.67 0.46
3.13 -3.17 -0.55
4.83 -4.89 1.09
2.91 -2.94 -0.36
2.54 -2.57 0.7
2.97 -3.01 -0.22
2.72 -2.76 0.89
2.71 -2.74 1.03
3.89 -3.97 -1.49
2.47 -2.52 0.06
4.13 -4.21 -1.36
3.13 -3.19 -0.87
5.18 -5.29 0.65
3.27 -3.33 -0.74
3.89 -3.97 0.68
3.31 -3.37 -0.58
4.87 -4.97 1.1
4.97 -5.07 -0.62
2.71 -2.76 0.75
2.62 -2.67 0.86
4.69 -4.78 -0.12
2.67 -2.72 1.02
3.82 -3.92 -1.47
2.86 -2.93 0.07
4.08 -4.19 -1.35
3.39 -3.48 0.25
2.86 -2.93 0.36
3.33 -3.42 -0.76
3.66 -3.76 0.64
3.13 -3.21 -0.55
2.71 -2.79 0.62
4.59 -4.71 -0.58
4.59 -4.72 1.28
2.77 -2.84 -0.21
15.47 -15.88 5.12
6.18 -6.34 -0.15
3.81 -3.93 -1.47
2.63 -2.72 0.07
3.29 -3.4 0.25
3.63 -3.76 0.46
3.17 -3.28 -0.72
2.5 -2.59 0.44
4.85 -5.01 1.1
4.8 -4.96 -0.6
2.78 -2.87 0.78
3.01 -3.11 -0.23
2.74 -2.83 0.91
2.75 -2.84 1.06
3.79 -3.94 -1.46
2.62 -2.73 0.07
3.43 -3.57 -1.14
3.14 -3.26 -0.88
5.11 -5.32 0.65
3.64 -3.78 -0.83
2.5 -2.6 0.44
3.71 -3.86 -0.66
2.6 -2.7 0.59
4.53 -4.71 -0.57
2.75 -2.86 0.77
2.8 -2.91 -0.21
2.75 -2.87 0.92
3.06 -3.18 -0.08
2.74 -2.85 1.06
3.83 -4.01 -1.49
2.78 -2.91 0.07
4.6 -4.82 -1.54
2.69 -2.82 -0.76
5.21 -5.46 0.66
5.5 -5.76 -1.26
2.69 -2.81 0.48
3.6 -3.77 -0.64
2.54 -2.66 0.58
2.82 -2.95 -0.36
5.96 -6.24 1.68
2.65 -2.77 -0.2
3.88 -4.07 1.3
5.75 -6.03 -0.15
5.91 -6.19 2.29
3.95 -4.17 -1.54
2.73 -2.88 0.07
4.61 -4.87 -1.55
2.66 -2.81 0.2
2.69 -2.84 -0.76
2.71 -2.86 0.35
3.05 -3.22 -0.7
2.66 -2.8 0.47
3.56 -3.76 -0.64
4.27 -4.5 0.98
3.42 -3.61 -0.43
2.8 -2.95 0.79
2.62 -2.77 -0.2
5.92 -6.24 1.98
5.79 -6.1 -0.15
5.92 -6.24 2.31
4.3 -4.57 0.11
4.62 -4.91 -1.56
2.71 -2.88 0.21
2.65 -2.82 -0.75
2.72 -2.89 0.35
3.11 -3.31 -0.72
2.72 -2.9 0.49
2.68 -2.85 -0.48
5.93 -6.3 1.37
4.65 -4.94 1.32
2.6 -2.76 -0.2
5.91 -6.29 1.99
5.95 -6.32 -0.15
4.01 -4.3 -1.58
5.17 -5.53 0.13
3.01 -3.22 -1.02
4.4 -4.71 0.34
2.58 -2.76 -0.73
2.68 -2.87 0.34
3.1 -3.32 -0.72
2.56 -2.74 0.46
3.31 -3.54 -0.6
2.71 -2.9 -0.21
3.44 -3.68 -0.09
2.69 -2.88 1.06
3.93 -4.23 -1.55
2.43 -2.62 0.06
3.62 -3.91 0.28
2.59 -2.79 -0.74
4.52 -4.87 0.58
5.92 -6.38 -1.38
2.49 -2.68 0.45
3.35 -3.61 -0.6
4.29 -4.62 -0.55
3.91 -4.21 1.12
2.67 -2.88 0.91
3.46 -3.73 -0.09
5.93 -6.39 2.33
3.8 -4.13 -1.5
3.28 -3.56 0.08
2.69 -2.92 0.21
4.79 -5.2 -1.37
4.5 -4.89 0.58
2.45 -2.66 0.44
2.42 -2.62 0.56
4.45 -4.83 1.28
2.84 -3.08 -0.22
2.66 -2.89 0.91
2.6 -2.83 -0.07
3.92 -4.29 -1.56
3.36 -3.67 0.09
3.54 -3.87 -1.21
2.69 -2.93 0.21
2.64 -2.88 -0.76
7.85 -8.58 1.02
3.71 -4.05 0.67
4.23 -4.62 -0.77
13.44 -14.68 3.15
3.78 -4.13 -0.49
6.6 -7.21 1.9
2.77 -3.03 -0.21
2.65 -2.9 0.91
2.6 -2.84 -0.07
4.55 -4.97 1.8
3.93 -4.32 -1.57
3.3 -3.63 0.09
3.43 -3.77 -1.18
2.68 -2.95 0.21
3.03 -3.33 -0.88
2.52 -2.78 0.33
3.55 -3.9 -0.84
2.48 -2.73 0.45
4.32 -4.75 -0.79
4.08 -4.49 0.96
3.75 -4.12 -0.49
4.36 -4.79 1.26
2.72 -2.99 -0.21
4.54 -4.99 1.81
3.92 -4.34 -1.57
2.7 -2.99 0.07
3.54 -3.93 -1.22
3.32 -3.68 0.26
3.59 -3.98 -1.04
2.52 -2.79 0.33
3.64 -4.03 0.67
4.29 -4.75 -0.79
3.41 -3.78 -0.45
2.72 -3.02 -0.21
3.36 -3.72 -0.09
3.74 -4.18 -1.5
2.69 -3.01 0.07
3.59 -4 -1.24
3.4 -3.79 -0.99
4 -4.46 0.52
3.05 -3.4 -0.72
2.53 -2.82 0.47
4.93 -5.5 -0.91
3.36 -3.75 0.8
3.33 -3.72 -0.44
2.77 -3.09 -0.22
4.52 -5.05 1.56
3.33 -3.72 -0.09
2.68 -3.01 0.07
4.67 -5.24 -1.62
3.1 -3.48 0.24
6.07 -6.83 -1.78
2.98 -3.35 0.39
3.03 -3.41 -0.72
3.65 -4.1 0.67
3.36 -3.78 -0.62
3.8 -4.27 0.91
3.4 -3.82 -0.45
4.52 -5.08 1.32
2.82 -3.17 -0.22
4.71 -5.29 1.64
3.33 -3.74 -0.09
13.96 -15.68 5.62
2.95 -3.34 -1.19
3.39 -3.84 0.09
3.52 -3.99 -1.23
2.68 -3.03 0.21
3.41 -3.86 -1
2.33 -2.63 -0.56
2.52 -2.85 0.47
3.67 -4.15 -0.68
3.77 -4.27 0.9
2.98 -3.37 -0.39
4.45 -5.03 1.31
2.81 -3.18 -0.22
4.45 -5.04 1.55
3.27 -3.7 -0.09
4.39 -4.97 1.78
3.85 -4.38 -1.56
3.21 -3.66 0.08
2.56 -2.91 0.2
4.24 -4.83 0.56
4.15 -4.72 -1
2.55 -2.9 0.47
3.35 -3.82 -0.62
3.77 -4.29 0.9
4.15 -4.73 -0.55
3.5 -3.99 1.03
4.42 -5.03 1.55
2.7 -3.07 -0.07
4.38 -4.99 1.78
3.18 -3.65 0.08
2.71 -3.11 -0.95
4.16 -4.77 0.55
4.13 -4.74 -1
3.5 -4.01 0.65
2.81 -3.22 -0.53
3.77 -4.33 0.91
2.93 -3.36 -0.39
2.44 -2.8 0.72
3.83 -4.4 -0.31
11.73 -13.46 4.12
2.63 -3.02 -0.07
3.78 -4.37 -1.55
3.16 -3.65 0.08
2.7 -3.12 -0.95
3.51 -4.06 0.28
2.43 -2.81 -0.72
4.47 -5.17 0.84
3.23 -3.73 -0.61
3.8 -4.39 0.92
2.96 -3.42 -0.4
4.23 -4.89 1.26
3.23 -3.74 -0.26
3.45 -3.98 1.22
2.47 -2.86 -0.07
3.65 -4.25 -1.5
2.7 -3.14 -0.96
2.52 -2.93 0.2
2.45 -2.86 -0.73
3.22 -3.75 -0.78
4.48 -5.21 0.84
2.49 -2.9 0.61
2.79 -3.24 -0.37
5.89 -6.85 1.76
2.73 -3.18 -0.22
2.63 -3.06 -0.07
3.96 -4.61 1.63
3.42 -4.01 -1.41
3.09 -3.62 0.08
2.64 -3.1 -0.94
2.52 -2.95 0.2
2.41 -2.82 -0.72
2.37 -2.78 -0.58
4.62 -5.41 0.87
5.05 -5.92 -0.96
3.23 -3.79 0.79
6.91 -8.09 -0.93
2.67 -3.13 -0.22
3.48 -4.08 1.24
2.63 -3.09 -0.07
2.6 -3.06 0.07
2.68 -3.16 -0.96
2.81 -3.32 -0.85
2.39 -2.82 0.32
2.9 -3.43 -0.71
4.27 -5.04 0.81
3.41 -4.03 -0.65
3.69 -4.36 0.9
2.75 -3.25 -0.37
3.52 -4.15 1.06
2.67 -3.16 -0.22
4.38 -5.17 1.56
2.75 -3.24 -0.07
3.94 -4.65 1.63
2.38 -2.82 -0.99
2.57 -3.05 0.07
2.71 -3.22 -0.97
3.4 -4.04 0.28
2.86 -3.39 -0.86
2.4 -2.85 0.33
2.86 -3.4 -0.7
2.3 -2.73 0.44
3.35 -3.98 -0.64
2.57 -3.06 0.63
2.69 -3.19 -0.37
2.45 -2.91 0.74
2.67 -3.18 -0.22
11.35 -13.49 4.07
2.84 -3.38 -0.08
12.45 -14.79 5.18
2.59 -3.09 0.07
2.7 -3.23 -0.97
2.55 -3.05 -0.77
3.32 -3.97 0.45
2.66 -3.18 -0.66
3.25 -3.89 0.62
3.4 -4.07 -0.65
3.16 -3.78 0.78
2.71 -3.24 -0.37
2.43 -2.91 0.74
2.67 -3.19 -0.22
3.37 -4.03 1.21
2.64 -3.15 -0.07
13.86 -16.59 5.79
3.48 -4.2 -1.46
2.54 -3.06 0.07
2.7 -3.25 -0.97
3.47 -4.18 0.28
2.52 -3.04 -0.77
2.47 -2.97 0.34
2.62 -3.16 -0.65
3.21 -3.87 0.62
3.34 -4.03 -0.64
3.24 -3.9 0.8
2.68 -3.23 -0.37
2.39 -2.88 0.73
3.3 -3.98 -0.27
4.19 -5.05 1.52
4.45 -5.36 -0.12
13.74 -16.57 5.77
3.69 -4.48 -1.56
2.43 -2.95 0.07
2.7 -3.27 -0.98
2.57 -3.12 0.21
2.37 -2.87 -0.72
2.41 -2.92 0.33
2.63 -3.2 -0.66
4.74 -5.76 0.92
3.34 -4.05 -0.64
3.75 -4.55 0.93
2.67 -3.25 -0.37
3.41 -4.14 1.04
3.31 -4.02 -0.27
3.75 -4.55 1.36
3.14 -3.81 -0.09
10.58 -12.85 4.46
3.58 -4.37 0.1
2.67 -3.27 -0.97
2.34 -2.86 0.19
2.83 -3.46 -0.87
2.47 -3.02 0.34
3.05 -3.72 -0.76
2.49 -3.05 0.48
3.32 -4.06 -0.64
3.62 -4.43 0.91
2.63 -3.22 -0.36
2.43 -2.98 0.75
3.1 -3.79 -0.26
3.13 -3.82 -0.09
12.49 -15.28 5.29
3.04 -3.75 0.08
2.77 -3.41 -1.01
2.32 -2.86 0.19
2.85 -3.51 -0.88
2.5 -3.08 0.35
3.47 -4.28 -0.87
2.44 -3.01 0.48
2.71 -3.33 -0.53
5.15 -6.34 1.29
2.64 -3.25 -0.37
3.53 -4.35 1.09
3.2 -3.94 -0.27
3.71 -4.57 1.36
3.27 -4.03 1.39
2.86 -3.55 -1.22
3.19 -3.95 0.09
2.79 -3.46 -1.03
2.52 -3.13 0.21
2.77 -3.44 -0.86
2.33 -2.88 0.32
3.36 -4.16 -0.85
2.26 -2.8 0.44
2.67 -3.31 -0.52
2.73 -3.38 -0.38
3.51 -4.36 1.09
4.91 -6.08 -0.41
3.39 -4.21 1.25
3.13 -3.88 -0.09
3.15 -3.91 1.34
3.2 -3.99 -1.37
3.18 -3.97 0.09
4.35 -5.43 -1.61
2.45 -3.06 0.21
2.76 -3.45 -0.86
2.28 -2.85 0.32
4.16 -5.19 -1.05
3.36 -4.19 0.66
2.68 -3.35 -0.53
3.01 -3.76 0.76
2.69 -3.36 -0.38
2.43 -3.04 0.76
2.45 -3.06 -0.21
3.64 -4.55 1.34
2.59 -3.23 -0.07
3.14 -3.92 1.34
3.38 -4.25 -1.45
3.22 -4.05 0.09
4.29 -5.4 -1.59
2.37 -2.98 0.2
4.25 -5.35 -1.33
2.24 -2.82 0.31
2.56 -3.22 -0.65
2.24 -2.82 0.44
3.39 -4.27 0.86
2.67 -3.36 -0.38
4.67 -5.87 -0.39
3.32 -4.18 1.23
2.58 -3.25 -0.07
3.38 -4.25 1.46
3.17 -4.01 -1.37
3.47 -4.4 0.1
4.46 -5.65 -1.66
2.27 -2.88 0.19
4.23 -5.36 -1.33
2.22 -2.81 0.31
5.8 -7.34 -1.48
3.25 -4.11 0.64
4.32 -5.48 1.11
2.72 -3.44 -0.38
3.98 -5.05 1.25
3.48 -4.41 -0.29
3.86 -4.89 1.44
3.92 -4.97 1.7
3.14 -4.01 -1.37
3.14 -4.01 0.09
4.61 -5.88 -1.73
2.25 -2.87 0.19
3.63 -4.63 0.51
5.77 -7.36 -1.48
4.56 -5.82 0.91
3.54 -4.52 -0.7
3.31 -4.23 0.85
3.14 -4.01 -0.45
3.74 -4.78 -0.32
3.16 -4.04 -0.09
3.19 -4.07 1.38
3.14 -4.04 0.09
4.77 -6.14 -1.79
2.36 -3.03 0.2
3.77 -4.84 -1.19
4.28 -5.5 0.61
2.6 -3.34 -0.67
2.35 -3.02 0.47
3.38 -4.35 -0.68
5.24 -6.74 1.35
2.81 -3.62 -0.4
4.76 -6.12 1.51
2.65 -3.41 -0.23
2.93 -3.77 -0.08
3.06 -3.94 1.34
3.11 -4.03 -1.36
4.9 -6.34 0.14
4.58 -5.94 -1.73
3.64 -4.72 0.31
4.48 -5.8 -1.42
4.32 -5.6 0.62
3.79 -4.9 -0.98
2.12 -2.74 0.43
2.95 -3.82 -0.59
5.08 -6.57 1.32
2.7 -3.5 -0.39
3.82 -4.94 1.21
2.67 -3.45 -0.23
2.27 -2.94 -0.06
3.22 -4.17 1.41
3.08 -4.01 -1.35
4.61 -6.02 0.13
3.96 -5.16 -1.5
4.78 -6.23 0.41
2.51 -3.28 -0.8
2.07 -2.7 -0.54
4.73 -6.16 0.95
3.1 -4.04 -0.62
3.04 -3.96 0.79
2.65 -3.45 -0.38
3.4 -4.43 1.08
2.53 -3.29 -0.22
4.12 -5.37 1.56
2.65 -3.46 -0.08
2.97 -3.87 1.31
3.03 -3.98 -1.34
2.45 -3.22 0.07
4.7 -6.18 -1.79
2.25 -2.96 0.19
5.27 -6.92 -1.69
2.18 -2.86 0.31
2.05 -2.69 -0.54
4.25 -5.58 0.86
3.08 -4.05 -0.62
4.5 -5.91 1.18
2.62 -3.44 -0.38
2.67 -3.5 -0.23
3.09 -4.05 1.18
2.65 -3.48 -0.08
3.04 -4 1.35
2.98 -3.94 -1.32
2.43 -3.21 0.07
4.69 -6.2 -1.8
2.94 -3.88 0.26
2.26 -2.99 -0.73
2.16 -2.86 0.31
2.65 -3.51 -0.7
4.26 -5.63 0.87
3.33 -4.41 -0.68
5.09 -6.73 1.34
2.75 -3.64 -0.4
2.55 -3.38 -0.22
3.04 -4.02 1.16
3.05 -4.04 1.36
3.03 -4.04 -1.35
2.34 -3.12 0.07
2.79 -3.72 -1.07
2.18 -2.9 -0.71
2.87 -3.82 0.42
2.98 -3.96 0.61
5.09 -6.78 1.34
3.14 -4.18 -0.46
3.24 -4.32 1.05
3.08 -4.11 -0.27
2.23 -2.98 -0.06
3.29 -4.38 1.47
2.95 -3.97 -1.33
2.56 -3.43 0.07
2.42 -3.25 0.21
2.2 -2.95 -0.71
4.41 -5.92 0.65
4.24 -5.69 -1.12
2.93 -3.94 0.6
3.27 -4.38 0.87
2.73 -3.67 -0.4
3.77 -5.06 1.23
3.15 -4.22 -0.28
2.78 -3.73 -0.08
3.3 -4.42 1.48
3.05 -4.12 -1.37
2.4 -3.25 0.07
2.68 -3.62 -1.04
2.38 -3.21 0.21
2.94 -3.97 0.43
3.27 -4.41 -0.87
3.15 -4.25 0.65
3.36 -4.54 -0.69
3.22 -4.36 0.86
2.74 -3.7 -0.4
4.47 -6.04 1.46
2.96 -3.99 -0.26
2.99 -4.04 1.16
2.76 -3.74 -0.08
3.03 -4.13 -1.37
2.15 -2.93 0.06
2.63 -3.57 -1.02
2.88 -3.92 0.26
2.6 -3.54 -0.85
2.77 -3.77 0.41
2.77 -3.77 -0.74
2.91 -3.97 0.6
4.23 -5.76 -0.88
2.77 -3.77 -0.41
2.81 -3.82 0.92
3.13 -4.26 -0.28
3 -4.09 1.17
3.92 -5.33 -0.12
2.97 -4.05 1.35
3.53 -4.84 -1.61
4.59 -6.3 0.14
2.6 -3.57 -1.02
2.85 -3.91 0.25
2.63 -3.61 -0.87
2.89 -3.96 -0.78
2.97 -4.08 0.62
4.15 -5.69 -0.86
2.9 -3.98 0.78
2.61 -3.58 -0.39
3.25 -4.45 1.07
2.53 -3.48 -0.23
3.09 -4.23 1.21
2.24 -3.07 -0.07
3.01 -4.13 1.37
3.05 -4.22 -1.4
2.09 -2.89 0.06
3.95 -5.46 -1.56
3.15 -4.35 0.28
4.4 -6.08 0.66
2.74 -3.78 -0.74
3.19 -4.4 0.67
2.61 -3.6 -0.55
2.84 -3.93 0.77
2.65 -3.66 -0.4
3.29 -4.54 1.09
3.02 -4.17 -0.27
2.26 -3.13 0.89
2.76 -3.81 -0.08
3.01 -4.16 1.38
2.93 -4.07 -1.34
2.74 -3.82 0.08
2.62 -3.65 -1.04
3.05 -4.24 0.27
4.63 -6.45 0.69
3.91 -5.43 -1.06
2.85 -3.97 0.6
2.61 -3.63 -0.55
2.93 -4.08 0.8
2.64 -3.68 -0.4
3.1 -4.31 1.03
3.29 -4.57 -0.3
3.07 -4.28 1.22
4.37 -6.08 -0.13
3.04 -4.23 1.39
2.73 -3.83 0.08
3.07 -4.3 0.28
2.26 -3.17 -0.76
4.21 -5.9 0.63
5.33 -7.47 -1.45
2.8 -3.92 0.59
3.4 -4.77 -0.72
2.63 -3.68 0.72
2.65 -3.71 -0.4
2.88 -4.04 0.97
2.75 -3.86 -0.25
3.16 -4.43 1.26
4.53 -6.35 -0.14
3.02 -4.23 1.39
2.68 -3.78 -1.24
2.75 -3.89 0.08
2.62 -3.7 -1.05
3.04 -4.29 0.28
2.3 -3.24 -0.77
4.5 -6.35 -1.23
3.21 -4.54 0.68
3.04 -4.29 -0.64
2.72 -3.85 0.75
2.57 -3.62 -0.39
4.01 -5.66 1.35
2.72 -3.85 -0.25
3.04 -4.29 1.21
3.08 -4.34 -0.09
2.94 -4.15 1.36
2.78 -3.95 0.08
2.61 -3.71 -1.05
3.02 -4.29 0.28
2.2 -3.14 -0.75
10.03 -14.26 1.53
3.37 -4.8 -0.93
3.02 -4.3 0.65
2.46 -3.5 -0.53
2.69 -3.82 0.74
2.54 -3.61 -0.39
2.92 -4.16 0.99
2.49 -3.54 -0.23
3 -4.27 1.21
2.93 -4.16 -0.09
2.89 -4.12 1.35
2.96 -4.25 -1.39
2.81 -4.03 0.09
2.6 -3.73 -1.05
4.52 -6.49 0.41
2.25 -3.22 -0.76
3.03 -4.34 0.46
3.52 -5.04 -0.97
2.87 -4.12 0.62
2.59 -3.71 -0.56
2.66 -3.81 0.74
2.61 -3.74 -0.4
2.93 -4.2 0.99
2.71 -3.89 -0.25
2.84 -4.07 1.15
2.65 -3.79 -0.08
2.8 -4.01 1.31
2.73 -3.94 -1.29
2.66 -3.84 0.08
2.59 -3.75 -1.05
3.12 -4.5 0.29
2.25 -3.24 -0.77
3.02 -4.36 0.46
3.62 -5.22 -1.01
4.37 -6.32 0.94
2.57 -3.72 -0.56
4.89 -7.06 1.36
2.74 -3.96 -0.42
2.9 -4.19 0.99
3.28 -4.74 -0.3
2.63 -3.8 -0.08
2.88 -4.16 1.35
2.67 -3.88 -1.26
2.59 -3.77 0.08
2.33 -3.39 -0.95
3.18 -4.63 0.29
3.9 -5.67 -1.34
2.61 -3.8 0.4
4.4 -6.4 -1.23
4.4 -6.4 0.95
2.56 -3.72 -0.55
2.64 -3.85 0.74
4.21 -6.12 -0.65
2.77 -4.02 1.13
2.64 -3.83 -0.08
10.95 -15.93 5.18
2.67 -3.92 -1.27
3.16 -4.63 0.1
2.29 -3.35 -0.94
2.56 -3.75 0.24
3.61 -5.3 -1.25
1.93 -2.83 -0.54
5.27 -7.73 1.15
2.54 -3.72 -0.55
2.67 -3.92 0.75
2.93 -4.3 -0.46
2.69 -3.95 -0.25
2.75 -4.03 1.13
2.6 -3.82 -0.08
10.61 -15.55 5.04
2.62 -3.86 -1.25
2.64 -3.9 0.08
2.4 -3.55 0.22
3.66 -5.4 -1.27
4.09 -6.04 0.64
1.97 -2.9 -0.56
2.58 -3.81 0.57
2.49 -3.67 -0.54
2.79 -4.11 0.79
5.53 -8.17 -0.86
3.89 -5.75 1.35
2.51 -3.7 -0.23
2.72 -4.02 1.12
2.56 -3.77 -0.08
2.82 -4.16 1.35
2.6 -3.87 -1.25
3.66 -5.44 0.11
2.98 -4.43 0.28
3.77 -5.6 -1.31
4.84 -7.2 -1.37
2.63 -3.91 0.58
2.51 -3.73 -0.55
2.84 -4.23 0.81
2.73 -4.07 -0.43
2.97 -4.42 1.04
3.15 -4.68 -0.3
2.71 -4.04 1.12
2.63 -3.9 -0.08
2.8 -4.16 1.34
2.59 -3.87 -1.25
2.42 -3.63 0.08
2.22 -3.32 -0.92
2.4 -3.59 -0.84
3.95 -5.91 0.62
4.8 -7.19 -1.37
2.58 -3.87 0.57
2.45 -3.68 -0.54
5.52 -8.27 -0.87
4.06 -6.09 1.42
4.18 -6.26 -0.39
3.02 -4.52 1.25
2.52 -3.78 -0.08
2.79 -4.17 1.34
2.57 -3.89 -1.25
2.48 -3.74 0.08
2.5 -3.77 -1.04
2.52 -3.8 0.24
2.14 -3.22 -0.75
3.94 -5.95 0.62
1.91 -2.88 -0.55
3.01 -4.54 0.67
4.18 -6.31 -0.93
2.5 -3.78 0.72
2.68 -4.05 -0.43
2.45 -3.7 -0.23
2.85 -4.31 1.19
2.45 -3.7 -0.08
2.76 -4.16 1.34
2.52 -3.83 -1.23
4.31 -6.55 0.14
2.52 -3.84 -1.06
2.63 -4 0.25
2.09 -3.19 -0.74
3.98 -6.05 0.63
1.92 -2.93 -0.55
2.9 -4.41 0.65
2.48 -3.77 -0.55
2.52 -3.84 0.73
2.64 -4.01 -0.42
2.42 -3.68 -0.23
2.99 -4.54 1.26
2.51 -3.82 -0.08
2.71 -4.12 1.32
2.5 -3.82 -1.22
4.34 -6.66 0.14
3.58 -5.49 -1.51
2.39 -3.67 0.23
2.1 -3.21 -0.75
2.85 -4.37 0.46
1.94 -2.98 -0.56
2.86 -4.38 0.64
2.57 -3.94 -0.58
2.5 -3.83 0.72
4.2 -6.44 -0.67
2.75 -4.21 0.98
2.37 -3.63 -0.23
2.88 -4.41 1.22
2.51 -3.85 -0.08
2.48 -3.83 -1.22
4.29 -6.64 0.14
3.57 -5.52 -1.52
2.41 -3.73 0.23
2.5 -3.86 -0.89
2.41 -3.72 -0.7
2.59 -4.01 0.59
2.47 -3.81 -0.56
2.32 -3.58 0.68
4.18 -6.45 -0.67
2.32 -3.58 -0.22
3 -4.64 1.28
2.48 -3.83 -0.08
2.76 -4.27 1.36
2.77 -4.31 -1.37
2.38 -3.71 0.08
3.15 -4.9 -1.34
2.69 -4.19 0.26
2.3 -3.59 -0.83
2.87 -4.47 0.46
3.23 -5.03 -0.95
2.56 -3.99 0.58
2.44 -3.8 -0.55
4.53 -7.06 1.33
3.34 -5.2 -0.54
4.11 -6.4 1.48
2.39 -3.72 -0.23
3.76 -5.85 1.6
2.45 -3.81 -0.08
5.31 -8.27 2.63
2.75 -4.32 -1.37
2.36 -3.7 0.08
3.48 -5.45 -1.49
2.52 -3.95 0.25
2.47 -3.87 -0.89
2.68 -4.21 0.44
1.99 -3.12 -0.59
2.48 -3.89 0.57
2.42 -3.79 0.71
5.35 -8.38 -0.87
4.08 -6.4 1.48
2.35 -3.69 -0.23
2.84 -4.46 1.22
2.44 -3.82 -0.08
2.89 -4.53 1.44
2.96 -4.68 -1.48
2.32 -3.67 0.08
3.42 -5.4 -1.48
2.51 -3.97 0.25
3.59 -5.68 -1.31
2.58 -4.07 0.42
1.99 -3.15 -0.59
2.46 -3.88 0.56
