# .PCD v0.7 - Point Cloud Data file format
VERSION 0.7
FIELDS x y z
SIZE 4 4 4
TYPE F F F
COUNT 1 1 1
WIDTH 2807
HEIGHT 1
VIEWPOINT 0 0 0 1 0 0 0
POINTS 2807
DATA ascii
17.01 -1.44 -1.49
25.49 -2.16 -1.34
27.01 -2.29 -0.47
6.18 -0.55 -1.66
7.12 -0.63 -1.65
38.76 -3.42 2.04
8.37 -0.74 -1.63
38.74 -3.42 3.4
10.65 -0.94 -1.69
38.7 -3.42 4.77
13.49 -1.19 -1.66
17 -1.5 -1.49
25.35 -2.24 -1.33
27.38 -2.42 -0.48
6.16 -0.57 -1.66
38.3 -3.52 0.67
7.14 -0.66 -1.66
38.11 -3.5 2.01
8.36 -0.77 -1.63
38.28 -3.52 3.36
10.65 -0.98 -1.69
38.12 -3.5 4.7
13.5 -1.24 -1.66
17 -1.56 -1.49
25.33 -2.33 -1.33
27.41 -2.52 -0.48
6.17 -0.59 -1.66
38.22 -3.64 0.67
7.13 -0.68 -1.65
37.5 -3.57 1.97
8.38 -0.8 -1.64
38.23 -3.64 3.36
10.63 -1.01 -1.69
37.5 -3.57 4.63
13.49 -1.29 -1.66
17 -1.62 -1.49
25.14 -2.4 -1.32
6.18 -0.61 -1.66
19.25 -1.91 0.34
7.13 -0.71 -1.65
19.28 -1.91 1.02
8.4 -0.83 -1.64
36.84 -3.65 3.24
10.62 -1.05 -1.69
36.87 -3.65 4.55
13.49 -1.34 -1.66
16.98 -1.68 -1.49
19.25 -1.91 -1.01
19.27 -1.91 -0.34
6.17 -0.63 -1.66
19.22 -1.97 0.34
7.13 -0.73 -1.65
19.21 -1.97 1.01
8.39 -0.86 -1.64
36.58 -3.75 3.22
10.65 -1.09 -1.7
36.3 -3.72 4.48
13.48 -1.38 -1.66
36.43 -3.74 5.8
17.01 -1.74 -1.5
19.27 -1.98 -1.02
19.26 -1.98 -0.34
6.17 -0.65 -1.66
19.23 -2.04 0.34
7.13 -0.76 -1.65
19.22 -2.04 1.01
8.38 -0.89 -1.64
36.5 -3.87 3.21
10.63 -1.13 -1.69
35.73 -3.79 4.41
13.48 -1.43 -1.66
35.85 -3.8 5.71
17 -1.8 -1.5
25.27 -2.68 -1.33
19.23 -2.04 -0.34
6.16 -0.67 -1.66
19.18 -2.1 0.34
7.13 -0.78 -1.66
19.18 -2.1 1.01
8.38 -0.92 -1.64
35.2 -3.85 3.1
10.63 -1.16 -1.69
35.15 -3.85 4.34
13.49 -1.48 -1.67
35.31 -3.86 5.63
16.98 -1.86 -1.49
25.17 -2.75 -1.33
19.2 -2.1 -0.34
6.16 -0.7 -1.66
19.13 -2.16 0.34
7.13 -0.8 -1.66
19.14 -2.16 1.01
8.39 -0.95 -1.64
34.83 -3.93 3.07
10.63 -1.2 -1.69
34.65 -3.91 4.28
13.49 -1.52 -1.67
34.79 -3.93 5.55
17 -1.92 -1.5
25.16 -2.84 -1.33
19.16 -2.16 -0.34
6.16 -0.72 -1.66
19.09 -2.22 0.34
7.12 -0.83 -1.65
19.11 -2.22 1.01
8.39 -0.98 -1.64
34.84 -4.05 3.07
10.61 -1.23 -1.69
34.11 -3.97 4.22
13.47 -1.57 -1.67
34.28 -3.99 5.47
16.99 -1.98 -1.5
25.19 -2.93 -1.33
19.12 -2.22 -0.34
6.17 -0.74 -1.66
19.06 -2.29 0.34
7.13 -0.86 -1.66
19.06 -2.29 1.01
8.37 -1.01 -1.64
33.61 -4.04 2.96
10.62 -1.28 -1.69
33.65 -4.04 4.16
13.47 -1.62 -1.67
33.77 -4.06 5.39
16.97 -2.04 -1.5
25.17 -3.02 -1.33
19.08 -2.29 -0.34
6.16 -0.76 -1.66
19.02 -2.35 0.33
7.13 -0.88 -1.66
19.02 -2.35 1
8.38 -1.04 -1.64
33.15 -4.1 2.92
10.65 -1.32 -1.7
33.15 -4.1 4.1
13.46 -1.66 -1.67
33.28 -4.11 5.31
16.98 -2.1 -1.5
25.5 -3.15 -1.35
19.03 -2.35 -0.33
6.15 -0.78 -1.66
18.99 -2.41 0.33
7.13 -0.91 -1.66
18.99 -2.41 1
8.36 -1.06 -1.64
33.09 -4.2 2.92
10.62 -1.35 -1.7
32.89 -4.18 4.07
13.47 -1.71 -1.67
32.8 -4.17 5.24
16.98 -2.16 -1.5
25.58 -3.25 -1.35
18.99 -2.41 -0.33
6.15 -0.8 -1.66
18.93 -2.47 0.33
7.12 -0.93 -1.66
18.96 -2.47 1
8.37 -1.09 -1.64
33.03 -4.31 2.91
10.61 -1.38 -1.69
13.46 -1.76 -1.67
32.35 -4.22 5.17
16.99 -2.22 -1.5
25.57 -3.34 -1.35
18.97 -2.48 -0.33
6.16 -0.83 -1.66
18.9 -2.53 0.33
7.11 -0.95 -1.66
18.91 -2.54 1
8.39 -1.13 -1.65
31.78 -4.26 2.81
10.62 -1.42 -1.7
31.74 -4.26 3.93
13.44 -1.8 -1.67
31.92 -4.28 5.1
17 -2.28 -1.5
22.28 -2.99 -1.18
18.94 -2.54 -0.33
6.16 -0.85 -1.67
18.86 -2.6 0.33
7.12 -0.98 -1.66
18.87 -2.6 1
8.37 -1.15 -1.64
31.38 -4.32 2.77
10.6 -1.46 -1.69
31.34 -4.31 3.88
13.43 -1.85 -1.66
31.46 -4.33 5.03
17.01 -2.34 -1.5
27.56 -3.79 -1.46
18.89 -2.6 -0.33
6.16 -0.87 -1.67
18.83 -2.66 0.33
7.12 -1.01 -1.66
18.83 -2.66 1
8.36 -1.18 -1.64
31.36 -4.43 2.77
10.61 -1.5 -1.7
31.31 -4.42 3.88
13.41 -1.89 -1.66
31.02 -4.38 4.96
17.01 -2.4 -1.5
18.79 -2.65 -0.99
18.81 -2.66 -0.33
6.14 -0.89 -1.66
18.76 -2.71 0.33
7.13 -1.03 -1.66
18.76 -2.72 0.99
8.36 -1.21 -1.64
31.31 -4.53 2.77
10.6 -1.53 -1.7
30.95 -4.48 3.84
13.39 -1.94 -1.66
30.62 -4.43 4.9
17.01 -2.46 -1.5
18.77 -2.72 -0.99
18.77 -2.72 -0.33
6.15 -0.91 -1.67
18.76 -2.78 0.33
7.12 -1.06 -1.66
18.74 -2.78 0.99
8.36 -1.24 -1.64
30.11 -4.46 2.66
10.58 -1.57 -1.69
30.06 -4.46 3.73
13.39 -1.98 -1.66
30.22 -4.48 4.84
17 -2.52 -1.5
30.01 -4.45 -1.59
6.14 -0.93 -1.67
7.11 -1.08 -1.66
8.37 -1.27 -1.65
29.7 -4.5 2.63
10.59 -1.61 -1.7
29.66 -4.5 3.68
13.37 -2.03 -1.66
29.82 -4.52 4.78
17.01 -2.58 -1.51
22.18 -3.36 -1.18
22.14 -3.36 -0.39
6.14 -0.96 -1.67
29.6 -4.6 0.52
7.11 -1.11 -1.66
29.34 -4.56 1.56
8.36 -1.3 -1.65
29.63 -4.61 2.62
10.6 -1.65 -1.7
29.6 -4.6 3.68
13.35 -2.08 -1.66
29.46 -4.58 4.72
17.01 -2.65 -1.51
29.59 -4.6 5.82
22.18 -3.45 -1.18
22.02 -3.42 -0.39
6.15 -0.98 -1.67
29.53 -4.7 0.52
7.11 -1.13 -1.66
28.94 -4.6 1.54
8.35 -1.33 -1.64
29.63 -4.71 2.62
10.59 -1.68 -1.7
29.57 -4.7 3.68
13.34 -2.12 -1.66
29.06 -4.62 4.66
16.99 -2.7 -1.51
29.14 -4.63 5.74
22 -3.5 -1.17
21.82 -3.47 -0.39
6.13 -1 -1.66
21.8 -3.54 0.39
7.11 -1.16 -1.66
28.57 -4.64 1.52
8.34 -1.36 -1.64
29.63 -4.81 2.63
10.56 -1.72 -1.69
29.59 -4.81 3.68
13.32 -2.16 -1.66
28.7 -4.66 4.6
16.99 -2.76 -1.51
28.76 -4.67 5.66
21.67 -3.52 -1.15
27.1 -4.4 -0.48
6.13 -1.02 -1.66
21.96 -3.65 0.39
7.11 -1.18 -1.66
28.26 -4.69 1.5
8.36 -1.39 -1.65
28.25 -4.69 2.51
10.56 -1.75 -1.7
28.22 -4.68 3.51
13.31 -2.21 -1.66
28.33 -4.7 4.55
16.98 -2.82 -1.51
28.43 -4.72 5.6
21.86 -3.63 -1.16
28.09 -4.66 -0.5
6.13 -1.04 -1.67
21.77 -3.69 0.39
7.1 -1.21 -1.66
27.9 -4.73 1.48
8.35 -1.42 -1.65
27.92 -4.74 2.48
10.56 -1.79 -1.7
27.88 -4.73 3.47
13.3 -2.26 -1.66
27.97 -4.75 4.49
16.97 -2.88 -1.51
28.05 -4.76 5.53
22.18 -3.76 -1.18
27.9 -4.73 -0.49
6.14 -1.06 -1.67
22 -3.81 0.39
7.1 -1.23 -1.66
27.55 -4.77 1.47
8.35 -1.45 -1.65
27.89 -4.83 2.48
10.55 -1.83 -1.7
27.86 -4.83 3.47
13.28 -2.3 -1.65
27.66 -4.79 4.45
16.98 -2.94 -1.51
27.7 -4.8 5.46
21.99 -3.81 -1.17
21.91 -3.79 -0.39
6.13 -1.08 -1.67
27.78 -4.91 0.49
7.1 -1.26 -1.66
27.24 -4.82 1.45
8.33 -1.47 -1.64
10.56 -1.87 -1.7
27.8 -4.92 3.47
13.26 -2.35 -1.65
27.3 -4.83 4.39
16.98 -3 -1.51
27.39 -4.84 5.41
18.21 -3.22 -0.97
21.96 -3.88 -0.39
6.12 -1.1 -1.67
21.57 -3.89 0.38
7.09 -1.28 -1.66
26.89 -4.85 1.43
8.35 -1.51 -1.65
26.92 -4.86 2.39
10.54 -1.9 -1.7
27.9 -5.03 3.48
13.26 -2.39 -1.65
26.98 -4.87 4.34
16.96 -3.06 -1.51
27.04 -4.88 5.34
22.01 -3.97 -1.17
22.05 -3.98 -0.39
6.12 -1.13 -1.67
21.61 -3.98 0.38
7.09 -1.31 -1.66
26.58 -4.89 1.42
8.34 -1.54 -1.65
26.59 -4.89 2.37
10.52 -1.94 -1.69
26.56 -4.89 3.32
13.25 -2.44 -1.65
26.66 -4.91 4.29
16.96 -3.12 -1.51
26.72 -4.92 5.28
21.93 -4.04 -1.17
22.01 -4.05 -0.39
6.11 -1.15 -1.67
26.19 -4.91 0.47
7.09 -1.33 -1.66
26.27 -4.93 1.4
8.34 -1.57 -1.65
26.26 -4.93 2.34
10.51 -1.97 -1.69
26.23 -4.92 3.28
13.26 -2.49 -1.66
26.36 -4.94 4.25
16.98 -3.18 -1.51
26.4 -4.95 5.22
26.04 -4.88 -1.39
21.95 -4.12 -0.39
6.11 -1.17 -1.67
26.13 -4.99 0.46
7.08 -1.35 -1.66
25.98 -4.96 1.39
8.34 -1.59 -1.65
25.97 -4.96 2.31
10.52 -2.01 -1.7
26.11 -4.99 3.26
13.24 -2.53 -1.66
26.06 -4.98 4.2
16.97 -3.24 -1.51
26.1 -4.98 5.17
22.04 -4.21 -1.18
22 -4.2 -0.39
6.11 -1.19 -1.67
21.68 -4.22 0.39
7.09 -1.38 -1.67
25.66 -4.99 1.37
8.32 -1.62 -1.65
25.68 -5 2.29
10.52 -2.05 -1.7
26.12 -5.08 3.27
13.23 -2.57 -1.65
25.75 -5.01 4.15
16.97 -3.3 -1.51
25.82 -5.02 5.11
25.47 -4.96 -1.36
22.04 -4.29 -0.39
6.1 -1.21 -1.67
26.15 -5.18 0.47
7.08 -1.4 -1.67
25.39 -5.03 1.36
8.32 -1.65 -1.65
25.38 -5.03 2.26
10.52 -2.08 -1.7
26.1 -5.17 3.27
13.2 -2.62 -1.65
25.46 -5.05 4.11
16.95 -3.36 -1.51
25.51 -5.06 5.06
25.17 -4.99 -1.34
25.37 -5.03 5.97
22.03 -4.37 -0.39
6.11 -1.23 -1.67
22.04 -4.45 0.39
7.08 -1.43 -1.67
25.1 -5.07 1.34
8.33 -1.68 -1.65
25.09 -5.06 2.24
10.51 -2.12 -1.7
25.08 -5.06 3.14
13.19 -2.66 -1.65
25.19 -5.08 4.07
16.96 -3.42 -1.51
25.21 -5.09 5
24.88 -5.02 -1.33
25.09 -5.06 5.91
22.19 -4.48 -0.4
6.11 -1.26 -1.67
24.75 -5.09 0.44
7.08 -1.45 -1.67
24.83 -5.1 1.33
8.33 -1.71 -1.65
24.84 -5.1 2.22
10.49 -2.16 -1.7
24.8 -5.1 3.11
13.17 -2.7 -1.65
24.92 -5.12 4.03
16.96 -3.48 -1.51
24.95 -5.13 4.95
24.6 -5.05 -1.32
24.78 -5.09 5.84
24.71 -5.08 -0.44
6.11 -1.28 -1.67
24.5 -5.12 0.44
7.07 -1.48 -1.67
24.56 -5.14 1.31
8.31 -1.74 -1.65
24.56 -5.14 2.2
10.5 -2.19 -1.7
24.53 -5.13 3.08
13.14 -2.75 -1.65
24.63 -5.15 3.99
16.95 -3.54 -1.51
24.66 -5.16 4.9
24.49 -5.12 -1.31
24.52 -5.13 5.78
21.72 -4.54 -0.39
6.1 -1.3 -1.67
24.48 -5.21 0.44
7.06 -1.5 -1.67
24.47 -5.21 1.31
8.31 -1.77 -1.65
24.5 -5.21 2.19
10.48 -2.23 -1.7
24.49 -5.21 3.07
13.13 -2.79 -1.65
24.48 -5.21 3.96
16.94 -3.6 -1.52
24.46 -5.2 4.86
24.5 -5.21 -1.31
24.43 -5.2 5.77
24.51 -5.21 -0.44
6.09 -1.32 -1.67
24.49 -5.3 0.44
7.06 -1.53 -1.67
24.48 -5.3 1.31
8.3 -1.8 -1.65
24.5 -5.3 2.19
10.45 -2.26 -1.69
24.5 -5.3 3.08
13.12 -2.84 -1.65
24.49 -5.3 3.97
16.94 -3.67 -1.52
24.47 -5.3 4.87
24.51 -5.3 -1.31
24.42 -5.28 5.77
24.52 -5.31 -0.44
6.09 -1.34 -1.67
24.5 -5.39 0.44
7.06 -1.55 -1.67
24.5 -5.39 1.31
8.31 -1.83 -1.65
24.51 -5.39 2.2
10.47 -2.3 -1.7
24.51 -5.39 3.08
13.11 -2.88 -1.65
24.51 -5.39 3.97
16.93 -3.72 -1.52
24.48 -5.39 4.87
24.52 -5.4 -1.32
24.42 -5.37 5.77
24.54 -5.4 -0.44
6.09 -1.36 -1.67
24.51 -5.48 0.44
7.04 -1.58 -1.67
24.52 -5.49 1.32
8.29 -1.86 -1.65
24.54 -5.49 2.2
10.45 -2.34 -1.7
24.51 -5.48 3.08
13.08 -2.93 -1.65
24.52 -5.49 3.98
16.92 -3.78 -1.52
24.5 -5.48 4.88
24.53 -5.49 -1.32
24.43 -5.47 5.78
24.55 -5.49 -0.44
6.09 -1.38 -1.67
24.53 -5.57 0.44
7.04 -1.6 -1.67
24.52 -5.57 1.32
8.31 -1.89 -1.66
24.54 -5.58 2.2
10.44 -2.37 -1.7
24.53 -5.57 3.09
13.06 -2.97 -1.64
24.54 -5.57 3.99
16.91 -3.84 -1.52
24.51 -5.57 4.89
24.55 -5.58 -1.32
24.43 -5.55 5.78
24.56 -5.58 -0.44
6.08 -1.4 -1.67
24.56 -5.67 0.44
7.05 -1.63 -1.67
24.53 -5.66 1.32
8.3 -1.92 -1.66
24.55 -5.67 2.2
10.42 -2.41 -1.69
24.55 -5.67 3.09
13.05 -3.01 -1.64
24.54 -5.66 3.99
16.91 -3.9 -1.52
24.52 -5.66 4.89
24.56 -5.67 -1.32
24.44 -5.64 5.79
24.73 -5.71 -0.44
6.08 -1.43 -1.67
32.81 -7.7 0.59
7.05 -1.65 -1.67
24.55 -5.76 1.32
8.28 -1.94 -1.65
24.56 -5.76 2.21
10.43 -2.45 -1.7
30.04 -7.05 3.79
13.04 -3.06 -1.64
24.56 -5.76 4
16.89 -3.96 -1.52
24.53 -5.75 4.9
24.56 -5.76 -1.32
24.46 -5.74 5.8
6.08 -1.45 -1.67
32.9 -7.84 0.59
7.04 -1.68 -1.67
24.56 -5.85 1.32
8.28 -1.97 -1.66
24.57 -5.85 2.21
10.41 -2.48 -1.69
30.01 -7.15 3.79
13.02 -3.1 -1.64
24.57 -5.85 4
16.88 -4.02 -1.52
24.54 -5.85 4.9
24.58 -5.86 -1.32
24.49 -5.83 5.81
6.07 -1.47 -1.67
32.89 -7.96 0.59
7.03 -1.7 -1.67
24.57 -5.94 1.32
8.29 -2 -1.66
24.59 -5.95 2.21
10.4 -2.52 -1.7
30.01 -7.26 3.79
13.02 -3.15 -1.64
24.57 -5.94 4
16.87 -4.08 -1.52
24.54 -5.94 4.91
24.59 -5.95 -1.33
24.49 -5.92 5.82
33.31 -8.06 -0.6
6.08 -1.49 -1.68
32.9 -8.08 0.59
7.03 -1.73 -1.67
24.56 -6.03 1.33
8.26 -2.03 -1.65
24.6 -6.04 2.22
10.4 -2.56 -1.7
30.03 -7.38 3.8
10.82 -2.66 -1.37
24.59 -6.04 4.01
16.88 -4.15 -1.52
24.57 -6.04 4.92
24.6 -6.04 -1.33
24.49 -6.01 5.82
21.85 -5.37 -0.39
6.08 -1.51 -1.68
32.92 -8.21 0.59
7.03 -1.75 -1.67
24.59 -6.13 1.33
8.26 -2.06 -1.65
24.61 -6.14 2.22
10.38 -2.59 -1.69
30.04 -7.49 3.8
10.68 -2.66 -1.35
24.59 -6.13 4.01
11.02 -2.75 -0.99
24.58 -6.13 4.92
24.63 -6.14 -1.33
24.5 -6.11 5.83
21.88 -5.46 -0.39
6.05 -1.53 -1.67
32.94 -8.33 0.59
7.02 -1.78 -1.67
24.6 -6.23 1.33
8.26 -2.09 -1.66
24.61 -6.23 2.22
10.37 -2.62 -1.69
30.05 -7.6 3.81
10.59 -2.68 -1.34
24.61 -6.23 4.02
10.82 -2.74 -0.98
24.59 -6.22 4.93
21.16 -5.36 -1.14
24.51 -6.2 5.84
21.27 -5.38 -0.38
6.05 -1.55 -1.67
32.94 -8.46 0.59
7.02 -1.8 -1.67
24.61 -6.32 1.33
8.26 -2.12 -1.66
24.62 -6.32 2.22
10.37 -2.66 -1.7
29.73 -7.63 3.77
10.48 -2.69 -1.33
24.62 -6.32 4.03
10.6 -2.72 -0.96
24.59 -6.31 4.94
24.65 -6.33 -1.33
24.54 -6.3 5.85
21.95 -5.64 -0.4
6.04 -1.57 -1.67
32.97 -8.59 0.59
7.01 -1.83 -1.67
24.62 -6.41 1.33
8.26 -2.15 -1.66
24.64 -6.42 2.23
10.36 -2.7 -1.7
10.42 -2.71 -1.32
24.63 -6.41 4.03
10.51 -2.74 -0.95
24.6 -6.41 4.94
22.11 -5.76 -1.2
24.55 -6.39 5.86
22.23 -5.79 -0.4
6.04 -1.6 -1.68
33.74 -8.91 0.61
7.01 -1.85 -1.67
24.63 -6.5 1.33
8.25 -2.18 -1.66
24.66 -6.51 2.23
10.35 -2.73 -1.7
10.33 -2.73 -1.31
24.64 -6.51 4.04
10.52 -2.78 -0.95
24.63 -6.5 4.95
24.66 -6.51 -1.34
24.55 -6.48 5.86
22.03 -5.82 -0.4
6.03 -1.61 -1.67
22.18 -5.94 0.4
7 -1.88 -1.67
24.64 -6.6 1.34
8.23 -2.2 -1.66
24.67 -6.61 2.23
10.34 -2.77 -1.7
24.87 -6.66 3.16
24.64 -6.6 4.04
10.89 -2.92 -0.99
24.63 -6.6 4.96
10.98 -2.94 -0.6
24.56 -6.58 5.87
21.91 -5.87 -0.4
6.02 -1.64 -1.67
24.78 -6.73 0.45
7 -1.9 -1.67
24.66 -6.69 1.34
8.23 -2.23 -1.66
24.66 -6.7 2.24
10.33 -2.81 -1.7
24.8 -6.73 3.16
24.66 -6.7 4.05
10.76 -2.92 -0.98
24.65 -6.69 4.96
10.83 -2.94 -0.59
24.58 -6.67 5.88
21.78 -5.91 -0.39
6.02 -1.66 -1.67
24.66 -6.79 0.45
7 -1.93 -1.68
24.67 -6.79 1.34
8.23 -2.27 -1.66
24.68 -6.79 2.24
10.32 -2.84 -1.69
24.69 -6.8 3.14
24.68 -6.79 4.05
10.65 -2.93 -0.97
24.65 -6.78 4.97
10.69 -2.94 -0.58
24.59 -6.77 5.89
24.72 -6.8 -0.45
6.02 -1.68 -1.68
24.67 -6.88 0.45
6.98 -1.95 -1.67
24.67 -6.88 1.34
8.23 -2.3 -1.66
24.69 -6.89 2.24
10.3 -2.87 -1.69
24.68 -6.89 3.15
10.12 -2.82 -1.29
24.7 -6.89 4.06
10.54 -2.94 -0.96
24.66 -6.88 4.98
10.58 -2.95 -0.58
24.61 -6.87 5.9
22.04 -6.15 -0.4
6.02 -1.7 -1.68
24.68 -6.98 0.45
6.98 -1.97 -1.68
24.68 -6.98 1.34
8.23 -2.33 -1.66
24.72 -6.99 2.25
10.31 -2.92 -1.7
24.7 -6.98 3.15
10.06 -2.84 -1.28
24.69 -6.98 4.06
10.28 -2.91 -0.93
24.68 -6.98 4.99
10.48 -2.96 -0.57
24.61 -6.96 5.91
21.86 -6.18 -0.4
6.02 -1.72 -1.68
22.09 -6.33 0.4
6.98 -2 -1.68
24.69 -7.07 1.35
8.21 -2.35 -1.66
24.72 -7.09 2.25
10.28 -2.95 -1.69
24.72 -7.08 3.16
10.01 -2.87 -1.28
24.7 -7.08 4.07
10.07 -2.89 -0.92
24.69 -7.07 4.99
10.44 -2.99 -0.57
24.63 -7.06 5.91
22.05 -6.32 -0.4
6.01 -1.74 -1.68
24.72 -7.18 0.45
6.98 -2.03 -1.68
24.71 -7.17 1.35
8.21 -2.38 -1.66
24.72 -7.18 2.25
10.28 -2.99 -1.7
24.73 -7.18 3.16
9.96 -2.89 -1.27
24.72 -7.18 4.08
10.01 -2.91 -0.91
24.7 -7.17 5
10.37 -3.01 -0.57
24.64 -7.15 5.92
22.07 -6.41 -0.4
6 -1.77 -1.68
24.75 -7.28 0.45
6.97 -2.05 -1.68
24.73 -7.27 1.35
8.2 -2.41 -1.66
24.75 -7.28 2.26
10.28 -3.02 -1.7
24.74 -7.28 3.17
9.92 -2.92 -1.27
24.74 -7.28 4.08
24.71 -7.27 5.01
10.31 -3.03 -0.56
24.65 -7.25 5.93
24.79 -7.29 -0.45
6 -1.79 -1.68
24.75 -7.37 0.45
6.96 -2.07 -1.68
24.73 -7.37 1.35
8.21 -2.45 -1.67
24.76 -7.38 2.26
10.26 -3.06 -1.7
24.74 -7.37 3.17
9.89 -2.95 -1.27
24.75 -7.37 4.09
10 -2.98 -0.91
24.72 -7.36 5.01
10.24 -3.05 -0.56
24.67 -7.35 5.94
24.81 -7.39 -0.45
6 -1.81 -1.68
6.96 -2.1 -1.68
24.75 -7.46 1.35
8.21 -2.47 -1.67
24.77 -7.47 2.26
10.24 -3.09 -1.69
24.8 -7.48 3.18
9.85 -2.97 -1.26
24.76 -7.47 4.1
9.92 -2.99 -0.91
24.73 -7.46 5.02
10.19 -3.07 -0.56
24.69 -7.44 5.95
5.99 -1.83 -1.68
30.71 -9.38 0.56
6.96 -2.12 -1.68
24.76 -7.56 1.36
8.19 -2.5 -1.66
24.79 -7.57 2.27
10.25 -3.13 -1.7
24.94 -7.61 3.2
9.83 -3 -1.26
24.76 -7.56 4.1
9.9 -3.02 -0.91
24.76 -7.56 5.03
10.15 -3.1 -0.56
24.7 -7.54 5.96
21.85 -6.67 -0.4
5.97 -1.85 -1.68
30.54 -9.44 0.56
6.95 -2.15 -1.68
24.76 -7.66 1.36
8.19 -2.53 -1.67
24.79 -7.66 2.27
10.21 -3.16 -1.69
30.18 -9.33 3.88
9.79 -3.03 -1.26
24.78 -7.66 4.11
9.88 -3.05 -0.9
24.77 -7.66 5.04
10.1 -3.12 -0.55
24.81 -7.67 6
22.38 -6.92 -0.41
5.97 -1.87 -1.68
30.26 -9.47 0.55
6.95 -2.17 -1.68
24.78 -7.76 1.36
8.18 -2.56 -1.67
24.8 -7.76 2.27
10.21 -3.2 -1.69
30.24 -9.47 3.89
9.79 -3.06 -1.26
24.79 -7.76 4.11
9.83 -3.08 -0.9
24.76 -7.75 5.04
10.07 -3.15 -0.55
21.79 -6.82 -0.4
5.98 -1.89 -1.68
30.26 -9.59 0.55
6.93 -2.2 -1.68
24.79 -7.86 1.36
8.18 -2.59 -1.67
24.82 -7.86 2.28
10.2 -3.23 -1.69
24.93 -7.9 3.21
9.76 -3.09 -1.26
24.81 -7.86 4.12
9.77 -3.09 -0.9
24.61 -7.8 5.02
10.01 -3.17 -0.55
5.97 -1.92 -1.68
30.29 -9.71 0.56
6.93 -2.22 -1.68
24.79 -7.95 1.36
8.18 -2.62 -1.67
24.84 -7.97 2.28
10.21 -3.27 -1.7
24.94 -8 3.22
9.74 -3.12 -1.26
24.81 -7.96 4.13
9.75 -3.13 -0.9
24.67 -7.91 5.04
9.98 -3.2 -0.55
5.96 -1.94 -1.68
15.1 -4.9 0.28
6.94 -2.25 -1.68
24.81 -8.05 1.37
8.18 -2.65 -1.67
24.84 -8.06 2.29
10.17 -3.3 -1.69
24.97 -8.1 3.22
9.73 -3.16 -1.26
24.81 -8.05 4.13
9.72 -3.16 -0.89
24.74 -8.03 5.06
9.94 -3.23 -0.55
5.96 -1.96 -1.68
15.01 -4.93 0.28
6.92 -2.27 -1.68
15.04 -4.94 0.83
8.16 -2.68 -1.67
15.05 -4.94 1.39
10.17 -3.34 -1.7
15.04 -4.94 1.94
9.72 -3.19 -1.26
24.83 -8.15 4.14
9.72 -3.19 -0.9
24.78 -8.14 5.07
9.92 -3.26 -0.55
5.94 -1.97 -1.68
15.01 -4.99 0.28
6.92 -2.3 -1.68
15.04 -5 0.83
8.16 -2.71 -1.67
15.06 -5 1.39
10.13 -3.37 -1.69
15.04 -5 1.95
9.73 -3.23 -1.26
15.04 -5 2.51
9.72 -3.23 -0.9
15.01 -4.99 3.07
9.88 -3.28 -0.55
15.04 -5 3.66
15.02 -4.99 4.24
5.95 -2 -1.68
25.03 -8.41 0.46
6.9 -2.32 -1.68
24.85 -8.35 1.37
8.16 -2.74 -1.67
24.88 -8.36 2.3
10.12 -3.4 -1.69
25 -8.4 3.24
9.72 -3.27 -1.26
24.87 -8.36 4.16
9.71 -3.26 -0.9
24.68 -8.3 5.06
9.82 -3.3 -0.54
5.94 -2.02 -1.68
24.95 -8.48 0.46
6.9 -2.35 -1.68
24.86 -8.45 1.38
8.14 -2.77 -1.67
24.89 -8.46 2.3
10.14 -3.45 -1.7
24.98 -8.49 3.24
9.72 -3.31 -1.26
24.87 -8.46 4.16
9.7 -3.3 -0.9
24.7 -8.4 5.07
9.81 -3.34 -0.54
5.93 -2.04 -1.68
24.88 -8.56 0.46
6.9 -2.37 -1.68
24.88 -8.56 1.38
8.12 -2.79 -1.67
24.91 -8.57 2.3
10.11 -3.48 -1.69
24.9 -8.56 3.23
9.72 -3.34 -1.26
24.88 -8.56 4.17
9.7 -3.33 -0.9
24.72 -8.5 5.08
9.79 -3.37 -0.54
5.92 -2.06 -1.68
24.91 -8.65 0.46
6.9 -2.4 -1.69
24.89 -8.65 1.38
8.12 -2.82 -1.67
24.92 -8.66 2.31
10.1 -3.51 -1.69
24.91 -8.65 3.24
9.71 -3.37 -1.26
24.9 -8.65 4.17
9.69 -3.37 -0.9
24.72 -8.59 5.09
9.78 -3.4 -0.54
5.92 -2.08 -1.68
24.91 -8.75 0.46
6.89 -2.42 -1.69
24.91 -8.75 1.38
8.12 -2.85 -1.67
24.93 -8.76 2.31
10.09 -3.54 -1.69
24.91 -8.75 3.24
9.83 -3.45 -1.28
24.91 -8.75 4.18
9.7 -3.41 -0.9
24.88 -8.74 5.13
9.76 -3.43 -0.54
5.92 -2.1 -1.68
24.92 -8.85 0.46
6.88 -2.45 -1.69
24.93 -8.86 1.39
8.13 -2.89 -1.68
24.95 -8.86 2.32
10.07 -3.58 -1.69
24.92 -8.86 3.25
9.76 -3.47 -1.27
24.92 -8.85 4.19
9.71 -3.45 -0.9
24.89 -8.84 5.13
9.75 -3.47 -0.54
5.92 -2.13 -1.68
24.94 -8.96 0.46
6.88 -2.47 -1.69
24.93 -8.95 1.39
8.12 -2.92 -1.68
24.96 -8.97 2.32
10.06 -3.61 -1.69
24.93 -8.96 3.25
9.69 -3.48 -1.26
24.93 -8.96 4.2
9.73 -3.49 -0.9
24.79 -8.91 5.12
9.74 -3.5 -0.54
5.9 -2.14 -1.68
11.49 -4.17 0.21
6.88 -2.5 -1.69
24.95 -9.06 1.39
8.09 -2.94 -1.67
24.97 -9.07 2.32
10.04 -3.65 -1.69
24.96 -9.06 3.26
9.69 -3.52 -1.27
24.94 -9.06 4.2
9.71 -3.53 -0.9
24.93 -9.05 5.16
9.74 -3.54 -0.54
11.72 -4.26 -0.22
5.89 -2.16 -1.68
6.87 -2.52 -1.69
24.96 -9.16 1.39
8.1 -2.97 -1.68
25.01 -9.18 2.33
9.84 -3.61 -1.66
24.97 -9.17 3.27
9.7 -3.56 -1.27
24.96 -9.16 4.21
9.7 -3.56 -0.9
24.94 -9.16 5.16
9.74 -3.58 -0.54
5.89 -2.19 -1.68
6.87 -2.55 -1.69
24.98 -9.28 1.4
8.09 -3.01 -1.68
25.17 -9.34 2.35
9.73 -3.61 -1.64
30.45 -11.31 3.99
9.73 -3.61 -1.27
24.97 -9.27 4.22
9.7 -3.6 -0.91
24.96 -9.27 5.17
9.75 -3.62 -0.54
5.89 -2.21 -1.69
6.85 -2.57 -1.69
24.98 -9.38 1.4
8.09 -3.04 -1.68
25.17 -9.45 2.35
9.7 -3.64 -1.64
30.41 -11.41 3.99
9.77 -3.67 -1.28
24.99 -9.38 4.23
9.7 -3.64 -0.91
24.96 -9.37 5.18
9.74 -3.65 -0.55
10.62 -3.99 -0.2
5.88 -2.23 -1.68
6.84 -2.6 -1.69
24.99 -9.48 1.4
8.08 -3.07 -1.68
25.2 -9.56 2.36
9.69 -3.67 -1.64
30.43 -11.54 4
9.73 -3.69 -1.28
25 -9.48 4.23
9.7 -3.68 -0.91
24.99 -9.48 5.19
9.75 -3.7 -0.55
5.88 -2.25 -1.69
6.85 -2.63 -1.69
25.01 -9.59 1.4
8.06 -3.09 -1.68
25.23 -9.67 2.36
9.69 -3.71 -1.64
30.49 -11.69 4.01
9.74 -3.73 -1.28
25 -9.58 4.24
9.7 -3.72 -0.91
25 -9.58 5.2
9.76 -3.74 -0.55
10.64 -4.08 -0.2
5.86 -2.27 -1.68
6.85 -2.65 -1.7
25.02 -9.68 1.41
8.07 -3.12 -1.68
25.22 -9.76 2.37
9.69 -3.75 -1.65
30.5 -11.8 4.02
9.75 -3.77 -1.28
25.02 -9.68 4.25
9.69 -3.75 -0.91
25.01 -9.68 5.21
9.76 -3.78 -0.55
5.87 -2.29 -1.69
6.83 -2.67 -1.69
25.04 -9.79 1.41
8.06 -3.15 -1.68
25.23 -9.86 2.37
9.68 -3.78 -1.65
30.53 -11.93 4.03
9.77 -3.82 -1.29
25.04 -9.79 4.26
9.7 -3.79 -0.91
25.02 -9.78 5.22
9.77 -3.82 -0.55
5.85 -2.31 -1.69
6.81 -2.69 -1.69
25.05 -9.9 1.41
8.06 -3.18 -1.68
25.27 -9.99 2.38
9.68 -3.83 -1.65
9.75 -3.85 -1.29
25.04 -9.9 4.27
9.7 -3.84 -0.91
25.04 -9.9 5.23
9.75 -3.86 -0.55
5.85 -2.34 -1.69
6.81 -2.72 -1.69
25.05 -10.01 1.41
8.05 -3.22 -1.69
25.27 -10.09 2.38
9.7 -3.87 -1.65
9.76 -3.9 -1.29
25.06 -10.01 4.27
9.7 -3.87 -0.91
25.04 -10 5.24
9.76 -3.9 -0.55
9.88 -3.95 -0.19
5.85 -2.36 -1.69
6.81 -2.74 -1.69
25.08 -10.11 1.42
8.03 -3.24 -1.68
25.27 -10.19 2.38
9.73 -3.92 -1.66
25.26 -10.18 3.34
9.77 -3.94 -1.29
25.07 -10.11 4.28
9.7 -3.91 -0.92
25.06 -10.1 5.25
9.76 -3.94 -0.55
9.82 -3.96 -0.18
5.83 -2.37 -1.69
6.8 -2.77 -1.7
11.57 -4.71 0.65
8.03 -3.27 -1.69
25.2 -10.26 2.38
9.84 -4.01 -1.68
25.17 -10.25 3.34
9.78 -3.98 -1.3
25.08 -10.22 4.29
9.71 -3.95 -0.92
25.09 -10.22 5.27
9.77 -3.98 -0.55
9.83 -4 -0.19
5.83 -2.4 -1.69
6.8 -2.8 -1.7
11.25 -4.63 0.64
8.03 -3.3 -1.69
25.11 -10.33 2.38
9.84 -4.05 -1.69
25.11 -10.33 3.33
9.79 -4.03 -1.3
25.1 -10.32 4.3
9.73 -4 -0.92
25.08 -10.32 5.27
9.77 -4.02 -0.55
9.83 -4.04 -0.19
5.83 -2.42 -1.69
11.75 -4.88 0.22
6.78 -2.82 -1.7
11.06 -4.6 0.63
8.02 -3.33 -1.69
25.13 -10.44 2.38
9.83 -4.08 -1.69
25.1 -10.43 3.34
9.77 -4.06 -1.3
25.11 -10.43 4.31
9.75 -4.05 -0.92
25.1 -10.43 5.28
9.77 -4.06 -0.55
9.84 -4.09 -0.19
5.83 -2.44 -1.69
6.77 -2.84 -1.69
10.94 -4.59 0.62
8.02 -3.36 -1.69
25.14 -10.55 2.39
9.83 -4.12 -1.69
25.13 -10.54 3.35
9.77 -4.1 -1.3
25.13 -10.54 4.32
9.77 -4.1 -0.93
25.11 -10.53 5.29
9.77 -4.1 -0.56
5.81 -2.46 -1.69
11.58 -4.91 0.22
6.77 -2.87 -1.7
10.82 -4.58 0.62
7.99 -3.39 -1.69
25.15 -10.66 2.39
9.81 -4.16 -1.69
25.14 -10.65 3.35
9.96 -4.22 -1.33
25.13 -10.65 4.32
9.77 -4.14 -0.93
25.13 -10.64 5.3
9.78 -4.14 -0.56
9.71 -4.12 -0.18
5.8 -2.48 -1.69
11.56 -4.95 0.22
6.77 -2.9 -1.7
10.71 -4.58 0.61
7.98 -3.41 -1.69
25.16 -10.76 2.39
9.81 -4.19 -1.69
25.16 -10.76 3.36
9.86 -4.22 -1.32
25.15 -10.76 4.33
9.76 -4.18 -0.93
25.13 -10.75 5.31
9.79 -4.19 -0.56
50.01 -21.39 12.56
9.66 -4.13 -0.18
5.8 -2.51 -1.69
9.93 -4.29 0.19
6.76 -2.92 -1.7
10.62 -4.59 0.61
7.98 -3.45 -1.69
25.18 -10.88 2.4
9.77 -4.22 -1.69
25.17 -10.87 3.37
9.79 -4.23 -1.31
25.17 -10.87 4.34
9.77 -4.22 -0.93
25.14 -10.86 5.32
9.79 -4.23 -0.56
50.23 -21.69 12.63
9.6 -4.14 -0.18
5.79 -2.52 -1.69
9.91 -4.32 0.19
6.74 -2.94 -1.7
10.54 -4.59 0.6
7.96 -3.47 -1.69
25.44 -11.09 2.43
9.76 -4.25 -1.69
28.14 -12.27 3.77
9.78 -4.26 -1.31
25.19 -10.98 4.35
9.78 -4.26 -0.93
25.16 -10.97 5.34
9.79 -4.27 -0.56
44.53 -19.41 11.22
9.64 -4.2 -0.18
5.79 -2.55 -1.7
9.92 -4.37 0.19
6.74 -2.96 -1.7
10.45 -4.6 0.6
7.96 -3.5 -1.69
25.45 -11.2 2.43
9.75 -4.29 -1.69
27.92 -12.28 3.74
9.79 -4.31 -1.31
25.19 -11.08 4.36
9.79 -4.31 -0.94
25.18 -11.08 5.35
9.79 -4.31 -0.56
5.78 -2.57 -1.69
9.93 -4.41 0.19
6.73 -2.99 -1.7
10.38 -4.61 0.6
7.95 -3.53 -1.69
25.41 -11.28 2.43
9.74 -4.32 -1.69
27.69 -12.3 3.72
9.81 -4.35 -1.32
25.2 -11.19 4.37
9.8 -4.35 -0.94
25.19 -11.18 5.36
9.8 -4.35 -0.56
5.77 -2.59 -1.69
6.73 -3.02 -1.7
10.32 -4.62 0.59
7.93 -3.55 -1.69
9.71 -4.35 -1.69
27.47 -12.31 3.7
9.8 -4.39 -1.32
25.22 -11.3 4.38
9.79 -4.39 -0.94
25.21 -11.3 5.37
9.81 -4.4 -0.56
9.92 -4.45 -0.19
5.76 -2.61 -1.69
9.94 -4.49 0.19
6.71 -3.04 -1.7
10.25 -4.64 0.59
7.92 -3.58 -1.69
9.67 -4.37 -1.68
27.25 -12.33 3.67
9.8 -4.44 -1.32
25.23 -11.41 4.39
9.8 -4.43 -0.94
25.22 -11.41 5.38
9.8 -4.44 -0.56
42.47 -19.21 10.76
9.91 -4.48 -0.19
42.51 -19.23 12.5
5.76 -2.63 -1.7
6.7 -3.06 -1.7
10.2 -4.66 0.59
7.92 -3.62 -1.69
9.65 -4.4 -1.68
27.08 -12.36 3.66
9.81 -4.48 -1.32
25.25 -11.53 4.4
9.81 -4.48 -0.94
25.23 -11.52 5.39
9.81 -4.48 -0.56
42.49 -19.4 10.78
10.36 -4.73 -0.2
42.36 -19.34 12.48
5.76 -2.65 -1.7
6.69 -3.08 -1.7
10.15 -4.67 0.59
7.91 -3.64 -1.69
9.64 -4.44 -1.68
26.89 -12.39 3.64
9.81 -4.52 -1.33
25.27 -11.64 4.41
9.82 -4.52 -0.95
25.25 -11.63 5.4
9.81 -4.52 -0.57
42.33 -19.5 10.76
10.26 -4.73 -0.2
42.2 -19.44 12.45
5.75 -2.67 -1.7
6.69 -3.11 -1.7
10.11 -4.7 0.58
7.89 -3.67 -1.69
9.64 -4.48 -1.68
9.83 -4.57 -1.33
25.27 -11.75 4.41
9.81 -4.56 -0.95
25.27 -11.75 5.42
9.82 -4.56 -0.57
41.91 -19.48 10.67
10.22 -4.75 -0.2
42.25 -19.64 12.48
5.72 -2.69 -1.69
6.68 -3.14 -1.7
10.07 -4.73 0.58
7.88 -3.7 -1.69
25.47 -11.95 2.46
9.62 -4.51 -1.68
25.47 -11.95 3.45
9.84 -4.62 -1.33
25.28 -11.86 4.42
9.81 -4.6 -0.95
25.28 -11.86 5.43
9.82 -4.61 -0.57
41.75 -19.59 10.65
10.2 -4.79 -0.2
5.73 -2.71 -1.7
6.67 -3.16 -1.7
10.06 -4.76 0.58
7.87 -3.73 -1.69
25.35 -12.01 2.45
9.6 -4.54 -1.68
25.35 -12 3.44
9.85 -4.66 -1.34
25.31 -11.98 4.43
9.81 -4.65 -0.95
25.28 -11.97 5.44
9.83 -4.66 -0.57
10.28 -4.87 -0.2
5.73 -2.74 -1.7
6.65 -3.18 -1.7
10.05 -4.8 0.58
7.87 -3.76 -1.7
25.33 -12.1 2.46
9.59 -4.58 -1.68
25.3 -12.09 3.44
9.85 -4.71 -1.34
25.33 -12.1 4.45
9.82 -4.69 -0.95
25.3 -12.09 5.45
9.82 -4.69 -0.57
40.65 -19.42 10.4
10.24 -4.9 -0.2
5.71 -2.76 -1.7
6.64 -3.2 -1.7
10.04 -4.84 0.58
7.86 -3.79 -1.7
25.36 -12.22 2.46
9.57 -4.61 -1.68
25.33 -12.21 3.45
9.84 -4.75 -1.34
25.33 -12.21 4.45
9.84 -4.74 -0.96
25.31 -12.2 5.46
9.83 -4.74 -0.57
40.49 -19.52 10.38
41.25 -19.89 12.27
5.71 -2.78 -1.7
6.65 -3.23 -1.71
10.05 -4.88 0.59
7.84 -3.81 -1.69
25.37 -12.33 2.47
9.56 -4.65 -1.68
25.35 -12.33 3.46
9.85 -4.79 -1.34
25.33 -12.32 4.46
9.84 -4.79 -0.96
25.32 -12.31 5.47
9.84 -4.79 -0.57
40.43 -19.66 10.38
5.69 -2.79 -1.7
6.64 -3.26 -1.71
10.05 -4.93 0.59
7.83 -3.84 -1.7
25.37 -12.45 2.47
9.55 -4.68 -1.68
25.36 -12.44 3.47
9.86 -4.84 -1.35
25.36 -12.44 4.47
9.84 -4.83 -0.96
25.35 -12.43 5.49
9.85 -4.83 -0.57
5.69 -2.82 -1.7
6.64 -3.28 -1.71
10.06 -4.98 0.59
7.83 -3.87 -1.7
25.38 -12.56 2.48
9.52 -4.71 -1.68
25.38 -12.56 3.48
9.87 -4.88 -1.35
25.37 -12.55 4.48
9.85 -4.87 -0.96
25.35 -12.55 5.5
9.88 -4.89 -0.58
40.73 -20.16 10.49
5.69 -2.84 -1.7
6.61 -3.3 -1.71
10.06 -5.02 0.59
7.8 -3.9 -1.7
25.42 -12.69 2.49
9.51 -4.75 -1.68
25.37 -12.67 3.48
9.87 -4.93 -1.35
25.39 -12.67 4.49
9.86 -4.92 -0.96
25.36 -12.66 5.51
9.88 -4.93 -0.58
40.66 -20.3 10.49
9.96 -4.97 -0.19
5.68 -2.86 -1.7
10.01 -5.04 0.2
6.61 -3.33 -1.71
10.06 -5.06 0.59
7.8 -3.92 -1.7
9.49 -4.78 -1.68
29.02 -14.61 3.99
9.87 -4.97 -1.36
25.41 -12.79 4.51
9.86 -4.96 -0.97
25.39 -12.78 5.53
9.87 -4.97 -0.58
9.93 -5 -0.19
5.67 -2.88 -1.7
9.97 -5.06 0.2
6.6 -3.35 -1.71
10.07 -5.12 0.59
7.78 -3.95 -1.7
9.47 -4.81 -1.68
29.05 -14.75 4
9.89 -5.02 -1.36
25.4 -12.9 4.51
9.86 -5.01 -0.97
25.41 -12.9 5.54
9.89 -5.02 -0.58
40.86 -20.75 10.58
9.92 -5.04 -0.19
5.65 -2.9 -1.7
9.99 -5.12 0.2
6.6 -3.38 -1.71
10.08 -5.16 0.59
7.77 -3.98 -1.7
9.45 -4.84 -1.68
29.05 -14.88 4.01
9.9 -5.07 -1.37
25.41 -13.02 4.52
9.87 -5.05 -0.97
25.41 -13.01 5.55
9.9 -5.07 -0.58
40.93 -20.96 10.62
9.91 -5.08 -0.19
5.65 -2.92 -1.7
9.99 -5.16 0.2
6.59 -3.41 -1.71
10.09 -5.21 0.6
7.76 -4.01 -1.7
9.44 -4.87 -1.68
29.07 -15.01 4.02
9.9 -5.11 -1.37
25.45 -13.15 4.54
9.87 -5.1 -0.97
25.43 -13.13 5.56
9.9 -5.11 -0.58
40.72 -21.03 10.58
9.93 -5.13 -0.2
5.64 -2.94 -1.7
9.99 -5.21 0.2
6.57 -3.42 -1.71
10.1 -5.26 0.6
7.74 -4.03 -1.7
9.42 -4.91 -1.68
29.05 -15.14 4.02
9.9 -5.16 -1.37
25.45 -13.26 4.55
9.89 -5.15 -0.98
25.44 -13.25 5.58
9.9 -5.16 -0.59
9.94 -5.18 -0.2
5.64 -2.96 -1.71
9.99 -5.25 0.2
6.56 -3.44 -1.71
10.09 -5.3 0.6
7.73 -4.06 -1.7
9.4 -4.94 -1.68
29.07 -15.28 4.03
9.9 -5.2 -1.37
25.47 -13.38 4.56
9.9 -5.2 -0.98
25.43 -13.36 5.58
9.9 -5.2 -0.59
9.94 -5.22 -0.2
5.63 -2.98 -1.71
10.02 -5.31 0.2
6.55 -3.47 -1.71
10.1 -5.35 0.6
7.72 -4.09 -1.7
25.77 -13.65 2.55
9.39 -4.97 -1.68
25.76 -13.65 3.58
9.9 -5.25 -1.38
25.49 -13.5 4.57
9.9 -5.24 -0.98
25.39 -13.45 5.58
9.9 -5.24 -0.59
9.93 -5.26 -0.2
5.61 -3 -1.71
10.03 -5.36 0.2
6.55 -3.5 -1.71
10.11 -5.4 0.6
7.7 -4.11 -1.7
25.66 -13.71 2.55
9.36 -5 -1.68
25.65 -13.7 3.57
9.92 -5.3 -1.38
25.5 -13.62 4.58
9.9 -5.29 -0.98
25.39 -13.56 5.6
9.91 -5.29 -0.59
40.25 -21.5 10.54
9.93 -5.31 -0.2
5.6 -3.02 -1.71
10.02 -5.4 0.2
6.55 -3.53 -1.72
10.12 -5.45 0.6
7.69 -4.14 -1.7
25.56 -13.76 2.54
9.34 -5.03 -1.68
25.53 -13.75 3.56
9.93 -5.35 -1.39
25.52 -13.74 4.59
9.9 -5.33 -0.98
25.4 -13.68 5.61
9.92 -5.34 -0.59
9.96 -5.36 -0.2
5.61 -3.04 -1.71
10.03 -5.45 0.2
6.52 -3.54 -1.71
10.13 -5.5 0.6
7.68 -4.17 -1.7
25.54 -13.87 2.54
9.33 -5.07 -1.68
25.53 -13.86 3.57
9.94 -5.4 -1.39
25.54 -13.87 4.6
9.92 -5.38 -0.99
25.42 -13.8 5.62
9.92 -5.39 -0.59
40.3 -21.88 10.59
9.98 -5.42 -0.2
5.59 -3.07 -1.71
10.04 -5.5 0.2
6.51 -3.57 -1.71
10.12 -5.54 0.6
7.68 -4.21 -1.7
25.56 -14.01 2.55
9.34 -5.12 -1.69
25.54 -13.99 3.58
9.94 -5.44 -1.39
25.54 -13.99 4.61
9.92 -5.44 -0.99
25.45 -13.94 5.64
9.92 -5.44 -0.59
40.87 -22.4 10.76
9.98 -5.47 -0.2
40.75 -22.33 12.45
5.59 -3.09 -1.71
10.04 -5.55 0.2
6.51 -3.6 -1.72
10.13 -5.6 0.61
7.66 -4.23 -1.7
25.58 -14.13 2.56
9.33 -5.15 -1.69
25.55 -14.12 3.58
9.94 -5.49 -1.39
25.55 -14.12 4.62
9.93 -5.48 -0.99
25.46 -14.07 5.65
9.93 -5.49 -0.59
39.95 -22.07 10.54
9.98 -5.51 -0.2
5.57 -3.1 -1.71
10.05 -5.6 0.2
6.5 -3.62 -1.72
10.14 -5.64 0.61
7.64 -4.25 -1.7
25.59 -14.25 2.56
9.31 -5.18 -1.69
25.58 -14.24 3.59
9.94 -5.54 -1.4
25.57 -14.24 4.64
9.92 -5.52 -0.99
25.47 -14.18 5.67
9.93 -5.53 -0.6
39.92 -22.23 10.55
9.98 -5.56 -0.2
5.56 -3.12 -1.71
10.05 -5.64 0.2
6.49 -3.64 -1.72
10.14 -5.69 0.61
7.64 -4.29 -1.7
25.6 -14.37 2.57
9.29 -5.22 -1.69
25.59 -14.37 3.6
9.96 -5.59 -1.4
25.58 -14.36 4.65
9.93 -5.58 -1
25.49 -14.31 5.68
9.94 -5.58 -0.6
39.94 -22.43 10.58
10 -5.61 -0.2
5.56 -3.14 -1.71
10.06 -5.69 0.2
6.47 -3.66 -1.72
10.15 -5.74 0.61
7.62 -4.31 -1.7
9.25 -5.24 -1.68
9.97 -5.64 -1.41
25.62 -14.49 4.66
9.95 -5.63 -1
25.49 -14.42 5.69
9.93 -5.62 -0.6
10.01 -5.66 -0.2
5.56 -3.17 -1.71
10.07 -5.74 0.2
6.47 -3.69 -1.72
10.15 -5.79 0.61
7.61 -4.34 -1.7
9.26 -5.28 -1.69
9.97 -5.69 -1.41
25.62 -14.62 4.67
9.97 -5.69 -1
25.52 -14.56 5.71
9.94 -5.67 -0.6
10.01 -5.71 -0.2
5.54 -3.19 -1.71
10.08 -5.79 0.2
6.46 -3.71 -1.72
10.16 -5.84 0.61
7.6 -4.37 -1.7
9.22 -5.3 -1.68
9.98 -5.74 -1.41
25.63 -14.73 4.68
9.97 -5.73 -1.01
25.55 -14.69 5.73
9.96 -5.73 -0.6
10.01 -5.75 -0.2
5.52 -3.2 -1.71
10.08 -5.84 0.2
6.45 -3.74 -1.72
10.16 -5.89 0.62
7.58 -4.39 -1.7
9.19 -5.33 -1.68
9.98 -5.79 -1.42
25.66 -14.87 4.7
9.97 -5.78 -1.01
25.55 -14.81 5.74
9.97 -5.78 -0.6
10.01 -5.8 -0.2
5.52 -3.22 -1.71
10.08 -5.89 0.2
6.44 -3.76 -1.72
10.18 -5.95 0.62
7.58 -4.43 -1.71
9.2 -5.37 -1.69
9.99 -5.83 -1.42
25.67 -14.99 4.71
9.97 -5.83 -1.01
25.58 -14.94 5.76
9.98 -5.83 -0.61
41.93 -24.49 11.21
10.02 -5.85 -0.2
5.51 -3.25 -1.71
10.09 -5.94 0.2
6.41 -3.78 -1.72
10.18 -6 0.62
7.56 -4.45 -1.71
9.16 -5.4 -1.68
10 -5.89 -1.43
25.69 -15.13 4.72
9.98 -5.87 -1.01
25.59 -15.07 5.77
9.97 -5.87 -0.61
10.03 -5.9 -0.2
5.5 -3.27 -1.71
10.1 -5.99 0.2
6.4 -3.8 -1.72
10.18 -6.04 0.62
7.55 -4.48 -1.71
25.94 -15.4 2.64
9.16 -5.44 -1.69
25.93 -15.39 3.7
10 -5.94 -1.43
25.7 -15.26 4.73
9.98 -5.93 -1.02
25.62 -15.21 5.79
9.97 -5.92 -0.61
10.04 -5.96 -0.2
5.5 -3.29 -1.72
10.1 -6.05 0.21
6.4 -3.83 -1.72
10.18 -6.1 0.62
7.54 -4.51 -1.71
25.85 -15.47 2.64
9.14 -5.47 -1.69
25.83 -15.46 3.7
10.01 -5.99 -1.43
25.7 -15.38 4.74
10 -5.99 -1.02
9.98 -5.97 -0.61
10.04 -6.01 -0.2
5.48 -3.3 -1.71
10.11 -6.1 0.21
6.39 -3.85 -1.72
10.2 -6.15 0.62
7.52 -4.54 -1.71
25.75 -15.53 2.63
9.11 -5.49 -1.68
25.73 -15.52 3.69
10.02 -6.05 -1.44
25.73 -15.52 4.76
10 -6.03 -1.02
10 -6.03 -0.61
10.05 -6.06 -0.2
5.47 -3.32 -1.71
10.12 -6.15 0.21
6.38 -3.88 -1.72
10.21 -6.21 0.63
7.51 -4.57 -1.71
25.76 -15.66 2.64
9.1 -5.53 -1.69
25.75 -15.66 3.7
10.03 -6.1 -1.44
25.74 -15.65 4.77
10.01 -6.09 -1.02
10.01 -6.08 -0.61
10.05 -6.11 -0.21
5.46 -3.35 -1.72
10.13 -6.2 0.21
6.36 -3.9 -1.72
10.22 -6.26 0.63
7.51 -4.6 -1.71
25.78 -15.79 2.64
9.08 -5.56 -1.69
25.76 -15.78 3.71
10.04 -6.15 -1.45
25.78 -15.79 4.79
10.02 -6.14 -1.03
10 -6.13 -0.61
10.06 -6.16 -0.21
5.45 -3.37 -1.72
10.13 -6.25 0.21
6.35 -3.92 -1.72
10.21 -6.31 0.63
7.48 -4.62 -1.71
25.8 -15.93 2.65
9.07 -5.6 -1.69
25.77 -15.91 3.72
10.05 -6.21 -1.45
25.78 -15.91 4.8
10.03 -6.19 -1.03
10.01 -6.18 -0.62
10.07 -6.22 -0.21
5.45 -3.39 -1.72
10.14 -6.31 0.21
6.34 -3.94 -1.72
10.22 -6.36 0.63
7.46 -4.64 -1.71
25.81 -16.06 2.66
9.05 -5.63 -1.69
25.79 -16.05 3.73
10.07 -6.26 -1.46
25.79 -16.05 4.81
10.02 -6.24 -1.03
10.02 -6.23 -0.62
10.08 -6.27 -0.21
5.43 -3.4 -1.72
10.14 -6.36 0.21
6.32 -3.97 -1.72
10.24 -6.42 0.63
7.44 -4.67 -1.71
9.04 -5.67 -1.69
25.89 -16.24 3.75
10.1 -6.33 -1.46
25.81 -16.19 4.83
10.02 -6.28 -1.03
10.02 -6.28 -0.62
10.08 -6.32 -0.21
5.42 -3.42 -1.72
10.15 -6.41 0.21
6.32 -3.99 -1.72
10.24 -6.47 0.63
7.43 -4.69 -1.71
9.01 -5.69 -1.69
25.94 -16.39 3.77
10.13 -6.4 -1.47
25.83 -16.32 4.84
10.03 -6.34 -1.04
10.03 -6.34 -0.62
10.09 -6.38 -0.21
5.41 -3.45 -1.72
10.16 -6.47 0.21
6.3 -4.01 -1.72
10.25 -6.53 0.64
7.43 -4.73 -1.71
9 -5.73 -1.69
25.95 -16.53 3.78
10.14 -6.46 -1.48
25.85 -16.46 4.85
10.05 -6.4 -1.04
10.04 -6.39 -0.62
10.1 -6.43 -0.21
5.4 -3.47 -1.72
10.17 -6.53 0.21
6.28 -4.03 -1.72
10.25 -6.58 0.64
7.41 -4.76 -1.71
27.54 -17.68 2.86
8.99 -5.77 -1.69
25.96 -16.66 3.79
10.14 -6.51 -1.48
25.86 -16.6 4.87
10.05 -6.45 -1.04
10.04 -6.45 -0.63
10.1 -6.48 -0.21
5.39 -3.49 -1.72
10.18 -6.58 0.21
6.28 -4.06 -1.73
10.26 -6.64 0.64
7.39 -4.78 -1.71
8.97 -5.8 -1.69
25.93 -16.77 3.79
10.15 -6.56 -1.48
25.87 -16.73 4.88
10.05 -6.5 -1.05
10.05 -6.5 -0.63
10.09 -6.53 -0.21
5.38 -3.51 -1.72
10.18 -6.64 0.21
6.27 -4.08 -1.73
10.27 -6.69 0.64
7.38 -4.81 -1.71
8.94 -5.83 -1.69
25.91 -16.88 3.8
10.16 -6.62 -1.49
25.89 -16.87 4.89
10.05 -6.55 -1.05
10.06 -6.56 -0.63
10.11 -6.59 -0.21
5.37 -3.53 -1.72
10.18 -6.68 0.21
6.26 -4.11 -1.73
10.28 -6.75 0.64
7.37 -4.84 -1.71
26.12 -17.15 2.73
8.92 -5.86 -1.69
25.91 -17.01 3.81
11.95 -7.84 -1.75
25.91 -17.01 4.91
10.06 -6.61 -1.05
10.07 -6.61 -0.63
10.12 -6.65 -0.21
5.36 -3.55 -1.72
10.19 -6.74 0.21
6.24 -4.12 -1.73
10.29 -6.8 0.65
7.37 -4.87 -1.72
26.04 -17.22 2.73
8.89 -5.88 -1.69
25.91 -17.14 3.81
11.96 -7.91 -1.76
25.92 -17.15 4.92
10.07 -6.66 -1.06
10.06 -6.65 -0.63
10.13 -6.7 -0.21
5.35 -3.57 -1.72
10.2 -6.8 0.21
6.23 -4.15 -1.73
10.29 -6.86 0.65
7.34 -4.89 -1.71
25.97 -17.31 2.73
8.89 -5.92 -1.69
25.94 -17.29 3.83
11.99 -7.99 -1.77
25.95 -17.29 4.94
10.09 -6.72 -1.06
10.08 -6.72 -0.63
10.13 -6.75 -0.21
5.35 -3.59 -1.73
10.21 -6.85 0.21
6.22 -4.18 -1.73
10.3 -6.91 0.65
7.32 -4.92 -1.71
25.98 -17.44 2.74
8.87 -5.96 -1.69
25.96 -17.43 3.84
11.99 -8.05 -1.77
25.96 -17.43 4.95
10.07 -6.76 -1.06
10.09 -6.78 -0.64
10.13 -6.8 -0.21
5.32 -3.6 -1.72
10.22 -6.91 0.22
6.21 -4.2 -1.73
10.31 -6.98 0.65
7.31 -4.95 -1.72
25.99 -17.58 2.75
8.84 -5.98 -1.69
25.98 -17.58 3.85
11.97 -8.1 -1.77
25.98 -17.57 4.97
10.08 -6.82 -1.06
10.1 -6.83 -0.64
10.15 -6.87 -0.21
5.32 -3.63 -1.73
10.21 -6.96 0.22
6.19 -4.22 -1.73
10.33 -7.04 0.65
7.28 -4.96 -1.71
26 -17.72 2.75
8.82 -6.01 -1.69
26 -17.71 3.86
11.92 -8.12 -1.77
26 -17.71 4.98
10.1 -6.88 -1.07
10.1 -6.88 -0.64
10.16 -6.92 -0.21
5.31 -3.65 -1.73
10.22 -7.02 0.22
6.17 -4.24 -1.73
10.33 -7.09 0.66
7.29 -5 -1.72
26.04 -17.88 2.76
8.81 -6.05 -1.69
26.01 -17.86 3.87
11.9 -8.17 -1.77
26.03 -17.87 5
10.11 -6.94 -1.07
10.09 -6.93 -0.64
10.17 -6.98 -0.22
5.31 -3.67 -1.73
10.24 -7.08 0.22
6.16 -4.26 -1.73
10.33 -7.14 0.66
7.26 -5.02 -1.72
8.8 -6.08 -1.69
26.02 -17.99 3.88
11.86 -8.2 -1.77
26.04 -18 5.01
10.11 -6.99 -1.08
10.11 -6.99 -0.64
10.17 -7.03 -0.22
5.29 -3.69 -1.73
10.25 -7.14 0.22
6.14 -4.28 -1.73
10.34 -7.2 0.66
7.24 -5.04 -1.71
8.79 -6.12 -1.7
26.05 -18.15 3.9
11.82 -8.23 -1.77
26.04 -18.14 5.03
10.13 -7.05 -1.08
10.12 -7.05 -0.65
10.17 -7.09 -0.22
5.27 -3.7 -1.73
10.24 -7.19 0.22
6.13 -4.3 -1.73
10.35 -7.27 0.66
7.23 -5.08 -1.72
8.76 -6.15 -1.7
26.06 -18.29 3.91
11.78 -8.27 -1.77
26.07 -18.3 5.04
10.12 -7.1 -1.08
10.12 -7.11 -0.65
10.18 -7.14 -0.22
5.27 -3.73 -1.73
10.25 -7.25 0.22
6.12 -4.33 -1.73
10.35 -7.32 0.66
7.22 -5.11 -1.72
8.74 -6.18 -1.7
26.08 -18.45 3.92
11.76 -8.32 -1.77
26.08 -18.45 5.06
10.14 -7.17 -1.09
10.13 -7.16 -0.65
10.18 -7.2 -0.22
5.25 -3.74 -1.73
10.26 -7.31 0.22
6.1 -4.34 -1.73
10.37 -7.39 0.67
7.2 -5.13 -1.72
8.73 -6.22 -1.7
26.09 -18.58 3.93
11.72 -8.35 -1.77
26.11 -18.59 5.08
10.15 -7.23 -1.09
10.12 -7.21 -0.65
10.2 -7.26 -0.22
5.25 -3.76 -1.73
10.26 -7.37 0.22
6.09 -4.37 -1.73
10.37 -7.44 0.67
7.19 -5.16 -1.72
26.33 -18.9 2.84
8.71 -6.25 -1.7
26.11 -18.74 3.95
11.71 -8.41 -1.77
26.12 -18.75 5.09
10.13 -7.27 -1.09
10.14 -7.27 -0.65
10.2 -7.32 -0.22
5.23 -3.78 -1.73
10.28 -7.43 0.22
6.07 -4.39 -1.73
10.38 -7.5 0.67
7.16 -5.18 -1.72
26.24 -18.97 2.83
8.7 -6.29 -1.7
26.13 -18.89 3.96
11.63 -8.41 -1.76
26.13 -18.9 5.11
10.14 -7.33 -1.09
10.14 -7.34 -0.66
10.2 -7.38 -0.22
5.22 -3.8 -1.73
10.28 -7.49 0.22
6.06 -4.42 -1.73
10.39 -7.57 0.67
7.15 -5.21 -1.72
26.17 -19.06 2.83
8.69 -6.33 -1.7
26.15 -19.05 3.97
11.62 -8.47 -1.77
26.15 -19.05 5.12
10.12 -7.37 -1.1
10.15 -7.4 -0.66
10.2 -7.43 -0.22
5.21 -3.82 -1.73
10.28 -7.55 0.22
6.06 -4.44 -1.73
10.4 -7.63 0.68
7.14 -5.24 -1.72
26.19 -19.21 2.84
8.66 -6.35 -1.7
26.16 -19.2 3.98
11.6 -8.51 -1.77
26.17 -19.2 5.14
10.16 -7.46 -1.1
10.16 -7.45 -0.66
10.22 -7.5 -0.22
5.21 -3.85 -1.73
10.29 -7.61 0.22
6.03 -4.46 -1.73
10.41 -7.69 0.68
7.13 -5.27 -1.72
26.21 -19.38 2.85
8.64 -6.39 -1.7
26.18 -19.36 4
11.54 -8.53 -1.76
26.2 -19.37 5.16
10.18 -7.52 -1.11
10.15 -7.51 -0.66
10.22 -7.56 -0.22
5.2 -3.87 -1.74
10.3 -7.66 0.22
6.02 -4.48 -1.73
10.41 -7.75 0.68
7.12 -5.3 -1.72
26.24 -19.52 2.86
8.63 -6.42 -1.7
26.21 -19.5 4.01
11.48 -8.54 -1.76
26.21 -19.5 5.17
10.19 -7.58 -1.11
10.16 -7.56 -0.66
10.24 -7.62 -0.22
5.19 -3.89 -1.74
10.32 -7.74 0.23
6.01 -4.51 -1.73
10.42 -7.81 0.68
7.09 -5.32 -1.72
8.62 -6.46 -1.71
26.23 -19.66 4.03
10.35 -7.76 -1.59
26.23 -19.66 5.19
10.18 -7.63 -1.11
10.18 -7.63 -0.67
10.25 -7.68 -0.22
5.17 -3.9 -1.74
10.32 -7.79 0.23
5.99 -4.52 -1.73
10.43 -7.88 0.69
7.08 -5.34 -1.72
8.6 -6.49 -1.71
26.25 -19.82 4.04
10.3 -7.77 -1.58
26.25 -19.81 5.21
10.18 -7.69 -1.12
10.18 -7.69 -0.67
10.25 -7.74 -0.22
5.16 -3.93 -1.74
10.33 -7.86 0.23
5.98 -4.55 -1.73
10.45 -7.95 0.69
7.06 -5.37 -1.72
8.57 -6.52 -1.71
26.27 -19.98 4.05
10.24 -7.79 -1.58
26.28 -19.98 5.23
10.24 -7.79 -1.13
10.19 -7.75 -0.67
10.26 -7.81 -0.23
5.16 -3.95 -1.74
10.34 -7.92 0.23
5.95 -4.56 -1.73
10.46 -8.01 0.69
7.05 -5.4 -1.73
8.56 -6.56 -1.71
26.28 -20.14 4.07
10.22 -7.83 -1.58
26.29 -20.14 5.25
10.23 -7.84 -1.13
10.19 -7.81 -0.67
10.27 -7.87 -0.23
5.15 -3.97 -1.74
10.34 -7.98 0.23
5.94 -4.59 -1.73
10.46 -8.07 0.69
7.04 -5.44 -1.73
8.54 -6.6 -1.71
26.3 -20.3 4.08
10.2 -7.88 -1.58
26.31 -20.31 5.26
10.24 -7.9 -1.13
10.19 -7.87 -0.67
10.28 -7.94 -0.23
5.14 -4 -1.74
10.35 -8.05 0.23
5.93 -4.61 -1.73
10.47 -8.14 0.7
7.02 -5.46 -1.73
26.53 -20.62 2.94
8.53 -6.63 -1.71
26.33 -20.47 4.09
10.21 -7.94 -1.59
26.33 -20.46 5.28
10.23 -7.96 -1.13
10.21 -7.93 -0.68
10.27 -7.98 -0.23
5.12 -4.01 -1.74
10.37 -8.12 0.23
5.92 -4.63 -1.74
10.48 -8.2 0.7
7.01 -5.49 -1.73
26.45 -20.71 2.94
8.51 -6.67 -1.71
26.34 -20.63 4.11
10.25 -8.03 -1.6
26.34 -20.62 5.3
10.24 -8.02 -1.14
10.22 -8 -0.68
10.3 -8.07 -0.23
5.11 -4.03 -1.74
10.37 -8.17 0.23
5.91 -4.66 -1.74
10.5 -8.28 0.7
7 -5.51 -1.73
26.39 -20.8 2.94
8.49 -6.69 -1.71
26.37 -20.78 4.12
10.25 -8.08 -1.6
26.38 -20.79 5.32
10.26 -8.09 -1.14
10.23 -8.06 -0.68
10.3 -8.12 -0.23
5.1 -4.05 -1.74
10.38 -8.24 0.23
5.89 -4.68 -1.74
10.51 -8.34 0.7
6.99 -5.55 -1.73
26.41 -20.96 2.95
8.47 -6.73 -1.71
26.38 -20.94 4.14
10.25 -8.13 -1.61
26.39 -20.95 5.34
10.27 -8.15 -1.15
10.23 -8.12 -0.68
10.32 -8.19 -0.23
5.09 -4.07 -1.75
10.39 -8.31 0.23
5.88 -4.7 -1.74
10.51 -8.4 0.71
6.97 -5.57 -1.73
26.43 -21.13 2.96
8.45 -6.75 -1.71
26.4 -21.1 4.15
10.23 -8.18 -1.61
26.41 -21.11 5.36
10.27 -8.21 -1.15
10.24 -8.18 -0.69
10.32 -8.25 -0.23
5.08 -4.09 -1.75
10.4 -8.38 0.23
5.86 -4.72 -1.74
10.52 -8.48 0.71
6.94 -5.59 -1.73
26.45 -21.3 2.97
8.43 -6.79 -1.71
26.43 -21.29 4.17
10.26 -8.26 -1.62
26.43 -21.28 5.37
10.27 -8.27 -1.15
10.25 -8.25 -0.69
10.31 -8.3 -0.23
5.06 -4.1 -1.75
10.41 -8.44 0.23
5.85 -4.74 -1.74
10.54 -8.54 0.71
6.92 -5.62 -1.73
8.42 -6.83 -1.72
26.45 -21.45 4.18
11 -8.92 -1.74
26.44 -21.45 5.39
10.69 -8.67 -1.2
10.26 -8.32 -0.69
10.34 -8.39 -0.23
5.05 -4.12 -1.75
10.43 -8.52 0.24
5.83 -4.77 -1.74
10.55 -8.61 0.71
6.91 -5.65 -1.74
8.39 -6.85 -1.72
26.47 -21.62 4.2
10.98 -8.97 -1.74
26.47 -21.62 5.41
10.51 -8.59 -1.19
10.26 -8.38 -0.69
10.35 -8.45 -0.23
5.04 -4.15 -1.75
10.42 -8.57 0.24
5.82 -4.79 -1.74
10.57 -8.69 0.72
6.9 -5.67 -1.74
8.37 -6.89 -1.72
26.49 -21.79 4.21
10.94 -9 -1.74
26.47 -21.77 5.43
10.28 -8.46 -1.16
10.27 -8.44 -0.7
10.36 -8.53 -0.23
5.03 -4.17 -1.75
10.44 -8.65 0.24
5.8 -4.8 -1.74
10.57 -8.75 0.72
6.88 -5.7 -1.74
8.35 -6.92 -1.72
26.51 -21.96 4.23
10.91 -9.04 -1.74
26.41 -21.88 5.43
10.3 -8.53 -1.17
10.28 -8.51 -0.7
10.37 -8.59 -0.24
5.02 -4.19 -1.75
10.45 -8.72 0.24
5.79 -4.83 -1.74
10.58 -8.82 0.72
6.85 -5.72 -1.74
26.82 -22.38 3.06
8.33 -6.95 -1.72
26.53 -22.14 4.24
10.88 -9.07 -1.74
26.43 -22.06 5.45
10.3 -8.59 -1.17
10.29 -8.59 -0.7
10.37 -8.65 -0.24
5 -4.2 -1.75
10.46 -8.79 0.24
5.78 -4.86 -1.74
10.59 -8.9 0.72
6.84 -5.75 -1.74
26.71 -22.44 3.05
8.31 -6.98 -1.72
26.56 -22.32 4.26
10.84 -9.11 -1.74
26.46 -22.24 5.47
10.32 -8.67 -1.18
10.3 -8.65 -0.7
10.37 -8.72 -0.24
4.99 -4.22 -1.75
10.47 -8.85 0.24
5.77 -4.88 -1.74
10.61 -8.98 0.73
6.83 -5.78 -1.74
26.6 -22.5 3.05
8.29 -7.01 -1.72
26.57 -22.48 4.27
10.81 -9.15 -1.74
26.48 -22.4 5.49
10.33 -8.74 -1.18
10.32 -8.73 -0.71
10.39 -8.79 -0.24
4.98 -4.25 -1.75
10.48 -8.93 0.24
5.75 -4.89 -1.74
10.62 -9.05 0.73
6.82 -5.81 -1.74
26.62 -22.68 3.06
8.26 -7.04 -1.72
26.59 -22.66 4.29
10.77 -9.18 -1.74
26.52 -22.59 5.52
10.34 -8.81 -1.19
10.33 -8.8 -0.71
10.39 -8.85 -0.24
4.98 -4.27 -1.76
10.49 -9 0.24
5.73 -4.92 -1.74
10.63 -9.12 0.73
6.8 -5.84 -1.74
26.63 -22.86 3.07
8.24 -7.07 -1.72
26.61 -22.84 4.31
10.73 -9.21 -1.74
26.53 -22.77 5.54
10.35 -8.89 -1.19
10.32 -8.86 -0.71
10.4 -8.93 -0.24
4.96 -4.29 -1.76
10.5 -9.07 0.24
5.72 -4.94 -1.75
10.64 -9.2 0.74
6.77 -5.86 -1.74
26.66 -23.04 3.08
8.23 -7.11 -1.72
26.63 -23.02 4.32
10.7 -9.25 -1.74
26.54 -22.94 5.56
10.36 -8.95 -1.2
10.35 -8.95 -0.72
10.41 -9 -0.24
4.94 -4.3 -1.75
10.51 -9.14 0.24
5.72 -4.98 -1.75
10.66 -9.27 0.74
6.76 -5.88 -1.74
8.2 -7.14 -1.72
26.67 -23.21 4.34
10.67 -9.29 -1.74
26.58 -23.13 5.58
10.36 -9.01 -1.2
10.36 -9.02 -0.72
10.43 -9.07 -0.24
4.93 -4.32 -1.75
10.52 -9.22 0.24
5.7 -5 -1.75
6.75 -5.91 -1.74
8.17 -7.16 -1.72
26.7 -23.4 4.36
10.64 -9.33 -1.74
26.61 -23.32 5.6
10.37 -9.08 -1.21
10.36 -9.08 -0.72
10.43 -9.14 -0.24
4.91 -4.33 -1.75
10.5 -9.27 0.24
5.68 -5.01 -1.75
26.7 -23.57 1.87
6.73 -5.94 -1.74
8.15 -7.19 -1.72
26.7 -23.56 4.37
10.61 -9.36 -1.74
26.63 -23.5 5.63
10.37 -9.15 -1.21
10.37 -9.15 -0.72
10.45 -9.22 -0.24
4.91 -4.36 -1.76
10.51 -9.34 0.25
5.67 -5.04 -1.75
26.71 -23.74 1.87
6.71 -5.96 -1.74
8.14 -7.23 -1.72
26.72 -23.75 4.39
10.56 -9.39 -1.74
10.39 -9.23 -1.22
10.38 -9.23 -0.73
10.46 -9.29 -0.24
4.89 -4.38 -1.76
10.54 -9.44 0.25
5.66 -5.06 -1.75
26.73 -23.93 1.88
6.69 -5.99 -1.75
26.98 -24.15 3.17
8.12 -7.27 -1.73
26.75 -23.94 4.41
10.53 -9.42 -1.73
10.42 -9.32 -1.22
10.4 -9.31 -0.73
10.45 -9.35 -0.24
4.87 -4.39 -1.76
26.79 -24.14 0.63
5.64 -5.09 -1.75
26.76 -24.12 1.89
6.67 -6.01 -1.75
26.85 -24.2 3.16
8.09 -7.29 -1.73
26.78 -24.14 4.43
10.5 -9.46 -1.74
10.42 -9.4 -1.23
10.41 -9.38 -0.73
10.46 -9.43 -0.25
4.86 -4.41 -1.76
26.78 -24.29 0.63
5.63 -5.11 -1.76
26.79 -24.3 1.9
6.66 -6.04 -1.75
26.81 -24.32 3.17
8.07 -7.32 -1.72
26.8 -24.31 4.44
10.46 -9.49 -1.73
10.45 -9.48 -1.23
4.85 -4.43 -1.76
26.8 -24.48 0.63
5.61 -5.12 -1.75
26.8 -24.48 1.9
6.64 -6.07 -1.75
26.84 -24.52 3.18
8.05 -7.35 -1.73
26.83 -24.51 4.46
10.42 -9.52 -1.73
14.13 -12.9 -1.67
26.88 -24.55 -1.91
26.86 -24.54 -0.64
4.83 -4.45 -1.76
26.83 -24.68 0.64
5.6 -5.15 -1.76
26.82 -24.68 1.91
6.62 -6.09 -1.75
26.86 -24.71 3.19
8.03 -7.39 -1.73
26.84 -24.69 4.48
10.39 -9.56 -1.73
14.09 -12.96 -1.68
26.9 -24.74 -1.92
26.88 -24.73 -0.64
4.82 -4.47 -1.76
26.87 -24.89 0.64
5.6 -5.19 -1.76
26.85 -24.87 1.92
6.6 -6.11 -1.75
8.01 -7.42 -1.73
26.87 -24.89 4.5
10.36 -9.59 -1.73
14.12 -13.08 -1.68
26.91 -24.93 -1.92
27.06 -25.07 -0.64
4.8 -4.48 -1.76
26.88 -25.08 0.64
5.58 -5.21 -1.76
26.89 -25.08 1.93
6.58 -6.14 -1.75
7.99 -7.45 -1.73
26.9 -25.09 4.52
10.33 -9.63 -1.73
14.11 -13.17 -1.69
26.94 -25.13 -1.93
27.09 -25.27 -0.65
4.79 -4.5 -1.76
26.9 -25.27 0.64
5.57 -5.23 -1.76
26.9 -25.27 1.93
6.57 -6.17 -1.75
7.96 -7.48 -1.73
26.92 -25.29 4.54
10.3 -9.67 -1.73
14.11 -13.25 -1.69
26.98 -25.34 -1.94
27.11 -25.47 -0.65
4.78 -4.52 -1.76
26.92 -25.47 0.65
5.54 -5.24 -1.76
26.93 -25.47 1.94
6.55 -6.2 -1.75
27.39 -25.91 3.3
7.94 -7.51 -1.73
26.94 -25.49 4.55
10.27 -9.72 -1.74
14.06 -13.3 -1.69
26.98 -25.53 -1.95
27.13 -25.66 -0.65
4.77 -4.54 -1.77
26.96 -25.69 0.65
5.53 -5.26 -1.76
26.95 -25.68 1.95
6.53 -6.22 -1.75
27.2 -25.91 3.29
7.92 -7.55 -1.73
26.96 -25.69 4.57
10.24 -9.75 -1.74
14.06 -13.39 -1.7
27.01 -25.73 -1.96
27.12 -25.84 -0.65
4.76 -4.56 -1.77
26.98 -25.88 0.65
5.52 -5.29 -1.77
26.98 -25.88 1.96
6.5 -6.24 -1.75
27.04 -25.94 3.28
7.9 -7.58 -1.73
26.99 -25.89 4.59
10.22 -9.81 -1.74
13.91 -13.35 -1.69
27.03 -25.93 -1.96
27.02 -25.92 -0.65
4.73 -4.57 -1.76
27 -26.08 0.66
5.5 -5.32 -1.77
27 -26.08 1.97
6.49 -6.27 -1.75
27.02 -26.1 3.29
7.88 -7.61 -1.73
27.01 -26.09 4.61
10.2 -9.85 -1.74
13.96 -13.49 -1.7
27.06 -26.14 -1.97
27.04 -26.12 -0.66
4.72 -4.59 -1.76
27.02 -26.28 0.66
5.49 -5.34 -1.77
27.02 -26.28 1.98
6.47 -6.29 -1.76
27.04 -26.3 3.3
7.85 -7.63 -1.73
27.05 -26.3 4.63
10.17 -9.89 -1.74
13.93 -13.55 -1.7
27.1 -26.35 -1.98
27.07 -26.32 -0.66
4.71 -4.61 -1.77
27.06 -26.5 0.66
5.47 -5.35 -1.77
27.05 -26.49 1.98
6.45 -6.32 -1.76
27.06 -26.5 3.31
7.83 -7.67 -1.74
27.07 -26.51 4.65
10.15 -9.94 -1.74
13.96 -13.67 -1.71
27.15 -26.59 -1.99
4.7 -4.63 -1.77
27.1 -26.72 0.66
5.45 -5.37 -1.77
6.44 -6.35 -1.76
7.81 -7.7 -1.74
27.1 -26.73 4.67
10.13 -9.99 -1.75
13.98 -13.78 -1.72
27.17 -26.79 -2
29.43 -29.03 -0.72
4.69 -4.66 -1.77
27.11 -26.92 0.67
5.44 -5.4 -1.77
6.41 -6.37 -1.76
7.79 -7.73 -1.74
27.12 -26.93 4.69
10.08 -10.01 -1.74
13.95 -13.86 -1.72
27.22 -27.03 -2.01
29.4 -29.2 -0.72
4.67 -4.67 -1.77
27.13 -27.13 0.67
5.42 -5.42 -1.77
6.4 -6.4 -1.76
7.77 -7.77 -1.74
27.14 -27.14 4.71
10.06 -10.06 -1.75
13.92 -13.92 -1.72
27.26 -27.26 -2.02
27.5 -27.5 -0.68
4.65 -4.68 -1.77
27.15 -27.34 0.67
5.4 -5.44 -1.77
6.38 -6.42 -1.76
27.43 -27.62 3.41
7.74 -7.79 -1.74
27.17 -27.36 4.73
10.03 -10.1 -1.75
13.92 -14.02 -1.73
27.29 -27.48 -2.03
27.37 -27.56 -0.68
4.64 -4.71 -1.77
27.17 -27.56 0.68
5.38 -5.45 -1.77
27.27 -27.65 2.04
6.36 -6.45 -1.76
27.28 -27.66 3.4
7.71 -7.82 -1.74
27.19 -27.57 4.75
10 -10.14 -1.75
13.91 -14.11 -1.73
27.31 -27.69 -2.04
27.24 -27.62 -0.68
4.63 -4.73 -1.77
27.21 -27.78 0.68
5.37 -5.48 -1.77
27.2 -27.78 2.04
6.35 -6.48 -1.76
27.24 -27.82 3.41
7.69 -7.85 -1.74
27.22 -27.8 4.78
9.96 -10.17 -1.75
13.85 -14.15 -1.73
27.34 -27.92 -2.05
27.25 -27.83 -0.68
4.62 -4.75 -1.78
27.24 -28.01 0.68
5.36 -5.51 -1.77
27.22 -27.99 2.05
6.32 -6.5 -1.76
27.26 -28.03 3.42
7.66 -7.87 -1.74
27.24 -28.02 4.8
9.93 -10.21 -1.75
13.81 -14.21 -1.73
27.37 -28.14 -2.06
27.28 -28.05 -0.68
4.6 -4.76 -1.77
27.26 -28.23 0.69
5.34 -5.53 -1.77
27.26 -28.23 2.06
6.3 -6.53 -1.76
27.27 -28.24 3.43
7.64 -7.91 -1.74
27.28 -28.24 4.82
9.9 -10.26 -1.75
13.79 -14.28 -1.74
27.39 -28.36 -2.07
4.58 -4.78 -1.77
27.27 -28.44 0.69
5.32 -5.55 -1.77
6.29 -6.56 -1.77
7.61 -7.93 -1.74
27.31 -28.48 4.85
9.88 -10.3 -1.75
13.8 -14.39 -1.74
27.43 -28.6 -2.08
4.58 -4.81 -1.78
27.3 -28.67 0.69
5.3 -5.56 -1.77
6.27 -6.59 -1.77
7.59 -7.97 -1.74
27.33 -28.7 4.87
9.84 -10.33 -1.75
13.82 -14.51 -1.75
27.41 -28.79 -2.08
28.25 -29.67 -0.72
4.56 -4.82 -1.78
27.35 -28.91 0.69
5.28 -5.59 -1.78
6.25 -6.61 -1.77
7.57 -8.01 -1.75
27.36 -28.92 4.89
9.81 -10.37 -1.75
13.83 -14.62 -1.76
27.46 -29.03 -2.09
27.66 -29.24 -0.7
4.54 -4.84 -1.78
27.37 -29.13 0.7
5.27 -5.61 -1.78
6.23 -6.63 -1.77
27.59 -29.37 3.52
7.55 -8.04 -1.75
27.38 -29.15 4.91
9.78 -10.41 -1.75
13.84 -14.73 -1.77
27.5 -29.28 -2.11
27.52 -29.3 -0.7
4.53 -4.85 -1.78
27.39 -29.36 0.7
5.25 -5.63 -1.78
27.44 -29.42 2.11
6.22 -6.66 -1.77
27.44 -29.41 3.52
7.53 -8.07 -1.75
27.41 -29.38 4.93
9.75 -10.45 -1.76
13.85 -14.85 -1.78
27.53 -29.51 -2.12
27.45 -29.43 -0.7
4.52 -4.88 -1.78
27.41 -29.58 0.7
5.23 -5.65 -1.78
27.42 -29.6 2.11
6.2 -6.69 -1.77
27.45 -29.63 3.53
7.5 -8.1 -1.75
27.44 -29.62 4.96
9.73 -10.5 -1.76
13.86 -14.96 -1.78
27.55 -29.74 -2.12
27.49 -29.67 -0.71
4.5 -4.9 -1.78
27.44 -29.83 0.71
5.21 -5.67 -1.78
27.44 -29.84 2.12
6.18 -6.72 -1.77
27.47 -29.86 3.55
7.47 -8.13 -1.75
27.46 -29.86 4.98
9.69 -10.53 -1.76
13.88 -15.09 -1.79
27.58 -29.98 -2.13
27.54 -29.94 -0.71
4.5 -4.92 -1.79
27.47 -30.08 0.71
5.2 -5.69 -1.78
6.16 -6.74 -1.78
27.54 -30.15 3.57
7.45 -8.15 -1.75
16.35 -17.9 2.98
9.65 -10.56 -1.76
13.88 -15.2 -1.8
27.61 -30.23 -2.15
30.24 -33.1 -0.78
4.48 -4.94 -1.79
27.49 -30.31 0.71
5.18 -5.71 -1.78
6.14 -6.77 -1.78
27.54 -30.36 3.59
7.43 -8.19 -1.75
16.31 -17.98 2.98
9.62 -10.61 -1.76
13.91 -15.33 -1.81
27.64 -30.47 -2.16
29.99 -33.06 -0.78
