# .PCD v0.7 - Point Cloud Data file format
VERSION 0.7
FIELDS x y z
SIZE 4 4 4
TYPE F F F
COUNT 1 1 1
WIDTH 2947
HEIGHT 1
VIEWPOINT 0 0 0 1 0 0 0
POINTS 2947
DATA ascii
9.1 20.15 -0.39
2.9 6.36 -1.87
9.04 19.86 0.38
3.27 7.18 -1.82
8.96 19.69 1.13
4.3 9.45 -2.02
8.04 17.67 1.7
4.68 10.28 -1.79
7.84 17.22 2.32
5.89 12.93 -1.74
7.81 17.15 2.99
8.16 17.93 -1.72
7.85 17.25 -0.99
8.23 18.08 -0.35
2.92 6.34 -1.87
8.05 17.52 0.34
3.3 7.19 -1.83
7.93 17.25 1
4.33 9.42 -2.01
7.93 17.25 1.66
4.74 10.32 -1.8
7.97 17.35 2.34
5.93 12.91 -1.74
7.83 17.05 2.97
8.21 17.86 -1.72
8.8 19.14 4.09
9.06 19.71 -1.14
8.07 17.56 -0.34
2.94 6.33 -1.87
8.3 17.89 0.34
3.33 7.19 -1.83
8.01 17.26 1
4.38 9.45 -2.02
8.19 17.64 1.7
4.76 10.25 -1.79
9.17 19.77 2.68
5.98 12.89 -1.74
8.44 18.19 3.18
8.22 17.72 -1.71
9.96 21.46 -1.24
8.21 17.69 -0.34
2.96 6.33 -1.87
8.27 17.66 0.34
3.37 7.19 -1.83
8.14 17.37 1.01
4.44 9.48 -2.04
8.06 17.22 1.66
4.8 10.25 -1.79
8.12 17.34 2.35
6.02 12.85 -1.74
8.23 17.58 3.07
8.27 17.66 -1.71
9.3 19.86 4.26
8.23 17.58 -1.02
9.24 19.73 -0.38
2.98 6.31 -1.87
8.13 17.22 0.33
3.4 7.21 -1.84
9.09 19.25 1.12
4.47 9.47 -2.04
8.02 16.98 1.64
4.84 10.25 -1.8
8.41 17.81 2.42
6.05 12.82 -1.74
9.23 19.55 3.42
8.3 17.57 -1.7
9.36 19.83 4.26
8.41 17.82 -1.03
8.5 18.01 -0.35
3 6.29 -1.87
8.25 17.31 0.33
3.43 7.2 -1.84
8.16 17.11 0.99
4.5 9.44 -2.03
8.33 17.48 1.69
4.88 10.24 -1.8
8.25 17.3 2.35
6.1 12.8 -1.74
8.33 17.48 3.07
8.36 17.53 -1.7
9.44 19.8 4.26
8.3 17.41 -1.01
10.64 22.32 -0.43
3.02 6.28 -1.87
8.61 17.91 0.35
3.47 7.22 -1.85
9.32 19.38 1.13
4.5 9.37 -2.02
8.43 17.53 1.7
4.93 10.26 -1.8
8.28 17.22 2.35
6.14 12.78 -1.74
8.38 17.43 3.06
8.23 17.12 -1.66
9.71 20.19 -1.17
9.51 19.78 -0.38
3.04 6.27 -1.87
8.37 17.25 0.33
3.5 7.21 -1.85
9.39 19.34 1.13
4.54 9.35 -2.02
8.34 17.19 1.67
4.98 10.27 -1.81
9.5 19.57 2.67
6.19 12.75 -1.74
10.55 21.75 3.83
8.38 17.27 -1.68
8.26 17.02 -0.99
8.48 17.48 -0.34
3.06 6.26 -1.87
8.35 17.07 0.33
3.53 7.21 -1.85
8.71 17.8 1.04
4.58 9.35 -2.02
8.43 17.22 1.68
5.01 10.24 -1.81
8.86 18.09 2.47
6.22 12.71 -1.74
10.54 21.53 3.8
8.51 17.38 -1.69
8.53 17.43 -1.02
8.42 17.2 -0.33
10.58 21.63 6.45
3.08 6.25 -1.87
8.45 17.11 0.33
3.57 7.22 -1.86
23.27 47.11 2.75
4.62 9.35 -2.03
8.49 17.2 1.68
5.05 10.23 -1.81
9.09 18.41 2.52
6.27 12.69 -1.74
9.17 18.57 3.28
8.61 17.44 -1.7
8.72 17.65 -1.03
8.46 17.12 -0.33
3.1 6.23 -1.86
8.52 17.1 0.33
3.6 7.22 -1.86
8.57 17.2 1.01
4.68 9.39 -2.04
8.58 17.22 1.68
5.08 10.2 -1.81
8.54 17.14 2.35
6.31 12.66 -1.74
9.32 18.69 3.31
8.58 17.22 -1.68
8.9 17.87 -1.05
8.79 17.63 -0.34
3.12 6.21 -1.86
8.58 17.06 0.33
3.63 7.23 -1.87
8.48 16.87 0.99
4.73 9.41 -2.05
8.53 16.95 1.66
5.12 10.18 -1.8
8.67 17.25 2.37
6.35 12.63 -1.74
9.39 18.67 3.31
8.61 17.13 -1.68
9.89 19.66 4.28
9.06 18.02 -1.06
8.85 17.6 -0.34
10.8 21.48 6.44
3.14 6.2 -1.86
10.16 20.03 0.39
3.67 7.23 -1.87
8.62 17 1
4.74 9.35 -2.04
8.71 17.17 1.68
5.17 10.19 -1.81
9.33 18.4 2.53
6.39 12.61 -1.74
9.96 19.64 3.49
8.68 17.12 -1.68
8.97 17.7 -1.04
9.86 19.45 -0.38
10.4 20.51 6.16
3.17 6.19 -1.86
11.05 21.59 0.42
3.7 7.23 -1.88
8.91 17.41 1.03
4.81 9.39 -2.05
8.99 17.57 1.73
5.21 10.18 -1.81
8.8 17.2 2.37
6.43 12.56 -1.73
8.77 17.14 -1.68
10.09 19.73 4.31
8.76 17.12 -1.01
10.31 20.15 -0.4
10.45 20.43 6.15
3.19 6.17 -1.86
9.18 17.8 0.35
3.74 7.25 -1.88
8.78 17.02 1
4.85 9.41 -2.06
9.02 17.49 1.72
5.26 10.19 -1.82
9.7 18.81 2.6
6.47 12.53 -1.73
10.14 19.65 3.5
8.7 16.86 -1.66
10.09 19.55 4.28
8.78 17.01 -1
8.74 16.94 -0.33
3.2 6.15 -1.86
8.72 16.75 0.33
3.78 7.26 -1.89
8.73 16.78 0.99
4.87 9.37 -2.05
8.78 16.87 1.66
5.32 10.21 -1.82
9.87 18.97 2.63
6.5 12.5 -1.73
9.3 17.86 3.19
8.85 17.01 -1.68
9.35 17.97 3.94
9.18 17.65 -1.04
10.41 19.99 -0.39
3.22 6.14 -1.86
8.85 16.86 0.33
3.81 7.27 -1.89
10.18 19.4 1.15
4.92 9.38 -2.06
8.95 17.06 1.69
5.34 10.18 -1.82
9.12 17.38 2.41
6.55 12.48 -1.73
9.36 17.83 3.19
8.83 16.83 -1.66
9.48 18.07 3.97
9.02 17.18 -1.02
9.1 17.35 -0.34
3.24 6.13 -1.86
10.24 19.34 0.38
3.85 7.27 -1.9
9.22 17.43 1.03
4.94 9.34 -2.05
10.18 19.23 1.9
5.41 10.23 -1.83
10.38 19.62 2.73
6.58 12.44 -1.73
9.44 17.83 3.19
8.91 16.83 -1.67
10.33 19.51 4.29
9.13 17.25 -1.02
9.13 17.26 -0.34
11.26 21.28 6.45
3.26 6.11 -1.86
8.98 16.84 0.33
3.88 7.27 -1.9
8.94 16.77 1
4.97 9.32 -2.05
9.06 16.99 1.68
5.46 10.23 -1.84
10.62 19.91 2.77
6.61 12.4 -1.73
9.43 17.68 3.17
8.95 16.78 -1.66
9.33 17.49 3.85
9.9 18.56 -1.1
10.52 19.71 -0.39
10.88 20.39 6.19
3.28 6.1 -1.86
9.11 16.92 0.34
3.91 7.26 -1.9
9.06 16.83 1
5 9.29 -2.05
9.14 16.99 1.69
5.5 10.23 -1.84
9.74 18.1 2.52
6.66 12.38 -1.73
9.49 17.63 3.17
8.99 16.71 -1.66
9.66 17.95 3.96
9.38 17.42 -1.04
9 16.73 -0.33
3.3 6.08 -1.85
9.26 17.06 0.34
3.92 7.22 -1.9
9.13 16.83 1
5.03 9.26 -2.05
9.12 16.8 1.67
5.54 10.21 -1.84
11.01 20.28 2.83
6.71 12.36 -1.73
9.6 17.7 3.19
9.01 16.6 -1.65
10.19 18.77 -1.12
10.12 18.65 -0.37
3.31 6.05 -1.85
10.01 18.29 0.36
3.95 7.21 -1.9
9.2 16.81 1
5.07 9.26 -2.05
9.15 16.72 1.67
5.59 10.21 -1.84
9.44 17.24 2.41
6.75 12.32 -1.72
9.99 18.25 3.3
9.04 16.51 -1.65
12.35 22.57 5
10.19 18.62 -1.11
14.2 25.94 6.83
9.97 18.21 -0.36
13.23 24.17 7.38
3.34 6.05 -1.85
9.45 17.13 0.34
3.96 7.18 -1.89
10.48 19 1.14
5.12 9.28 -2.06
9.79 17.74 1.77
5.65 10.24 -1.85
9.51 17.23 2.42
6.79 12.3 -1.72
9.78 17.73 3.21
9.06 16.42 -1.64
10.7 19.38 -1.16
10.69 19.37 -0.39
3.36 6.03 -1.85
9.54 17.13 0.34
3.99 7.17 -1.89
9.6 17.25 1.03
5.16 9.27 -2.06
10.51 18.88 1.89
5.68 10.21 -1.85
9.86 17.72 2.49
6.82 12.25 -1.72
9.86 17.73 3.21
9.03 16.23 -1.63
10.19 18.31 -1.1
10.58 19.01 -0.38
11.17 20.08 6.16
3.38 6.02 -1.85
9.98 17.79 0.36
4.01 7.14 -1.89
9.47 16.88 1.01
5.2 9.26 -2.06
9.35 16.66 1.67
5.73 10.2 -1.85
9.84 17.53 2.47
6.87 12.24 -1.72
10.09 17.98 3.27
9.08 16.19 -1.62
12.32 21.96 4.9
10.17 18.12 -1.09
14.61 26.04 6.89
10.07 17.94 -0.36
11.25 20.05 6.16
3.39 5.99 -1.84
9.49 16.78 0.34
4.04 7.13 -1.89
9.64 17.04 1.03
5.22 9.22 -2.06
9.54 16.85 1.69
5.77 10.2 -1.86
11.27 19.92 2.81
6.91 12.21 -1.72
10.75 18.99 3.46
9.25 16.35 -1.64
10.92 19.3 -1.16
10.86 19.2 -0.39
10.86 19.19 5.91
3.41 5.98 -1.84
10.74 18.84 0.38
4.06 7.12 -1.89
9.54 16.73 1.01
5.26 9.22 -2.06
9.48 16.62 1.67
5.8 10.18 -1.86
9.73 17.06 2.41
6.95 12.18 -1.72
10.26 17.99 3.28
9.22 16.17 -1.63
9.71 17.02 -1.03
9.99 17.52 -0.35
11.38 19.95 6.15
3.43 5.97 -1.85
9.58 16.66 0.34
4.06 7.06 -1.88
9.7 16.87 1.02
5.31 9.23 -2.07
9.45 16.43 1.66
5.86 10.19 -1.86
9.77 16.98 2.41
6.99 12.15 -1.72
10.71 18.63 3.4
9.3 16.17 -1.63
10.01 17.41 -1.05
10.69 18.59 -0.37
11.97 20.82 6.43
3.45 5.96 -1.85
9.8 16.91 0.34
4.08 7.04 -1.88
10.88 18.78 1.14
5.35 9.23 -2.07
9.59 16.56 1.67
5.91 10.2 -1.87
9.91 17.1 2.43
7.02 12.12 -1.72
10.33 17.82 3.26
9.34 16.13 -1.63
9.92 17.12 -1.04
14.72 25.4 6.78
10.66 18.4 -0.37
3.47 5.94 -1.84
9.67 16.56 0.33
4.11 7.04 -1.88
9.52 16.3 0.99
5.36 9.17 -2.06
9.75 16.7 1.69
5.96 10.21 -1.87
10.12 17.33 2.46
7.06 12.09 -1.72
10.46 17.9 3.28
9.41 16.11 -1.63
12.74 21.8 4.91
9.98 17.08 -1.04
9.96 17.06 -0.34
14.84 25.41 7.89
3.48 5.92 -1.84
9.61 16.31 0.33
4.14 7.03 -1.88
9.71 16.49 1
5.38 9.14 -2.06
9.75 16.56 1.68
6 10.18 -1.87
11.22 19.05 2.71
7.1 12.06 -1.72
10.42 17.69 3.25
9.44 16.03 -1.63
10.09 17.14 -1.04
9.76 16.57 -0.34
11.82 20.07 6.24
3.51 5.91 -1.84
9.81 16.52 0.34
4.15 6.99 -1.88
10.01 16.86 1.03
5.41 9.11 -2.06
11.05 18.61 1.89
6.04 10.17 -1.87
10.76 18.12 2.59
7.15 12.04 -1.72
10.95 18.44 3.4
9.48 15.96 -1.62
10.01 16.86 -1.03
9.8 16.51 -0.34
11.77 19.83 6.18
3.53 5.9 -1.84
9.87 16.48 0.34
4.15 6.94 -1.87
9.95 16.62 1.02
5.42 9.05 -2.05
10.05 16.79 1.71
6.07 10.14 -1.87
10.34 17.27 2.47
7.18 12 -1.72
11.11 18.56 3.43
9.53 15.93 -1.62
12.9 21.56 4.88
9.87 16.5 -1.01
10.05 16.79 -0.34
3.55 5.88 -1.84
10.09 16.73 0.34
4.17 6.91 -1.86
10.17 16.86 1.03
5.51 9.14 -2.07
9.96 16.52 1.69
6.12 10.15 -1.88
10.27 17.03 2.44
7.22 11.97 -1.72
10.75 17.81 3.29
9.56 15.84 -1.62
10.94 18.13 4.12
11.17 18.52 -1.13
9.89 16.39 -0.33
3.56 5.86 -1.84
11.27 18.54 0.38
4.19 6.9 -1.86
10.34 17.01 1.04
5.56 9.14 -2.08
10.02 16.47 1.69
6.17 10.14 -1.88
10.33 16.99 2.44
7.26 11.94 -1.72
10.77 17.72 3.28
9.59 15.78 -1.62
10.17 16.73 -1.03
10.27 16.89 -0.35
11.57 19.03 5.97
3.58 5.84 -1.84
10.09 16.47 0.34
4.21 6.88 -1.86
10.65 17.37 1.07
4.76 7.77 -1.77
9.92 16.19 1.66
6.19 10.11 -1.88
10.34 16.87 2.43
7.29 11.9 -1.71
10.65 17.38 3.23
9.57 15.61 -1.6
11.16 18.21 4.15
11.38 18.57 -1.14
10.34 16.87 -0.35
11.48 18.73 5.89
3.6 5.82 -1.83
10.24 16.58 0.34
4.24 6.86 -1.86
10.14 16.43 1.01
4.76 7.71 -1.76
10.43 16.89 1.74
6.2 10.04 -1.87
10.29 16.67 2.41
7.34 11.89 -1.72
11.82 19.13 3.56
9.65 15.62 -1.61
11.43 18.51 -1.14
10.53 17.05 -0.35
11.57 18.73 5.9
3.61 5.81 -1.83
10.27 16.5 0.34
4.25 6.83 -1.86
10.47 16.82 1.04
4.78 7.69 -1.76
10.26 16.48 1.7
6.24 10.02 -1.87
10.34 16.61 2.4
7.38 11.85 -1.71
11.2 17.99 3.36
9.64 15.49 -1.6
10.36 16.65 -1.03
12.31 19.78 5.38
11.61 18.65 -0.38
3.64 5.8 -1.83
10.2 16.26 0.34
4.28 6.82 -1.86
13.41 21.37 1.32
4.8 7.66 -1.76
10.44 16.64 1.72
6.29 10.03 -1.87
11.26 17.95 2.6
7.41 11.81 -1.71
10.82 17.24 3.22
9.71 15.48 -1.6
12.09 19.27 4.42
10.62 16.92 -1.05
12.38 19.74 5.38
10.42 16.6 -0.34
11.56 18.43 5.83
3.65 5.78 -1.83
10.52 16.64 0.34
4.3 6.8 -1.86
10.2 16.14 1
4.82 7.63 -1.76
10.48 16.58 1.72
6.34 10.02 -1.88
10.88 17.22 2.5
7.45 11.78 -1.71
12.36 19.55 3.66
9.77 15.45 -1.6
11.4 18.04 4.15
10.63 16.81 -1.04
10.63 16.81 -0.35
12 18.98 6.02
3.67 5.75 -1.83
14.5 22.76 0.47
4.32 6.78 -1.86
10.53 16.52 1.03
4.86 7.64 -1.76
10.77 16.91 1.75
6.42 10.08 -1.89
10.64 16.7 2.43
7.49 11.75 -1.71
12.42 19.5 3.66
9.8 15.38 -1.6
11.51 18.07 -1.12
15.18 23.82 6.52
11.56 18.14 -0.38
12.1 19 6.04
3.69 5.75 -1.83
10.46 16.29 0.34
4.34 6.77 -1.86
10.27 16 1
4.93 7.67 -1.77
11.81 18.4 1.91
6.45 10.05 -1.89
7.53 11.72 -1.71
12.47 19.42 3.65
9.84 15.33 -1.59
10.95 17.06 -1.06
15.45 24.06 6.6
10.7 16.66 -0.35
12.2 19 6.05
3.71 5.73 -1.83
10.75 16.61 0.35
4.36 6.73 -1.85
11.62 17.96 1.12
4.96 7.66 -1.77
10.86 16.78 1.75
6.49 10.03 -1.89
13.29 20.54 3
7.56 11.69 -1.71
12.49 19.3 3.64
9.88 15.28 -1.59
10.8 16.69 -1.04
12.53 19.38 5.33
10.65 16.46 -0.34
12.26 18.95 6.05
3.73 5.72 -1.83
10.72 16.45 0.34
4.38 6.72 -1.85
10.93 16.77 1.05
4.97 7.62 -1.77
11.19 17.16 1.79
6.54 10.04 -1.9
10.84 16.63 2.44
7.59 11.64 -1.71
12.44 19.08 3.61
9.91 15.2 -1.59
13.33 20.44 4.74
11.14 17.09 -1.07
12.59 19.32 5.32
10.69 16.4 -0.34
12.29 18.85 6.03
3.75 5.7 -1.83
11.21 17.07 0.36
4.4 6.7 -1.85
10.85 16.52 1.04
4.99 7.59 -1.77
10.69 16.28 1.7
6.59 10.03 -1.9
11.51 17.52 2.57
7.62 11.6 -1.7
12.23 18.61 3.53
9.96 15.16 -1.59
13.29 20.23 4.7
11.55 17.58 -1.1
15.74 23.97 6.62
10.85 16.52 -0.34
12.31 18.74 6.01
3.76 5.68 -1.83
10.98 16.59 0.35
4.42 6.68 -1.85
10.58 15.98 1
5.01 7.57 -1.76
11.27 17.02 1.79
6.62 10.01 -1.9
10.98 16.59 2.44
7.66 11.57 -1.7
12.27 18.54 3.52
9.99 15.1 -1.58
15.63 23.61 5.5
11.28 17.05 -1.07
7.14 10.79 2.99
11 16.63 -0.35
12.58 19 6.11
3.78 5.67 -1.83
12.27 18.39 0.39
4.44 6.66 -1.85
10.98 16.46 1.04
5.04 7.55 -1.76
10.99 16.47 1.73
6.66 9.98 -1.9
7.27 10.9 1.61
7.69 11.53 -1.7
7.03 10.53 2.01
10.06 15.07 -1.59
12.32 18.46 4.31
11.78 17.66 -1.11
6.99 10.48 2.91
11.33 16.98 -0.36
12.28 18.41 5.93
3.8 5.65 -1.82
11.47 17.07 0.36
4.46 6.64 -1.85
10.73 15.96 1.01
5.07 7.54 -1.77
11.74 17.47 1.84
6.71 9.98 -1.9
11.18 16.63 2.46
7.73 11.5 -1.7
15.78 23.47 4.48
10.13 15.07 -1.59
11.1 16.51 -1.04
7.32 10.89 3.03
11.36 16.9 -0.36
15.93 23.69 7.65
3.82 5.64 -1.83
11.24 16.6 0.35
4.48 6.61 -1.84
11.35 16.76 1.06
5.11 7.55 -1.77
6.78 10.02 -1.92
7.32 10.81 1.6
7.76 11.47 -1.7
14.75 21.78 4.17
10.19 15.05 -1.59
13.02 19.24 4.52
11.23 16.59 -1.05
12.57 18.56 5.18
11.5 16.98 -0.36
3.84 5.62 -1.82
11.21 16.43 0.35
4.5 6.6 -1.84
11.6 17 1.08
5.15 7.54 -1.78
15.19 22.27 2.36
6.81 9.99 -1.92
11.58 16.97 2.52
7.8 11.43 -1.7
11.87 17.41 3.34
10.27 15.06 -1.59
13.1 19.2 4.52
11.29 16.55 -1.05
11.64 17.06 -0.36
12.3 18.03 5.85
3.85 5.6 -1.82
12.61 18.34 0.39
4.52 6.58 -1.84
11.79 17.15 1.09
5.19 7.55 -1.78
11.93 17.36 1.84
6.86 9.98 -1.92
7.18 10.45 1.56
7.84 11.4 -1.7
10.33 15.03 -1.6
11.91 17.33 -1.1
13.15 19.14 5.36
11.02 16.04 -0.34
3.87 5.58 -1.82
16.08 23.23 0.49
4.54 6.56 -1.84
11.56 16.69 1.06
5.24 7.56 -1.79
11.96 17.27 1.84
6.89 9.95 -1.92
11.57 16.7 2.49
7.87 11.37 -1.7
11.9 17.18 3.31
10.39 15.01 -1.6
13.23 19.11 4.52
11.55 16.69 -1.06
7.25 10.47 2.94
11.35 16.39 -0.35
12.63 18.24 5.94
3.88 5.57 -1.82
11.59 16.61 0.35
4.55 6.53 -1.84
11.52 16.51 1.06
5.28 7.56 -1.79
11.4 16.35 1.74
6.92 9.93 -1.92
11.71 16.78 2.51
7.9 11.33 -1.7
16.83 24.13 4.66
10.46 14.99 -1.6
7.26 10.41 2.47
11.7 16.77 -1.07
7.29 10.45 2.94
11.55 16.56 -0.35
13.23 18.96 6.19
3.9 5.55 -1.82
11.49 16.36 0.35
4.58 6.51 -1.84
11.56 16.45 1.05
5.32 7.57 -1.8
11.94 16.99 1.82
6.95 9.89 -1.91
7.36 10.47 1.57
7.87 11.2 -1.68
12.09 17.2 3.33
10.53 14.98 -1.6
7.36 10.48 2.49
11.58 16.47 -1.06
13.33 18.96 5.35
11.85 16.86 -0.36
7.24 10.31 3.38
3.92 5.53 -1.82
12.02 16.97 0.36
4.6 6.49 -1.84
11.79 16.66 1.07
5.36 7.57 -1.8
6.98 9.86 -1.91
12.25 17.3 2.6
7.97 11.25 -1.69
12.2 17.23 3.34
10.58 14.94 -1.6
7.51 10.6 2.53
12.18 17.2 -1.1
13.35 18.85 5.33
11.67 16.48 -0.35
6.83 9.65 3.17
3.93 5.51 -1.81
11.97 16.78 0.36
4.62 6.47 -1.84
12.54 17.57 1.13
5.41 7.59 -1.81
12.09 16.96 1.82
7.04 9.87 -1.92
12.22 17.13 2.58
8.01 11.23 -1.69
13.43 18.83 3.66
10.66 14.95 -1.61
13.41 18.8 4.49
12.31 17.26 -1.11
13.44 18.84 5.34
12.2 17.11 -0.37
6.8 9.53 3.14
3.95 5.5 -1.81
12.23 17.02 0.37
4.63 6.45 -1.83
12.42 17.28 1.12
5.46 7.6 -1.82
7.14 9.93 1.07
7.08 9.85 -1.92
13.51 18.8 2.84
8.04 11.19 -1.69
13.47 18.74 3.65
10.71 14.91 -1.61
13.47 18.75 4.49
12.88 17.92 -1.16
12.88 17.93 5.1
12.14 16.89 -0.36
7.2 10.03 3.31
3.97 5.48 -1.81
11.79 16.28 0.35
4.65 6.42 -1.83
12.46 17.21 1.11
5.51 7.6 -1.82
12.27 16.95 1.83
7.11 9.83 -1.92
12.27 16.95 2.57
8.03 11.09 -1.68
13.55 18.71 3.66
10.79 14.91 -1.61
13.56 18.74 4.5
12.59 17.39 -1.13
15.06 20.8 5.93
12.58 17.38 -0.37
7.23 9.98 3.3
3.99 5.46 -1.81
12.27 16.82 0.36
4.67 6.4 -1.83
12.29 16.85 1.09
5.55 7.61 -1.83
12.53 17.18 1.86
7.11 9.75 -1.91
12.28 16.83 2.56
7.98 10.94 -1.66
13.73 18.82 3.69
10.87 14.91 -1.61
12.47 17.1 -1.11
15.76 21.61 6.18
12.24 16.79 -0.36
13.05 17.89 5.93
4 5.45 -1.81
12.41 16.89 0.37
4.69 6.38 -1.83
13.65 18.57 1.21
5.59 7.6 -1.83
7.81 10.63 1.15
7.1 9.66 -1.9
7.17 9.75 1.49
8.02 10.91 -1.66
13.43 18.27 3.59
10.96 14.91 -1.62
14.91 20.28 4.89
12.47 16.98 -1.1
13.65 18.58 5.32
12.44 16.92 -0.37
7.23 9.83 3.27
4.02 5.43 -1.81
12.59 17.02 0.37
4.71 6.37 -1.83
13.7 18.51 1.21
5.64 7.62 -1.84
12.42 16.79 1.83
7.12 9.63 -1.9
7.74 10.46 1.6
8.08 10.92 -1.67
13.3 17.97 3.54
11.03 14.9 -1.62
12.8 17.3 4.18
12.39 16.74 -1.09
13.3 17.98 5.16
12.39 16.74 -0.36
13.47 18.2 6.07
4.03 5.41 -1.81
12.23 16.41 0.36
4.73 6.35 -1.83
12.43 16.67 1.09
5.69 7.63 -1.85
7.8 10.46 1.14
7.18 9.64 -1.9
7.13 9.56 1.46
8.18 10.97 -1.68
21.85 29.31 5.79
11.01 14.77 -1.61
13.2 17.7 -1.16
17.33 23.26 6.7
12.33 16.55 -0.36
13.63 18.28 6.11
4.06 5.4 -1.81
12.71 16.92 0.37
4.74 6.32 -1.82
12.4 16.52 1.08
5.74 7.64 -1.86
12.95 17.25 1.89
7.2 9.59 -1.9
13.19 17.57 2.7
8.23 10.96 -1.68
14.01 18.66 3.7
11.12 14.81 -1.62
13.12 17.47 -1.14
12.92 17.2 4.97
12.5 16.64 -0.36
7.21 9.6 3.22
4.07 5.39 -1.81
12.44 16.44 0.36
4.77 6.3 -1.82
12.48 16.51 1.08
5.78 7.64 -1.86
7.92 10.47 1.15
7.2 9.52 -1.89
13.37 17.67 2.72
8.25 10.9 -1.68
13.61 17.99 3.57
11.12 14.71 -1.61
14.77 19.52 4.76
12.43 16.43 -1.08
12.94 17.11 4.95
12.7 16.79 -0.37
13.8 18.25 6.13
4.09 5.37 -1.81
12.8 16.8 0.37
4.78 6.28 -1.82
7.87 10.33 0.68
5.82 7.64 -1.87
12.9 16.93 1.86
7.28 9.56 -1.9
12.87 16.89 2.61
8.26 10.84 -1.67
13.74 18.03 3.59
11.23 14.73 -1.62
14.51 19.04 4.65
13.22 17.34 -1.14
7.65 10.04 2.91
12.78 16.76 -0.37
4.1 5.34 -1.8
12.8 16.67 0.37
4.81 6.27 -1.82
12.46 16.23 1.07
5.88 7.66 -1.88
7.86 10.24 1.13
7.29 9.5 -1.9
12.93 16.84 2.61
8.33 10.85 -1.68
13.9 18.1 3.61
11.29 14.71 -1.62
13.16 17.14 -1.13
7.69 10.01 2.91
12.82 16.71 -0.37
13.79 17.97 6.07
4.12 5.33 -1.81
13.11 16.96 0.37
4.82 6.24 -1.82
13.15 17.02 1.13
5.93 7.67 -1.88
13.21 17.09 1.89
7.28 9.42 -1.89
12.9 16.69 2.59
8.33 10.78 -1.67
13.29 17.2 3.44
11.33 14.66 -1.62
13.77 17.81 4.38
13.15 17.02 -1.13
13.03 16.85 -0.37
7.37 9.54 3.23
4.14 5.32 -1.81
12.95 16.64 0.37
4.84 6.21 -1.82
7.68 9.87 0.66
5.96 7.65 -1.88
7.79 10 1.11
7.33 9.41 -1.89
13.09 16.81 2.62
8.41 10.8 -1.68
7.96 10.22 2.05
11.48 14.75 -1.64
13.72 17.62 4.34
13.15 16.89 -1.12
7.52 9.66 2.83
12.83 16.48 -0.36
8.13 10.44 3.54
4.16 5.3 -1.81
13.3 16.94 0.38
4.86 6.19 -1.82
7.74 9.86 0.66
5.97 7.61 -1.88
7.83 9.98 1.11
7.29 9.29 -1.87
13.2 16.82 2.62
8.46 10.78 -1.68
7.97 10.16 2.05
11.52 14.68 -1.63
22.25 28.36 7.01
13.18 16.79 -1.12
13.79 17.58 -0.39
8.13 10.36 3.53
4.17 5.28 -1.8
12.97 16.41 0.37
4.88 6.18 -1.82
7.78 9.85 0.66
5.96 7.55 -1.87
7.87 9.96 1.11
7.35 9.3 -1.88
12.95 16.39 2.57
8.46 10.71 -1.68
8 10.12 2.04
11.6 14.68 -1.64
7.87 9.95 2.47
14.1 17.84 -1.19
13.31 16.84 4.96
13.32 16.86 -0.38
7.49 9.48 3.24
4.18 5.25 -1.8
13.82 17.37 0.39
4.9 6.16 -1.82
7.82 9.83 0.66
5.97 7.51 -1.86
7.93 9.96 1.11
7.43 9.34 -1.89
12.92 16.25 2.55
8.47 10.65 -1.67
8.05 10.12 2.05
11.65 14.64 -1.64
8.43 10.6 2.63
14.96 18.8 -1.26
14.26 17.93 5.29
13.37 16.81 -0.37
8.19 10.3 3.53
4.2 5.24 -1.8
13.76 17.18 0.38
4.91 6.13 -1.81
14.07 17.56 1.18
6 7.49 -1.87
13.92 17.37 1.95
7.44 9.29 -1.88
7.79 9.73 1.53
8.51 10.62 -1.67
14.81 18.49 3.75
11.69 14.59 -1.64
7.74 9.67 2.41
14.74 18.4 -1.24
14.3 17.85 5.28
13.67 17.06 -0.38
8.27 10.32 3.54
4.22 5.23 -1.8
13.2 16.35 0.37
4.94 6.11 -1.81
13.55 16.79 1.13
6.01 7.45 -1.86
13.7 16.97 1.91
7.37 9.12 -1.86
8.26 10.24 1.62
8.58 10.62 -1.68
8.18 10.13 2.06
11.71 14.5 -1.63
7.8 9.66 2.41
13.62 16.87 -1.14
14.34 17.76 5.27
13.64 16.89 -0.38
4.24 5.22 -1.8
13.79 16.96 0.38
4.95 6.09 -1.81
14.37 17.66 1.19
6.01 7.39 -1.85
7.33 9.01 -1.84
8.36 10.28 1.63
8.64 10.63 -1.68
14.01 17.22 3.52
11.81 14.52 -1.64
8.2 10.08 2.53
14.4 17.7 -1.2
14.39 17.7 5.27
14.76 18.15 -0.41
7.77 9.55 3.3
4.26 5.2 -1.8
4.97 6.07 -1.81
6.01 7.33 -1.84
14.48 17.68 2
7.37 8.99 -1.84
8.37 10.21 1.62
8.62 10.52 -1.67
14.05 17.15 3.51
11.85 14.47 -1.64
7.94 9.69 2.44
15.55 18.99 -1.29
7.83 9.56 2.85
13.93 17.01 -0.38
4.27 5.18 -1.8
13.92 16.87 0.38
4.99 6.05 -1.81
8.01 9.71 0.66
6.03 7.3 -1.84
7.36 8.92 -1.83
8.38 10.16 1.62
8.67 10.5 -1.67
14.08 17.07 3.51
11.82 14.33 -1.62
7.91 9.59 2.42
15.75 19.09 -1.3
8.43 10.22 3.06
14.23 17.26 -0.39
15.74 19.08 6.63
4.29 5.16 -1.8
14.54 17.51 0.4
5.01 6.03 -1.81
8.32 10.01 0.68
6.03 7.26 -1.83
14.4 17.34 1.97
7.34 8.83 -1.82
8.31 10 1.6
8.71 10.48 -1.67
7.95 9.57 1.97
11.83 14.24 -1.62
8.25 9.93 2.51
14.77 17.77 -1.21
8.47 10.19 3.06
14.18 17.07 -0.39
4.3 5.14 -1.8
14.52 17.35 0.39
5.02 6 -1.81
8.39 10.03 0.69
6.05 7.23 -1.83
14.33 17.12 1.95
7.12 8.51 -1.76
8.29 9.91 1.59
8.73 10.44 -1.67
8.03 9.6 1.98
11.85 14.16 -1.62
14.85 17.75 4.5
14.91 17.82 -1.22
22.29 26.63 8.02
4.33 5.13 -1.8
14.39 17.08 0.39
5.04 5.98 -1.81
8.34 9.9 0.68
6.07 7.21 -1.83
14.19 16.84 1.93
7.2 8.55 -1.77
8.28 9.82 1.58
8.74 10.37 -1.67
23.33 27.68 5.73
11.91 14.13 -1.62
15.39 18.27 4.64
15.08 17.9 -1.23
15.04 17.85 5.39
14.54 17.25 -0.39
16.07 19.08 6.68
4.34 5.12 -1.8
14.71 17.33 0.4
5.06 5.96 -1.8
8.41 9.9 0.68
6.09 7.17 -1.83
7.13 8.41 -1.75
8.28 9.76 1.57
8.78 10.34 -1.67
8.27 9.75 2.03
11.98 14.12 -1.62
14.13 16.65 4.24
15.2 17.91 -1.23
8.32 9.8 2.97
16.4 19.32 -0.44
8.31 9.79 3.44
4.35 5.09 -1.79
8.34 9.76 0.22
5.08 5.95 -1.81
8.27 9.67 0.67
6.11 7.15 -1.83
8.33 9.74 1.12
7.17 8.39 -1.75
8.12 9.49 1.53
8.83 10.33 -1.67
7.56 8.85 1.84
8.32 9.73 -1.12
8.32 9.73 2.49
8.34 9.76 -0.67
8.31 9.72 2.95
8.34 9.76 -0.22
8.36 9.78 3.45
4.36 5.07 -1.79
8.36 9.71 0.22
5.1 5.92 -1.8
8.34 9.69 0.67
6.13 7.12 -1.83
8.36 9.72 1.12
7.19 8.36 -1.75
7.86 9.13 1.48
8.34 9.69 -1.57
8.36 9.71 2.03
8.33 9.68 -1.12
8.35 9.7 2.49
8.36 9.71 -0.67
8.83 10.26 3.12
8.37 9.73 -0.22
8.73 10.14 3.59
4.38 5.06 -1.79
8.42 9.72 0.22
5.11 5.9 -1.8
6.15 7.1 -1.83
8.54 9.85 1.14
7.2 8.31 -1.74
23.62 27.27 4.43
8.36 9.65 -1.57
8.52 9.84 2.06
8.36 9.66 -1.12
8.39 9.68 -0.67
8.42 9.72 -0.22
8.65 9.98 3.54
4.41 5.05 -1.8
23.96 27.47 0.64
5.12 5.87 -1.8
8.35 9.57 0.67
6.17 7.08 -1.83
23.79 27.27 3.17
7.24 8.3 -1.74
8.02 9.19 1.5
8.38 9.61 -1.57
8.65 9.91 2.08
7.47 8.56 2.21
7.39 8.47 2.6
8.68 9.95 3.54
4.42 5.03 -1.79
24.26 27.6 0.64
5.15 5.86 -1.8
8.34 9.49 0.66
6.19 7.04 -1.82
8.48 9.65 1.12
7.22 8.21 -1.73
8.54 9.71 1.59
7.7 8.76 1.85
12.25 13.93 -1.62
8.35 9.5 2.46
21.21 24.13 -1.68
7.42 8.44 2.6
24.22 27.55 -0.64
16.34 18.59 6.63
4.43 5 -1.79
24.29 27.44 0.64
5.17 5.83 -1.8
15.22 17.19 1.2
6.21 7.01 -1.82
9.33 10.54 1.23
7.23 8.17 -1.73
8.57 9.68 1.59
9.11 10.29 -1.69
7.76 8.76 1.85
12.29 13.88 -1.62
18.54 20.94 -1.47
7.45 8.41 2.59
16.54 18.68 6.68
4.44 4.98 -1.79
24.38 27.34 0.64
5.18 5.81 -1.8
8.54 9.58 0.67
6.23 6.99 -1.82
7.25 8.13 -1.73
8.44 9.46 1.56
9.13 10.24 -1.68
12.34 13.84 -1.62
20.98 23.53 -1.65
8.75 9.81 3.04
8.66 9.72 3.49
4.46 4.97 -1.79
30.22 33.66 0.79
5.19 5.78 -1.79
8.58 9.55 0.67
6.26 6.97 -1.82
7.27 8.1 -1.72
8.36 9.32 1.54
9.2 10.24 -1.69
8.52 9.49 2.02
12.38 13.79 -1.62
20.82 23.19 -1.63
8.16 9.08 3.27
4.48 4.96 -1.79
30.38 33.6 0.79
5.21 5.76 -1.79
8.57 9.48 0.67
6.28 6.94 -1.82
7.31 8.09 -1.73
8.1 8.96 1.48
9.21 10.18 -1.69
8.33 9.21 1.97
12.42 13.74 -1.62
8.72 9.65 2.53
21.12 23.36 -1.65
8.15 9.01 3.26
4.5 4.94 -1.79
30.59 33.6 0.79
5.23 5.74 -1.79
8.6 9.45 0.67
6.29 6.91 -1.82
9.51 10.44 1.24
7.34 8.07 -1.73
23.83 26.17 4.35
9.24 10.15 -1.68
8.32 9.14 1.96
12.46 13.68 -1.62
21 23.06 -1.63
8.65 9.5 2.97
4.51 4.91 -1.79
30.78 33.57 0.79
5.24 5.72 -1.79
6.31 6.88 -1.81
8.57 9.35 1.11
7.36 8.03 -1.73
8.36 9.12 1.52
9.29 10.13 -1.69
22.4 24.42 5.25
12.49 13.62 -1.62
9.04 9.85 2.6
8.3 9.05 3.29
4.52 4.89 -1.78
31 33.58 0.8
5.27 5.71 -1.79
6.33 6.86 -1.81
8.52 9.23 1.1
7.38 7.99 -1.72
8.38 9.08 1.52
9.35 10.12 -1.69
12.53 13.57 -1.62
21.25 23.02 -1.64
8.71 9.43 2.96
8.37 9.07 3.31
4.53 4.88 -1.78
5.27 5.67 -1.79
6.35 6.83 -1.81
8.58 9.22 1.1
7.42 7.98 -1.73
8.42 9.06 1.52
9.37 10.07 -1.69
12.56 13.5 -1.61
21.31 22.92 -1.64
8.6 9.25 2.92
4.55 4.86 -1.78
39.88 42.59 1.02
5.3 5.66 -1.79
6.37 6.8 -1.81
7.5 8 -1.74
9.4 10.04 -1.69
8.63 9.21 2
12.61 13.46 -1.61
21.43 22.89 -1.64
8.44 9.01 2.85
8.46 9.03 3.32
4.56 4.84 -1.78
40.18 42.6 1.02
5.32 5.64 -1.79
23.79 25.23 1.82
6.38 6.77 -1.81
25.78 27.34 3.29
7.56 8.01 -1.74
9 9.54 1.61
9.45 10.02 -1.69
8.67 9.19 2
12.63 13.39 -1.61
8.31 8.81 2.35
21.41 22.7 -1.64
8.37 8.87 2.82
8.38 8.89 3.27
4.57 4.82 -1.78
40.47 42.62 1.03
5.34 5.62 -1.79
6.4 6.74 -1.81
8.81 9.27 1.12
7.61 8.02 -1.75
8.53 8.98 1.52
9.49 9.99 -1.69
12.65 13.32 -1.61
8.08 8.5 2.28
21.53 22.68 -1.64
8.36 8.81 2.8
4.59 4.8 -1.78
5.34 5.59 -1.79
24.25 25.37 1.84
6.42 6.71 -1.81
8.86 9.27 1.12
7.66 8.01 -1.76
8.52 8.92 1.51
9.49 9.93 -1.69
8.7 9.1 1.99
12.7 13.28 -1.61
8.02 8.39 2.26
21.65 22.65 -1.64
8.94 9.35 2.99
4.61 4.79 -1.78
20.58 21.37 0.52
5.35 5.56 -1.78
24.31 25.25 1.84
6.43 6.68 -1.8
8.22 8.54 1.04
7.73 8.03 -1.77
9.17 9.53 1.62
9.5 9.86 -1.68
8.75 9.09 2
12.73 13.22 -1.61
21.24 22.07 -1.61
9.03 9.38 3.01
4.62 4.77 -1.78
20.92 21.58 0.52
5.37 5.54 -1.78
6.45 6.66 -1.8
8.3 8.56 1.04
7.8 8.05 -1.78
27.16 28.02 4.79
9.56 9.86 -1.69
8.63 8.9 1.96
12.76 13.17 -1.6
9.06 9.35 2.53
21.11 21.77 -1.59
9.02 9.3 2.99
8.94 9.22 3.44
4.63 4.75 -1.78
20.89 21.4 0.52
5.39 5.52 -1.78
6.46 6.62 -1.8
9.61 9.85 1.2
7.87 8.06 -1.78
8.6 8.81 1.51
9.53 9.76 -1.67
8.56 8.77 1.94
12.8 13.11 -1.6
9.09 9.31 2.53
21.03 21.55 -1.58
8.84 9.05 3.39
4.64 4.72 -1.77
21.64 22 0.54
5.41 5.5 -1.78
21.26 21.62 1.59
6.48 6.59 -1.8
8.36 8.5 1.04
7.93 8.06 -1.79
9.56 9.72 -1.67
9.3 9.46 2.1
12.83 13.05 -1.6
20.88 21.24 -1.56
21.49 21.85 -0.53
8.93 9.08 3.41
4.66 4.7 -1.77
21.08 21.28 0.52
5.42 5.48 -1.78
20.54 20.74 1.53
6.51 6.57 -1.8
8.39 8.47 1.04
8 8.08 -1.8
9.63 9.72 -1.68
9.27 9.36 2.09
12.86 12.98 -1.6
20.36 20.56 -1.52
20.58 20.78 -0.51
4.67 4.69 -1.77
20.99 21.05 0.52
5.43 5.45 -1.78
20.4 20.46 1.51
6.52 6.54 -1.8
8.48 8.51 1.05
8.06 8.09 -1.81
9.67 9.69 -1.68
9.35 9.37 2.1
12.91 12.95 -1.6
20.94 21 -1.55
21.85 21.91 -0.54
9.15 9.18 3.47
4.7 4.68 -1.78
21.25 21.16 0.52
5.45 5.43 -1.78
21.57 21.48 1.6
6.54 6.51 -1.79
21.57 21.48 2.66
8.13 8.1 -1.82
24.88 24.78 4.31
9.68 9.64 -1.68
9.35 9.31 2.09
12.93 12.88 -1.6
20.93 20.84 -1.55
20.82 20.74 -0.51
9.21 9.17 3.48
4.7 4.65 -1.77
5.47 5.41 -1.78
20.76 20.52 1.53
6.55 6.48 -1.79
8.2 8.1 -1.83
25 24.72 4.32
9.7 9.59 -1.68
12.97 12.82 -1.6
20.96 20.72 -1.54
9.71 9.6 3.66
4.71 4.62 -1.77
21.09 20.7 0.52
5.49 5.39 -1.78
6.57 6.45 -1.79
8.22 8.07 -1.83
9.73 9.55 -1.67
9.88 9.7 2.19
12.99 12.75 -1.59
20.7 20.32 -1.52
9.44 9.26 3.05
21.23 20.84 -0.52
8.57 8.41 3.22
4.73 4.61 -1.77
20.82 20.31 0.51
5.51 5.38 -1.78
6.59 6.43 -1.79
26.07 25.42 3.19
8.23 8.03 -1.82
9.77 9.53 -1.68
25.31 24.68 5.6
13.01 12.69 -1.59
9.51 9.28 2.58
20.77 20.26 -1.52
8.87 8.65 2.86
21.33 20.8 -0.52
4.74 4.59 -1.77
21.9 21.21 0.53
5.53 5.36 -1.78
21.24 20.57 1.55
6.61 6.4 -1.79
26.13 25.3 3.18
8.26 8 -1.82
9.79 9.48 -1.67
13.05 12.64 -1.59
8.71 8.44 2.36
20.86 20.2 -1.52
9.6 9.3 3.09
21.16 20.49 -0.51
4.75 4.57 -1.77
22.38 21.52 0.54
5.54 5.33 -1.78
22.22 21.36 1.62
6.63 6.37 -1.79
8.28 7.96 -1.82
9.81 9.44 -1.67
13.09 12.58 -1.59
9.6 9.23 2.59
21.07 20.26 -1.53
9.71 9.33 3.11
21.52 20.69 -0.52
4.77 4.56 -1.77
22.11 21.11 0.53
5.56 5.31 -1.78
21.2 20.24 1.54
6.64 6.34 -1.78
21.94 20.95 2.65
8.32 7.95 -1.82
9.81 9.37 -1.66
13.12 12.53 -1.59
9.63 9.2 2.59
20.85 19.91 -1.51
9.72 9.28 3.1
21.52 20.55 -0.52
4.77 4.53 -1.76
20.9 19.82 0.5
5.58 5.29 -1.77
21 19.91 1.52
6.66 6.31 -1.78
8.33 7.9 -1.82
9.82 9.31 -1.66
13.16 12.48 -1.59
21.15 20.06 -1.53
9.75 9.25 3.1
21.6 20.49 -0.52
4.79 4.51 -1.76
21.32 20.08 0.51
5.6 5.27 -1.77
21.98 20.69 1.58
6.68 6.29 -1.78
8.32 7.83 -1.81
8.34 7.86 1.41
9.84 9.27 -1.66
25.34 23.86 5.51
13.2 12.43 -1.59
21.25 20.01 -1.53
9.81 9.24 3.11
4.8 4.49 -1.76
5.6 5.23 -1.77
21.67 20.26 1.55
6.7 6.26 -1.78
21.63 20.23 2.59
8.27 7.74 -1.79
8.42 7.87 1.41
9.87 9.23 -1.66
13.23 12.38 -1.59
24.42 22.83 6.5
21.35 19.96 -1.53
21.2 19.83 -0.51
4.82 4.48 -1.76
21.69 20.14 0.52
5.61 5.21 -1.77
6.71 6.23 -1.78
22.3 20.71 2.66
8.26 7.67 -1.78
8.41 7.81 1.41
9.9 9.19 -1.66
13.27 12.33 -1.58
21.4 19.87 -1.53
9.86 9.16 3.11
21.65 20.11 -0.52
4.84 4.46 -1.76
21.33 19.66 0.51
5.64 5.2 -1.77
21.77 20.07 1.55
6.72 6.2 -1.78
22.01 20.29 2.62
8.28 7.63 -1.78
9.9 9.13 -1.65
13.32 12.28 -1.59
21.46 19.78 -1.53
22.1 20.37 -0.52
4.84 4.43 -1.76
37.68 34.49 0.89
5.65 5.17 -1.77
21.75 19.91 1.55
6.74 6.17 -1.78
21.84 19.99 2.59
8.29 7.59 -1.78
9.89 9.06 -1.65
13.36 12.23 -1.58
21.43 19.62 -1.52
4.85 4.41 -1.76
21.67 19.7 0.51
5.67 5.15 -1.77
6.76 6.14 -1.77
8.31 7.55 -1.78
9.91 9 -1.64
13.38 12.16 -1.58
21.44 19.48 -1.52
21.67 19.7 -0.51
4.87 4.39 -1.76
22.05 19.91 0.52
5.68 5.12 -1.76
21.76 19.64 1.54
6.77 6.11 -1.77
8.32 7.51 -1.78
27.03 24.4 4.47
9.95 8.98 -1.65
13.42 12.11 -1.58
21.18 19.12 -1.5
21.57 19.47 -0.51
4.89 4.38 -1.76
22.27 19.96 0.52
5.7 5.11 -1.77
22.29 19.97 1.57
6.79 6.09 -1.77
8.35 7.48 -1.78
9.97 8.93 -1.64
13.45 12.06 -1.58
21.74 19.48 -1.53
4.89 4.36 -1.76
22.92 20.4 0.54
5.72 5.09 -1.77
22.03 19.6 1.55
6.8 6.05 -1.77
8.36 7.44 -1.77
10.01 8.91 -1.64
13.49 12.01 -1.58
21.85 19.45 -1.53
4.9 4.33 -1.75
47.34 41.84 1.1
5.72 5.06 -1.76
22.32 19.73 1.56
6.81 6.02 -1.77
8.38 7.41 -1.77
9.99 8.83 -1.64
13.51 11.94 -1.58
22.01 19.45 -1.54
22.22 19.64 -0.52
4.92 4.32 -1.75
5.74 5.03 -1.76
6.83 6 -1.77
8.4 7.37 -1.77
10.02 8.79 -1.64
13.54 11.89 -1.58
22.22 19.5 -1.55
4.93 4.3 -1.75
5.75 5.01 -1.76
6.85 5.97 -1.77
8.41 7.33 -1.77
30.51 26.59 4.97
10.01 8.73 -1.63
13.58 11.84 -1.58
22.37 19.49 -1.56
4.95 4.28 -1.75
5.76 4.99 -1.76
6.86 5.94 -1.76
8.43 7.29 -1.77
31.01 26.83 5.04
10.03 8.68 -1.63
13.62 11.79 -1.58
22.5 19.47 -1.56
4.96 4.26 -1.75
5.78 4.96 -1.76
6.87 5.9 -1.76
8.45 7.26 -1.76
10.08 8.66 -1.63
13.64 11.72 -1.57
22.57 19.39 -1.56
4.96 4.23 -1.75
5.79 4.94 -1.76
6.89 5.88 -1.76
8.46 7.22 -1.76
10.14 8.65 -1.64
13.68 11.67 -1.57
22.64 19.32 -1.56
4.98 4.22 -1.75
5.81 4.92 -1.76
6.91 5.85 -1.76
8.47 7.17 -1.76
10.18 8.62 -1.64
13.71 11.61 -1.57
22.73 19.25 -1.56
4.99 4.19 -1.75
5.81 4.89 -1.75
6.93 5.82 -1.76
8.48 7.13 -1.76
10.19 8.57 -1.63
13.75 11.56 -1.57
22.83 19.19 -1.56
5.01 4.18 -1.75
5.83 4.87 -1.75
31.66 26.44 2.16
6.94 5.79 -1.76
31.23 26.08 3.56
8.51 7.1 -1.76
10.21 8.53 -1.63
13.78 11.51 -1.57
22.9 19.12 -1.56
5.01 4.16 -1.74
5.85 4.85 -1.75
6.95 5.76 -1.75
8.52 7.06 -1.75
10.28 8.52 -1.64
13.82 11.46 -1.57
22.96 19.04 -1.56
5.02 4.13 -1.74
32.07 26.4 0.73
5.86 4.82 -1.75
6.95 5.72 -1.75
32.26 26.57 3.66
8.54 7.03 -1.75
10.37 8.54 -1.65
13.85 11.41 -1.57
23.06 18.99 -1.57
5.04 4.12 -1.74
5.87 4.8 -1.75
6.97 5.7 -1.75
8.55 6.99 -1.75
10.46 8.55 -1.66
13.89 11.36 -1.57
23.16 18.93 -1.57
32.27 26.39 -0.73
5.06 4.1 -1.74
5.88 4.77 -1.75
6.98 5.67 -1.75
8.57 6.95 -1.75
10.54 8.56 -1.67
13.95 11.32 -1.57
23.19 18.82 -1.57
5.07 4.08 -1.74
5.9 4.75 -1.75
7 5.64 -1.75
32.96 26.56 3.7
8.59 6.92 -1.75
10.62 8.56 -1.67
13.98 11.27 -1.57
23.29 18.77 -1.57
5.08 4.06 -1.74
32.63 26.11 0.73
5.91 4.73 -1.75
7.01 5.61 -1.75
8.61 6.89 -1.75
10.7 8.56 -1.68
14.01 11.21 -1.57
23.11 18.49 -1.55
32.58 26.06 -0.73
5.08 4.03 -1.74
32.7 25.97 0.73
5.93 4.71 -1.75
7.03 5.58 -1.74
31.45 24.98 3.51
8.62 6.85 -1.74
10.79 8.57 -1.69
14.05 11.16 -1.57
23.15 18.39 -1.55
32.71 25.98 -0.73
5.09 4.02 -1.74
5.94 4.68 -1.75
32.72 25.81 2.18
7.04 5.55 -1.74
8.63 6.8 -1.74
10.89 8.59 -1.7
14.08 11.1 -1.57
23.04 18.17 -1.54
5.11 4 -1.74
5.95 4.66 -1.74
7.06 5.53 -1.74
32.77 25.66 3.64
8.65 6.77 -1.74
10.97 8.59 -1.71
14.12 11.05 -1.57
13.87 10.86 3.42
23.04 18.04 -1.53
13.87 10.86 4.07
13.85 10.84 4.71
5.13 3.98 -1.74
5.96 4.63 -1.74
7.07 5.5 -1.74
13.97 10.86 1.55
8.66 6.73 -1.74
13.88 10.79 2.16
11.05 8.59 -1.72
13.9 10.81 2.79
14.15 11 -1.57
13.87 10.78 3.41
22.62 17.59 -1.5
13.9 10.8 4.06
5.14 3.97 -1.74
13.94 10.76 0.31
5.97 4.61 -1.74
13.91 10.74 0.92
7.08 5.47 -1.74
13.93 10.75 1.54
8.68 6.7 -1.74
13.92 10.74 2.16
11.12 8.59 -1.73
13.94 10.75 2.79
14.16 10.93 -1.56
13.96 10.77 3.43
14.02 10.82 -0.93
13.97 10.78 -0.31
5.14 3.93 -1.73
13.96 10.69 0.31
5.99 4.59 -1.74
13.95 10.69 0.92
7.09 5.43 -1.74
14.03 10.75 1.55
8.7 6.67 -1.74
11.23 8.6 -1.74
13.98 10.71 -1.54
13.97 10.7 -0.92
13.96 10.7 -0.31
5.15 3.92 -1.73
6 4.56 -1.74
7.11 5.41 -1.74
8.7 6.62 -1.73
11.31 8.61 -1.75
14.07 10.7 -1.55
14.03 10.67 -0.92
5.17 3.9 -1.73
6.01 4.54 -1.74
7.12 5.38 -1.74
8.71 6.58 -1.73
11.4 8.61 -1.75
14.24 10.75 -1.56
21.76 16.43 -1.43
45.74 34.54 -1
5.17 3.88 -1.73
6.01 4.51 -1.74
7.13 5.34 -1.73
8.73 6.54 -1.73
11.47 8.6 -1.76
14.27 10.7 -1.56
22.01 16.5 -1.44
5.19 3.86 -1.73
6.03 4.49 -1.73
7.14 5.32 -1.73
8.74 6.51 -1.73
11.53 8.58 -1.76
14.31 10.65 -1.56
21.89 16.29 -1.43
5.18 3.83 -1.73
6.04 4.46 -1.73
7.16 5.29 -1.73
35.21 26.01 3.83
8.76 6.47 -1.72
11.54 8.53 -1.76
14.34 10.59 -1.56
21.93 16.2 -1.43
5.21 3.82 -1.73
6.06 4.44 -1.73
7.17 5.26 -1.73
35.18 25.79 3.82
8.76 6.43 -1.72
11.56 8.47 -1.76
35.46 26 6.96
14.35 10.53 -1.56
22.04 16.16 -1.43
5.22 3.8 -1.73
6.06 4.41 -1.73
7.19 5.23 -1.73
35.03 25.5 3.79
8.78 6.39 -1.72
35.4 25.76 5.38
11.53 8.39 -1.75
14.4 10.48 -1.56
22.02 16.02 -1.43
5.23 3.78 -1.73
35.17 25.41 0.76
6.06 4.38 -1.73
7.2 5.2 -1.73
35.07 25.34 3.79
8.8 6.36 -1.72
35.43 25.6 5.37
11.52 8.32 -1.74
34.89 25.21 6.82
14.41 10.42 -1.56
22.2 16.04 -1.44
5.24 3.76 -1.73
6.09 4.36 -1.73
7.19 5.16 -1.72
35.33 25.33 3.8
8.82 6.32 -1.72
35.01 25.1 5.29
11.5 8.25 -1.74
34.96 25.07 6.81
14.43 10.35 -1.55
22.36 16.03 -1.44
34.74 24.91 9.87
5.23 3.73 -1.72
35.18 25.05 0.75
6.09 4.33 -1.73
7.23 5.15 -1.72
37.36 26.6 4.01
8.84 6.29 -1.72
35.18 25.05 5.3
11.5 8.19 -1.73
35.08 24.97 6.82
14.47 10.3 -1.55
34.96 24.89 8.34
22.43 15.97 -1.44
34.89 24.84 9.89
35.1 24.99 11.54
5.25 3.71 -1.72
6.1 4.31 -1.73
35.08 24.79 2.25
7.24 5.12 -1.72
8.84 6.25 -1.71
35.15 24.84 5.28
11.51 8.13 -1.73
35.13 24.82 6.81
14.5 10.25 -1.55
35.21 24.88 8.38
22.5 15.9 -1.44
35.04 24.76 9.91
35.15 24.84 11.53
5.27 3.7 -1.72
15.4 10.81 0.33
6.11 4.29 -1.72
15.36 10.78 0.98
7.23 5.08 -1.72
35.42 24.86 3.79
8.86 6.22 -1.71
34.81 24.43 5.22
11.52 8.09 -1.73
35.28 24.76 6.83
14.52 10.19 -1.55
35.29 24.76 8.38
22.58 15.85 -1.45
35.15 24.67 9.91
35.14 24.66 11.5
5.27 3.67 -1.72
15.37 10.71 0.33
6.12 4.26 -1.72
15.36 10.7 0.98
7.26 5.06 -1.72
35.43 24.67 3.78
8.87 6.18 -1.71
34.98 24.36 5.23
11.53 8.03 -1.73
35.53 24.75 6.86
14.56 10.14 -1.55
35.29 24.58 8.36
22.65 15.78 -1.45
35.24 24.54 9.91
15.42 10.74 -0.33
35.36 24.62 11.54
5.29 3.66 -1.72
15.39 10.64 0.33
6.13 4.24 -1.72
15.37 10.63 0.98
7.26 5.02 -1.71
15.35 10.62 1.63
8.89 6.15 -1.71
35.09 24.26 5.24
11.53 7.97 -1.72
35.15 24.3 6.77
14.57 10.07 -1.55
22.79 15.75 -1.45
35.37 24.46 9.93
15.41 10.66 -0.33
35.52 24.56 11.57
5.28 3.63 -1.72
15.39 10.56 0.33
6.15 4.22 -1.72
15.38 10.55 0.98
7.26 4.98 -1.71
15.38 10.55 1.63
8.9 6.11 -1.71
35.52 24.37 5.29
11.55 7.92 -1.72
35.13 24.11 6.75
14.6 10.02 -1.55
22.83 15.67 -1.45
35.68 24.48 9.99
15.42 10.58 -0.33
5.3 3.61 -1.72
15.39 10.48 0.32
6.16 4.2 -1.72
15.39 10.48 0.98
7.28 4.96 -1.71
15.41 10.49 1.63
8.91 6.06 -1.71
35.95 24.47 5.34
11.57 7.88 -1.72
35.3 24.03 6.76
14.63 9.96 -1.55
15.46 10.52 -0.98
35.95 24.48 10.04
15.42 10.5 -0.33
5.32 3.59 -1.72
15.4 10.41 0.32
6.16 4.16 -1.72
15.4 10.4 0.97
7.29 4.93 -1.71
15.44 10.43 1.63
8.92 6.03 -1.71
36.25 24.49 5.37
11.58 7.83 -1.72
35.47 23.96 6.78
14.66 9.91 -1.55
15.45 10.44 -0.98
15.44 10.43 -0.33
35.88 24.24 11.6
5.32 3.57 -1.72
15.4 10.33 0.32
6.17 4.14 -1.72
15.38 10.32 0.97
7.32 4.91 -1.71
15.47 10.38 1.63
8.93 5.99 -1.7
35.83 24.03 5.3
11.58 7.77 -1.71
36.99 24.81 7.05
14.71 9.86 -1.55
22.75 15.26 -1.44
15.44 10.36 -0.32
5.33 3.55 -1.72
15.42 10.26 0.32
6.19 4.12 -1.72
15.4 10.25 0.97
7.31 4.87 -1.71
15.51 10.32 1.63
8.94 5.95 -1.7
35.95 23.93 5.3
11.59 7.72 -1.71
37.03 24.65 7.05
14.72 9.8 -1.55
22.92 15.25 -1.44
15.44 10.28 -0.32
5.33 3.52 -1.71
6.2 4.1 -1.72
7.32 4.84 -1.71
36.18 23.91 3.79
8.96 5.92 -1.7
36.11 23.87 5.32
11.62 7.68 -1.71
35.9 23.73 6.82
14.75 9.75 -1.55
22.99 15.19 -1.44
35.96 23.76 9.95
15.5 10.24 -0.32
5.34 3.5 -1.71
6.19 4.06 -1.71
35.81 23.48 2.24
7.32 4.8 -1.7
36.22 23.75 3.79
8.94 5.87 -1.69
36.2 23.74 5.31
11.62 7.62 -1.71
35.95 23.57 6.81
14.79 9.7 -1.55
23.09 15.14 -1.45
35.92 23.55 9.92
5.35 3.48 -1.71
6.22 4.04 -1.71
35.92 23.37 2.25
7.33 4.77 -1.7
36.23 23.57 3.78
8.96 5.83 -1.69
35.98 23.41 5.27
11.64 7.57 -1.7
36.03 23.44 6.81
14.83 9.65 -1.55
23.03 14.98 -1.44
35.95 23.39 9.9
35.94 23.38 11.49
5.36 3.46 -1.71
6.22 4.02 -1.71
7.35 4.75 -1.7
36.36 23.47 3.79
8.97 5.79 -1.69
36.19 23.36 5.29
11.64 7.51 -1.7
36.18 23.36 6.82
14.87 9.6 -1.55
36.22 23.38 8.38
23 14.85 -1.43
36.14 23.33 9.93
36 23.24 11.48
5.37 3.44 -1.71
35.98 23.05 0.75
6.24 4 -1.71
36 23.07 2.24
7.36 4.72 -1.7
36.39 23.32 3.78
8.98 5.76 -1.69
36.45 23.35 5.31
11.65 7.47 -1.7
36.25 23.23 6.82
14.89 9.54 -1.55
36.4 23.33 8.4
23.13 14.82 -1.44
36.2 23.19 9.92
36.08 23.12 11.48
5.38 3.42 -1.71
36 22.89 0.74
6.25 3.97 -1.71
7.37 4.69 -1.7
9 5.72 -1.69
36.34 23.1 5.29
11.66 7.42 -1.7
36.43 23.16 6.84
14.91 9.48 -1.55
23.24 14.77 -1.44
36.4 23.14 9.96
36.25 23.05 11.51
5.38 3.4 -1.71
6.26 3.95 -1.71
36 22.7 2.23
7.38 4.66 -1.7
9.01 5.68 -1.69
36.47 23 5.29
11.68 7.37 -1.7
36.54 23.05 6.84
14.94 9.42 -1.55
23.29 14.69 -1.44
36.69 23.14 10.01
36.4 22.96 11.53
5.4 3.38 -1.71
36.15 22.62 0.74
6.26 3.92 -1.71
7.39 4.63 -1.7
9.02 5.64 -1.69
36.67 22.95 5.31
11.69 7.32 -1.69
36.81 23.03 6.88
14.97 9.37 -1.55
23.34 14.61 -1.44
36.89 23.08 10.05
5.41 3.36 -1.71
6.27 3.9 -1.7
36.32 22.56 2.24
7.41 4.61 -1.7
37.18 23.1 3.83
9.03 5.61 -1.68
11.69 7.26 -1.69
37.06 23.03 6.91
14.99 9.32 -1.54
36.94 22.95 10.04
5.41 3.33 -1.7
36.87 22.72 0.76
6.29 3.87 -1.7
7.43 4.58 -1.7
9.05 5.58 -1.68
11.7 7.21 -1.69
37.22 22.94 6.93
15.03 9.26 -1.54
5.41 3.31 -1.7
6.3 3.85 -1.71
7.43 4.54 -1.69
9.06 5.54 -1.68
11.71 7.16 -1.69
15.03 9.19 -1.54
5.43 3.29 -1.7
6.31 3.83 -1.7
7.44 4.51 -1.69
9.07 5.5 -1.68
11.73 7.11 -1.68
15.06 9.14 -1.54
5.43 3.27 -1.7
6.31 3.8 -1.7
7.46 4.49 -1.69
19.73 11.87 2.01
9.08 5.47 -1.68
11.74 7.06 -1.68
15.08 9.07 -1.54
23.42 14.1 -1.43
5.44 3.25 -1.7
6.32 3.77 -1.7
37.74 22.53 2.3
7.48 4.46 -1.69
9.09 5.43 -1.68
11.73 7 -1.68
15.11 9.02 -1.54
5.45 3.23 -1.7
6.33 3.75 -1.7
7.47 4.42 -1.69
9.11 5.39 -1.68
11.74 6.95 -1.68
15.16 8.98 -1.54
5.45 3.2 -1.69
6.34 3.72 -1.7
19.99 11.74 1.22
7.47 4.39 -1.68
19.7 11.57 2
9.12 5.36 -1.68
11.75 6.9 -1.67
15.25 8.96 -1.55
5.47 3.19 -1.7
6.35 3.7 -1.7
20.07 11.7 1.22
7.49 4.37 -1.69
19.85 11.57 2.01
9.13 5.32 -1.67
19.84 11.56 2.82
11.77 6.86 -1.67
15.37 8.96 -1.56
5.48 3.17 -1.7
6.35 3.67 -1.69
7.5 4.34 -1.68
20.25 11.71 2.05
9.14 5.28 -1.67
45.98 26.57 6.52
11.78 6.81 -1.67
15.51 8.96 -1.57
5.49 3.15 -1.7
6.37 3.65 -1.69
7.51 4.31 -1.68
19.46 11.16 1.96
9.15 5.25 -1.67
19.55 11.21 2.77
11.78 6.76 -1.67
15.65 8.97 -1.58
5.49 3.12 -1.69
6.37 3.62 -1.69
7.51 4.27 -1.68
19.43 11.05 1.96
9.17 5.21 -1.67
11.79 6.7 -1.66
19.78 11.25 3.6
15.77 8.97 -1.59
5.5 3.1 -1.69
43.36 24.46 0.87
6.38 3.6 -1.69
7.51 4.24 -1.68
19.68 11.1 1.98
9.16 5.17 -1.67
19.79 11.17 2.79
11.8 6.66 -1.66
15.91 8.98 -1.6
5.5 3.08 -1.69
6.39 3.57 -1.69
19.89 11.13 1.19
7.52 4.21 -1.67
19.91 11.14 2
9.18 5.14 -1.67
11.82 6.61 -1.66
16.04 8.97 -1.61
5.51 3.06 -1.69
6.38 3.54 -1.68
20.02 11.11 1.2
7.54 4.19 -1.68
9.19 5.1 -1.66
11.82 6.56 -1.66
45.5 25.25 8.24
16.18 8.98 -1.62
5.53 3.04 -1.69
20.1 11.06 0.4
6.39 3.52 -1.68
7.55 4.15 -1.67
9.2 5.06 -1.66
19.66 10.82 2.76
11.82 6.51 -1.66
16.34 8.99 -1.63
20.22 11.13 -0.4
5.53 3.02 -1.69
6.41 3.5 -1.69
7.55 4.12 -1.67
20.45 11.16 2.04
9.2 5.02 -1.66
11.83 6.46 -1.65
45.89 25.05 8.28
16.46 8.99 -1.64
20.28 11.07 -1.21
20.27 11.06 -0.4
5.54 3 -1.69
6.42 3.47 -1.68
7.55 4.09 -1.67
9.22 4.99 -1.66
20.17 10.91 2.82
11.84 6.41 -1.65
16.6 8.99 -1.65
5.55 2.98 -1.69
6.43 3.45 -1.68
7.56 4.06 -1.67
9.22 4.95 -1.66
11.86 6.37 -1.65
16.74 8.99 -1.66
5.55 2.95 -1.68
6.42 3.42 -1.68
20.2 10.75 1.2
7.56 4.03 -1.67
9.23 4.91 -1.66
42.33 22.53 5.89
11.86 6.31 -1.65
45.05 23.98 8.08
16.82 8.96 -1.67
5.55 2.93 -1.68
6.44 3.4 -1.68
7.59 4 -1.67
20.6 10.87 2.04
9.23 4.87 -1.65
11.86 6.26 -1.65
16.83 8.89 -1.67
5.57 2.91 -1.68
6.46 3.38 -1.68
7.56 3.96 -1.66
9.24 4.84 -1.65
11.88 6.22 -1.65
45.27 23.69 8.09
16.83 8.81 -1.66
5.56 2.89 -1.68
6.46 3.35 -1.68
7.59 3.94 -1.66
20.65 10.72 2.04
9.25 4.8 -1.65
43.09 22.36 5.96
11.89 6.17 -1.64
16.69 8.66 -1.65
5.58 2.87 -1.68
6.47 3.33 -1.68
7.6 3.91 -1.66
9.23 4.75 -1.64
11.89 6.12 -1.64
16.64 8.56 -1.64
5.58 2.85 -1.68
6.47 3.3 -1.68
7.6 3.88 -1.66
9.26 4.72 -1.65
11.86 6.05 -1.63
16.63 8.48 -1.63
23.82 12.15 -1.4
5.6 2.83 -1.68
6.47 3.27 -1.67
7.61 3.85 -1.66
20.1 10.17 1.97
9.27 4.69 -1.65
11.87 6 -1.63
16.62 8.41 -1.63
5.6 2.81 -1.68
6.49 3.25 -1.67
7.63 3.82 -1.66
9.28 4.66 -1.65
43.04 21.58 5.91
11.89 5.96 -1.63
16.61 8.33 -1.63
5.59 2.78 -1.67
6.5 3.23 -1.67
7.64 3.8 -1.66
9.28 4.61 -1.64
43.12 21.43 5.91
11.9 5.91 -1.63
46.55 23.14 8.23
16.61 8.26 -1.62
23.94 11.9 -1.4
5.61 2.76 -1.68
6.5 3.2 -1.67
7.63 3.76 -1.65
9.27 4.57 -1.64
43.19 21.28 5.91
11.9 5.86 -1.63
46.36 22.84 8.19
16.61 8.19 -1.62
5.62 2.75 -1.68
6.5 3.17 -1.67
7.66 3.74 -1.66
9.28 4.53 -1.64
11.91 5.82 -1.63
16.62 8.12 -1.62
46.6 22.76 11.97
5.62 2.72 -1.67
6.51 3.15 -1.67
7.66 3.71 -1.65
9.31 4.51 -1.64
46.08 22.31 6.29
11.94 5.78 -1.63
16.63 8.05 -1.62
5.63 2.7 -1.67
6.52 3.13 -1.67
7.66 3.68 -1.65
9.32 4.47 -1.64
46.27 22.2 6.3
11.96 5.74 -1.63
46.6 22.36 8.19
16.61 7.97 -1.61
5.62 2.68 -1.67
6.53 3.11 -1.67
7.67 3.65 -1.65
9.31 4.43 -1.63
46.7 22.22 6.35
11.95 5.69 -1.63
16.59 7.89 -1.61
5.65 2.66 -1.67
6.53 3.08 -1.67
7.68 3.62 -1.65
9.32 4.4 -1.63
12.03 5.67 -1.63
16.6 7.82 -1.61
5.64 2.63 -1.67
6.52 3.05 -1.66
7.69 3.59 -1.65
9.31 4.35 -1.63
12.03 5.62 -1.63
16.6 7.75 -1.6
5.66 2.62 -1.67
27.9 12.91 0.54
6.54 3.03 -1.66
7.7 3.56 -1.65
9.35 4.33 -1.63
12.02 5.56 -1.63
16.6 7.68 -1.6
24.09 11.14 -1.39
5.66 2.59 -1.67
27.91 12.8 0.54
6.54 3 -1.66
7.7 3.53 -1.65
9.34 4.28 -1.63
11.99 5.5 -1.62
16.6 7.61 -1.6
5.65 2.57 -1.66
27.85 12.66 0.53
6.56 2.98 -1.66
7.71 3.5 -1.65
9.34 4.25 -1.63
12.02 5.46 -1.62
16.58 7.54 -1.59
24.16 10.98 -1.39
27.9 12.68 -0.53
5.65 2.54 -1.66
27.89 12.55 0.53
6.58 2.96 -1.67
7.72 3.48 -1.65
9.34 4.2 -1.62
12.04 5.42 -1.62
16.6 7.47 -1.59
24.2 10.89 -1.39
27.95 12.58 -0.53
5.68 2.53 -1.67
27.9 12.44 0.53
6.56 2.93 -1.66
7.72 3.44 -1.64
9.36 4.17 -1.62
12.03 5.36 -1.62
16.59 7.4 -1.59
24.15 10.77 -1.39
27.94 12.46 -0.53
5.68 2.51 -1.66
27.89 12.31 0.53
6.57 2.9 -1.66
7.74 3.41 -1.64
9.36 4.13 -1.62
12.05 5.32 -1.62
16.59 7.32 -1.59
24.19 10.68 -1.39
27.95 12.34 -0.53
5.69 2.49 -1.66
27.92 12.21 0.53
6.59 2.88 -1.66
7.73 3.38 -1.64
9.38 4.1 -1.62
12.03 5.26 -1.61
16.59 7.25 -1.58
27.93 12.21 -0.53
5.69 2.46 -1.66
27.92 12.09 0.53
6.6 2.86 -1.66
7.74 3.35 -1.64
9.38 4.06 -1.62
12.08 5.23 -1.62
44.6 19.32 7.7
16.57 7.18 -1.58
46.47 20.13 11.69
27.95 12.11 -0.53
5.69 2.44 -1.66
27.91 11.97 0.53
6.6 2.83 -1.66
7.74 3.32 -1.64
9.36 4.02 -1.61
12.1 5.19 -1.62
16.57 7.11 -1.58
24.21 10.39 -1.38
27.98 12.01 -0.53
5.69 2.42 -1.66
27.92 11.86 0.53
6.59 2.8 -1.65
7.76 3.3 -1.64
9.36 3.98 -1.61
12.12 5.15 -1.62
44.85 19.05 7.72
16.57 7.04 -1.58
24.25 10.3 -1.38
27.99 11.89 -0.53
5.7 2.4 -1.66
27.94 11.76 0.53
6.59 2.77 -1.65
7.75 3.26 -1.64
44.54 18.74 4.23
9.38 3.95 -1.61
12.14 5.11 -1.62
16.56 6.97 -1.57
24.28 10.22 -1.38
27.98 11.77 -0.53
5.71 2.38 -1.66
27.96 11.65 0.53
6.62 2.76 -1.66
7.75 3.23 -1.63
9.39 3.91 -1.61
12.09 5.04 -1.61
16.56 6.9 -1.57
24.32 10.13 -1.38
27.98 11.66 -0.53
5.71 2.35 -1.65
27.96 11.54 0.53
6.62 2.73 -1.65
7.77 3.21 -1.63
9.39 3.88 -1.61
12.11 4.99 -1.61
16.55 6.83 -1.57
27.98 11.55 -0.53
5.71 2.33 -1.65
27.97 11.42 0.53
6.63 2.71 -1.65
7.78 3.18 -1.63
9.41 3.84 -1.61
12.1 4.94 -1.6
16.56 6.77 -1.57
27.98 11.43 -0.53
5.71 2.31 -1.65
28.03 11.34 0.53
6.62 2.68 -1.65
7.77 3.14 -1.63
9.41 3.81 -1.61
12.02 4.86 -1.59
16.59 6.71 -1.57
5.73 2.3 -1.65
6.62 2.65 -1.65
7.78 3.12 -1.63
9.42 3.77 -1.61
12.11 4.85 -1.6
16.58 6.64 -1.56
5.74 2.27 -1.65
6.63 2.63 -1.65
7.78 3.08 -1.63
9.42 3.74 -1.61
12.06 4.78 -1.59
16.57 6.57 -1.56
5.73 2.25 -1.65
6.64 2.6 -1.65
7.79 3.06 -1.63
9.42 3.7 -1.6
12.07 4.74 -1.59
16.56 6.49 -1.56
24.52 9.62 -1.38
5.73 2.22 -1.65
6.64 2.58 -1.64
7.79 3.03 -1.62
9.43 3.66 -1.6
12.09 4.69 -1.59
16.54 6.42 -1.55
24.74 9.61 -1.39
5.74 2.21 -1.65
6.63 2.55 -1.64
7.8 3 -1.62
9.43 3.62 -1.6
12.11 4.65 -1.59
16.49 6.34 -1.55
24.96 9.59 -1.4
5.75 2.19 -1.65
6.64 2.53 -1.64
7.8 2.97 -1.62
9.44 3.59 -1.6
12.12 4.61 -1.59
16.51 6.28 -1.55
5.76 2.17 -1.65
6.65 2.5 -1.64
7.8 2.94 -1.62
9.45 3.56 -1.6
12.14 4.57 -1.59
16.5 6.21 -1.54
25.59 9.63 -1.43
5.76 2.14 -1.65
6.66 2.48 -1.64
7.82 2.91 -1.62
9.45 3.52 -1.6
12.15 4.52 -1.59
16.49 6.14 -1.54
5.76 2.12 -1.64
6.66 2.45 -1.64
7.83 2.88 -1.62
9.45 3.48 -1.6
12.17 4.48 -1.59
16.53 6.09 -1.54
5.77 2.1 -1.65
6.65 2.42 -1.63
7.83 2.85 -1.62
9.47 3.45 -1.6
12.14 4.42 -1.59
26.44 9.63 -1.47
5.77 2.08 -1.64
6.66 2.4 -1.63
7.83 2.82 -1.62
9.49 3.42 -1.6
12.15 4.38 -1.59
16.54 5.96 -1.54
5.77 2.06 -1.64
6.67 2.38 -1.64
7.84 2.8 -1.62
9.47 3.38 -1.59
12.07 4.3 -1.57
16.61 5.92 -1.54
26.62 9.49 -1.48
5.76 2.03 -1.64
6.68 2.35 -1.63
36.49 12.87 2.03
7.84 2.76 -1.62
9.48 3.34 -1.59
12.14 4.28 -1.58
16.63 5.86 -1.54
5.78 2.02 -1.64
6.68 2.33 -1.63
7.85 2.74 -1.62
9.47 3.3 -1.59
12.1 4.22 -1.57
26.38 9.2 -1.46
5.78 1.99 -1.64
6.69 2.3 -1.63
7.86 2.71 -1.62
9.49 3.27 -1.59
12.11 4.17 -1.57
26.41 9.1 -1.46
5.79 1.97 -1.64
6.69 2.28 -1.63
7.85 2.67 -1.61
36.31 12.37 3.36
9.48 3.23 -1.59
12.1 4.12 -1.57
16.5 5.62 -1.53
26.38 8.98 -1.46
5.79 1.95 -1.64
36.34 12.23 0.67
6.7 2.25 -1.63
36.28 12.21 2.01
7.85 2.64 -1.61
36.49 12.28 3.37
9.51 3.2 -1.59
12.13 4.08 -1.57
26.29 8.85 -1.45
36.38 12.24 -0.67
5.78 1.92 -1.63
6.7 2.23 -1.63
7.85 2.61 -1.61
36.34 12.09 3.35
9.48 3.15 -1.58
12.15 4.04 -1.57
26.2 8.72 -1.45
5.78 1.9 -1.63
6.7 2.21 -1.63
7.86 2.59 -1.61
9.5 3.12 -1.58
12.16 4 -1.57
26.2 8.62 -1.45
5.8 1.89 -1.63
104.12 33.85 1.91
6.7 2.18 -1.63
7.87 2.56 -1.61
9.49 3.09 -1.58
12.11 3.94 -1.56
26.14 8.5 -1.44
5.8 1.86 -1.63
6.7 2.15 -1.63
7.88 2.53 -1.61
9.51 3.05 -1.58
12.14 3.9 -1.57
26.1 8.39 -1.44
5.82 1.85 -1.64
6.71 2.13 -1.63
7.87 2.5 -1.6
9.5 3.02 -1.58
12.12 3.85 -1.56
26.06 8.27 -1.43
5.79 1.82 -1.63
6.71 2.1 -1.62
7.87 2.47 -1.6
9.48 2.97 -1.57
12.11 3.8 -1.56
26.09 8.18 -1.43
5.81 1.8 -1.63
6.72 2.08 -1.62
7.87 2.44 -1.6
9.5 2.94 -1.57
12.15 3.76 -1.56
26.05 8.07 -1.43
5.81 1.78 -1.63
6.71 2.05 -1.62
7.89 2.41 -1.6
9.49 2.9 -1.57
12.17 3.72 -1.56
25.95 7.94 -1.42
5.82 1.76 -1.63
6.73 2.03 -1.62
7.89 2.38 -1.6
9.51 2.87 -1.57
12.16 3.67 -1.56
25.98 7.85 -1.42
5.82 1.74 -1.63
6.73 2.01 -1.62
7.87 2.35 -1.6
9.53 2.84 -1.57
12.16 3.63 -1.56
16.52 4.93 -1.51
26.01 7.76 -1.42
5.81 1.71 -1.62
6.72 1.98 -1.62
7.87 2.32 -1.59
9.52 2.8 -1.57
12.13 3.57 -1.55
5.81 1.69 -1.62
6.73 1.96 -1.62
7.89 2.29 -1.6
9.51 2.76 -1.57
12.17 3.54 -1.56
26.06 7.58 -1.42
5.82 1.67 -1.62
6.73 1.93 -1.62
7.89 2.26 -1.6
9.5 2.73 -1.57
12.12 3.48 -1.55
5.83 1.65 -1.62
6.73 1.91 -1.61
7.89 2.23 -1.59
9.52 2.69 -1.57
12.13 3.43 -1.55
25.92 7.34 -1.41
5.83 1.63 -1.62
6.74 1.88 -1.62
7.89 2.2 -1.59
9.53 2.66 -1.57
12.14 3.39 -1.55
5.82 1.61 -1.62
6.74 1.86 -1.61
7.9 2.18 -1.59
9.52 2.62 -1.56
12.12 3.34 -1.54
5.84 1.59 -1.62
6.74 1.83 -1.61
7.9 2.15 -1.59
9.5 2.58 -1.56
12.13 3.3 -1.54
25.8 7.02 -1.4
5.84 1.57 -1.62
6.74 1.81 -1.61
7.9 2.12 -1.59
9.5 2.55 -1.56
12.14 3.26 -1.54
25.63 6.87 -1.39
5.85 1.55 -1.62
48.32 12.78 0.87
6.73 1.78 -1.61
48.32 12.78 2.62
7.89 2.09 -1.59
9.51 2.51 -1.56
12.12 3.21 -1.54
25.65 6.78 -1.39
5.86 1.53 -1.62
6.73 1.75 -1.61
7.91 2.06 -1.59
9.52 2.48 -1.56
48.32 12.6 6.13
12.13 3.16 -1.54
16.48 4.3 -1.49
25.66 6.69 -1.39
5.85 1.5 -1.62
6.76 1.74 -1.61
7.91 2.03 -1.59
9.52 2.45 -1.56
12.15 3.12 -1.54
5.86 1.48 -1.62
6.75 1.71 -1.61
7.92 2 -1.59
9.52 2.41 -1.56
12.13 3.07 -1.54
5.86 1.46 -1.62
6.74 1.68 -1.6
7.93 1.98 -1.59
9.51 2.37 -1.55
12.13 3.02 -1.54
5.87 1.44 -1.62
6.75 1.66 -1.6
7.91 1.94 -1.58
9.51 2.34 -1.55
12.11 2.98 -1.53
5.88 1.42 -1.62
6.76 1.63 -1.6
7.89 1.91 -1.58
9.51 2.3 -1.55
12.09 2.93 -1.53
5.87 1.4 -1.62
6.76 1.61 -1.6
7.9 1.88 -1.58
9.51 2.27 -1.55
12.09 2.88 -1.53
5.88 1.38 -1.62
6.77 1.59 -1.6
7.9 1.85 -1.58
9.52 2.23 -1.55
12.11 2.84 -1.53
5.88 1.36 -1.62
6.76 1.56 -1.6
7.93 1.83 -1.58
9.51 2.19 -1.55
12.08 2.79 -1.52
5.89 1.34 -1.62
6.76 1.54 -1.6
7.92 1.8 -1.58
9.5 2.16 -1.54
12.1 2.75 -1.52
5.89 1.32 -1.62
6.78 1.51 -1.6
7.93 1.77 -1.58
9.53 2.13 -1.55
12.09 2.7 -1.52
5.88 1.29 -1.61
6.78 1.49 -1.6
7.93 1.74 -1.58
9.52 2.09 -1.54
12.09 2.66 -1.52
5.9 1.27 -1.62
6.78 1.47 -1.6
7.94 1.72 -1.58
9.52 2.06 -1.54
12.09 2.61 -1.52
5.9 1.25 -1.62
6.78 1.44 -1.6
7.95 1.69 -1.58
9.51 2.02 -1.54
12.11 2.57 -1.52
16.37 3.48 -1.46
5.91 1.23 -1.62
6.78 1.42 -1.6
7.94 1.66 -1.58
9.52 1.99 -1.54
12.08 2.52 -1.52
5.91 1.21 -1.62
6.79 1.39 -1.6
7.93 1.63 -1.57
9.53 1.96 -1.54
12.09 2.48 -1.51
16.29 3.34 -1.46
5.91 1.19 -1.62
6.79 1.37 -1.6
7.93 1.6 -1.57
9.52 1.92 -1.54
12.1 2.44 -1.52
16.31 3.29 -1.46
5.91 1.17 -1.61
6.8 1.35 -1.6
7.95 1.57 -1.58
9.51 1.88 -1.54
12.09 2.39 -1.51
16.32 3.23 -1.46
5.92 1.15 -1.62
6.8 1.32 -1.6
7.96 1.55 -1.58
9.51 1.85 -1.53
12.06 2.34 -1.51
16.33 3.17 -1.46
5.92 1.13 -1.62
6.81 1.3 -1.6
7.95 1.52 -1.57
9.52 1.82 -1.54
12.06 2.3 -1.51
16.34 3.12 -1.46
5.93 1.11 -1.62
6.81 1.28 -1.6
7.95 1.49 -1.57
9.53 1.78 -1.54
12.03 2.25 -1.5
5.92 1.09 -1.61
6.82 1.25 -1.6
7.96 1.46 -1.57
9.53 1.75 -1.53
12.02 2.21 -1.5
16.24 2.98 -1.44
5.93 1.06 -1.61
6.82 1.22 -1.6
7.96 1.43 -1.57
9.53 1.71 -1.53
12.02 2.16 -1.5
16.25 2.92 -1.44
5.94 1.04 -1.62
6.82 1.2 -1.6
7.98 1.4 -1.57
9.53 1.68 -1.53
12.02 2.12 -1.5
16.19 2.85 -1.44
5.94 1.02 -1.62
6.83 1.18 -1.6
7.98 1.38 -1.57
9.54 1.65 -1.53
16.2 2.79 -1.44
5.94 1 -1.62
6.83 1.15 -1.6
7.97 1.35 -1.57
9.55 1.61 -1.53
12.04 2.03 -1.5
16.17 2.73 -1.43
5.94 0.98 -1.61
6.83 1.13 -1.6
7.97 1.32 -1.57
9.54 1.58 -1.53
12.03 1.99 -1.5
16.16 2.67 -1.43
5.95 0.96 -1.61
6.84 1.11 -1.6
7.98 1.29 -1.57
