# .PCD v0.7 - Point Cloud Data file format
VERSION 0.7
FIELDS x y z
SIZE 4 4 4
TYPE F F F
COUNT 1 1 1
WIDTH 2774
HEIGHT 1
VIEWPOINT 0 0 0 1 0 0 0
POINTS 2774
DATA ascii
-11.29 8.52 0.74
-11.22 8.47 1.23
-0.8 0.6 -0.16
-11.21 8.46 1.72
-11.13 8.4 -1.71
-11.26 8.49 2.23
-11.29 8.52 -1.24
-34.51 26.04 8.4
-11.3 8.53 -0.74
-34.54 26.07 9.99
-11.31 8.53 -0.25
-34.02 25.68 11.42
-5.32 4.04 -1.79
-11.22 8.53 0.25
-6.19 4.71 -1.8
-11.22 8.53 0.74
-11.17 8.49 1.23
-0.8 0.61 -0.16
-11.14 8.47 1.72
-11.09 8.43 -1.71
-11.16 8.48 2.22
-11.23 8.53 -1.23
-34.44 26.18 8.41
-11.23 8.54 -0.74
-34.45 26.19 9.99
-11.23 8.54 -0.25
-33.95 25.81 11.43
-5.31 4.07 -1.79
-11.16 8.54 0.25
-6.18 4.73 -1.8
-11.14 8.53 0.74
-11.11 8.5 1.22
-0.8 0.61 -0.16
-11.08 8.48 1.71
-11.04 8.45 -1.71
-11.1 8.5 2.21
-11.16 8.55 -1.23
-34.35 26.3 8.41
-11.16 8.55 -0.74
-34.37 26.31 9.99
-11.17 8.55 -0.25
-33.88 25.94 11.43
-5.3 4.08 -1.79
-11.1 8.56 0.24
-6.16 4.75 -1.8
-11.09 8.55 0.73
-11.04 8.51 1.22
-0.79 0.61 -0.16
-11.02 8.5 1.71
-11.01 8.49 -1.71
-11.03 8.51 2.21
-11.1 8.56 -1.23
-34.27 26.43 8.41
-11.11 8.56 -0.74
-34.29 26.44 10
-11.1 8.56 -0.24
-33.78 26.05 11.43
-5.26 4.09 -1.79
-11.03 8.57 0.24
-6.15 4.78 -1.8
-11.02 8.56 0.73
-10.97 8.52 1.21
-0.79 0.62 -0.16
-10.95 8.51 1.7
-10.96 8.52 -1.7
-10.96 8.51 2.2
-11.03 8.57 -1.22
-34.2 26.57 8.42
-11.04 8.58 -0.73
-34.21 26.58 10
-11.03 8.57 -0.24
-33.68 26.17 11.43
-5.26 4.11 -1.79
-10.95 8.57 0.24
-6.14 4.8 -1.8
-10.96 8.57 0.73
-10.91 8.54 1.21
-9.15 7.16 -1.84
-10.9 8.53 1.7
-10.94 8.56 -1.71
-10.9 8.53 2.19
-10.97 8.58 -1.22
-34.09 26.67 8.41
-10.98 8.59 -0.73
-34.13 26.7 10
-10.98 8.59 -0.24
-33.6 26.29 11.43
-5.25 4.14 -1.79
-10.89 8.58 0.24
-6.11 4.82 -1.8
-10.89 8.58 0.73
-10.85 8.55 1.21
-9.11 7.18 -1.84
-10.83 8.54 1.69
-10.9 8.59 -1.7
-10.84 8.54 2.19
-10.9 8.59 -1.21
-34 26.8 8.42
-10.91 8.6 -0.73
-34.04 26.82 10
-10.91 8.6 -0.24
-33.53 26.42 11.44
-5.23 4.15 -1.79
-10.83 8.6 0.24
-6.1 4.84 -1.8
-10.82 8.59 0.72
-10.79 8.57 1.21
-9.09 7.21 -1.84
-10.76 8.54 1.69
-10.85 8.61 -1.7
-10.78 8.56 2.18
-10.84 8.61 -1.21
-33.94 26.94 8.42
-10.85 8.61 -0.73
-33.94 26.94 10
-10.84 8.61 -0.24
-33.44 26.55 11.44
-5.22 4.17 -1.79
-10.78 8.61 0.24
-6.08 4.86 -1.8
-10.77 8.61 0.72
-10.72 8.57 1.2
-9.06 7.25 -1.84
-10.7 8.56 1.68
-10.81 8.64 -1.7
-10.71 8.56 2.17
-10.78 8.62 -1.21
-33.85 27.06 8.42
-10.78 8.62 -0.72
-33.86 27.07 10.01
-10.78 8.62 -0.24
-33.36 26.67 11.44
-5.2 4.19 -1.79
-10.71 8.62 0.24
-6.07 4.89 -1.8
-10.71 8.62 0.72
-10.65 8.58 1.2
-9 7.25 -1.83
-10.64 8.57 1.68
-10.75 8.65 -1.69
-10.64 8.57 2.16
-10.72 8.63 -1.2
-33.76 27.18 8.43
-10.72 8.64 -0.72
-33.78 27.2 10.01
-10.72 8.63 -0.24
-33.26 26.78 11.44
-5.19 4.21 -1.79
-10.64 8.63 0.24
-6.06 4.91 -1.8
-10.65 8.63 0.72
-10.6 8.59 1.19
-8.95 7.26 -1.83
-10.59 8.59 1.67
-10.69 8.67 -1.69
-10.58 8.58 2.16
-10.66 8.64 -1.2
-33.67 27.3 8.43
-10.67 8.65 -0.72
-33.69 27.32 10.01
-10.65 8.64 -0.24
-33.18 26.9 11.44
-5.18 4.23 -1.79
-10.58 8.64 0.24
-6.03 4.93 -1.8
-10.57 8.64 0.72
-10.56 8.63 1.19
-8.92 7.29 -1.82
-10.52 8.59 1.67
-10.63 8.69 -1.69
-10.53 8.6 2.15
-10.59 8.65 -1.2
-33.58 27.42 8.43
-10.6 8.66 -0.72
-33.6 27.45 10.02
-10.59 8.65 -0.24
-33.09 27.03 11.45
-5.17 4.25 -1.79
-10.53 8.66 0.24
-6.01 4.95 -1.8
-10.52 8.65 0.71
-10.51 8.64 1.19
-8.94 7.35 -1.83
-10.46 8.6 1.66
-10.57 8.7 -1.68
-10.48 8.62 2.15
-10.53 8.66 -1.19
-33.5 27.56 8.43
-10.54 8.67 -0.72
-33.51 27.57 10.02
-10.53 8.66 -0.24
-33.01 27.16 11.45
-5.16 4.27 -1.79
-10.47 8.67 0.24
-6.01 4.98 -1.8
-10.46 8.67 0.71
-10.48 8.68 1.19
-8.9 7.38 -1.83
-10.4 8.62 1.66
-10.5 8.7 -1.67
-10.41 8.63 2.14
-10.49 8.69 -1.19
-33.42 27.68 8.43
-10.48 8.69 -0.71
-33.42 27.69 10.02
-10.47 8.67 -0.24
-32.93 27.28 11.46
-5.14 4.28 -1.79
-10.42 8.69 0.24
-6 5.01 -1.8
-10.4 8.68 0.71
-10.4 8.68 1.18
-8.9 7.42 -1.84
-10.34 8.63 1.65
-10.43 8.7 -1.67
-10.34 8.63 2.13
-10.42 8.7 -1.19
-33.32 27.8 8.44
-10.43 8.7 -0.71
-33.34 27.82 10.02
-10.42 8.69 -0.24
-32.84 27.4 11.46
-5.12 4.3 -1.79
-10.34 8.69 0.24
-5.98 5.02 -1.8
-10.35 8.69 0.71
-10.34 8.69 1.18
-8.88 7.46 -1.84
-10.29 8.65 1.65
-10.37 8.71 -1.66
-10.28 8.64 2.13
-10.36 8.7 -1.18
-33.24 27.92 8.44
-10.37 8.71 -0.71
-33.25 27.93 10.03
-10.36 8.71 -0.24
-32.77 27.52 11.47
-5.11 4.32 -1.79
-10.28 8.7 0.24
-5.95 5.04 -1.8
-10.28 8.7 0.71
-10.28 8.7 1.18
-8.85 7.49 -1.84
-10.22 8.65 1.64
-10.32 8.73 -1.66
-10.23 8.66 2.12
-10.3 8.71 -1.18
-33.15 28.04 8.44
-10.3 8.71 -0.71
-33.17 28.06 10.03
-10.31 8.72 -0.24
-32.69 27.65 11.47
-5.1 4.35 -1.8
-10.23 8.72 0.23
-5.94 5.06 -1.8
-10.22 8.71 0.7
-10.22 8.71 1.17
-8.78 7.49 -1.83
-10.16 8.66 1.64
-10.25 8.73 -1.65
-10.18 8.68 2.12
-10.24 8.73 -1.18
-33.06 28.17 8.44
-10.24 8.72 -0.7
-33.08 28.19 10.03
-10.24 8.73 -0.23
-32.59 27.78 11.48
-5.09 4.37 -1.8
-10.18 8.74 0.23
-5.93 5.09 -1.8
-10.16 8.72 0.7
-10.17 8.73 1.17
-8.71 7.47 -1.82
-10.11 8.67 1.64
-10.19 8.75 -1.65
-10.11 8.68 2.11
-10.18 8.74 -1.17
-10.18 8.74 -0.7
-33 28.33 10.04
-10.18 8.74 -0.23
-32.52 27.91 11.48
-5.06 4.37 -1.79
-10.11 8.74 0.23
-5.91 5.11 -1.8
-10.11 8.74 0.7
-10.1 8.73 1.17
-8.68 7.5 -1.82
-10.05 8.68 1.63
-10.13 8.76 -1.64
-10.05 8.68 2.1
-10.12 8.75 -1.17
-32.46 28.06 8.34
-10.13 8.75 -0.7
-32.43 28.04 9.9
-10.11 8.74 -0.23
-32.43 28.03 11.49
-5.04 4.39 -1.79
-10.04 8.74 0.23
-5.9 5.13 -1.81
-10.05 8.75 0.7
-10.04 8.74 1.16
-8.64 7.52 -1.81
-10 8.7 1.63
-10.08 8.78 -1.64
-9.99 8.7 2.1
-10.06 8.76 -1.17
-32.32 28.13 8.33
-10.07 8.77 -0.7
-32.36 28.17 9.9
-10.07 8.77 -0.23
-32.35 28.16 11.49
-5.04 4.42 -1.8
-9.99 8.75 0.23
-5.88 5.16 -1.81
-9.99 8.75 0.7
-9.99 8.75 1.16
-8.62 7.55 -1.82
-9.93 8.7 1.62
-10.03 8.79 -1.64
-9.94 8.71 2.09
-10.02 8.78 -1.17
-32.23 28.25 8.33
-10.01 8.77 -0.7
-32.28 28.28 9.91
-10.01 8.77 -0.23
-32.27 28.28 11.5
-5.03 4.44 -1.8
-9.93 8.76 0.23
-5.87 5.18 -1.81
-9.92 8.76 0.69
-9.93 8.77 1.16
-8.59 7.58 -1.81
-9.88 8.72 1.62
-9.97 8.8 -1.63
-9.88 8.72 2.09
-9.96 8.79 -1.16
-32.15 28.37 8.33
-9.95 8.78 -0.7
-32.18 28.4 9.91
-9.95 8.78 -0.23
-32.18 28.4 11.5
-5.01 4.45 -1.8
-9.88 8.78 0.23
-5.85 5.2 -1.81
-9.87 8.77 0.69
-9.88 8.78 1.16
-8.57 7.62 -1.82
-9.82 8.73 1.61
-9.91 8.8 -1.63
-9.82 8.73 2.08
-9.89 8.79 -1.16
-32.09 28.52 8.34
-9.89 8.79 -0.69
-32.1 28.53 9.92
-9.89 8.79 -0.23
-32.1 28.53 11.51
-4.98 4.46 -1.79
-9.83 8.79 0.23
-5.84 5.22 -1.81
-9.82 8.79 0.69
-9.82 8.79 1.15
-8.54 7.64 -1.81
-9.76 8.74 1.61
-9.85 8.81 -1.62
-9.76 8.74 2.08
-9.83 8.8 -1.15
-32 28.64 8.35
-9.84 8.8 -0.69
-32.02 28.66 9.92
-9.83 8.8 -0.23
-32.01 28.65 11.51
-4.97 4.48 -1.79
-9.76 8.8 0.23
-5.82 5.24 -1.81
-9.77 8.81 0.69
-9.76 8.79 1.15
-8.51 7.67 -1.81
-9.71 8.75 1.61
-9.8 8.83 -1.62
-9.71 8.75 2.07
-9.77 8.81 -1.15
-31.91 28.76 8.35
-9.79 8.82 -0.69
-31.94 28.79 9.93
-9.78 8.81 -0.23
-31.92 28.77 11.52
-4.96 4.5 -1.8
-9.71 8.81 0.23
-5.8 5.26 -1.81
-9.7 8.81 0.69
-9.7 8.8 1.15
-8.48 7.7 -1.81
-9.65 8.76 1.6
-9.74 8.84 -1.62
-9.65 8.76 2.06
-9.72 8.83 -1.15
-31.82 28.89 8.35
-9.73 8.83 -0.69
-31.85 28.91 9.93
-9.72 8.82 -0.23
-31.84 28.9 11.52
-4.95 4.52 -1.8
-9.65 8.82 0.23
-5.78 5.28 -1.81
-9.64 8.81 0.68
-9.64 8.81 1.14
-8.45 7.73 -1.81
-9.6 8.77 1.6
-9.67 8.84 -1.61
-9.6 8.78 2.06
-9.67 8.84 -1.15
-31.74 29.02 8.36
-9.68 8.84 -0.69
-31.75 29.02 9.93
-9.66 8.83 -0.23
-31.76 29.03 11.53
-4.94 4.54 -1.8
-9.59 8.83 0.23
-9.58 8.82 0.68
-9.58 8.82 1.14
-8.43 7.76 -1.82
-9.54 8.78 1.59
-9.62 8.85 -1.61
-9.54 8.78 2.05
-9.61 8.84 -1.14
-31.65 29.13 8.36
-9.62 8.85 -0.69
-31.66 29.14 9.93
-9.6 8.84 -0.23
-31.67 29.16 11.54
-4.91 4.55 -1.79
-9.54 8.85 0.23
-9.53 8.84 0.68
-9.53 8.83 1.14
-8.41 7.79 -1.82
-9.48 8.79 1.59
-9.57 8.87 -1.6
-9.49 8.8 2.05
-9.54 8.85 -1.14
-31.56 29.26 8.37
-9.55 8.85 -0.68
-31.58 29.28 9.94
-9.55 8.85 -0.23
-31.58 29.27 11.54
-4.89 4.57 -1.79
-9.49 8.85 0.23
-9.48 8.85 0.68
-9.48 8.85 1.13
-8.38 7.82 -1.82
-9.43 8.8 1.58
-9.51 8.88 -1.6
-9.44 8.81 2.04
-9.49 8.86 -1.14
-31.47 29.38 8.37
-9.5 8.86 -0.68
-31.5 29.4 9.95
-9.5 8.87 -0.23
-31.49 29.4 11.54
-4.89 4.59 -1.8
-9.43 8.87 0.23
-9.42 8.86 0.68
-9.43 8.86 1.13
-8.35 7.85 -1.82
-9.37 8.81 1.58
-9.45 8.89 -1.59
-9.38 8.82 2.04
-9.45 8.88 -1.13
-31.39 29.51 8.38
-9.44 8.88 -0.68
-31.42 29.54 9.96
-9.44 8.87 -0.23
-31.4 29.52 11.55
-4.87 4.61 -1.8
-9.37 8.87 0.23
-9.36 8.86 0.68
-9.37 8.87 1.13
-8.33 7.88 -1.82
-9.32 8.82 1.58
-9.4 8.9 -1.59
-9.33 8.83 2.03
-9.39 8.89 -1.13
-31.31 29.64 8.38
-9.39 8.89 -0.68
-31.34 29.66 9.96
-9.38 8.88 -0.23
-31.33 29.65 11.56
-4.86 4.63 -1.8
-9.32 8.88 0.22
-9.3 8.87 0.67
-9.31 8.87 1.12
-8.3 7.91 -1.82
-9.27 8.84 1.57
-9.34 8.9 -1.58
-9.27 8.84 2.03
-9.33 8.89 -1.13
-31.22 29.76 8.38
-9.34 8.91 -0.68
-31.24 29.78 9.96
-9.32 8.89 -0.22
-31.24 29.78 11.57
-4.83 4.64 -1.8
-9.27 8.89 0.22
-9.25 8.88 0.67
-9.25 8.88 1.12
-8.28 7.95 -1.82
-9.22 8.85 1.57
-9.29 8.92 -1.58
-9.22 8.85 2.03
-9.27 8.9 -1.12
-31.14 29.9 8.39
-9.29 8.92 -0.67
-31.16 29.91 9.97
-9.27 8.9 -0.22
-31.14 29.9 11.57
-4.82 4.66 -1.8
-9.2 8.9 0.22
-9.2 8.9 0.67
-9.2 8.89 1.12
-8.24 7.97 -1.82
-9.16 8.86 1.56
-9.24 8.93 -1.58
-9.17 8.87 2.02
-9.22 8.91 -1.12
-31.04 30.01 8.39
-9.23 8.92 -0.67
-31.07 30.04 9.98
-9.23 8.92 -0.22
-31.07 30.04 11.58
-4.81 4.69 -1.8
-9.16 8.91 0.22
-9.16 8.91 0.67
-9.15 8.91 1.12
-8.22 8 -1.82
-9.09 8.85 1.56
-9.18 8.94 -1.57
-9.12 8.87 2.01
-9.18 8.93 -1.12
-30.96 30.14 8.4
-9.16 8.92 -0.67
-30.98 30.16 9.98
-9.18 8.93 -0.22
-30.99 30.17 11.59
-4.81 4.71 -1.8
-9.11 8.92 0.22
-9.11 8.92 1.12
-8.2 8.03 -1.82
-9.05 8.87 1.56
-9.12 8.94 -1.57
-9.06 8.88 2.01
-9.13 8.94 -1.12
-30.88 30.25 8.4
-9.12 8.94 -0.67
-30.9 30.27 9.99
-9.13 8.94 -0.22
-30.91 30.28 11.59
-4.79 4.72 -1.8
-9.06 8.93 0.22
-9.04 8.92 1.11
-8.18 8.07 -1.82
-9 8.88 1.55
-9.07 8.95 -1.57
-9 8.88 2
-9.07 8.95 -1.11
-30.8 30.38 8.41
-9.08 8.95 -0.67
-30.83 30.41 10
-9.06 8.94 -0.22
-30.82 30.41 11.6
-4.77 4.73 -1.8
-8.99 8.93 0.22
-8.98 8.92 1.11
-8.15 8.1 -1.82
-8.96 8.9 1.55
-9.03 8.97 -1.56
-8.96 8.9 2
-9.01 8.95 -1.11
-9.03 8.97 -0.67
-30.73 30.53 10
-9.01 8.95 -0.22
-30.73 30.53 11.61
-4.75 4.75 -1.8
-8.94 8.94 0.22
-8.93 8.93 1.11
-8.11 8.11 -1.82
-8.9 8.91 1.55
-8.98 8.98 -1.56
-8.9 8.91 1.99
-8.95 8.95 -1.11
-8.97 8.98 -0.67
-30.66 30.67 10.01
-8.96 8.96 -0.22
-30.65 30.66 11.62
-4.73 4.77 -1.8
-8.89 8.95 0.22
-8.47 8.53 0.63
-8.88 8.95 1.1
-8.12 8.18 -1.83
-8.84 8.91 1.54
-8.93 8.99 -1.56
-8.86 8.93 1.99
-8.9 8.97 -1.11
-8.84 8.9 2.44
-8.91 8.97 -0.66
-30.57 30.8 10.02
-8.91 8.97 -0.22
-30.56 30.78 11.62
-4.72 4.79 -1.8
-8.85 8.98 0.22
-8.44 8.56 0.63
-8.85 8.97 1.1
-8.11 8.23 -1.83
-8.79 8.92 1.54
-8.86 8.99 -1.55
-8.8 8.92 1.98
-8.85 8.98 -1.1
-8.79 8.91 2.43
-8.86 8.99 -0.66
-30.47 30.91 10.02
-8.86 8.98 -0.22
-30.48 30.92 11.63
-4.71 4.81 -1.8
-8.45 8.64 0.21
-8.43 8.61 0.63
-8.78 8.97 1.1
-8.08 8.25 -1.83
-8.74 8.92 1.53
-8.54 8.73 -1.5
-8.74 8.92 1.98
-8.47 8.65 -1.06
-8.74 8.93 2.43
-8.45 8.63 -0.63
-30.38 31.03 10.03
-8.45 8.63 -0.21
-30.39 31.05 11.64
-4.68 4.81 -1.8
-8.51 8.76 0.21
-8.4 8.64 0.63
-8.74 8.99 1.1
-8.05 8.28 -1.83
-8.72 8.97 1.54
-8.43 8.67 -1.48
-8.74 8.99 1.98
-8.41 8.65 -1.06
-8.72 8.97 2.43
-8.44 8.68 -0.63
-30.31 31.18 10.04
-8.48 8.73 -0.21
-30.3 31.16 11.65
-4.67 4.84 -1.8
-8.73 9.04 0.22
-8.39 8.69 0.63
-8.78 9.09 1.11
-8 8.28 -1.82
-8.74 9.05 1.54
-8.71 9.02 -1.54
-8.75 9.07 2
-8.72 9.03 -1.1
-8.72 9.04 -0.66
-30.22 31.3 10.04
-8.74 9.05 -0.22
-30.21 31.29 11.66
-4.66 4.86 -1.8
-8.37 8.74 0.63
-8.79 9.17 1.11
-7.96 8.3 -1.82
-8.75 9.12 1.55
-8.69 9.07 -1.54
-8.77 9.14 2.01
-8.7 9.07 -1.1
-8.67 9.05 -0.66
-30.13 31.44 10.05
-8.72 9.1 -0.22
-30.13 31.43 11.66
-4.65 4.88 -1.81
-8.63 9.06 0.22
-8.35 8.77 0.63
-8.8 9.25 1.12
-7.91 8.31 -1.82
-8.75 9.19 1.56
-8.64 9.08 -1.54
-8.78 9.22 2.02
-8.64 9.07 -1.1
-8.63 9.06 -0.66
-30.04 31.55 10.06
-8.63 9.07 -0.22
-30.04 31.56 11.68
-4.63 4.9 -1.81
-8.63 9.13 0.22
-8.34 8.82 0.64
-8.82 9.33 1.12
-7.87 8.33 -1.81
-8.77 9.28 1.57
-8.59 9.09 -1.54
-8.79 9.29 2.03
-8.6 9.1 -1.1
-8.59 9.09 -0.66
-29.94 31.67 10.06
-8.6 9.1 -0.22
-29.96 31.7 11.69
-4.61 4.91 -1.8
-8.77 9.34 0.22
-8.32 8.86 0.64
-8.83 9.4 1.13
-7.84 8.35 -1.81
-8.79 9.37 1.58
-8.57 9.13 -1.54
-8.8 9.38 2.04
-8.59 9.15 -1.1
-30.25 32.22 8.59
-8.52 9.08 -0.65
-29.86 31.81 10.07
-8.65 9.21 -0.22
-29.87 31.82 11.69
-4.6 4.93 -1.81
-8.79 9.43 0.22
-8.3 8.91 0.64
-8.85 9.49 1.14
-7.8 8.36 -1.81
-8.81 9.45 1.59
-8.5 9.11 -1.53
-8.83 9.47 2.05
-8.51 9.13 -1.09
-8.47 9.09 -0.65
-29.78 31.94 10.08
-8.59 9.21 -0.22
-29.77 31.94 11.7
-4.58 4.95 -1.81
-8.86 9.57 1.14
-7.77 8.39 -1.81
-8.82 9.53 1.6
-8.45 9.12 -1.53
-8.84 9.55 2.06
-8.49 9.17 -1.09
-8.41 9.08 -0.65
-29.7 32.08 10.09
-8.59 9.28 -0.22
-29.69 32.07 11.71
-4.58 4.98 -1.81
-8.78 9.55 0.23
-8.88 9.66 1.15
-7.72 8.4 -1.81
-8.84 9.62 1.6
-8.38 9.12 -1.52
-8.86 9.64 2.07
-8.38 9.12 -1.08
-8.37 9.11 -0.65
-29.6 32.21 10.1
-8.37 9.11 -0.22
-29.6 32.21 11.72
-4.56 5 -1.81
-8.63 9.46 0.22
-8.3 9.09 0.65
-8.9 9.75 1.15
-7.67 8.4 -1.8
-8.86 9.7 1.61
-8.33 9.13 -1.52
-8.87 9.72 2.08
-8.34 9.13 -1.08
-8.32 9.11 -0.65
-29.51 32.33 10.11
-8.32 9.11 -0.22
-29.52 32.33 11.73
-4.53 5 -1.81
-8.26 9.12 0.21
-8.25 9.1 0.64
-8.91 9.83 1.16
-7.64 8.43 -1.8
-8.88 9.8 1.62
-8.28 9.14 -1.51
-8.89 9.8 2.1
-8.28 9.14 -1.08
-8.27 9.12 -0.65
-29.43 32.46 10.12
-8.28 9.13 -0.22
-29.42 32.46 11.74
-4.52 5.02 -1.81
-8.93 9.91 1.17
-7.6 8.44 -1.8
-8.89 9.87 1.63
-8.24 9.15 -1.51
-8.91 9.89 2.11
-8.23 9.14 -1.08
-29.7 32.99 8.63
-8.24 9.15 -0.65
-29.34 32.59 10.12
-29.34 32.59 11.75
-4.5 5.04 -1.81
-8.17 9.14 0.21
-8.18 9.15 0.64
-8.95 10 1.17
-7.5 8.39 -1.78
-8.91 9.97 1.64
-8.2 9.17 -1.51
-8.93 9.98 2.12
-8.19 9.16 -1.07
-8.19 9.16 -0.64
-29.26 32.72 10.13
-8.19 9.16 -0.21
-29.25 32.71 11.76
-4.49 5.06 -1.81
-8.16 9.2 0.21
-8.16 9.19 0.64
-8.97 10.1 1.18
-7.51 8.46 -1.79
-8.92 10.06 1.65
-8.16 9.2 -1.51
-8.93 10.07 2.13
-8.17 9.2 -1.08
-8.16 9.2 -0.64
-29.16 32.86 10.14
-8.17 9.21 -0.21
-29.16 32.85 11.77
-4.48 5.08 -1.81
-8.17 9.28 0.22
-8.18 9.28 0.65
-8.98 10.19 1.19
-7.47 8.48 -1.79
-8.94 10.14 1.66
-8.16 9.26 -1.51
-8.95 10.15 2.14
-8.17 9.27 -1.08
-8.17 9.27 -0.65
-29.07 32.99 10.15
-8.18 9.28 -0.22
-29.07 32.99 11.78
-4.45 5.08 -1.81
-8.18 9.35 0.22
-8.2 9.37 0.65
-8.99 10.28 1.19
-7.37 8.42 -1.77
-8.96 10.24 1.67
-8.18 9.35 -1.53
-8.97 10.25 2.16
-8.18 9.35 -1.09
-8.19 9.35 -0.65
-28.98 33.11 10.16
-8.19 9.36 -0.22
-28.98 33.11 11.79
-4.43 5.1 -1.81
-8.2 9.43 0.22
-8.21 9.44 0.66
-9.01 10.37 1.2
-7.36 8.47 -1.78
-8.97 10.33 1.68
-8.21 9.44 -1.54
-8.99 10.34 2.17
-8.2 9.43 -1.09
-29.31 33.73 8.69
-8.22 9.46 -0.66
-28.89 33.24 10.17
-8.21 9.45 -0.22
-28.89 33.24 11.8
-4.41 5.11 -1.81
-8.22 9.52 0.22
-8.23 9.53 0.66
-9.03 10.47 1.21
-7.37 8.54 -1.79
-8.99 10.41 1.69
-8.22 9.52 -1.54
-9.02 10.45 2.19
-8.21 9.52 -1.1
-28.88 33.47 8.59
-8.22 9.52 -0.66
-28.82 33.39 10.18
-8.23 9.54 -0.22
-28.8 33.38 11.81
-4.4 5.13 -1.81
-8.23 9.61 0.22
-8.24 9.61 0.66
-9.05 10.57 1.22
-7.33 8.55 -1.78
-9 10.51 1.7
-8.23 9.6 -1.55
-9.02 10.53 2.2
-8.23 9.6 -1.11
-28.69 33.48 8.57
-8.23 9.61 -0.66
-28.71 33.51 10.19
-8.25 9.63 -0.22
-28.72 33.52 11.83
-4.38 5.15 -1.81
-8.26 9.7 0.22
-8.26 9.71 0.67
-9.07 10.66 1.22
-7.34 8.62 -1.79
-9.02 10.6 1.71
-8.24 9.69 -1.56
-9.05 10.63 2.21
-8.26 9.7 -1.11
-28.61 33.62 8.58
-8.25 9.7 -0.67
-28.63 33.63 10.2
-8.26 9.71 -0.22
-28.64 33.65 11.84
-4.35 5.15 -1.81
-8.27 9.79 0.22
-8.29 9.8 0.67
-9.09 10.76 1.23
-7.33 8.67 -1.8
-9.05 10.71 1.72
-8.27 9.79 -1.57
-9.06 10.72 2.22
-8.27 9.78 -1.12
-28.52 33.75 8.59
-8.27 9.79 -0.67
-28.55 33.78 10.21
-8.28 9.79 -0.22
-28.53 33.76 11.84
-4.34 5.17 -1.81
-8.28 9.87 0.22
-8.29 9.88 0.68
-9.1 10.84 1.24
-7.28 8.67 -1.79
-9.06 10.8 1.73
-8.28 9.87 -1.58
-9.08 10.82 2.24
-8.28 9.87 -1.13
-28.41 33.86 8.59
-8.28 9.87 -0.68
-28.41 33.86 10.2
-8.29 9.88 -0.23
-28.37 33.81 11.83
-4.32 5.19 -1.81
-8.3 9.97 0.23
-8.31 9.98 0.68
-9.12 10.95 1.25
-7.27 8.72 -1.8
-9.08 10.89 1.74
-8.29 9.95 -1.59
-9.1 10.93 2.25
-8.3 9.96 -1.13
-28.24 33.9 8.58
-8.3 9.96 -0.68
-28.25 33.91 10.19
-8.32 9.98 -0.23
-28.21 33.86 11.81
-4.31 5.21 -1.81
-8.32 10.06 0.23
-8.32 10.06 0.68
-9.13 11.04 1.25
-7.22 8.73 -1.79
-9.1 11 1.75
-8.31 10.04 -1.6
-9.12 11.03 2.27
-8.31 10.05 -1.14
-28.12 33.99 8.58
-8.31 10.05 -0.68
-28.16 34.03 10.2
-8.33 10.08 -0.23
-28.15 34.02 11.83
-4.29 5.22 -1.81
-8.34 10.16 0.23
-8.35 10.16 0.69
-9.12 11.11 1.26
-7.21 8.78 -1.8
-9.12 11.1 1.76
-8.33 10.14 -1.61
-9.13 11.12 2.28
-8.33 10.14 -1.15
-28.01 34.1 8.58
-8.34 10.15 -0.69
-28.01 34.1 10.19
-8.35 10.16 -0.23
-27.97 34.06 11.81
-4.26 5.23 -1.81
-8.36 10.24 0.23
-8.36 10.26 0.69
-9.12 11.18 1.26
-7.18 8.8 -1.8
-9.14 11.21 1.78
-8.34 10.23 -1.62
-9.16 11.23 2.3
-8.35 10.24 -1.16
-27.84 34.13 8.56
-8.35 10.24 -0.69
-27.83 34.12 10.17
-8.36 10.25 -0.23
-27.8 34.09 11.79
-4.25 5.25 -1.81
-8.37 10.33 0.23
-8.38 10.35 0.7
-9.14 11.29 1.27
-7.13 8.8 -1.79
-9.16 11.31 1.79
-7.81 9.65 -1.52
-9.19 11.35 2.31
-8.36 10.33 -1.16
-27.66 34.15 8.54
-8.38 10.35 -0.7
-27.67 34.17 10.15
-8.37 10.34 -0.23
-27.62 34.1 11.76
-4.24 5.28 -1.81
-8.39 10.43 0.23
-8.4 10.45 0.7
-9.16 11.39 1.28
-7.08 8.8 -1.79
-9.17 11.41 1.8
-7.76 9.65 -1.52
-9.18 11.42 2.32
-8.38 10.43 -1.17
-27.49 34.19 8.53
-8.38 10.43 -0.7
-27.5 34.2 10.13
-8.4 10.45 -0.23
-27.46 34.15 11.74
-4.23 5.29 -1.82
-8.4 10.52 0.24
-8.42 10.54 0.71
-9.19 11.51 1.29
-7.03 8.81 -1.79
-9.2 11.52 1.81
-7.7 9.64 -1.52
-9.2 11.52 2.34
-8.39 10.52 -1.18
-27.33 34.24 8.52
-8.4 10.52 -0.71
-27.32 34.22 10.11
-8.41 10.53 -0.24
-27.28 34.17 11.72
-4.21 5.31 -1.82
-8.43 10.63 0.24
-8.43 10.64 0.71
-5.82 7.34 -1.82
-9.21 11.62 1.3
-7.01 8.84 -1.79
-9.23 11.64 1.82
-7.66 9.67 -1.51
-9.22 11.63 2.35
-8.4 10.6 -1.18
-27.15 34.26 8.5
-8.42 10.62 -0.71
-27.16 34.26 10.09
-8.42 10.63 -0.24
-27.12 34.22 11.7
-4.19 5.32 -1.81
-8.44 10.73 0.24
-8.45 10.74 0.72
-5.79 7.36 -1.82
-9.22 11.72 1.3
-6.96 8.85 -1.78
-9.25 11.75 1.84
-7.62 9.69 -1.51
-9.24 11.75 2.37
-8.41 10.69 -1.19
-26.98 34.29 8.48
-8.44 10.73 -0.72
-26.98 34.29 10.07
-8.44 10.73 -0.24
-26.95 34.25 11.68
-4.17 5.34 -1.82
-8.45 10.82 0.24
-8.47 10.85 0.72
-5.77 7.38 -1.82
-9.25 11.83 1.31
-6.92 8.86 -1.78
-9.27 11.86 1.85
-7.55 9.67 -1.51
-9.28 11.87 2.39
-8.45 10.82 -1.2
-26.82 34.32 8.47
-8.46 10.83 -0.72
-26.82 34.33 10.06
-8.46 10.83 -0.24
-26.78 34.27 11.65
-4.15 5.35 -1.82
-8.47 10.92 0.24
-8.49 10.95 0.73
-5.74 7.41 -1.82
-9.27 11.95 1.32
-6.91 8.9 -1.78
-9.28 11.96 1.86
-7.51 9.69 -1.51
-9.29 11.98 2.4
-8.47 10.92 -1.21
-26.65 34.35 8.45
-8.47 10.92 -0.72
-26.65 34.35 10.04
-8.49 10.94 -0.24
-26.62 34.32 11.64
-4.14 5.38 -1.82
-8.5 11.04 0.24
-8.5 11.04 0.73
-5.72 7.43 -1.82
-9.29 12.07 1.33
-6.85 8.9 -1.78
-9.3 12.08 1.87
-7.51 9.75 -1.51
-9.3 12.08 2.41
-8.41 10.93 -1.21
-26.49 34.4 8.44
-8.49 11.03 -0.73
-26.48 34.38 10.02
-8.5 11.04 -0.24
-26.46 34.35 11.62
-4.12 5.39 -1.82
-8.52 11.14 0.24
-8.53 11.15 0.74
-5.68 7.43 -1.82
-9.31 12.17 1.34
-6.83 8.93 -1.78
-9.32 12.2 1.89
-7.55 9.88 -1.53
-9.33 12.21 2.43
-8.51 11.13 -1.23
-26.33 34.44 8.43
-8.5 11.12 -0.73
-26.32 34.42 10
-8.52 11.15 -0.24
-26.28 34.37 11.59
-4.09 5.39 -1.81
-8.53 11.24 0.25
-8.55 11.26 0.74
-5.67 7.46 -1.82
-9.33 12.29 1.35
-6.81 8.97 -1.78
-9.35 12.32 1.9
-7.72 10.17 -1.57
-9.35 12.32 2.45
-8.52 11.23 -1.23
-26.15 34.45 8.41
-8.53 11.24 -0.74
-26.14 34.44 9.98
-8.54 11.25 -0.25
-26.11 34.4 11.57
-4.08 5.41 -1.81
-8.61 11.43 0.25
-8.6 11.41 0.75
-5.64 7.49 -1.82
-9.35 12.41 1.36
-6.77 8.99 -1.78
-9.38 12.44 1.91
-8.23 10.92 -1.68
-9.38 12.44 2.47
-8.57 11.38 -1.25
-25.98 34.48 8.39
-8.61 11.43 -0.75
-25.99 34.49 9.97
-8.61 11.42 -0.25
-25.94 34.43 11.55
-4.06 5.42 -1.82
-8.59 11.49 0.25
-8.59 11.48 0.75
-5.61 7.5 -1.82
-9.37 12.53 1.37
-6.73 9 -1.78
-9.39 12.55 1.92
-7.58 10.13 -1.55
-9.39 12.55 2.48
-8.59 11.48 -1.25
-25.82 34.51 8.38
-8.6 11.49 -0.75
-25.83 34.52 9.95
-8.6 11.49 -0.25
-25.79 34.47 11.54
-4.05 5.45 -1.82
-8.6 11.58 0.25
-8.6 11.58 0.76
-5.58 7.52 -1.82
-9.4 12.66 1.38
-6.71 9.03 -1.78
-9.41 12.68 1.94
-7.52 10.13 -1.55
-25.68 34.58 6.82
-8.59 11.56 -1.26
-25.65 34.54 8.36
-8.58 11.55 -0.75
-25.65 34.53 9.93
-8.6 11.58 -0.25
-25.62 34.5 11.51
-4.03 5.47 -1.82
-8.62 11.69 0.25
-8.62 11.69 0.76
-5.55 7.53 -1.82
-9.43 12.78 1.39
-6.69 9.07 -1.78
-9.45 12.81 1.95
-7.49 10.16 -1.55
-25.52 34.6 6.81
-8.61 11.68 -1.27
-25.51 34.58 8.35
-8.61 11.67 -0.76
-25.5 34.57 9.92
-8.62 11.69 -0.25
-25.46 34.52 11.49
-8.64 11.8 0.26
-8.64 11.8 0.77
-5.53 7.55 -1.82
-9.43 12.88 1.4
-6.66 9.1 -1.79
-9.46 12.92 1.97
-7.45 10.17 -1.55
-25.35 34.63 6.8
-7.78 10.63 -1.15
-25.34 34.61 8.34
-8.63 11.79 -0.77
-25.34 34.61 9.9
-8.64 11.8 -0.26
-25.3 34.55 11.47
-8.65 11.9 0.26
-8.67 11.93 0.77
-5.5 7.57 -1.82
-9.47 13.03 1.41
-6.61 9.09 -1.78
-9.49 13.05 1.98
-7.96 10.95 -1.66
-25.2 34.67 6.79
-8.64 11.89 -1.29
-25.17 34.63 8.32
-8.66 11.91 -0.77
-25.17 34.63 9.88
-8.67 11.93 -0.26
-25.13 34.58 11.45
-8.68 12.03 0.26
-8.69 12.04 0.78
-5.47 7.58 -1.82
-9.5 13.17 1.42
-6.59 9.13 -1.78
-9.51 13.18 2
-7.46 10.34 -1.57
-25.04 34.7 6.78
-8.66 12.01 -1.3
-25 34.66 8.31
-8.67 12.01 -0.78
-25.02 34.67 9.87
-8.69 12.05 -0.26
-24.97 34.61 11.44
-8.71 12.16 0.26
-8.71 12.16 0.78
-5.46 7.62 -1.82
-9.52 13.29 1.43
-6.57 9.17 -1.79
-9.53 13.31 2.01
-7.35 10.26 -1.55
-24.87 34.72 6.76
-8.69 12.14 -1.31
-24.84 34.69 8.29
-8.69 12.14 -0.78
-24.84 34.69 9.85
-8.71 12.16 -0.26
-24.81 34.64 11.42
-8.72 12.27 0.26
-10.19 14.34 0.92
-5.43 7.64 -1.82
-9.55 13.43 1.44
-6.56 9.22 -1.79
-9.56 13.44 2.03
-7.32 10.29 -1.55
-24.71 34.75 6.75
-8.71 12.25 -1.31
-24.69 34.73 8.28
-8.72 12.27 -0.79
-24.69 34.73 9.84
-8.73 12.28 -0.26
-24.65 34.68 11.4
-8.75 12.4 0.26
-10.22 14.49 0.93
-5.39 7.64 -1.82
-9.57 13.56 1.45
-6.5 9.21 -1.78
-9.59 13.58 2.04
-7.27 10.3 -1.55
-24.56 34.8 6.75
-8.73 12.37 -1.32
-24.55 34.79 8.28
-8.74 12.39 -0.79
-24.56 34.8 9.83
-8.75 12.4 -0.26
-24.56 34.8 11.41
-8.76 12.51 0.27
-10.24 14.62 0.94
-5.36 7.65 -1.82
-9.59 13.69 1.46
-6.45 9.21 -1.78
-9.61 13.72 2.06
-7.25 10.35 -1.55
-24.45 34.9 6.75
-8.76 12.51 -1.34
-24.45 34.9 8.28
-8.76 12.5 -0.8
-24.46 34.93 9.84
-8.78 12.53 -0.27
-24.47 34.94 11.43
-8.79 12.65 0.27
-10.26 14.76 0.94
-9.62 13.83 1.47
-6.43 9.25 -1.78
-9.63 13.86 2.07
-7.19 10.35 -1.55
-24.36 35.04 6.76
-8.78 12.63 -1.35
-24.36 35.03 8.29
-8.78 12.63 -0.81
-24.38 35.06 9.86
-8.8 12.66 -0.27
-24.38 35.07 11.45
-8.82 12.78 0.27
-10.28 14.9 0.95
-9.65 13.98 1.49
-6.39 9.26 -1.78
-9.65 13.99 2.09
-7.12 10.31 -1.54
-24.27 35.17 6.77
-7.95 11.52 -1.22
-24.27 35.17 8.31
-8.81 12.76 -0.81
-24.29 35.19 9.87
-8.83 12.79 -0.27
-24.29 35.2 11.46
-8.84 12.91 0.27
-9.96 14.54 0.92
-9.68 14.12 1.5
-6.34 9.25 -1.78
-9.69 14.14 2.1
-7.02 10.25 -1.53
-24.18 35.3 6.78
-8.83 12.89 -1.37
-24.19 35.31 8.32
-8.83 12.89 -0.82
-24.2 35.33 9.89
-8.85 12.92 -0.27
-24.21 35.34 11.48
-8.87 13.05 0.28
-9.95 14.63 0.93
-9.7 14.27 1.51
-6.34 9.32 -1.79
-9.72 14.3 2.12
-6.97 10.26 -1.52
-24.09 35.43 6.79
-8.85 13.02 -1.38
-24.08 35.42 8.33
-8.85 13.02 -0.83
-24.11 35.46 9.9
-8.87 13.04 -0.28
-24.11 35.46 11.49
-8.89 13.17 0.28
-9.99 14.8 0.94
-9.73 14.42 1.52
-6.31 9.35 -1.79
-9.75 14.45 2.14
-6.94 10.28 -1.52
-24 35.57 6.8
-6.97 10.33 -1.09
-24 35.56 8.34
-8.89 13.18 -0.83
-24.02 35.6 9.91
-8.9 13.19 -0.28
-24.02 35.6 11.51
-8.92 13.32 0.28
-10.41 15.54 0.98
-9.76 14.57 1.53
-6.23 9.3 -1.77
-9.77 14.59 2.16
-6.9 10.3 -1.52
-23.91 35.7 6.81
-6.9 10.31 -1.09
-23.91 35.7 8.35
-8.91 13.3 -0.84
-23.93 35.73 9.93
-8.93 13.33 -0.28
-23.94 35.75 11.53
-8.95 13.47 0.28
-10.44 15.7 0.99
-9.78 14.72 1.55
-6.23 9.37 -1.78
-9.8 14.74 2.17
-6.85 10.3 -1.52
-23.82 35.84 6.82
-8.94 13.45 -1.41
-23.82 35.84 8.36
-8.94 13.45 -0.85
-23.83 35.85 9.94
-8.95 13.47 -0.28
-23.85 35.88 11.54
-8.97 13.61 0.28
-10.46 15.86 1
-9.82 14.88 1.56
-6.2 9.4 -1.78
-9.83 14.91 2.19
-6.75 10.24 -1.51
-23.72 35.96 6.82
-8.96 13.59 -1.42
-23.73 35.97 8.38
-8.97 13.59 -0.85
-23.74 35.99 9.95
-8.98 13.61 -0.28
-23.75 36 11.56
-9.06 13.84 0.29
-10.5 16.04 1
-9.83 15.02 1.57
-6.19 9.45 -1.79
-9.86 15.06 2.21
-6.72 10.27 -1.51
-23.63 36.1 6.83
-9.02 13.78 -1.44
-23.64 36.12 8.39
-9.06 13.84 -0.87
-23.65 36.13 9.97
-9.07 13.85 -0.29
-23.66 36.14 11.57
-9.05 13.93 0.29
-10.53 16.21 1.01
-9.87 15.19 1.58
-6.16 9.48 -1.79
-9.89 15.22 2.23
-6.7 10.31 -1.51
-23.54 36.24 6.84
-9.04 13.92 -1.45
-23.54 36.23 8.4
-9.06 13.94 -0.87
-23.56 36.26 9.98
-9.05 13.94 -0.29
-23.57 36.27 11.59
-9.07 14.06 0.29
-10.57 16.38 1.02
-9.9 15.35 1.6
-6.13 9.51 -1.79
-9.92 15.38 2.25
-6.7 10.39 -1.52
-23.46 36.37 6.86
-9.06 14.05 -1.46
-23.44 36.35 8.41
-9.04 14.02 -0.87
-23.48 36.4 10
-9.08 14.08 -0.29
-23.48 36.4 11.61
-9.1 14.21 0.29
-10.58 16.53 1.03
-9.94 15.53 1.61
-6.09 9.52 -1.79
-9.95 15.54 2.27
-6.72 10.5 -1.53
-23.36 36.5 6.86
-9.07 14.17 -1.47
-23.36 36.5 8.42
-9.08 14.18 -0.88
-23.38 36.53 10.01
-9.1 14.23 -0.29
-23.39 36.55 11.63
-9.13 14.38 0.3
-10.48 16.5 1.02
-5.05 7.95 -1.83
-9.96 15.69 1.63
-6.06 9.55 -1.79
-9.98 15.72 2.29
-6.63 10.45 -1.52
-23.26 36.64 6.87
-9.12 14.36 -1.49
-23.26 36.64 8.44
-9.11 14.35 -0.89
-23.28 36.66 10.03
-9.13 14.37 -0.3
-23.29 36.69 11.64
-9.15 14.53 0.3
-10.35 16.43 1.02
-9.98 15.85 1.64
-6.03 9.58 -1.79
-10.01 15.88 2.31
-6.6 10.48 -1.52
-23.17 36.77 6.88
-7.2 11.43 -1.18
-23.16 36.77 8.45
-9.14 14.51 -0.9
-23.19 36.81 10.04
-9.15 14.53 -0.3
-23.22 36.86 11.67
-9.18 14.68 0.3
-10.29 16.47 1.02
-10.02 16.04 1.65
-5.99 9.58 -1.79
-10.04 16.06 2.33
-6.56 10.5 -1.52
-23.1 36.96 6.9
-7.13 11.41 -1.18
-9.17 14.66 -0.91
-23.11 36.97 10.07
-9.18 14.69 -0.3
-9.2 14.84 0.3
-10.23 16.49 1.02
-10.07 16.23 1.67
-5.97 9.62 -1.79
-10.07 16.24 2.35
-6.55 10.56 -1.53
-22.97 37.03 6.9
-9.19 14.81 -0.91
-22.97 37.03 10.06
-9.21 14.85 -0.31
-21.77 35.09 11.07
-9.24 15.01 0.31
-10.16 16.5 1.02
-10.1 16.4 1.69
-5.94 9.65 -1.79
-10.11 16.42 2.37
-6.55 10.64 -1.53
-21.66 35.18 6.54
-7.23 11.75 -1.21
-21.64 35.14 8.02
-9.22 14.97 -0.92
-21.64 35.14 9.53
-9.24 15.01 -0.31
-21.61 35.1 11.05
-9.27 15.17 0.31
-10.13 16.58 1.7
-5.91 9.67 -1.79
-10.14 16.6 2.39
-6.57 10.76 -1.55
-21.5 35.2 6.53
-9.27 15.17 -1.56
-21.49 35.18 8.01
-9.25 15.14 -0.93
-21.49 35.18 9.52
-9.27 15.17 -0.31
-21.47 35.14 11.03
-9.3 15.34 0.31
-10.23 16.87 1.03
-4.88 8.05 -1.83
-10.16 16.77 1.72
-5.88 9.7 -1.8
-10.19 16.81 2.41
-6.53 10.78 -1.55
-21.35 35.23 6.52
-6.58 10.86 -1.11
-21.34 35.21 8
-9.29 15.32 -0.94
-21.34 35.21 9.51
-9.3 15.34 -0.31
-21.31 35.16 11.02
-9.32 15.5 0.32
-10.26 17.05 1.04
-4.86 8.09 -1.83
-10.2 16.96 1.73
-5.84 9.72 -1.8
-6.51 10.83 -1.55
-21.2 35.25 6.52
-6.48 10.77 -1.1
-21.18 35.23 7.99
-21.19 35.24 9.49
-9.33 15.52 -0.32
-21.16 35.19 11
-9.4 15.75 0.32
-10.28 17.23 1.05
-4.83 8.1 -1.83
-10.24 17.16 1.75
-5.81 9.75 -1.8
-6.56 11 -1.57
-21.05 35.29 6.51
-6.52 10.93 -1.11
-21.03 35.26 7.98
-9.4 15.75 -0.96
-21.07 35.33 9.5
-9.4 15.76 -0.32
-21.09 35.36 11.03
-9.39 15.87 0.32
-10.3 17.4 1.06
-4.8 8.11 -1.83
-10.28 17.36 1.77
-5.78 9.77 -1.8
-6.53 11.03 -1.57
-20.99 35.46 6.53
-20.97 35.43 8
-9.38 15.85 -0.97
-20.97 35.43 9.5
-9.41 15.89 -0.32
-20.94 35.39 11.02
-9.43 16.05 0.32
-10.32 17.57 1.07
-4.77 8.12 -1.83
-10.31 17.56 1.78
-5.75 9.79 -1.8
-6.69 11.39 -1.62
-20.83 35.47 6.51
-6.21 10.57 -1.07
-20.82 35.45 7.99
-9.44 16.07 -0.98
-20.82 35.45 9.49
-9.43 16.05 -0.32
-20.79 35.41 11
-9.46 16.24 0.33
-10.36 17.78 1.08
-4.74 8.13 -1.83
-10.35 17.76 1.8
-5.71 9.8 -1.8
-10.41 17.87 2.54
-6.68 11.46 -1.63
-20.68 35.51 6.51
-6.38 10.96 -1.11
-20.67 35.48 7.98
-9.47 16.26 -0.99
-20.67 35.48 9.48
-9.46 16.24 -0.33
-20.64 35.43 10.99
-9.49 16.43 0.33
-10.4 18 1.09
-4.72 8.16 -1.83
-10.39 17.99 1.82
-5.67 9.81 -1.79
-20.54 35.54 5.04
-6.78 11.73 -1.66
-20.54 35.54 6.5
-6.19 10.71 -1.08
-20.52 35.51 7.97
-9.51 16.45 -1
-20.53 35.52 9.47
-9.5 16.43 -0.33
-20.49 35.46 10.97
-9.53 16.62 0.33
-10.48 18.28 1.1
-4.69 8.19 -1.83
-10.43 18.2 1.84
-5.64 9.83 -1.79
-20.39 35.57 5.03
-6.75 11.78 -1.67
-20.39 35.57 6.49
-20.37 35.54 7.96
-9.52 16.62 -1
-20.37 35.54 9.46
-9.54 16.64 -0.33
-20.35 35.5 10.97
-6.63 11.67 0.23
-10.44 18.37 1.11
-4.67 8.21 -1.83
-10.48 18.44 1.86
-5.61 9.87 -1.8
-20.24 35.59 5.03
-20.23 35.59 6.48
-6.85 12.05 -1.21
-20.22 35.56 7.95
-9.55 16.8 -1.01
-20.22 35.56 9.44
-9.57 16.84 -0.34
-20.2 35.53 10.95
-6.59 11.69 0.23
-10.81 19.17 1.15
-4.63 8.21 -1.83
-10.52 18.66 1.87
-5.58 9.9 -1.8
-20.09 35.63 5.02
-20.08 35.62 6.48
-6.74 11.95 -1.2
-20.07 35.6 7.94
-9.6 17.02 -1.02
-20.08 35.6 9.44
-9.61 17.03 -0.34
-20.05 35.56 10.94
-6.54 11.69 0.23
-10.85 19.4 1.17
-4.6 8.22 -1.83
-10.56 18.88 1.89
-5.55 9.92 -1.8
-19.95 35.67 5.02
-6.65 11.9 -1.67
-19.94 35.66 6.47
-7.09 12.67 -1.27
-19.93 35.63 7.94
-9.7 17.34 -1.04
-19.93 35.63 9.43
-19.9 35.58 10.92
-6.49 11.69 0.23
-10.86 19.57 1.17
-4.57 8.24 -1.83
-10.6 19.11 1.91
-5.51 9.93 -1.8
-19.8 35.69 5.01
-6.69 12.06 -1.69
-19.8 35.68 6.46
-6.57 11.84 -1.18
-19.78 35.66 7.93
-6.57 11.84 -0.71
-19.79 35.66 9.42
-6.57 11.84 -0.24
-19.76 35.62 10.91
-6.44 11.7 0.23
-10.99 19.98 1.2
-4.55 8.26 -1.83
-10.65 19.35 1.93
-5.48 9.95 -1.8
-19.65 35.71 5
-6.7 12.18 -1.71
-19.65 35.71 6.46
-6.51 11.84 -1.18
-19.63 35.68 7.92
-6.5 11.81 -0.71
-19.64 35.69 9.4
-6.47 11.77 -0.23
-19.62 35.65 10.9
-6.39 11.72 0.23
-10.95 20.06 1.2
-4.52 8.28 -1.83
-10.69 19.58 1.95
-5.45 9.98 -1.8
-19.5 35.74 5
-6.41 11.74 -1.64
-19.5 35.74 6.45
-6.39 11.71 -1.17
-19.48 35.7 7.91
-6.39 11.72 -0.7
-19.48 35.71 9.39
-19.46 35.67 10.89
-6.35 11.73 0.23
-10.87 20.09 1.2
-4.49 8.29 -1.83
-10.74 19.85 1.97
-5.41 10.01 -1.8
-19.35 35.77 4.99
-6.35 11.74 -1.64
-19.35 35.76 6.44
-6.35 11.73 -1.17
-19.34 35.74 7.9
-6.36 11.75 -0.7
-19.34 35.74 9.38
-6.34 11.71 -0.23
-19.32 35.71 10.88
-6.3 11.73 0.23
-10.79 20.11 1.2
-4.46 8.31 -1.83
-10.8 20.13 2
-5.37 10.02 -1.8
-19.22 35.81 4.99
-6.32 11.77 -1.64
-19.21 35.8 6.44
-6.32 11.77 -1.17
-19.19 35.77 7.89
-6.32 11.78 -0.7
-19.19 35.77 9.37
-6.33 11.79 -0.23
-19.17 35.73 10.86
-6.24 11.73 0.23
-4.43 8.33 -1.83
-10.75 20.2 2
-5.34 10.04 -1.8
-19.07 35.83 4.98
-6.72 12.63 -1.76
-19.06 35.82 6.43
-6.88 12.93 -1.28
-19.04 35.78 7.88
-6.88 12.94 -0.77
-19.05 35.8 9.36
-6.9 12.96 -0.26
-19.03 35.76 10.85
-6.19 11.74 0.23
-10.92 20.7 1.23
-4.4 8.34 -1.83
-10.88 20.61 2.04
-5.31 10.06 -1.8
-18.91 35.84 4.98
-6.31 11.95 -1.66
-18.91 35.84 6.42
-6.88 13.03 -1.29
-18.9 35.81 7.87
-6.86 13 -0.77
-18.9 35.82 9.35
-6.88 13.04 -0.26
-18.88 35.78 10.84
-6.15 11.74 0.23
-10.97 20.96 1.24
-4.38 8.36 -1.83
-10.94 20.89 2.06
-5.28 10.09 -1.8
-18.78 35.87 4.97
-18.78 35.87 6.41
-6.85 13.09 -1.29
-18.76 35.84 7.86
-6.84 13.07 -0.77
-18.76 35.84 9.34
-6.86 13.1 -0.26
-18.74 35.8 10.83
-6.1 11.76 0.23
-11.01 21.22 1.25
-4.34 8.37 -1.83
-10.99 21.18 2.09
-5.25 10.11 -1.8
-18.64 35.91 4.97
-6.22 11.99 -1.66
-18.63 35.89 6.4
-6.82 13.14 -1.29
-18.62 35.88 7.86
-6.81 13.13 -0.77
-18.62 35.87 9.33
-6.82 13.13 -0.26
-18.6 35.84 10.82
-6.06 11.77 0.23
-11.05 21.47 1.27
-4.32 8.39 -1.83
-11.03 21.43 2.11
-5.21 10.13 -1.8
-18.49 35.94 4.96
-18.48 35.92 6.4
-6.77 13.15 -1.29
-18.47 35.89 7.85
-6.77 13.16 -0.78
-18.47 35.9 9.32
-6.77 13.16 -0.26
-18.45 35.86 10.81
-6.01 11.77 0.23
-11.11 21.78 1.28
-4.29 8.41 -1.83
-11.1 21.76 2.14
-5.18 10.15 -1.8
-18.35 35.96 4.96
-6.62 12.97 -1.79
-18.34 35.95 6.39
-6.73 13.18 -1.29
-18.32 35.91 7.84
-6.73 13.18 -0.78
-18.33 35.93 9.31
-6.73 13.18 -0.26
-18.31 35.89 10.8
-5.96 11.78 0.23
-11.14 22.03 1.29
-4.26 8.42 -1.83
-11.14 22.03 2.16
-5.14 10.17 -1.81
-18.21 35.99 4.95
-6.66 13.16 -1.81
-18.21 35.99 6.39
-6.68 13.21 -1.29
-18.18 35.95 7.83
-6.68 13.21 -0.78
-18.19 35.96 9.3
-6.66 13.17 -0.26
-18.16 35.91 10.78
-5.91 11.79 0.23
-4.23 8.44 -1.83
-11.21 22.36 2.19
-5.11 10.19 -1.81
-18.06 36.01 4.95
-6.6 13.17 -1.81
-18.06 36.01 6.38
-6.63 13.22 -1.29
-18.05 35.99 7.83
-6.64 13.24 -0.78
-18.04 35.97 9.29
-6.62 13.2 -0.26
-18.02 35.94 10.77
-5.87 11.81 0.23
-11.57 23.28 1.36
-4.2 8.45 -1.83
-11.26 22.65 2.21
-5.08 10.22 -1.81
-17.91 36.04 4.94
-6 12.06 -1.65
-17.91 36.03 6.37
-6.59 13.26 -1.3
-17.9 36.02 7.82
-6.6 13.28 -0.78
-17.9 36.01 9.28
-6.6 13.28 -0.26
-17.88 35.97 10.76
-5.82 11.82 0.23
-11.6 23.54 1.38
-4.17 8.46 -1.83
-11.32 22.97 2.24
-5.05 10.24 -1.81
-17.78 36.08 4.94
-5.95 12.08 -1.65
-17.77 36.07 6.37
-17.76 36.04 7.81
-7.15 14.52 -0.85
-17.76 36.04 9.28
-7.15 14.52 -0.28
-17.73 35.99 10.75
-5.77 11.81 0.23
-11.61 23.78 1.39
-4.14 8.48 -1.83
-11.39 23.31 2.27
-5.01 10.26 -1.81
-17.63 36.1 4.93
-5.9 12.07 -1.65
-17.62 36.09 6.36
-7.13 14.61 -1.42
-17.6 36.05 7.8
-7.11 14.57 -0.85
-17.61 36.06 9.26
-7.12 14.58 -0.28
-17.6 36.04 10.75
-5.72 11.82 0.23
-8.92 18.44 1.07
-4.11 8.49 -1.83
-11.44 23.64 2.3
-4.98 10.28 -1.81
-17.49 36.13 4.93
-5.54 11.44 -1.56
-17.49 36.13 6.36
-7.09 14.65 -1.42
-17.47 36.09 7.79
-7.07 14.61 -0.85
-17.47 36.08 9.26
-7.09 14.64 -0.28
-17.45 36.05 10.73
-5.68 11.84 0.23
-8.86 18.47 1.07
-4.09 8.52 -1.84
-11.49 23.94 2.32
-4.94 10.3 -1.81
-17.35 36.14 4.92
-17.35 36.14 6.35
-5.8 12.08 -1.17
-17.34 36.12 7.79
-7.03 14.65 -0.85
-17.33 36.11 9.25
-7.03 14.64 -0.28
-17.31 36.07 10.72
-5.64 11.85 0.23
-9.05 19.04 1.1
-4.05 8.52 -1.83
-11.58 24.34 2.36
-4.91 10.31 -1.81
-17.21 36.17 4.92
-17.2 36.17 6.34
-5.75 12.09 -1.17
-17.19 36.15 7.78
-6.98 14.67 -0.85
-17.19 36.14 9.24
-6.97 14.65 -0.28
-17.18 36.12 10.72
-5.59 11.85 0.23
-8.98 19.06 1.1
-4.02 8.53 -1.83
-11.65 24.71 2.39
-4.87 10.34 -1.81
-17.06 36.21 4.91
-17.06 36.2 6.34
-5.7 12.09 -1.17
-17.05 36.18 7.77
-6.91 14.67 -0.85
-17.04 36.17 9.23
-6.92 14.68 -0.28
-17.03 36.14 10.7
-5.53 11.85 0.23
-8.9 19.06 1.1
-3.99 8.55 -1.83
-11.71 25.07 2.42
-4.83 10.35 -1.81
-16.92 36.24 4.91
-16.92 36.23 6.33
-6.86 14.69 -1.42
-16.9 36.19 7.76
-6.87 14.71 -0.85
-16.9 36.19 9.22
-6.88 14.72 -0.28
-16.88 36.16 10.69
-5.49 11.86 0.23
-8.64 18.67 1.08
-3.96 8.56 -1.83
-11.77 25.44 2.45
-4.8 10.38 -1.81
-16.78 36.26 4.91
-16.78 36.26 6.33
-5.6 12.11 -1.17
-16.76 36.22 7.76
-16.76 36.23 9.22
-16.74 36.18 10.68
-5.44 11.87 0.23
-8.75 19.08 1.1
-3.93 8.58 -1.84
-11.86 25.88 2.49
-4.77 10.41 -1.81
-16.63 36.28 4.9
-6.3 13.74 -1.86
-16.63 36.27 6.32
-6.7 14.61 -1.41
-16.62 36.25 7.75
-7.37 16.08 -0.93
-16.62 36.26 9.21
-6.1 13.31 -0.26
-16.6 36.22 10.68
-5.4 11.88 0.23
-8.7 19.15 1.1
-3.9 8.59 -1.83
-11.97 26.35 2.53
-4.74 10.43 -1.81
-16.5 36.31 4.9
-6.07 13.36 -1.8
-16.49 36.3 6.32
-6.06 13.34 -1.28
-16.49 36.3 7.75
-6.06 13.34 -0.77
-16.49 36.3 9.2
-6.04 13.31 -0.26
-16.46 36.24 10.67
-5.35 11.89 0.23
-11.93 26.5 1.52
-3.87 8.6 -1.83
-4.7 10.45 -1.81
-16.35 36.34 4.89
-6.04 13.41 -1.81
-16.35 36.33 6.31
-6.02 13.37 -1.28
-16.34 36.31 7.74
-7.26 16.14 -0.93
-16.35 36.34 9.2
-7.27 16.15 -0.31
-16.32 36.27 10.66
-5.3 11.89 0.23
-11.97 26.84 1.54
-3.84 8.62 -1.83
-4.67 10.47 -1.82
-16.22 36.37 4.89
-5.37 12.05 -1.62
-16.22 36.37 6.31
-6.99 15.68 -1.5
-16.19 36.32 7.73
-7.2 16.15 -0.93
-16.21 36.36 9.19
-7.2 16.15 -0.31
-16.18 36.29 10.65
-5.26 11.9 0.23
-12.06 27.3 1.56
-3.82 8.64 -1.84
-4.63 10.49 -1.82
-16.08 36.38 4.88
-5.34 12.09 -1.62
-16.08 36.39 6.3
-6.79 15.37 -1.47
-16.06 36.34 7.72
-7.14 16.17 -0.93
-16.07 36.38 9.18
-7.14 16.17 -0.31
-16.05 36.32 10.64
-5.22 11.91 0.23
-12.16 27.77 1.59
-3.79 8.66 -1.84
-4.61 10.52 -1.82
-15.95 36.41 4.88
-5.32 12.16 -1.63
-15.94 36.41 6.3
-6.88 15.71 -1.5
-15.93 36.36 7.72
-15.93 36.38 9.17
-15.91 36.34 10.63
-5.17 11.92 0.23
-12.25 28.24 1.61
-3.76 8.66 -1.83
-3.91 9.01 0.86
-4.58 10.54 -1.82
-15.81 36.44 4.88
-5.27 12.14 -1.63
-15.81 36.42 6.29
-7.8 17.97 -1.71
-15.8 36.4 7.71
-5.18 11.95 -0.68
-15.8 36.41 9.16
-5.18 11.94 -0.23
-15.78 36.37 10.62
-5.12 11.94 0.23
-12.34 28.75 1.64
-3.72 8.67 -1.83
-3.86 9 0.86
-4.54 10.57 -1.82
-15.66 36.49 4.88
-15.65 36.46 6.28
-5.13 11.95 -1.14
-15.64 36.44 7.71
-15.64 36.44 9.16
-5.12 11.94 -0.23
-15.62 36.39 10.61
-5.08 11.94 0.23
-12.44 29.25 1.67
-3.69 8.68 -1.83
-3.83 9 0.86
-4.5 10.57 -1.82
-15.52 36.49 4.87
-5.11 12 -1.6
-15.52 36.49 6.28
-5.12 12.03 -1.14
-15.5 36.46 7.7
-5.1 11.99 -0.68
-15.51 36.46 9.15
-7.5 17.63 -0.33
-15.49 36.42 10.6
-5.03 11.95 0.23
-3.66 8.69 -1.83
-3.79 9.01 0.85
-4.46 10.6 -1.82
-15.37 36.52 4.87
-5.87 13.94 -1.86
-15.38 36.52 6.28
-15.36 36.48 7.69
-7.43 17.64 -1
-15.37 36.5 9.14
-7.43 17.64 -0.33
-15.35 36.46 10.6
-4.99 11.95 0.23
-3.63 8.71 -1.84
-3.76 9.01 0.85
-4.43 10.62 -1.82
-15.24 36.55 4.86
-5.82 13.96 -1.86
-15.25 36.55 6.27
-6.61 15.86 -1.5
-15.23 36.51 7.69
-15.22 36.5 9.13
-15.21 36.48 10.59
-4.94 11.97 0.23
-3.6 8.72 -1.83
-3.73 9.02 0.85
-3.65 8.84 -1.51
-15.1 36.58 4.86
-3.65 8.85 -1.18
-15.09 36.56 6.26
-6.53 15.81 -1.5
-15.08 36.54 7.68
-7.87 19.07 -1.08
-15.08 36.54 9.13
-7.87 19.08 -0.36
-15.07 36.51 10.58
-4.9 11.97 0.23
-3.68 9.01 0.51
-3.57 8.73 -1.83
-3.69 9.02 0.85
-3.62 8.86 -1.52
-14.97 36.6 4.86
-3.63 8.88 -1.18
-14.96 36.58 6.26
-3.61 8.83 -0.83
-14.95 36.56 7.68
-3.64 8.9 -0.5
-14.95 36.57 9.12
-7.81 19.11 -0.36
-14.93 36.51 10.57
-3.61 8.92 0.17
-3.64 9 0.51
-3.55 8.76 -1.84
-3.66 9.03 0.85
-4.33 10.69 -1.83
-14.83 36.62 4.85
-5.68 14.03 -1.86
-14.83 36.61 6.26
-3.6 8.9 -0.84
-14.82 36.58 7.67
-3.62 8.93 -0.5
-14.82 36.58 9.11
-14.75 36.41 10.53
-3.58 8.92 0.17
-3.59 8.94 0.5
-3.52 8.78 -1.84
-3.59 8.96 0.84
-4.29 10.7 -1.83
-14.67 36.57 4.84
-4.89 12.2 -1.61
-14.66 36.53 6.23
-6.38 15.9 -1.5
-14.63 36.45 7.64
-14.63 36.47 9.07
-3.59 8.95 -0.17
-14.61 36.43 10.52
-4.75 11.99 0.23
-3.57 9 0.51
-3.49 8.8 -1.84
-3.58 9.04 0.85
-4.26 10.73 -1.83
-14.48 36.53 4.82
-4.85 12.23 -1.62
-14.48 36.52 6.22
-6.32 15.93 -1.5
-14.47 36.5 7.63
-6.56 16.55 -0.93
-14.47 36.5 9.07
-8.16 20.57 -0.39
-14.46 36.47 10.51
-4.72 12.01 0.23
-3.54 9.01 0.51
-3.46 8.81 -1.84
-3.55 9.05 0.85
-4.23 10.77 -1.83
-14.36 36.56 4.82
-5.52 14.06 -1.86
-14.35 36.55 6.22
-7.56 19.25 -1.81
-14.34 36.52 7.63
-6.51 16.59 -0.93
-14.34 36.53 9.06
-8.07 20.55 -0.39
-14.33 36.49 10.5
-4.67 12.01 0.22
-3.51 9.03 0.51
-3.44 8.84 -1.84
-3.51 9.04 0.85
-4.19 10.78 -1.83
-14.22 36.58 4.82
-5.48 14.1 -1.86
-14.22 36.58 6.22
-4.73 12.18 -1.14
-14.2 36.54 7.62
-6.45 16.58 -0.93
-14.21 36.55 9.05
-6.9 17.75 -0.33
-14.19 36.51 10.49
-4.62 12 0.22
-3.41 8.85 -1.84
-3.48 9.05 0.85
-4.16 10.81 -1.83
-14.09 36.61 4.82
-5.43 14.12 -1.86
-14.09 36.6 6.21
-6.13 15.94 -1.49
-14.07 36.56 7.62
-14.08 36.59 9.05
-6.84 17.77 -0.33
-14.08 36.58 10.5
-4.57 12.01 0.22
-13.97 36.69 2.06
-3.38 8.88 -1.85
-3.45 9.05 0.85
-4.12 10.83 -1.84
-13.95 36.66 4.82
-5.38 14.14 -1.86
-13.96 36.66 6.21
-6.1 16.02 -1.5
-13.96 36.67 7.63
-8.39 22.03 -1.24
-14.05 36.92 9.12
-8.39 22.04 -0.41
-14.58 38.29 10.98
-4.53 12.03 0.22
-13.85 36.74 2.06
-3.35 8.9 -1.85
-3.42 9.06 0.85
-4.09 10.85 -1.84
-14.47 38.38 5.04
-4.59 12.19 -1.6
-14.46 38.37 6.49
-7.28 19.33 -1.81
-14.46 38.37 7.97
-8.31 22.05 -1.24
-8.31 22.06 -0.41
-15.08 40.01 11.46
-4.49 12.04 0.22
-14.33 38.45 2.15
-3.32 8.9 -1.85
-3.38 9.07 0.85
-4.06 10.88 -1.84
-14.93 40.07 5.25
-14.56 39.08 6.61
-5.95 15.96 -1.49
-14.93 40.05 8.31
-7.17 19.23 -1.08
-14.74 39.54 9.74
-7.17 19.23 -0.36
-14.92 40.03 11.45
-14.47 39.23 2.19
-3.29 8.92 -1.85
-3.34 9.06 0.84
-4.02 10.9 -1.84
-14.8 40.12 5.25
-5.25 14.23 -1.86
-14.8 40.13 6.77
-5.9 16 -1.49
-14.8 40.12 8.31
-7.11 19.27 -1.08
-7.11 19.27 -0.36
-15.4 41.75 11.92
-4.93 13.5 0.25
-14.68 40.21 2.24
-3.27 8.95 -1.85
-3.32 9.09 0.85
-3.98 10.91 -1.84
-14.67 40.18 5.25
-5.2 14.25 -1.86
-14.66 40.18 6.77
-5.84 15.99 -1.49
-15.26 41.81 8.65
-7.5 20.54 -1.15
-8.59 23.52 -0.44
-15.25 41.78 11.92
-4.88 13.51 0.25
-14.54 40.26 2.24
-3.24 8.96 -1.85
-3.95 10.94 -1.84
-15.14 41.91 5.47
-5.15 14.26 -1.86
-16.43 45.5 7.66
-6.03 16.7 -1.55
-16.41 45.44 9.39
-7.41 20.52 -1.14
-16.42 45.46 11.16
-8.5 23.53 -0.44
-16.43 45.48 12.96
-4.83 13.52 0.25
-16.27 45.59 2.54
-3.21 8.98 -1.85
-16.27 45.59 4.23
-3.91 10.96 -1.84
-16.27 45.58 5.94
-5.09 14.27 -1.86
-16.27 45.6 7.67
-5.73 16.06 -1.49
-16.27 45.6 9.41
-7.33 20.54 -1.14
-16.29 45.63 11.19
-7.4 20.73 -0.38
-16.29 45.66 12.99
-4.78 13.54 0.25
-16.14 45.69 2.54
-3.17 8.98 -1.85
-16.16 45.76 4.25
-3.88 10.98 -1.84
-16.15 45.75 5.96
-5.04 14.27 -1.86
-16.16 45.76 7.69
-5.92 16.76 -1.56
-16.16 45.76 9.43
-5.92 16.75 -0.93
-16.17 45.8 11.21
-8.37 23.7 -0.44
-16.19 45.85 13.03
-4.73 13.54 0.25
-16.01 45.88 2.55
-3.14 8.99 -1.85
-16.03 45.92 4.25
-3.84 11.01 -1.85
-16.03 45.92 5.97
-4.99 14.29 -1.86
-16.03 45.92 7.7
-5.59 16.01 -1.48
-16.03 45.94 9.46
-5.82 16.68 -0.93
-16.05 45.99 11.24
-8.28 23.73 -0.44
-16.06 46.01 13.06
-5.17 14.98 0.28
-15.9 46.05 2.55
-3.13 9.07 -1.86
-15.91 46.09 4.27
-3.8 11.02 -1.85
-15.92 46.1 5.99
-4.94 14.31 -1.86
-15.92 46.1 7.73
-5.56 16.11 -1.49
-15.92 46.13 9.49
-5.75 16.64 -0.92
-16.26 47.11 11.5
-7.67 22.21 -0.41
-5.12 14.99 0.28
-15.78 46.23 2.56
-3.11 9.1 -1.87
-16.13 47.23 4.37
-3.77 11.04 -1.85
-15.81 46.32 6.01
-4.89 14.33 -1.86
-16.12 47.21 7.9
-5.51 16.13 -1.49
-7.71 22.58 -1.25
-16.69 48.88 11.92
-8.11 23.75 -0.44
-5.06 15 0.28
-15.97 47.29 2.62
-3.08 9.11 -1.87
-15.97 47.31 4.37
-3.74 11.07 -1.85
-15.95 47.24 6.12
-4.84 14.33 -1.86
-16.52 48.94 8.18
-6.62 19.62 -1.81
-7.82 23.16 -1.28
-16.52 48.93 11.92
-8.02 23.77 -0.44
-5.01 15.02 0.28
-3.04 9.11 -1.87
-3.7 11.09 -1.85
-4.79 14.35 -1.86
-16.91 50.66 8.46
-6.56 19.64 -1.81
-5.64 16.88 -0.93
-16.9 50.64 12.33
-7.96 23.83 -0.44
-16.9 50.62 14.3
-5.43 16.46 0.3
-3.01 9.13 -1.87
-16.76 50.78 4.68
-3.67 11.13 -1.86
-16.75 50.74 6.56
-4.74 14.37 -1.86
-16.74 50.73 8.46
-5.32 16.11 -1.48
-16.73 50.7 10.38
-5.5 16.67 -0.92
-16.74 50.72 12.33
-7.87 23.84 -0.44
-5.36 16.46 0.3
-16.57 50.86 2.8
-2.98 9.14 -1.87
-16.58 50.86 4.68
-3.63 11.14 -1.86
-16.58 50.87 6.57
-4.69 14.38 -1.86
-5.25 16.11 -1.48
-5.44 16.7 -0.92
-7.76 23.82 -0.44
-17.65 54.15 15.26
-5.31 16.48 0.3
-2.95 9.15 -1.87
-17.49 54.29 4.99
-3.6 11.16 -1.86
-17.47 54.25 7
-4.64 14.39 -1.86
-17.47 54.24 9.03
-6.34 19.68 -1.81
-5.4 16.76 -0.92
-17.7 54.94 13.33
-7.68 23.83 -0.44
-18 55.88 15.73
-5.68 17.84 0.33
-17.3 54.36 2.99
-2.91 9.15 -1.87
-17.3 54.37 4.99
-3.56 11.19 -1.86
-17.28 54.31 7
-4.58 14.4 -1.85
-17.81 55.99 9.31
-6.27 19.72 -1.81
-17.83 56.03 11.43
-7.58 23.82 -0.44
-18.34 57.65 16.21
-5.64 17.93 0.33
-2.88 9.15 -1.87
-18.19 57.86 5.31
-3.56 11.32 -1.88
-18.17 57.78 7.44
-4.53 14.41 -1.85
-18.15 57.73 9.59
-5.32 16.93 -1.55
-18.15 57.73 11.76
-6.5 20.66 -1.13
-18.15 57.73 13.97
-7.49 23.82 -0.44
-5.58 17.96 0.33
-17.99 57.9 3.18
-2.85 9.17 -1.87
-17.99 57.89 5.3
-3.53 11.37 -1.89
-17.97 57.83 7.44
-4.48 14.42 -1.85
-17.98 57.86 9.6
-6.13 19.73 -1.81
-6.44 20.72 -1.14
-7.4 23.83 -0.44
-2.82 9.18 -1.87
-18.83 61.36 5.62
-3.49 11.37 -1.88
-18.82 61.3 7.87
-4.43 14.43 -1.85
-6.06 19.75 -1.81
-6.36 20.72 -1.14
-19.33 62.96 15.2
-7.29 23.76 -0.43
-5.88 19.42 0.35
-18.61 61.45 3.36
-2.78 9.19 -1.87
-18.61 61.45 5.62
-3.45 11.38 -1.88
-19.1 63.08 8.09
-4.38 14.45 -1.85
-5.99 19.78 -1.81
-6.28 20.75 -1.14
-19.61 64.76 15.62
-8.29 27.39 -0.5
-19.61 64.73 18.12
-5.82 19.44 0.35
-2.75 9.2 -1.87
-19.42 64.91 5.93
-3.41 11.4 -1.89
-19.4 64.86 8.31
-4.32 14.45 -1.85
-19.4 64.86 10.72
-5.92 19.8 -1.81
-19.41 64.87 13.16
-8.22 27.49 -0.5
-20.4 68.18 19.07
-6.18 20.9 0.38
-19.21 65.01 3.55
-2.72 9.19 -1.86
-3.37 11.41 -1.88
-20.2 68.37 8.75
-4.27 14.47 -1.85
-20.22 68.42 11.3
-5.85 19.8 -1.81
-7.36 24.91 -1.36
-6.1 20.92 0.38
-19.98 68.5 3.74
-2.69 9.21 -1.86
-19.99 68.5 6.24
-3.33 11.42 -1.88
-20.48 70.18 8.98
-4.23 14.49 -1.85
-20.47 70.17 11.58
-5.78 19.81 -1.81
-20.97 71.89 14.56
-6.39 21.92 -1.2
-20.94 71.78 17.26
-20.96 71.84 20.05
-6.44 22.38 0.41
-2.65 9.22 -1.86
-20.72 72.03 6.56
-3.29 11.42 -1.88
-20.7 71.94 9.19
-4.19 14.57 -1.86
-20.7 71.94 11.86
-5.7 19.82 -1.8
-6.54 22.72 -1.24
-6.36 22.4 0.41
-20.49 72.14 3.93
-2.62 9.22 -1.86
-21.47 75.59 6.87
-3.25 11.43 -1.88
-21.44 75.51 9.64
-4.2 14.8 -1.89
-21.94 77.25 12.72
-5.63 19.83 -1.8
-21.93 77.23 15.6
-22.41 78.92 18.94
-6.69 23.87 0.43
-21.19 75.64 4.12
-2.59 9.23 -1.86
-3.2 11.43 -1.88
-22.14 79.02 10.08
-4.14 14.79 -1.89
-22.13 78.99 12.99
-5.55 19.81 -1.8
-22.12 78.96 15.94
-22.13 79 18.94
-11.45 41.4 0.75
-21.89 79.18 4.31
-2.55 9.23 -1.86
-3.16 11.44 -1.88
-4.09 14.8 -1.88
-5.48 19.83 -1.8
-11.3 41.43 0.75
-22.56 82.7 4.49
-2.52 9.24 -1.86
-3.13 11.46 -1.88
-23.48 86.07 10.95
-4.04 14.81 -1.89
-23.48 86.06 14.13
-5.41 19.84 -1.8
-23.48 86.06 17.34
-11.15 41.44 0.75
-23.21 86.25 4.68
-2.49 9.25 -1.86
-3.08 11.45 -1.88
-3.98 14.77 -1.88
-5.35 19.86 -1.8
-11.01 41.48 0.75
-23.84 89.8 4.87
-2.46 9.26 -1.86
-24.76 93.24 8.44
-3.04 11.46 -1.88
-24.74 93.16 11.83
-3.92 14.78 -1.88
-24.73 93.16 15.27
-5.29 19.92 -1.8
-10.87 41.5 0.75
-2.43 9.27 -1.86
-3 11.47 -1.88
-26.82 102.41 13
-3.87 14.77 -1.87
-26.83 102.45 16.77
-5.23 19.97 -1.81
-10.71 41.54 0.75
-2.39 9.26 -1.86
-2.96 11.49 -1.88
-3.81 14.78 -1.87
-5.19 20.14 -1.82
-10.56 41.56 0.75
-2.36 9.27 -1.86
-27.29 107.39 9.69
-2.92 11.49 -1.88
-3.76 14.79 -1.87
-5.12 20.16 -1.82
-10.41 41.58 0.75
-2.32 9.28 -1.86
-2.88 11.5 -1.88
-3.71 14.8 -1.87
-5.06 20.19 -1.82
-10.27 41.62 0.75
-2.29 9.29 -1.86
-2.84 11.5 -1.88
-3.65 14.81 -1.87
-5 20.25 -1.82
-10.12 41.64 0.75
-2.26 9.3 -1.86
-2.8 11.51 -1.88
-3.6 14.8 -1.87
-4.92 20.25 -1.82
-7.78 32 -1.73
-9.97 41.67 0.75
-2.23 9.3 -1.86
-2.76 11.52 -1.88
-3.55 14.82 -1.87
-4.85 20.26 -1.82
-7.69 32.12 -1.73
-9.83 41.7 0.75
-2.19 9.3 -1.86
-2.72 11.52 -1.88
-3.5 14.84 -1.87
-4.78 20.25 -1.82
-7.58 32.14 -1.73
-9.69 41.73 0.75
-2.16 9.32 -1.86
-2.68 11.52 -1.87
-3.45 14.86 -1.87
-4.7 20.26 -1.82
-7.54 32.46 -1.75
-10.04 43.24 -0.77
-2.13 9.32 -1.86
-2.63 11.53 -1.87
-3.4 14.86 -1.87
-4.63 20.28 -1.82
-7.43 32.5 -1.75
-9.9 43.32 -0.78
-9.72 43.24 0.77
-2.1 9.32 -1.86
-2.59 11.54 -1.87
-3.34 14.85 -1.87
-4.56 20.29 -1.82
-7.34 32.64 -1.75
-9.73 43.3 -0.77
-23.56 106.54 1.9
-1.72 7.8 -1.84
-2.06 9.32 -1.86
-2.55 11.55 -1.87
-3.29 14.86 -1.87
-4.49 20.3 -1.82
-7.18 32.46 -1.74
-9.58 43.33 -0.77
-23.18 106.57 1.9
-1.69 7.79 -1.84
-2.03 9.33 -1.86
-2.51 11.55 -1.87
-9.94 45.69 5.74
-3.23 14.87 -1.87
-9.94 45.68 7.4
-4.42 20.31 -1.82
-7.06 32.46 -1.74
-9.44 43.42 -0.78
-9.28 43.41 0.77
-1.66 7.78 -1.84
-9.79 45.76 2.45
-2 9.33 -1.86
-9.78 45.76 4.09
-2.47 11.55 -1.87
-3.18 14.89 -1.87
-4.35 20.33 -1.82
-6.94 32.46 -1.74
-22.44 106.78 1.9
-1.64 7.79 -1.84
-23.77 113.11 6.06
-1.96 9.35 -1.86
-2.43 11.55 -1.87
-3.13 14.89 -1.87
-4.28 20.35 -1.82
-6.83 32.48 -1.74
-22.05 106.78 1.9
-1.61 7.78 -1.83
-1.93 9.35 -1.86
-2.39 11.56 -1.87
-3.07 14.88 -1.87
-4.2 20.36 -1.82
-6.71 32.48 -1.74
-8.89 43.8 0.78
-1.58 7.77 -1.83
-1.9 9.35 -1.85
-2.35 11.57 -1.87
-3.02 14.89 -1.87
-4.13 20.37 -1.82
-6.59 32.48 -1.74
-8.88 43.77 -0.78
-9.8 49.18 0.88
-1.55 7.79 -1.83
-1.86 9.35 -1.85
-2.31 11.57 -1.87
-2.97 14.9 -1.87
-4.06 20.37 -1.82
-6.47 32.46 -1.73
-1.52 7.79 -1.83
-1.83 9.36 -1.85
-2.26 11.57 -1.87
-2.92 14.91 -1.87
-3.99 20.38 -1.82
-6.35 32.46 -1.73
-21.91 114.1 2.03
-1.49 7.78 -1.83
-1.8 9.36 -1.85
-2.22 11.57 -1.87
-2.86 14.91 -1.86
-3.92 20.4 -1.82
-6.23 32.43 -1.73
-1.47 7.79 -1.83
-1.76 9.36 -1.85
-2.18 11.58 -1.87
-2.81 14.9 -1.86
-3.84 20.41 -1.82
-6.11 32.44 -1.73
-1.44 7.79 -1.83
-1.73 9.35 -1.85
-2.14 11.58 -1.86
-2.76 14.91 -1.86
-3.77 20.42 -1.82
-6 32.48 -1.73
-1.41 7.8 -1.83
-1.69 9.35 -1.85
-2.1 11.58 -1.86
-2.7 14.93 -1.86
-3.7 20.41 -1.82
-5.89 32.5 -1.73
-1.39 7.81 -1.83
-1.66 9.36 -1.85
-2.06 11.57 -1.86
-2.65 14.94 -1.86
-3.63 20.43 -1.82
-5.78 32.53 -1.73
-1.36 7.79 -1.83
-1.63 9.36 -1.85
-2.01 11.57 -1.86
-2.6 14.94 -1.86
-3.56 20.44 -1.82
-5.66 32.54 -1.73
-1.33 7.8 -1.83
-1.6 9.36 -1.85
-1.98 11.58 -1.86
-2.55 14.93 -1.86
-3.49 20.46 -1.82
-5.55 32.56 -1.73
-1.3 7.8 -1.83
-1.56 9.35 -1.84
-1.93 11.58 -1.86
-2.5 14.95 -1.86
-3.42 20.46 -1.81
-5.45 32.62 -1.73
-1.28 7.81 -1.83
-1.53 9.36 -1.84
-1.89 11.58 -1.86
-2.44 14.96 -1.86
-3.34 20.46 -1.81
-5.33 32.63 -1.73
-1.25 7.81 -1.82
-1.5 9.36 -1.84
-1.85 11.57 -1.86
-2.39 14.96 -1.86
-3.27 20.47 -1.81
-5.22 32.66 -1.73
-1.22 7.8 -1.82
-1.47 9.37 -1.84
-1.81 11.58 -1.86
-2.34 14.97 -1.86
-3.2 20.48 -1.81
-5.11 32.69 -1.73
-1.19 7.81 -1.82
-1.43 9.36 -1.84
-1.77 11.57 -1.85
-2.29 14.96 -1.86
-3.13 20.49 -1.81
-5 32.71 -1.73
-1.17 7.81 -1.82
-1.4 9.36 -1.84
-1.73 11.58 -1.85
-2.23 14.97 -1.86
-3.06 20.5 -1.81
-4.89 32.75 -1.74
-1.14 7.82 -1.82
-1.36 9.36 -1.84
-1.69 11.58 -1.85
-2.18 14.97 -1.86
-2.99 20.49 -1.81
-4.77 32.76 -1.74
-1.11 7.81 -1.82
-1.33 9.36 -1.84
-1.64 11.57 -1.85
-2.13 14.98 -1.86
-2.91 20.49 -1.81
-4.65 32.77 -1.73
-1.08 7.81 -1.82
-1.3 9.37 -1.84
-1.6 11.57 -1.85
