# .PCD v0.7 - Point Cloud Data file format
VERSION 0.7
FIELDS x y z
SIZE 4 4 4
TYPE F F F
COUNT 1 1 1
WIDTH 2911
HEIGHT 1
VIEWPOINT 0 0 0 1 0 0 0
POINTS 2911
DATA ascii
2.32 6.96 -1.97
16.59 49.79 0.92
2.75 8.25 -2.01
6.71 20.12 1.11
3.46 10.37 -2.13
15.92 47.79 4.41
3.91 11.73 -1.96
6.9 20.72 2.68
5.48 16.44 -2.13
5.95 17.85 2.98
5.49 16.46 -1.52
6.04 18.13 3.71
6.27 18.82 -1.04
5.73 17.19 4.18
6.33 18.98 -0.35
5.7 17.1 4.83
2.34 6.95 -1.97
6.97 20.68 0.38
2.79 8.26 -2.01
7.29 21.64 1.2
3.47 10.29 -2.11
6.47 19.18 1.77
3.94 11.7 -1.96
6.45 19.13 2.48
5.53 16.4 -2.13
5.95 17.66 2.95
6.46 19.18 -1.77
6.36 18.86 -1.04
5.8 17.19 4.19
6.78 20.11 -0.37
5.41 16.05 4.54
2.36 6.94 -1.96
5.61 16.46 0.3
2.82 8.27 -2.02
7.26 21.3 1.18
3.51 10.29 -2.11
3.98 11.69 -1.96
6.48 19.03 2.47
5.59 16.4 -2.13
6.1 17.9 3
6.63 19.47 -1.8
5.96 17.51 3.59
6.42 18.86 -1.04
5.84 17.14 4.18
6.9 20.26 -0.37
6.19 18.18 5.15
2.38 6.92 -1.96
6.82 19.78 0.37
2.85 8.28 -2.02
6.81 19.75 1.09
3.54 10.29 -2.11
6.62 19.22 1.78
4.02 11.67 -1.96
6.49 18.85 2.45
5.64 16.37 -2.13
6.17 17.91 3
6.73 19.52 -1.81
6.48 18.82 -1.04
7.05 20.45 4.99
6.5 18.86 -0.35
5.49 15.93 4.51
2.41 6.9 -1.96
6.89 19.79 0.37
2.89 8.28 -2.03
16.77 48.14 2.67
3.58 10.28 -2.12
6.79 19.49 1.81
4.05 11.64 -1.95
6.38 18.31 2.38
5.7 16.36 -2.13
6.23 17.89 3
6.66 19.11 -1.77
6.75 19.36 3.99
6.58 18.89 -1.05
7.54 21.63 5.29
5.72 16.42 -0.3
5.6 16.07 4.56
2.43 6.9 -1.96
7.03 19.97 0.37
2.92 8.28 -2.03
6.8 19.31 1.07
3.62 10.28 -2.12
6.31 17.9 1.66
4.09 11.62 -1.95
7.08 20.09 2.62
5.76 16.36 -2.13
7.11 20.18 3.39
6.63 18.82 -1.75
6.1 17.33 3.57
6.73 19.1 -1.06
6.9 19.58 4.79
5.79 16.44 -0.3
6.97 19.78 5.62
2.45 6.89 -1.96
5.85 16.42 0.3
2.95 8.28 -2.03
3.65 10.26 -2.12
6.83 19.18 1.78
4.13 11.6 -1.95
7.15 20.07 2.62
5.81 16.32 -2.13
7.51 21.08 3.55
6.79 19.05 -1.77
6.49 18.22 3.76
6.79 19.05 -1.06
7.03 19.72 4.83
6.69 18.79 -0.35
5.72 16.07 4.57
2.48 6.87 -1.96
6.95 19.3 0.36
2.98 8.28 -2.03
6.76 18.76 1.05
3.7 10.27 -2.12
7.22 20.03 1.86
4.18 11.59 -1.95
6.58 18.27 2.38
5.86 16.28 -2.12
7.08 19.67 3.31
7.12 19.76 -1.84
7.08 19.65 4.06
6.88 19.09 -1.06
7.1 19.7 4.83
6.75 18.73 -0.35
5.84 16.22 4.62
2.5 6.85 -1.95
7 19.23 0.36
3.02 8.29 -2.04
7.2 19.77 1.1
3.71 10.19 -2.11
6.78 18.63 1.73
4.17 11.45 -1.93
5.94 16.3 -2.13
7.16 19.66 3.31
7.16 19.67 -1.83
6.22 17.07 3.53
6.95 19.09 -1.06
7.04 19.32 4.75
6.82 18.72 -0.35
5.77 15.83 4.51
2.52 6.84 -1.95
7.09 19.26 0.36
3.05 8.3 -2.04
6.97 18.94 1.06
3.75 10.18 -2.11
7.27 19.75 1.84
4.24 11.52 -1.94
6.88 18.7 2.45
6 16.29 -2.13
6.51 17.69 2.99
6.97 18.94 -1.77
7.5 20.37 4.22
6.85 18.62 -1.04
7.52 20.42 5.02
6.91 18.78 -0.35
6.96 18.9 5.4
2.54 6.83 -1.95
7.15 19.22 0.36
3.08 8.29 -2.04
3.82 10.28 -2.13
7.05 18.95 1.77
4.29 11.53 -1.95
16.15 43.41 5.69
6.04 16.25 -2.13
6.57 17.66 2.98
7.17 19.29 -1.8
7.49 20.15 4.18
6.91 18.58 -1.04
6.02 16.18 3.99
6.99 18.79 -0.35
7.03 18.91 5.41
2.57 6.83 -1.95
7.24 19.26 0.36
3.11 8.29 -2.04
7.46 19.84 1.11
3.86 10.27 -2.13
7.06 18.77 1.75
4.3 11.44 -1.94
6.9 18.35 2.41
6.1 16.22 -2.13
6.73 17.92 3.03
7.27 19.35 -1.81
6.37 16.96 3.52
6.99 18.59 -1.04
7.13 18.97 4.68
7.38 19.63 -0.37
6.38 16.98 4.86
2.59 6.81 -1.95
7.31 19.25 0.36
3.15 8.29 -2.05
7.74 20.38 1.14
3.88 10.22 -2.13
7.16 18.85 1.76
4.31 11.34 -1.92
7.19 18.92 2.48
6.16 16.21 -2.13
6.55 17.23 2.92
7.32 19.28 -1.8
7.1 18.68 -1.05
6.26 16.48 4.07
6.19 16.31 -0.3
6.94 18.28 5.24
2.6 6.78 -1.95
7.39 19.24 0.36
3.18 8.3 -2.05
16.4 42.72 2.4
3.92 10.21 -2.13
7.47 19.45 1.82
4.34 11.31 -1.92
7.4 19.27 2.53
6.22 16.21 -2.13
7.37 19.2 3.26
7.48 19.47 -1.83
8.19 21.33 4.44
7.32 19.07 -1.07
8.12 21.15 5.23
7.15 18.63 -0.35
7.23 18.83 5.41
2.62 6.76 -1.94
7.56 19.49 0.36
3.21 8.29 -2.05
7.19 18.54 1.04
3.96 10.21 -2.13
7.49 19.32 1.81
4.42 11.39 -1.94
6.28 16.18 -2.13
6.65 17.13 2.91
7.26 18.72 -1.76
7.36 18.99 -1.07
8.55 22.03 5.46
7.23 18.65 -0.35
7.45 19.21 5.52
2.65 6.76 -1.95
7.6 19.39 0.36
3.24 8.27 -2.05
7.3 18.63 1.05
4 10.2 -2.13
4.47 11.41 -1.94
7.21 18.41 2.43
6.34 16.17 -2.13
6.69 17.08 2.91
6.35 16.21 -1.52
7.06 18.01 3.76
7.43 18.96 -1.07
6.46 16.47 4.09
7.65 19.53 -0.37
2.67 6.75 -1.95
7.69 19.42 0.36
3.27 8.26 -2.05
7.59 19.16 1.08
4.01 10.12 -2.11
7.62 19.24 1.81
4.51 11.4 -1.94
8.76 22.12 2.92
6.39 16.15 -2.13
9.17 23.17 3.95
6.42 16.21 -1.53
7.38 18.64 -1.05
6.49 16.38 4.07
6.44 16.26 -0.31
6.97 17.61 5.08
2.69 6.74 -1.94
6.5 16.24 0.31
3.3 8.24 -2.05
4.04 10.1 -2.12
7.55 18.88 1.78
4.54 11.36 -1.94
7.46 18.66 2.47
6.45 16.13 -2.13
7.38 18.44 3.15
6.47 16.18 -1.53
7.78 19.44 4.07
6.47 16.17 -0.91
6.52 16.31 4.06
7.57 18.92 -0.36
6.98 17.44 5.03
2.71 6.71 -1.94
6.55 16.22 0.31
3.32 8.23 -2.05
7.77 19.25 1.09
4.09 10.13 -2.12
8.15 20.18 1.9
4.57 11.32 -1.93
7.58 18.77 2.49
6.52 16.13 -2.14
7.59 18.78 3.21
6.52 16.15 -1.52
7.33 18.15 3.8
6.53 16.18 -0.91
7.24 17.93 4.46
6.55 16.21 -0.31
7.14 17.68 5.11
2.73 6.7 -1.94
6.61 16.21 0.31
3.35 8.21 -2.05
7.83 19.2 1.09
4.14 10.14 -2.13
7.99 19.59 1.85
4.62 11.33 -1.94
7.57 18.57 2.46
6.57 16.11 -2.14
7.4 18.15 3.11
6.58 16.14 -1.53
6.49 15.91 3.34
6.59 16.16 -0.91
6.59 16.15 4.03
6.62 16.22 -0.31
7.62 18.67 5.4
2.76 6.69 -1.94
6.67 16.2 0.31
3.37 8.18 -2.04
4.17 10.12 -2.13
7.99 19.39 1.83
4.66 11.3 -1.94
7.91 19.2 2.55
6.64 16.11 -2.14
7.98 19.36 3.32
6.65 16.15 -1.53
7.92 19.23 4.04
7.7 18.7 -1.06
6.66 16.16 4.03
6.68 16.22 -0.31
6.55 15.91 4.61
2.78 6.67 -1.94
6.73 16.18 0.31
3.39 8.15 -2.04
8.17 19.65 1.12
4.22 10.13 -2.13
8.06 19.37 1.84
4.7 11.29 -1.94
8.4 20.19 2.69
6.69 16.08 -2.14
8.37 20.12 3.45
8.03 19.31 -1.83
7.73 18.57 3.91
7.79 18.73 -1.06
7.55 18.15 4.54
7.98 19.19 -0.36
6.61 15.89 4.61
2.8 6.66 -1.94
17.17 40.86 0.77
3.43 8.15 -2.04
17.19 40.92 2.33
4.27 10.17 -2.14
17.24 41.04 3.89
4.74 11.27 -1.94
16.46 39.18 5.22
6.77 16.11 -2.15
7.75 18.43 3.17
6.78 16.14 -1.53
7.02 16.7 3.52
7.79 18.54 -1.05
8.53 20.29 5.08
7.79 18.55 -0.35
8.14 19.37 5.63
2.82 6.64 -1.93
8.42 19.85 0.38
3.45 8.14 -2.04
17.4 41.01 2.33
4.3 10.14 -2.14
8.16 19.22 1.83
4.78 11.26 -1.94
16.48 38.85 5.18
6.1 14.37 -1.92
7.87 18.55 3.19
6.83 16.11 -1.53
7.03 16.58 3.5
7.89 18.61 -1.06
6.77 15.96 4
7.91 18.64 -0.35
8.68 20.45 5.95
2.84 6.63 -1.93
6.93 16.17 0.31
3.48 8.12 -2.04
8.29 19.36 1.1
4.33 10.11 -2.14
8.16 19.04 1.81
4.8 11.2 -1.93
16.5 38.52 5.15
6.9 16.11 -2.15
8.64 20.16 3.47
8.09 18.88 -1.8
6.96 16.24 3.43
8.05 18.79 -1.07
6.86 16.01 4.02
7.99 18.65 -0.35
7.69 17.95 5.23
2.86 6.62 -1.93
6.99 16.15 0.31
3.49 8.07 -2.03
8.61 19.91 1.14
4.37 10.11 -2.14
4.85 11.2 -1.93
16.54 38.24 5.12
6.97 16.12 -2.16
9.12 21.08 3.64
8.28 19.15 -1.83
7.04 16.27 3.45
8.17 18.88 -1.08
7.99 18.48 4.65
8.29 19.18 -0.36
8.81 20.37 5.95
2.88 6.61 -1.93
7.05 16.15 0.31
3.51 8.04 -2.03
8.43 19.31 1.1
4.41 10.11 -2.14
4.89 11.19 -1.93
16.55 37.89 5.08
7.02 16.07 -2.15
7.79 17.84 3.08
7.03 16.09 -1.54
6.98 15.99 3.39
8.25 18.9 -1.08
8 18.33 4.62
8.32 19.06 -0.36
2.91 6.59 -1.93
7.12 16.14 0.31
3.54 8.02 -2.02
17.25 39.14 2.24
4.47 10.14 -2.15
17.28 39.2 3.75
4.95 11.23 -1.94
8.32 18.87 2.53
7.08 16.06 -2.15
7.7 17.48 3.02
7.08 16.07 -1.54
8.87 20.13 4.28
8.28 18.77 -1.08
8.11 18.41 4.64
8.3 18.82 -0.36
8.5 19.27 5.64
2.92 6.57 -1.93
17.39 39.07 0.75
3.56 8 -2.02
17.41 39.13 2.24
4.5 10.11 -2.15
17.46 39.24 3.76
4.97 11.16 -1.94
8.18 18.39 2.47
6.8 15.27 -2.05
9.29 20.88 3.62
7.15 16.06 -1.54
7.16 16.09 -0.92
8.18 18.39 4.65
8.36 18.79 -0.36
7.59 17.06 5
2.95 6.56 -1.93
7.25 16.13 0.31
3.57 7.94 -2.01
17.46 38.87 2.23
4.54 10.11 -2.15
5.03 11.19 -1.94
8.17 18.18 2.45
7.23 16.09 -2.17
9.16 20.39 3.54
8.6 19.13 -1.84
8.43 18.76 -1.08
7.93 17.65 4.47
8.5 18.91 -0.36
8.27 18.41 5.41
2.97 6.55 -1.93
7.3 16.12 0.31
3.58 7.9 -2
9.02 19.91 1.15
4.58 10.1 -2.16
5.07 11.18 -1.94
8.63 19.04 2.57
7.26 16.01 -2.16
8.49 18.73 3.26
7.28 16.06 -1.54
7.85 17.32 3.7
8.42 18.58 -1.07
8.61 19.01 -0.36
7.66 16.91 4.97
2.99 6.54 -1.93
7.36 16.09 0.31
3.6 7.88 -2
17.48 38.22 2.2
4.64 10.14 -2.17
5.1 11.15 -1.94
8.69 19 2.57
7.33 16.02 -2.16
7.34 16.05 -1.54
8.5 18.58 -1.07
8.88 19.41 -0.37
7.87 17.21 5.07
3.01 6.52 -1.93
7.43 16.09 0.31
3.63 7.86 -2
16.77 36.33 2.1
4.66 10.09 -2.16
16.74 36.25 3.49
5.13 11.12 -1.94
16.66 36.09 4.88
7.39 16.02 -2.17
8.01 17.36 3.03
8.63 18.7 -1.8
9.82 21.28 4.56
7.42 16.07 -0.93
9.26 20.06 5.1
8.69 18.83 -0.36
8.23 17.82 5.26
3.03 6.5 -1.92
7.49 16.08 0.31
3.66 7.85 -2
9.23 19.82 1.15
4.7 10.09 -2.16
16.75 35.96 3.47
5.16 11.08 -1.94
16.7 35.85 4.86
9.42 20.23 3.53
8.93 19.17 -1.85
8.64 18.55 3.98
7.48 16.05 -0.93
8.57 18.4 4.69
8.68 18.62 -0.36
7.96 17.09 5.05
3.05 6.49 -1.92
16.83 35.8 0.69
3.68 7.83 -2
16.83 35.8 2.07
4.74 10.09 -2.17
16.79 35.71 3.45
5.21 11.09 -1.94
16.74 35.6 4.83
7.36 15.66 -2.13
9.55 20.32 3.56
9.04 19.23 -1.86
8.67 18.45 3.96
8.85 18.82 -1.09
8.8 18.71 4.77
9.02 19.18 -0.37
7.71 16.39 4.85
3.07 6.48 -1.92
16.85 35.51 0.69
3.7 7.8 -1.99
16.85 35.53 2.06
4.76 10.04 -2.16
16.89 35.6 3.45
5.25 11.08 -1.94
16.75 35.32 4.8
7.39 15.57 -2.12
16.74 35.29 6.19
8.97 18.9 -1.83
8.96 18.89 -1.1
8.86 18.68 4.77
8.86 18.67 -0.36
9.46 19.94 5.91
3.09 6.46 -1.92
16.98 35.47 0.69
3.73 7.79 -1.99
17 35.52 2.06
4.79 10.01 -2.16
9.06 18.92 1.84
5.31 11.1 -1.95
16.82 35.14 4.78
7.22 15.08 -2.05
9.03 18.86 3.31
7.66 16 -1.55
8.78 18.34 3.95
9 18.81 -1.09
8.92 18.64 4.77
7.69 16.06 -0.31
8.7 18.17 5.4
3.11 6.45 -1.92
17.14 35.49 0.69
3.75 7.77 -1.99
17.16 35.54 2.07
4.83 10.01 -2.16
17.21 35.64 3.46
5.34 11.06 -1.95
9.74 20.18 2.75
7.09 14.69 -2
16.78 34.74 6.11
7.73 16.01 -1.56
8.4 17.41 3.76
8.92 18.48 -1.08
8.22 17.03 4.37
9.11 18.87 -0.37
7.72 15.98 4.76
3.13 6.42 -1.91
17.3 35.51 0.69
3.78 7.76 -1.99
17.31 35.54 2.07
4.85 9.96 -2.15
17.35 35.62 3.47
5.39 11.07 -1.95
9.85 20.23 2.76
7.47 15.34 -2.1
8.66 17.77 3.13
9.3 19.09 -1.86
8.47 17.38 3.76
9.1 18.68 -1.09
8.3 17.05 4.38
9.29 19.07 -0.37
3.15 6.41 -1.91
17.44 35.49 0.69
3.8 7.74 -1.99
17.46 35.55 2.08
4.86 9.89 -2.14
9.57 19.49 1.9
5.44 11.07 -1.95
9.98 20.31 2.78
7.43 15.12 -2.07
16.82 34.23 6.04
9.3 18.92 -1.84
8.51 17.32 3.75
9.16 18.64 -1.09
9.33 18.98 -0.37
9.2 18.72 5.59
3.17 6.4 -1.91
17.54 35.4 0.69
3.82 7.71 -1.99
17.57 35.46 2.07
4.31 8.7 -1.89
17.62 35.55 3.47
5.49 11.09 -1.96
10.08 20.33 2.79
7.1 14.32 -1.96
9.26 18.68 3.3
9.36 18.88 -1.84
8.55 17.26 3.74
9.22 18.61 -1.09
9.66 19.49 5.02
9.39 18.96 -0.37
8.57 17.3 5.17
3.19 6.39 -1.91
17.7 35.42 0.69
3.85 7.69 -1.99
17.73 35.47 2.08
4.33 8.66 -1.88
9.78 19.56 1.91
5.53 11.06 -1.96
10.2 20.4 2.8
7.36 14.72 -2.02
16.85 33.71 5.97
9.44 18.89 -1.85
9.93 19.87 4.32
9.2 18.41 -1.08
9.71 19.43 5.01
9.58 19.18 -0.37
8.32 16.64 4.98
3.21 6.37 -1.91
8.08 16.01 0.31
3.88 7.68 -1.99
17.91 35.5 2.08
4.38 8.67 -1.89
5.58 11.06 -1.96
10.3 20.42 2.81
7.29 14.45 -1.99
16.87 33.44 5.93
9.73 19.29 -1.89
8.59 17.03 3.71
9.33 18.5 -1.09
8.69 17.22 4.45
9.63 19.08 -0.37
8.49 16.83 5.05
3.23 6.34 -1.91
8.14 16 0.31
3.9 7.66 -1.99
4.46 8.77 -1.91
5.6 11.01 -1.96
10.4 20.44 2.82
7.28 14.3 -1.97
16.88 33.19 5.9
10.75 21.14 -2.07
8.67 17.04 3.72
9.4 18.48 -1.09
9.1 17.89 4.63
8.13 15.98 -0.31
8.64 16.98 5.1
3.25 6.33 -1.91
8.19 15.96 0.31
3.92 7.64 -1.98
4.54 8.84 -1.93
5.65 11.01 -1.96
17.25 33.6 4.64
7.37 14.37 -1.98
16.91 32.95 5.87
9.55 18.6 -1.83
8.6 16.76 3.66
9.49 18.48 -1.09
9.19 17.91 4.65
9.57 18.65 -0.37
8.74 17.03 5.13
3.27 6.32 -1.91
8.27 15.98 0.31
3.94 7.61 -1.98
4.59 8.87 -1.94
17.51 33.84 3.33
5.7 11.01 -1.96
17.28 33.39 4.62
7.44 14.38 -1.99
16.92 32.68 5.83
9.81 18.96 -1.87
10.37 20.03 4.38
9.62 18.59 -1.1
10.54 20.37 5.3
9.56 18.47 -0.36
8.33 16.09 4.85
3.29 6.31 -1.91
8.34 15.97 0.31
3.96 7.59 -1.98
17.61 33.73 1.99
4.64 8.89 -1.95
17.64 33.79 3.34
5.74 10.99 -1.96
10.27 19.66 2.72
7.49 14.35 -1.99
16.95 32.47 5.8
9.89 18.94 -1.87
10.48 20.07 4.4
9.67 18.53 -1.1
10.56 20.23 5.27
9.77 18.72 -0.37
8.5 16.28 4.92
3.31 6.29 -1.9
17.72 33.65 0.66
3.99 7.58 -1.98
17.75 33.71 2
4.59 8.71 -1.91
17.79 33.8 3.34
5.8 11.02 -1.97
17.38 33.02 4.58
7.49 14.22 -1.97
10.53 20 3.58
9.89 18.78 -1.86
9.15 17.37 3.82
9.72 18.46 -1.09
8.92 16.95 4.42
10.14 19.26 -0.38
8.54 16.23 4.91
3.33 6.26 -1.9
17.9 33.7 0.67
4.01 7.55 -1.97
18 33.89 2.01
4.63 8.72 -1.92
5.85 11.01 -1.97
17.45 32.87 4.57
7.53 14.17 -1.97
16.99 32 5.74
9.97 18.77 -1.86
8.81 16.6 3.65
10.58 19.92 -1.18
10.11 19.03 -0.38
8.6 16.2 4.91
3.34 6.25 -1.9
8.53 15.93 0.32
4.03 7.53 -1.97
4.65 8.69 -1.92
5.89 11 -1.98
17.5 32.68 4.55
7.58 14.16 -1.97
16.99 31.73 5.7
9.99 18.66 -1.85
8.77 16.37 3.61
8.51 15.9 -0.94
10.07 18.81 -0.37
8.95 16.72 5.08
3.36 6.24 -1.9
8.58 15.91 0.32
4.05 7.5 -1.97
4.69 8.69 -1.92
5.91 10.96 -1.97
9.86 18.27 2.55
7.62 14.12 -1.97
17.01 31.52 5.67
10.07 18.66 -1.85
8.78 16.28 3.6
8.57 15.88 -0.95
9.99 18.52 -0.37
9.06 16.79 5.11
3.38 6.22 -1.9
8.66 15.92 0.32
4.07 7.48 -1.97
4.77 8.77 -1.94
18.02 33.12 3.3
5.98 10.99 -1.98
10.9 20.04 2.8
7.66 14.07 -1.97
17.02 31.29 5.64
10.16 18.68 -1.86
8.83 16.23 3.59
10.08 18.54 -1.11
9.82 18.05 4.74
8.66 15.93 -0.32
9.06 16.65 5.08
3.4 6.2 -1.9
8.73 15.91 0.32
4.1 7.46 -1.97
4.75 8.65 -1.92
6.02 10.97 -1.98
17.63 32.12 4.5
7.71 14.05 -1.97
17.04 31.05 5.61
8.7 15.86 -1.58
8.83 16.09 3.57
8.7 15.86 -0.95
9.92 18.08 4.76
8.73 15.9 -0.32
9.17 16.71 5.11
3.42 6.18 -1.89
8.8 15.9 0.32
4.12 7.45 -1.97
4.78 8.64 -1.92
17.7 32 3.2
6.08 10.98 -1.99
10.23 18.49 2.59
7.77 14.04 -1.97
17.06 30.83 5.58
8.76 15.83 -1.58
8.91 16.1 3.58
8.78 15.86 -0.95
10.23 18.49 -0.37
9.17 16.58 5.08
3.44 6.16 -1.89
17.78 31.86 0.64
4.14 7.42 -1.96
17.8 31.9 1.91
4.78 8.57 -1.91
17.85 31.99 3.2
6.1 10.94 -1.98
10.21 18.29 2.57
7.83 14.03 -1.97
17.07 30.6 5.55
10.4 18.63 -1.87
8.86 15.88 -0.95
10.35 18.55 -0.37
9.19 16.47 5.05
3.45 6.14 -1.89
17.92 31.86 0.64
4.15 7.39 -1.96
17.95 31.92 1.92
4.8 8.54 -1.9
18.06 32.11 3.22
6.14 10.92 -1.98
10.96 19.48 2.74
7.87 14 -1.97
17.09 30.38 5.52
10.54 18.74 -1.88
10.7 19.03 -1.14
10.22 18.17 4.81
10.49 18.65 -0.37
3.47 6.13 -1.89
17.95 31.65 0.64
4.18 7.37 -1.96
18.14 31.99 1.93
4.84 8.53 -1.91
6.2 10.94 -1.99
17.82 31.43 4.44
7.91 13.95 -1.97
17.11 30.18 5.49
10.58 18.65 -1.88
10.62 18.73 4.18
10.87 19.17 -1.15
9.98 17.61 4.67
10.55 18.61 -0.37
3.5 6.12 -1.89
17.97 31.44 0.63
4.21 7.36 -1.96
4.86 8.5 -1.9
18.12 31.7 3.19
6.25 10.93 -1.99
17.87 31.25 4.42
7.96 13.92 -1.97
17.11 29.93 5.46
10.67 18.67 -1.88
10.61 18.56 -1.12
10.17 17.78 4.73
10.91 19.09 -0.38
3.51 6.09 -1.88
17.98 31.2 0.63
4.23 7.34 -1.95
4.89 8.49 -1.9
18.13 31.46 3.18
6.28 10.89 -1.99
17.89 31.04 4.4
8 13.88 -1.97
17.13 29.72 5.43
10.72 18.6 -1.88
9.4 16.31 3.66
10.68 18.52 -1.12
10.11 17.53 4.67
10.83 18.79 -0.38
10.34 17.94 5.55
3.53 6.08 -1.88
18.01 30.99 0.63
4.25 7.32 -1.95
4.92 8.48 -1.91
18.14 31.22 3.16
6.34 10.92 -2
17.89 30.8 4.37
8.05 13.85 -1.97
17.15 29.52 5.41
10.86 18.69 -1.89
10.82 18.62 4.19
10.81 18.6 -1.13
10.13 17.43 4.65
10.95 18.85 -0.38
10.39 17.88 5.54
3.55 6.06 -1.88
9.33 15.94 0.32
4.27 7.29 -1.95
4.96 8.47 -1.91
6.39 10.91 -2
17.82 30.43 4.33
8.09 13.81 -1.97
17.17 29.32 5.38
10.98 18.75 -1.9
17.14 29.27 6.59
10.87 18.57 -1.13
10.96 18.72 -0.38
10.43 17.81 5.53
3.57 6.05 -1.88
9.39 15.92 0.32
4.29 7.26 -1.95
17.84 30.22 1.84
4.99 8.45 -1.91
17.22 29.18 2.96
6.44 10.91 -2.01
17.18 29.11 4.15
8.14 13.8 -1.97
17.18 29.11 5.35
11.03 18.7 -1.9
17.18 29.11 6.57
10.96 18.58 -1.13
9.44 16 4.29
10.95 18.56 -0.38
10.42 17.66 5.5
3.59 6.04 -1.88
17.3 29.08 0.59
4.31 7.25 -1.95
17.28 29.05 1.77
5.02 8.44 -1.91
17.25 29.01 2.95
6.5 10.93 -2.01
17.2 28.92 4.13
8.19 13.77 -1.97
17.19 28.9 5.33
9.42 15.83 -1.61
17.19 28.91 6.54
9.44 15.87 -0.97
10.24 17.23 4.63
11.01 18.52 -0.38
3.6 6.01 -1.88
17.3 28.87 0.59
4.34 7.24 -1.95
17.29 28.85 1.76
5.06 8.44 -1.91
17.25 28.78 2.94
6.54 10.92 -2.02
17.21 28.72 4.11
8.23 13.73 -1.97
17.2 28.7 5.3
11.22 18.72 -1.91
10.99 18.33 4.15
11.24 18.76 -1.15
9.65 16.1 4.33
11.36 18.96 -0.39
10.23 17.07 5.33
3.62 5.99 -1.88
17.32 28.65 0.58
4.36 7.21 -1.94
17.31 28.64 1.75
5.11 8.45 -1.92
17.28 28.58 2.92
6.57 10.86 -2.01
17.24 28.52 4.09
8.27 13.68 -1.96
11.45 18.94 3.51
12.39 20.5 -2.1
17.24 28.52 6.48
11.32 18.72 -1.15
10.04 16.62 4.48
11.26 18.62 -0.38
10.24 16.95 5.31
3.64 5.98 -1.88
17.32 28.44 0.58
4.37 7.18 -1.94
17.32 28.43 1.74
5.15 8.46 -1.92
17.3 28.41 2.91
6.63 10.89 -2.02
17.3 28.4 4.08
8.31 13.65 -1.96
17.34 28.47 5.28
11.76 19.3 -1.98
17.35 28.48 6.48
11.67 19.16 -1.18
14.07 23.1 6.24
11.64 19.11 -0.39
3.66 5.96 -1.88
17.38 28.3 0.58
4.4 7.16 -1.94
17.38 28.31 1.74
5.19 8.45 -1.93
17.42 28.36 2.91
6.69 10.9 -2.03
17.44 28.41 4.09
8.35 13.61 -1.96
17.48 28.46 5.29
11.62 18.92 -1.94
17.51 28.51 6.5
11.87 19.33 -1.19
13.71 22.34 6.05
11.57 18.85 -0.39
13.12 21.37 6.72
3.68 5.95 -1.87
17.48 28.25 0.58
4.42 7.14 -1.94
17.5 28.29 1.74
5.23 8.45 -1.93
17.56 28.38 2.92
6.72 10.86 -2.02
17.58 28.42 4.1
8.4 13.58 -1.96
17.63 28.5 5.31
12.53 20.25 -2.08
17.64 28.51 6.52
11.69 18.9 -1.16
11.6 18.75 -0.38
3.69 5.92 -1.87
17.62 28.26 0.58
4.44 7.12 -1.94
17.65 28.31 1.75
5.27 8.46 -1.94
17.69 28.38 2.93
6.77 10.86 -2.03
17.73 28.43 4.11
8.44 13.55 -1.96
17.76 28.49 5.32
11.77 18.89 -1.95
17.78 28.51 6.53
11.74 18.84 -1.16
13.69 21.96 5.97
11.71 18.79 -0.39
10.55 16.92 5.34
3.71 5.9 -1.87
17.76 28.27 0.58
4.46 7.1 -1.94
17.79 28.32 1.75
5.31 8.46 -1.94
17.83 28.39 2.93
6.79 10.8 -2.02
17.87 28.44 4.12
8.5 13.53 -1.96
17.89 28.49 5.33
11.94 19.02 -1.96
17.92 28.53 6.55
11.72 18.65 -1.15
11.8 18.79 -0.39
10.61 16.89 5.34
3.73 5.89 -1.87
17.9 28.28 0.58
4.48 7.07 -1.93
17.93 28.33 1.76
5.36 8.47 -1.95
17.98 28.41 2.94
6.84 10.8 -2.02
18 28.44 4.13
8.54 13.49 -1.96
18.06 28.54 5.35
12.25 19.36 -2
18.08 28.56 6.57
11.8 18.64 -1.16
11.87 18.75 -0.39
10.75 16.98 5.39
3.75 5.88 -1.87
12.44 19.51 0.4
4.49 7.04 -1.93
18.07 28.34 1.76
5.4 8.46 -1.95
18.12 28.42 2.95
6.9 10.82 -2.03
15.33 24.04 3.5
8.56 13.43 -1.96
18.19 28.52 5.36
12.05 18.89 -1.96
18.22 28.57 6.59
11.82 18.54 -1.15
13.2 20.7 5.67
12.55 19.68 -0.41
13.53 21.22 6.74
3.77 5.86 -1.87
12.54 19.5 0.4
4.52 7.03 -1.93
18.27 28.41 1.77
5.44 8.46 -1.95
18.99 29.54 3.07
6.92 10.76 -2.03
15.52 24.14 3.52
8.61 13.39 -1.96
18.33 28.51 5.37
12.89 20.05 -2.09
18.37 28.57 6.6
11.96 18.6 -1.16
13.25 20.6 5.66
12.17 18.93 -0.39
3.78 5.84 -1.86
12.58 19.42 0.4
4.54 7.01 -1.93
19.08 29.46 1.84
5.48 8.46 -1.96
19.15 29.55 3.08
6.95 10.73 -2.03
15.29 23.61 3.45
8.65 13.36 -1.95
18.48 28.53 5.38
12.56 19.38 -2.02
18.52 28.58 6.62
12 18.52 -1.16
10.27 15.85 -0.33
3.8 5.82 -1.86
12.62 19.34 0.4
4.56 6.98 -1.93
19.22 29.46 1.84
5.53 8.47 -1.97
19.3 29.57 3.09
6.99 10.7 -2.02
15.26 23.38 3.43
8.7 13.33 -1.95
18.63 28.54 5.4
10.29 15.76 -1.65
14.54 22.28 5.17
12.12 18.57 -1.16
14.3 21.91 6.04
12.16 18.63 -0.39
3.82 5.8 -1.86
12.66 19.26 0.4
4.57 6.95 -1.92
5.58 8.48 -1.97
19.44 29.57 3.1
7.06 10.74 -2.04
19.48 29.63 4.35
8.74 13.29 -1.95
18.79 28.58 5.42
12.7 19.31 -2.02
13.59 20.67 4.81
12.28 18.68 -1.17
14.94 22.72 6.28
12.3 18.71 -0.39
3.84 5.79 -1.86
12.7 19.16 0.4
4.6 6.94 -1.92
5.62 8.48 -1.98
19.62 29.6 3.11
7.1 10.71 -2.04
14.26 21.52 3.17
8.77 13.24 -1.95
18.94 28.58 5.43
12.91 19.48 -2.04
13.74 20.73 4.83
12.52 18.89 -1.19
14.38 21.7 6.01
12.35 18.63 -0.39
15.27 23.05 7.41
3.86 5.78 -1.86
12.8 19.17 0.4
4.61 6.91 -1.92
5.65 8.47 -1.98
7.17 10.74 -2.05
19.8 29.65 4.38
8.81 13.2 -1.95
19.07 28.57 5.44
12.58 18.84 -1.98
12.46 18.66 -1.18
12.75 19.09 -0.4
14.22 21.3 6.86
3.87 5.75 -1.86
12.76 18.97 0.4
4.64 6.89 -1.92
19.86 29.52 1.86
5.7 8.47 -1.98
19.9 29.58 3.12
7.19 10.69 -2.04
19.83 29.48 4.36
8.86 13.17 -1.95
19.23 28.59 5.46
12.78 19 -2
13.66 20.31 4.76
12.63 18.77 -1.19
14.03 20.86 5.8
12.54 18.65 -0.39
3.88 5.73 -1.85
12.89 19.03 0.4
4.65 6.87 -1.92
19.91 29.38 1.86
5.74 8.48 -1.99
19.88 29.33 3.1
7.23 10.67 -2.04
13.16 19.42 2.88
8.9 13.13 -1.95
19.39 28.62 5.47
13.1 19.33 -2.04
13.87 20.47 4.81
12.6 18.59 -1.18
12.9 19.04 -0.4
14.55 21.46 6.95
3.9 5.72 -1.85
13 19.04 0.4
4.67 6.84 -1.91
19.93 29.19 1.85
5.8 8.49 -2
19.95 29.22 3.1
7.29 10.68 -2.05
13.22 19.37 2.88
8.94 13.1 -1.95
19.54 28.62 5.49
13.33 19.53 -2.07
14.62 21.41 5.04
12.71 18.62 -1.18
13.23 19.38 -0.41
3.92 5.7 -1.85
10.89 15.83 0.34
4.69 6.83 -1.91
5.85 8.5 -2.01
7.32 10.64 -2.05
8.97 13.04 -1.94
19.7 28.64 5.51
13.32 19.37 -2.06
10.87 15.81 -1.01
14.07 20.46 5.73
10.89 15.84 -0.34
3.94 5.69 -1.85
10.97 15.84 0.34
4.72 6.81 -1.91
5.9 8.51 -2.01
20.57 29.68 3.16
7.37 10.63 -2.05
9 12.99 -1.94
15.49 22.36 4.31
10.92 15.76 -1.68
10.93 15.78 -1.01
14.39 20.77 5.83
13.21 19.06 -0.4
3.95 5.66 -1.85
13.22 18.94 0.4
4.73 6.78 -1.91
15.16 21.72 1.39
5.93 8.49 -2.01
16.11 23.08 2.46
7.41 10.61 -2.05
9.05 12.97 -1.94
20.02 28.69 5.54
11.01 15.77 -1.68
11.03 15.8 -1.01
14.26 20.43 5.75
11.08 15.88 -0.34
3.97 5.65 -1.85
13.36 19.01 0.41
4.75 6.76 -1.91
5.95 8.47 -2.01
16.16 22.99 2.46
7.45 10.6 -2.05
15.16 21.57 3.24
9.1 12.94 -1.94
20.15 28.67 5.55
11.1 15.8 -1.69
15.01 21.36 5.08
13.18 18.76 -1.2
14.68 20.89 5.89
13.19 18.77 -0.4
3.99 5.63 -1.85
13.5 19.06 0.41
4.77 6.73 -1.9
5.97 8.44 -2.01
7.49 10.58 -2.05
16.69 23.57 3.55
9.14 12.91 -1.94
20.31 28.68 5.57
13.76 19.43 -2.08
15.09 21.31 5.08
13.29 18.77 -1.21
14.36 20.28 5.74
13.25 18.71 -0.4
4.01 5.62 -1.85
13.59 19.05 0.41
4.78 6.71 -1.9
6.01 8.42 -2.01
7.51 10.53 -2.05
21.06 29.51 4.45
9.17 12.85 -1.94
15.17 21.26 4.14
11.31 15.85 -1.7
14.56 20.41 4.87
13.41 18.8 -1.21
14.5 20.32 5.76
13.33 18.68 -0.4
14.49 20.3 6.68
4.02 5.6 -1.85
13.67 19.01 0.41
4.81 6.69 -1.9
6.02 8.38 -2.01
15.15 21.08 2.27
7.53 10.48 -2.04
16.83 23.41 3.54
9.23 12.83 -1.94
15.27 21.23 4.14
11.39 15.85 -1.71
13.53 18.82 -1.22
14.48 20.14 5.73
13.41 18.65 -0.4
14.62 20.33 6.71
4.03 5.57 -1.84
13.76 18.99 0.41
4.83 6.67 -1.9
6.05 8.35 -2
7.6 10.5 -2.05
21.4 29.54 4.48
9.27 12.8 -1.94
15.94 22 4.3
11.47 15.84 -1.71
14.47 19.97 -1.29
13.5 18.63 -0.4
14.43 19.92 6.59
4.05 5.55 -1.84
13.87 19.01 0.41
4.85 6.64 -1.9
6.08 8.33 -2
16.28 22.31 2.42
7.68 10.52 -2.06
17.86 24.47 3.72
9.32 12.77 -1.94
14.33 19.63 3.85
11.57 15.85 -1.72
13.75 18.84 -1.22
13.75 18.83 -0.41
14.46 19.82 6.57
4.07 5.53 -1.84
14.05 19.11 0.41
4.86 6.62 -1.9
21.71 29.53 1.92
6.06 8.24 -1.99
21.67 29.48 3.2
7.74 10.52 -2.07
21.64 29.43 4.49
9.35 12.72 -1.94
21.15 28.77 5.66
11.66 15.86 -1.72
14.96 20.34 4.91
13.86 18.85 -1.23
14.97 20.37 5.84
14.13 19.23 -0.42
14.65 19.93 6.63
4.09 5.52 -1.84
14.13 19.08 0.41
4.88 6.59 -1.89
21.71 29.32 1.91
6.07 8.2 -1.98
21.75 29.36 3.2
7.8 10.54 -2.08
14.46 19.53 2.98
9.38 12.67 -1.94
14.46 19.52 3.85
11.75 15.86 -1.73
15.2 20.52 4.96
14.13 19.08 -1.24
16.16 21.82 6.27
13.92 18.79 -0.41
14.28 19.29 6.43
4.1 5.5 -1.84
14.24 19.09 0.42
4.9 6.57 -1.89
6.07 8.14 -1.97
7.83 10.5 -2.07
14.57 19.53 2.99
9.43 12.64 -1.94
21.47 28.79 5.69
11.83 15.87 -1.73
15.26 20.47 4.96
13.98 18.75 -1.23
14.9 19.99 5.76
13.91 18.65 -0.41
15.78 21.16 7.07
4.11 5.47 -1.83
11.95 15.91 0.35
4.92 6.55 -1.89
6.08 8.1 -1.97
7.88 10.49 -2.08
15.8 21.03 3.23
9.47 12.6 -1.94
21.62 28.78 5.7
11.92 15.87 -1.74
14.7 19.57 4.76
14.04 18.69 -1.22
16.41 21.84 6.31
14.03 18.67 -0.41
4.13 5.46 -1.83
14.79 19.57 0.43
4.94 6.53 -1.89
6.1 8.07 -1.97
16.27 21.52 2.36
7.91 10.47 -2.08
15.86 20.98 3.23
9.49 12.56 -1.93
21.79 28.82 5.72
12 15.87 -1.74
14.13 18.68 -1.23
14.24 18.83 -0.41
4.15 5.45 -1.83
14.83 19.47 0.43
4.95 6.5 -1.89
6.13 8.04 -1.97
16.36 21.48 2.36
7.97 10.46 -2.08
17.4 22.85 3.53
9.53 12.51 -1.93
17.45 22.91 4.56
12.09 15.88 -1.75
13.85 18.18 4.44
14.23 18.69 -1.23
15.44 20.27 5.88
14.24 18.7 -0.41
14.51 19.05 6.42
4.17 5.43 -1.83
12.23 15.93 0.35
4.97 6.48 -1.88
6.15 8.01 -1.96
8.05 10.49 -2.09
17.49 22.79 3.53
9.54 12.43 -1.92
15.52 20.22 4.04
12.21 15.91 -1.75
14.37 18.73 -1.24
15.54 20.25 5.89
12.21 15.92 -0.35
14.78 19.26 6.5
4.18 5.41 -1.83
14.87 19.24 0.42
4.99 6.45 -1.88
6.16 7.97 -1.96
8.1 10.48 -2.1
15.66 20.26 3.14
9.59 12.4 -1.92
15.63 20.22 4.05
12.29 15.9 -1.76
14.48 18.73 -1.24
16.66 21.55 6.29
12.33 15.95 -0.35
4.19 5.38 -1.83
14.94 19.19 0.42
5.01 6.43 -1.88
6.18 7.95 -1.96
16.37 21.04 2.33
8.16 10.49 -2.1
15.71 20.19 3.14
9.62 12.36 -1.92
22.47 28.87 5.79
12.37 15.9 -1.76
14.39 18.49 4.55
14.65 18.82 -1.25
15.12 19.43 -0.43
14.85 19.08 6.48
4.21 5.37 -1.83
15.3 19.52 0.43
5.02 6.41 -1.88
16.69 21.29 1.42
6.21 7.92 -1.96
17.49 22.31 2.48
8.17 10.43 -2.1
16.76 21.38 3.34
9.66 12.33 -1.92
15.85 20.22 4.07
12.47 15.91 -1.77
14.34 18.29 4.52
14.72 18.78 -1.25
15.73 20.07 5.89
14.81 18.9 -0.42
4.23 5.35 -1.83
15.37 19.46 0.43
5.03 6.37 -1.87
16.53 20.93 1.4
6.23 7.88 -1.95
17.61 22.29 2.49
8.24 10.43 -2.1
16.68 21.12 3.3
9.7 12.28 -1.92
14.86 18.82 3.8
12.57 15.91 -1.77
15.92 20.16 4.99
14.78 18.71 -1.25
15.53 19.67 -0.44
4.25 5.34 -1.83
15.46 19.43 0.43
5.05 6.35 -1.87
23.45 29.47 1.97
6.25 7.86 -1.95
16.04 20.16 2.25
8.28 10.41 -2.11
16.71 21 3.3
9.74 12.24 -1.92
14.89 18.72 3.79
12.67 15.93 -1.78
14.88 18.71 -1.25
15.07 18.94 -0.42
4.26 5.31 -1.82
15.56 19.42 0.43
5.07 6.33 -1.87
16.69 20.83 1.4
6.27 7.82 -1.95
16.11 20.11 2.25
8.34 10.4 -2.11
23.66 29.53 4.65
9.78 12.21 -1.92
14.95 18.66 3.79
12.77 15.95 -1.79
17.04 21.27 5.3
14.95 18.66 -1.25
16.2 20.22 5.98
15.06 18.8 -0.42
4.27 5.29 -1.82
15.52 19.24 0.43
5.09 6.31 -1.87
23.78 29.46 1.98
6.29 7.79 -1.95
23.77 29.46 3.31
8.35 10.34 -2.11
23.77 29.45 4.65
9.81 12.16 -1.92
14.57 18.05 3.67
12.85 15.92 -1.79
15.1 18.71 -1.26
16.25 20.14 5.97
15.18 18.81 -0.42
4.28 5.27 -1.82
15.61 19.22 0.43
5.11 6.29 -1.87
16.35 20.12 1.36
6.31 7.76 -1.94
16.44 20.24 2.28
8.34 10.27 -2.09
23.87 29.38 4.65
9.85 12.13 -1.92
14.78 18.19 3.71
12.95 15.94 -1.8
15.43 19 -1.28
16.25 20.01 5.95
15.25 18.77 -0.42
4.3 5.26 -1.82
15.84 19.36 0.44
5.12 6.26 -1.87
23.95 29.27 1.98
6.33 7.74 -1.94
23.97 29.29 3.31
8.37 10.23 -2.09
15.67 19.15 3.04
9.9 12.09 -1.92
15.19 18.57 3.8
13.07 15.97 -1.8
15.5 18.94 -1.28
15.42 18.84 -0.43
4.32 5.24 -1.82
13.16 15.96 0.36
5.14 6.24 -1.87
17.04 20.68 1.4
6.35 7.7 -1.94
8.14 9.88 1.12
8.42 10.22 -2.1
24.08 29.23 4.65
9.91 12.02 -1.91
15.32 18.59 3.82
13.15 15.96 -1.81
13.15 15.95 -1.08
13.17 15.98 -0.36
4.33 5.22 -1.82
15.97 19.24 0.44
5.16 6.22 -1.86
17.12 20.63 1.4
6.36 7.66 -1.94
8.15 9.81 1.12
8.44 10.16 -2.09
24.19 29.14 4.65
9.94 11.98 -1.91
15.43 18.59 3.83
13.23 15.93 -1.81
13.22 15.93 -1.08
15.6 18.79 -0.43
4.34 5.19 -1.81
16.17 19.34 0.44
5.18 6.19 -1.86
24.25 29.02 1.98
6.38 7.64 -1.94
8.13 9.73 1.11
8.49 10.16 -2.1
24.28 29.05 4.65
9.98 11.94 -1.91
15.46 18.5 3.82
13.34 15.96 -1.82
15.76 18.86 -1.29
15.74 18.83 -0.43
4.36 5.17 -1.81
16.17 19.22 0.44
5.2 6.17 -1.86
24.36 28.95 1.98
6.4 7.61 -1.93
8.14 9.67 1.11
8.56 10.17 -2.1
24.38 28.97 4.65
10.02 11.91 -1.91
15.51 18.43 3.82
15.63 18.57 -2.12
15.94 18.94 -1.3
18.31 21.76 6.56
15.85 18.83 -0.43
19.85 23.59 8.26
4.37 5.16 -1.81
16.48 19.45 0.45
5.2 6.14 -1.86
24.46 28.86 1.98
6.43 7.58 -1.93
8.06 9.51 1.09
7.66 9.04 -1.88
24.53 28.94 4.66
10.07 11.88 -1.91
24.61 29.04 6.03
15.7 18.52 -2.12
17.4 20.54 5.23
16.36 19.31 -1.33
18.36 21.67 6.56
15.96 18.83 -0.43
4.39 5.14 -1.81
8.07 9.46 0.22
5.22 6.12 -1.86
8.07 9.46 0.65
6.44 7.55 -1.93
8.11 9.5 1.09
8.63 10.11 -2.1
14.22 16.67 2.69
10.07 11.8 -1.9
14.24 16.69 3.48
15.77 18.48 -2.13
16.18 18.97 -1.31
18.37 21.53 6.54
8.1 9.49 -0.22
17.65 20.69 7.29
4.4 5.12 -1.81
8.12 9.45 0.22
5.24 6.1 -1.86
14.28 16.61 1.15
6.45 7.51 -1.92
8.15 9.48 1.09
7.8 9.08 -1.9
14.28 16.62 2.69
8.12 9.45 -1.53
17.74 20.64 4.31
8.1 9.43 -1.09
15.33 17.84 4.57
8.12 9.44 -0.65
8.11 9.44 -0.22
17.72 20.62 7.29
4.41 5.09 -1.8
14.3 16.52 0.38
5.26 6.08 -1.86
14.33 16.56 1.15
6.47 7.48 -1.92
8.14 9.4 1.09
7.83 9.05 -1.9
25.12 29.02 4.71
8.15 9.41 -1.53
25.18 29.1 6.09
8.15 9.42 -1.09
15.2 17.57 4.52
14.31 16.53 -0.38
4.43 5.08 -1.81
13.94 15.99 0.37
5.27 6.05 -1.85
25.19 28.9 2.01
6.49 7.44 -1.92
8.13 9.32 1.08
7.92 9.09 -1.91
25.83 29.63 4.83
10.26 11.77 -1.92
25.39 29.12 6.12
14.36 16.47 -1.91
16.21 18.6 4.8
13.95 16 -1.11
14.36 16.48 -0.38
4.44 5.06 -1.8
25.29 28.82 0.67
5.29 6.02 -1.85
25.38 28.91 2.02
6.51 7.41 -1.92
8.13 9.26 1.08
7.94 9.05 -1.91
26 29.62 4.84
10.3 11.74 -1.92
19 21.64 4.56
15.81 18.01 -2.1
15.17 17.28 4.47
16.55 18.85 -1.31
18.76 21.37 6.57
16.72 19.05 -0.44
4.46 5.04 -1.8
14.18 16.05 0.37
5.3 6 -1.85
6.51 7.37 -1.91
8.15 9.22 1.08
7.86 8.89 -1.88
26.18 29.63 4.85
10.34 11.7 -1.92
18.21 20.62 4.36
15.98 18.09 -2.11
16.7 18.91 -1.32
16.75 18.96 -0.44
4.47 5.02 -1.8
14.37 16.15 0.38
5.32 5.98 -1.85
6.53 7.34 -1.91
8.14 9.15 1.07
7.8 8.77 -1.86
17.21 19.34 3.18
10.39 11.68 -1.92
25.93 29.15 6.18
16.09 18.09 -2.12
16.86 18.95 -1.33
15.45 17.37 5.37
16.95 19.05 -0.45
18.04 20.28 7.27
4.47 4.99 -1.8
14.43 16.1 0.38
5.34 5.96 -1.85
6.55 7.31 -1.91
18.36 20.48 2.41
7.84 8.74 -1.86
17.25 19.25 3.17
10.44 11.64 -1.92
26.11 29.13 6.2
16.16 18.03 -2.12
18.49 20.63 5.39
17.08 19.05 -1.34
18.15 20.25 6.28
17.01 18.97 -0.44
18.13 20.23 7.28
4.49 4.97 -1.79
5.35 5.93 -1.85
6.57 7.28 -1.91
18.41 20.4 2.4
7.87 8.72 -1.86
26.74 29.63 4.9
10.49 11.63 -1.92
26.31 29.16 6.22
16.17 17.92 -2.11
14.18 15.71 4.11
17.22 19.08 5.93
4.51 4.96 -1.8
27.08 29.81 0.7
5.36 5.9 -1.84
27.07 29.79 2.11
6.59 7.25 -1.9
18.5 20.36 2.41
7.89 8.69 -1.86
17.09 18.8 3.12
10.56 11.63 -1.93
17.98 19.78 4.23
16.25 17.89 -2.11
14.17 15.6 4.1
17.92 19.72 -1.4
17.23 18.96 5.92
17.16 18.88 -0.45
4.52 4.94 -1.79
27.14 29.66 0.7
5.38 5.88 -1.84
6.6 7.21 -1.9
7.94 8.67 -1.86
27.11 29.63 4.93
10.6 11.58 -1.93
26.71 29.19 6.27
16.34 17.86 -2.12
14.22 15.54 4.09
18.5 20.22 6.33
17.32 18.93 -0.45
4.53 4.91 -1.79
18.64 20.23 0.48
5.39 5.85 -1.84
6.61 7.18 -1.9
7.98 8.66 -1.86
17.2 18.66 3.12
10.67 11.58 -1.93
26.88 29.17 6.28
16.43 17.83 -2.12
14.32 15.54 4.11
17.72 19.23 -1.37
18.52 20.1 6.31
17.4 18.88 -0.45
19.07 20.69 7.54
4.53 4.89 -1.79
18.66 20.11 0.48
5.41 5.83 -1.84
18.67 20.13 1.44
6.63 7.15 -1.9
18.68 20.13 2.4
8.04 8.67 -1.87
17.27 18.62 3.12
10.73 11.56 -1.94
18.54 19.99 4.32
16.55 17.84 -2.13
18.52 19.96 5.29
18.62 20.07 -1.43
18.59 20.04 6.31
18.56 20.01 -0.48
19.17 20.66 7.55
4.55 4.87 -1.79
18.72 20.03 0.48
5.43 5.81 -1.84
18.7 20.01 1.44
6.65 7.12 -1.89
18.71 20.01 2.4
8.09 8.66 -1.88
17.77 19.01 3.19
10.77 11.52 -1.94
18.59 19.89 4.31
16.62 17.78 -2.13
18.57 19.87 5.29
17.85 19.1 -1.37
18.72 20.02 6.33
18.77 20.07 -0.48
4.56 4.84 -1.78
18.85 20.03 0.48
5.44 5.78 -1.83
18.77 19.94 1.44
6.67 7.09 -1.89
18.78 19.95 2.4
8.15 8.66 -1.88
18.73 19.9 3.36
10.82 11.5 -1.94
18.71 19.88 4.32
16.74 17.78 -2.14
18.61 19.77 5.28
17.93 19.05 -1.37
17.93 19.05 -0.46
4.58 4.83 -1.78
15.33 16.19 0.39
5.45 5.75 -1.83
18.91 19.96 1.44
6.68 7.06 -1.89
18.89 19.94 2.4
8.22 8.67 -1.89
18.85 19.9 3.37
10.91 11.51 -1.95
18.88 19.93 4.35
15.31 16.16 -1.95
18.04 19.04 -1.37
18.25 19.27 -0.46
4.59 4.81 -1.78
15.4 16.15 0.39
5.46 5.73 -1.83
6.7 7.02 -1.89
17.44 18.28 2.21
8.27 8.68 -1.9
28.25 29.62 5.03
10.97 11.5 -1.95
18.94 19.86 4.35
15.36 16.11 -1.95
15.37 16.11 -1.17
16.94 17.76 5.67
15.39 16.13 -0.39
4.61 4.8 -1.78
28.8 29.98 0.73
5.49 5.71 -1.83
28.83 30.01 2.18
6.71 6.99 -1.88
28.81 29.99 3.64
8.34 8.68 -1.91
19.11 19.89 3.39
11.03 11.48 -1.95
28.11 29.26 6.43
15.44 16.07 -1.95
15.51 16.14 -1.17
18.36 19.11 -0.46
4.61 4.77 -1.78
28.88 29.86 0.73
5.5 5.69 -1.83
28.86 29.84 2.18
6.73 6.96 -1.88
8.4 8.68 -1.91
28.65 29.62 5.06
11.01 11.39 -1.95
28.34 29.3 6.46
16.85 17.42 -2.12
21.41 22.13 5.98
18.48 19.11 -1.39
16.84 17.41 5.59
18.48 19.11 -0.46
4.63 4.75 -1.78
5.51 5.66 -1.82
6.75 6.93 -1.88
19.8 20.32 2.48
8.46 8.68 -1.92
28.8 29.57 5.07
11.08 11.37 -1.95
28.56 29.31 6.48
16.86 17.31 -2.11
18.59 19.08 -1.4
18.61 19.11 -0.47
4.65 4.74 -1.78
15.97 16.28 0.4
5.52 5.63 -1.82
6.76 6.89 -1.88
19.92 20.31 2.49
8.51 8.68 -1.93
29.03 29.6 5.09
11.14 11.36 -1.95
18.44 18.8 4.17
15.36 15.67 -1.92
18.82 19.19 -1.41
18.69 19.05 6.16
18.75 19.12 -0.47
4.67 4.73 -1.78
5.54 5.61 -1.82
6.76 6.85 -1.87
8.58 8.69 -1.93
29.24 29.6 5.11
11.18 11.32 -1.95
29.01 29.36 6.54
15.44 15.63 -1.92
19 19.24 -1.42
17.16 17.37 5.64
18.87 19.1 -0.47
18.47 18.7 7.04
4.67 4.69 -1.77
5.56 5.59 -1.82
6.78 6.82 -1.87
8.65 8.7 -1.94
29.42 29.58 5.12
11.22 11.29 -1.95
29.22 29.38 6.56
15.41 15.5 -1.91
19.19 19.3 -1.43
17.13 17.23 5.61
19.07 19.17 -0.47
18.61 18.71 7.07
4.68 4.68 -1.77
5.58 5.57 -1.82
6.8 6.79 -1.87
8.7 8.69 -1.95
29.63 29.58 5.14
11.28 11.27 -1.96
29.44 29.4 6.59
15.44 15.42 -1.91
19.31 19.28 -1.43
17.17 17.15 5.6
19.25 19.23 -0.47
20.58 20.55 7.79
4.63 4.6 -1.75
5.58 5.54 -1.82
6.82 6.76 -1.87
30.58 30.33 3.77
8.77 8.69 -1.96
29.84 29.6 5.16
11.33 11.24 -1.96
29.65 29.41 6.61
15.33 15.2 -1.89
17.78 17.63 4.87
19.34 19.18 -1.43
17.58 17.44 5.72
19.56 19.4 -0.48
4.64 4.56 -1.74
5.6 5.51 -1.81
30.58 30.09 2.25
6.83 6.72 -1.86
30.58 30.09 3.75
8.81 8.67 -1.96
30.05 29.57 5.18
11.39 11.2 -1.96
29.88 29.41 6.64
15.42 15.18 -1.89
19.65 19.33 5.36
19.56 19.25 -1.44
17.63 17.35 5.71
19.46 19.15 -0.48
4.65 4.55 -1.74
30.64 29.95 0.75
5.62 5.49 -1.81
30.65 29.95 2.25
6.84 6.69 -1.86
30.79 30.09 3.77
8.86 8.66 -1.96
30.28 29.59 5.2
11.41 11.15 -1.96
30.11 29.43 6.67
15.23 14.88 -1.86
12.22 11.95 3.95
19.8 19.35 -0.48
4.65 4.52 -1.74
30.86 29.96 0.75
5.63 5.47 -1.81
30.87 29.98 2.26
6.86 6.66 -1.86
30.89 30 3.77
8.87 8.61 -1.96
11.87 11.52 2.03
11.46 11.12 -1.96
19.75 19.18 4.36
15.36 14.91 -1.87
19.98 19.4 -0.49
11.67 11.34 4.36
4.67 4.5 -1.74
30.96 29.86 0.75
5.64 5.44 -1.81
30.98 29.88 2.26
6.88 6.63 -1.86
31.01 29.91 3.77
8.89 8.58 -1.96
11.9 11.48 2.03
11.5 11.09 -1.96
30.62 29.54 6.74
15.38 14.83 -1.87
19.98 19.27 -1.45
19.67 18.98 6.31
20.69 19.96 -0.5
4.68 4.49 -1.74
31.09 29.77 0.75
5.65 5.41 -1.81
31.1 29.78 2.26
6.9 6.6 -1.86
31.13 29.81 3.77
8.91 8.53 -1.95
30.89 29.58 5.25
11.56 11.07 -1.97
12.43 11.9 2.73
15.46 14.81 -1.87
20.85 19.97 -1.51
19.56 18.73 6.25
20.89 20 -0.5
4.69 4.46 -1.74
31.2 29.68 0.75
5.66 5.38 -1.8
31.21 29.69 2.26
6.91 6.57 -1.85
31.26 29.73 3.77
8.93 8.5 -1.95
12.18 11.59 2.06
11.59 11.03 -1.96
12.5 11.89 2.73
15.52 14.76 -1.87
20.21 19.22 -1.46
18.87 17.95 6.01
20.77 19.76 -0.5
4.7 4.44 -1.73
31.32 29.59 0.75
5.67 5.36 -1.8
31.33 29.59 2.26
6.92 6.53 -1.85
31.37 29.63 3.78
8.94 8.44 -1.95
12.31 11.63 2.08
11.63 10.98 -1.96
20.03 18.92 4.36
15.53 14.67 -1.87
20.35 19.22 -1.47
20.29 19.17 6.45
20.5 19.36 -0.49
4.7 4.41 -1.73
31.44 29.5 0.75
5.69 5.33 -1.8
31.43 29.49 2.26
6.93 6.5 -1.85
31.48 29.54 3.78
8.89 8.34 -1.93
31.49 29.54 5.3
11.67 10.95 -1.96
20.08 18.84 4.36
15.61 14.65 -1.87
20.58 19.31 -1.48
11.58 10.87 3.67
20.6 19.33 -0.49
4.71 4.39 -1.73
31.55 29.39 0.75
5.7 5.31 -1.8
31.58 29.41 2.26
6.95 6.47 -1.85
31.61 29.45 3.78
8.86 8.26 -1.92
31.69 29.52 5.32
11.65 10.85 -1.95
31.75 29.57 6.87
15.69 14.61 -1.88
20.93 19.5 -1.5
11.96 11.14 3.77
20.82 19.39 -0.5
4.72 4.37 -1.72
17.62 16.3 0.42
5.7 5.28 -1.79
31.75 29.38 2.27
6.95 6.43 -1.84
31.84 29.46 3.79
8.89 8.22 -1.92
31.91 29.52 5.34
11.71 10.83 -1.96
31.98 29.58 6.9
15.75 14.57 -1.88
17.61 16.29 -1.26
17.65 16.33 -0.42
11.65 10.78 4.25
4.74 4.35 -1.72
31.95 29.35 0.76
5.72 5.25 -1.79
31.96 29.36 2.27
6.97 6.4 -1.84
32.08 29.47 3.81
8.9 8.18 -1.91
32.16 29.54 5.36
11.72 10.77 -1.95
15.79 14.51 -1.88
17.74 16.29 -1.26
20.58 18.9 7.49
4.76 4.34 -1.72
32.18 29.36 0.76
5.73 5.23 -1.79
32.23 29.4 2.29
6.97 6.36 -1.83
32.33 29.49 3.83
8.91 8.13 -1.91
32.4 29.56 5.39
11.73 10.7 -1.95
15.83 14.44 -1.87
21.45 19.57 -1.52
11.92 10.87 3.72
22.19 20.24 -0.52
4.75 4.3 -1.72
32.42 29.36 0.76
5.75 5.21 -1.79
32.47 29.4 2.3
6.99 6.33 -1.83
8.93 8.08 -1.91
11.57 10.48 1.92
11.69 10.59 -1.94
15.89 14.39 -1.88
12.04 10.9 3.16
21.46 19.43 -1.52
12.02 10.89 3.74
22.31 20.21 -0.53
12.01 10.88 4.34
4.77 4.29 -1.72
5.76 5.18 -1.79
7 6.3 -1.83
8.93 8.03 -1.9
32.89 29.58 5.43
11.73 10.55 -1.94
12.84 11.55 2.73
15.91 14.3 -1.87
21.6 19.43 -1.52
12.12 10.9 3.76
12.07 10.85 4.35
4.78 4.27 -1.72
5.76 5.14 -1.78
7.03 6.28 -1.83
34.17 30.52 4.01
8.94 7.98 -1.9
33.16 29.62 5.46
11.77 10.52 -1.94
12.29 10.98 2.61
15.94 14.24 -1.87
11.47 10.24 2.99
12.14 10.84 3.76
22.59 20.18 -0.53
4.8 4.25 -1.72
5.77 5.12 -1.78
34.21 30.35 2.4
7.03 6.24 -1.83
34.21 30.34 4
8.96 7.95 -1.9
33.41 29.64 5.48
11.77 10.44 -1.93
12.34 10.94 2.61
15.98 14.17 -1.87
12.24 10.86 3.18
22.43 19.9 -1.57
20.9 18.54 6.45
22.78 20.21 -0.53
12.01 10.65 4.3
4.81 4.23 -1.72
22.97 20.23 0.53
5.78 5.09 -1.78
34.33 30.24 2.4
7.04 6.2 -1.82
12.88 11.34 1.5
8.98 7.91 -1.89
33.67 29.65 5.51
11.77 10.36 -1.93
19.88 17.5 4.19
16.04 14.12 -1.87
11.6 10.22 3
22.83 20.1 -1.59
11.87 10.45 3.65
12.24 10.78 4.37
4.81 4.21 -1.71
5.79 5.07 -1.78
7.06 6.17 -1.82
12.02 10.51 1.4
8.99 7.86 -1.89
33.92 29.67 5.53
11.76 10.29 -1.92
12.41 10.86 2.61
16.06 14.05 -1.87
11.59 10.14 2.99
11.92 10.43 3.66
4.83 4.19 -1.71
5.81 5.04 -1.78
7.08 6.14 -1.82
12.86 11.17 1.49
8.99 7.81 -1.89
34.2 29.7 5.56
11.82 10.26 -1.92
12.17 10.57 2.55
16.11 13.99 -1.87
12.66 10.99 3.26
23.05 20.02 -1.6
4.84 4.17 -1.71
5.81 5.01 -1.77
7.09 6.11 -1.82
12.19 10.51 1.41
9.01 7.77 -1.88
12.79 11.03 2.07
11.78 10.16 -1.91
12.13 10.46 2.54
16.13 13.91 -1.86
13.24 11.42 3.4
22.61 19.5 -1.56
12.57 10.84 4.45
4.85 4.16 -1.71
5.82 4.99 -1.77
7.1 6.09 -1.82
12.25 10.5 1.41
9.02 7.73 -1.88
34.74 29.77 5.62
11.79 10.1 -1.91
12.21 10.46 2.55
16.18 13.87 -1.86
23.18 19.86 -1.6
22.9 19.62 -0.53
4.87 4.14 -1.71
5.84 4.97 -1.77
7.11 6.05 -1.81
12.67 10.78 1.46
9.04 7.69 -1.88
12.61 10.73 2.03
11.8 10.04 -1.9
12.28 10.45 2.55
16.21 13.79 -1.86
12.76 10.85 3.26
23.13 19.68 -1.59
23.1 19.65 -0.53
12.64 10.76 4.45
4.87 4.11 -1.71
36.04 30.45 0.82
5.85 4.94 -1.77
7.12 6.02 -1.81
12.73 10.75 1.46
9.05 7.65 -1.88
12.68 10.71 2.04
11.68 9.87 -1.88
12.49 10.56 2.59
16.26 13.74 -1.86
12.7 10.73 3.23
23.2 19.6 -1.59
12.71 10.74 3.84
23.24 19.63 -0.53
12.66 10.7 4.44
4.88 4.09 -1.71
12.65 10.61 0.29
5.86 4.92 -1.77
12.65 10.61 0.87
7.13 5.98 -1.81
12.69 10.64 1.45
9.05 7.59 -1.87
12.55 10.52 2.01
11.56 9.7 -1.85
12.68 10.63 2.62
12.6 10.57 -1.44
13.46 11.29 3.41
12.61 10.58 -0.86
12.64 10.6 -0.29
12.76 10.7 4.46
4.89 4.07 -1.7
12.68 10.56 0.29
5.88 4.9 -1.77
12.68 10.56 0.86
7.15 5.96 -1.81
12.59 10.49 1.43
9.07 7.55 -1.87
11.6 9.66 -1.85
13.33 11.1 2.75
12.62 10.51 -1.44
20.8 17.32 5.26
12.64 10.53 -0.86
12.66 10.55 -0.29
4.91 4.06 -1.71
12.73 10.53 0.29
5.9 4.88 -1.77
7.16 5.92 -1.81
12.7 10.5 1.44
9.08 7.51 -1.87
12.96 10.72 2.07
11.61 9.6 -1.85
13.01 10.76 2.67
12.7 10.5 -1.44
13.39 11.08 3.38
12.06 9.97 3.61
4.92 4.04 -1.71
24.81 20.37 0.56
5.92 4.86 -1.77
7.16 5.88 -1.8
12.72 10.45 1.44
9.09 7.47 -1.86
12.95 10.63 2.06
11.48 9.43 -1.82
12.39 10.17 2.54
16.36 13.44 -1.85
12.74 10.46 3.2
23.66 19.43 -0.53
4.91 4 -1.7
24.91 20.31 0.56
5.93 4.83 -1.77
7.17 5.85 -1.8
13.27 10.82 1.5
9.1 7.42 -1.86
36.64 29.87 5.8
11.52 9.39 -1.83
20.33 16.58 4.15
16.43 13.39 -1.85
13.23 10.78 3.32
24.62 20.07 -1.66
20.88 17.03 6.22
23.93 19.51 -0.54
4.92 3.98 -1.7
24.93 20.18 0.56
5.93 4.8 -1.76
37.81 30.6 2.55
7.18 5.82 -1.8
12.96 10.49 1.46
9.1 7.37 -1.86
35 28.33 5.53
11.54 9.34 -1.82
13.12 10.62 2.67
16.45 13.31 -1.85
24.48 19.82 -1.65
21.03 17.02 6.25
25.06 20.29 -0.56
4.94 3.97 -1.7
25.04 20.12 0.56
5.88 4.73 -1.74
38.03 30.57 2.56
7.19 5.78 -1.79
9.12 7.33 -1.85
12.7 10.2 2
11.62 9.34 -1.83
16.53 13.28 -1.85
12.38 9.95 3.09
24.56 19.74 -1.65
12.72 10.22 3.77
24.38 19.59 -0.55
4.95 3.95 -1.7
25.29 20.18 0.56
5.85 4.67 -1.73
35.6 28.41 2.39
7.21 5.76 -1.79
13.08 10.44 1.46
9.13 7.28 -1.85
12.8 10.22 2.01
11.66 9.3 -1.83
16.54 13.2 -1.85
13.36 10.66 3.32
12.84 10.25 3.79
24.66 19.68 -0.55
4.96 3.93 -1.69
5.86 4.64 -1.73
38.26 30.32 2.56
7.22 5.72 -1.79
38.33 30.37 4.28
9.14 7.24 -1.85
13.57 10.75 2.13
11.62 9.21 -1.82
21.95 17.39 4.44
16.55 13.11 -1.85
24.92 19.75 -1.67
12.87 10.19 3.79
4.96 3.9 -1.69
25.42 20 0.56
5.87 4.62 -1.72
7.23 5.69 -1.79
9.14 7.2 -1.84
38.17 30.04 5.96
11.66 9.18 -1.82
12.78 10.06 2.58
16.57 13.04 -1.84
13 10.23 3.82
24.87 19.57 -0.55
4.97 3.88 -1.69
25.69 20.07 0.57
5.88 4.59 -1.72
7.24 5.66 -1.79
9.15 7.15 -1.84
14.37 11.23 2.24
11.69 9.14 -1.82
13.12 10.25 2.64
16.64 13 -1.85
26.03 20.33 -1.73
13.04 10.19 3.82
24.95 19.49 -0.55
4.98 3.87 -1.69
5.88 4.56 -1.72
38.69 30.01 2.57
7.26 5.63 -1.79
38.72 30.04 4.29
9.16 7.1 -1.84
12.84 9.96 1.99
11.67 9.05 -1.81
12.93 10.03 2.59
16.65 12.91 -1.84
13.39 10.39 3.29
13.75 10.67 4.02
12.8 9.93 4.34
4.99 3.85 -1.69
25.98 20 0.57
5.89 4.54 -1.72
38.83 29.91 2.57
7.26 5.59 -1.78
39.02 30.05 4.31
9.17 7.06 -1.83
12.85 9.9 1.99
11.7 9.01 -1.81
12.88 9.92 2.57
16.69 12.86 -1.84
26.56 20.46 -1.76
12.81 9.87 3.73
25.42 19.57 -0.56
5.01 3.83 -1.69
26.26 20.08 0.58
5.9 4.51 -1.71
39.14 29.93 2.58
7.27 5.56 -1.78
9.18 7.02 -1.83
36.25 27.72 5.6
11.74 8.98 -1.82
16.72 12.78 -1.84
26.69 20.41 -1.76
13.71 10.48 3.99
5.01 3.8 -1.68
26.21 19.9 0.57
5.91 4.49 -1.71
39.44 29.93 2.59
7.28 5.52 -1.78
9.19 6.98 -1.83
39.68 30.12 6.12
11.8 8.96 -1.82
16.75 12.71 -1.84
26.39 20.03 -1.74
21.54 16.35 6.24
13.02 9.88 4.38
5.03 3.79 -1.69
22.09 16.64 0.48
5.92 4.46 -1.71
7.29 5.49 -1.77
35.83 27 3.93
9.19 6.93 -1.82
36.2 27.28 5.56
11.87 8.94 -1.82
16.69 12.58 -1.83
13.41 10.1 3.26
21.75 16.39 6.29
5.03 3.76 -1.68
5.92 4.43 -1.71
41.43 30.99 2.71
7.3 5.46 -1.77
41.35 30.94 4.52
9.2 6.88 -1.82
40.35 30.18 6.19
11.98 8.96 -1.84
16.76 12.54 -1.83
22.19 16.6 -1.45
5.05 3.75 -1.68
27.01 20.06 0.59
5.93 4.4 -1.71
41.41 30.76 2.7
7.31 5.43 -1.77
9.2 6.83 -1.82
40.65 30.19 6.22
12.05 8.95 -1.84
16.81 12.48 -1.83
12.82 9.52 3.1
26.75 19.87 -1.75
5.06 3.73 -1.68
27.21 20.06 0.59
5.94 4.38 -1.7
7.3 5.38 -1.76
9.22 6.8 -1.81
40.99 30.22 6.25
12.15 8.96 -1.85
16.85 12.43 -1.83
5.06 3.7 -1.68
27.26 19.96 0.59
5.95 4.36 -1.7
7.31 5.35 -1.76
9.23 6.76 -1.81
41.34 30.27 6.29
12.25 8.97 -1.86
16.86 12.34 -1.83
5.07 3.68 -1.68
27.5 19.99 0.59
5.95 4.33 -1.7
7.32 5.32 -1.76
9.24 6.71 -1.81
41.7 30.31 6.33
12.33 8.96 -1.87
13.25 9.63 2.59
16.84 12.24 -1.82
5.08 3.67 -1.68
27.9 20.13 0.6
5.96 4.3 -1.7
7.33 5.29 -1.76
43.11 31.1 4.65
9.25 6.67 -1.81
42 30.3 6.36
12.47 9 -1.89
16.95 12.23 -1.83
5.1 3.65 -1.68
28.02 20.07 0.6
5.96 4.27 -1.69
43.21 30.94 2.79
7.34 5.26 -1.76
9.26 6.63 -1.8
42.36 30.34 6.4
12.55 8.99 -1.9
17.01 12.18 -1.83
5.11 3.63 -1.68
5.98 4.25 -1.7
7.35 5.22 -1.75
9.27 6.59 -1.8
42.73 30.38 6.44
12.63 8.98 -1.9
13.5 9.6 2.62
17.07 12.14 -1.83
5.1 3.6 -1.67
28.66 20.23 0.61
6 4.24 -1.7
7.35 5.19 -1.75
9.28 6.55 -1.8
43.1 30.41 6.48
12.71 8.97 -1.91
13.5 9.53 2.62
17.17 12.11 -1.84
5.12 3.58 -1.67
28.48 19.95 0.61
6.02 4.22 -1.7
7.36 5.16 -1.75
9.27 6.5 -1.79
43.43 30.42 6.51
12.79 8.96 -1.92
17.17 12.03 -1.83
5.12 3.56 -1.67
28.93 20.12 0.62
6.02 4.18 -1.69
44.94 31.24 2.87
7.37 5.13 -1.75
44.89 31.21 4.78
9.28 6.45 -1.79
43.8 30.45 6.55
12.8 8.9 -1.91
17.19 11.95 -1.83
28.45 19.78 -0.6
5.14 3.55 -1.67
24.41 16.84 0.52
6.03 4.16 -1.69
44.97 31.04 2.86
7.38 5.09 -1.74
45.15 31.16 4.8
9.28 6.41 -1.79
44.17 30.48 6.59
12.81 8.84 -1.91
17.29 11.93 -1.84
24.4 16.84 -0.52
5.14 3.52 -1.67
29.25 20.03 0.62
6.04 4.14 -1.69
45.26 31 2.88
7.38 5.05 -1.74
45.31 31.03 4.8
9.29 6.37 -1.78
44.55 30.52 6.63
12.77 8.75 -1.9
17.36 11.89 -1.84
24.53 16.8 -1.56
5.15 3.5 -1.67
6.05 4.12 -1.69
45.4 30.87 2.88
7.38 5.02 -1.74
45.45 30.9 4.81
9.31 6.33 -1.78
44.94 30.55 6.67
12.76 8.68 -1.89
17.43 11.85 -1.84
5.16 3.48 -1.67
6.06 4.09 -1.69
45.56 30.74 2.88
7.41 5 -1.74
45.62 30.78 4.81
9.31 6.28 -1.78
45.34 30.59 6.72
12.69 8.56 -1.88
17.43 11.76 -1.84
5.17 3.47 -1.67
29.98 20.08 0.63
6.06 4.06 -1.68
45.72 30.63 2.88
7.42 4.97 -1.74
45.76 30.66 4.82
9.32 6.24 -1.78
45.65 30.59 6.75
12.68 8.5 -1.87
17.61 11.79 -1.85
5.18 3.45 -1.67
6.07 4.03 -1.68
45.87 30.5 2.89
7.46 4.96 -1.74
45.95 30.56 4.83
9.33 6.2 -1.77
46.06 30.62 6.79
12.68 8.43 -1.87
17.69 11.76 -1.86
5.19 3.43 -1.67
30.71 20.27 0.64
6.08 4.01 -1.68
46.18 30.47 2.9
7.46 4.92 -1.74
46.38 30.6 4.86
9.34 6.16 -1.77
46.48 30.67 6.84
12.69 8.37 -1.87
17.79 11.74 -1.86
5.19 3.4 -1.66
30.7 20.1 0.64
6.1 3.99 -1.68
7.33 4.8 -1.7
9.34 6.12 -1.77
46.88 30.7 6.88
12.7 8.32 -1.86
17.87 11.7 -1.87
5.2 3.38 -1.66
30.94 20.11 0.64
6.1 3.97 -1.68
7.33 4.76 -1.7
48.49 31.51 5.06
9.34 6.07 -1.76
47.29 30.74 6.93
12.69 8.25 -1.86
18.01 11.7 -1.88
5.22 3.36 -1.66
31.14 20.08 0.65
6.11 3.94 -1.68
48.57 31.32 3.03
7.34 4.73 -1.7
9.35 6.03 -1.76
47.68 30.75 6.97
12.69 8.18 -1.85
18.06 11.65 -1.88
5.23 3.35 -1.66
31.67 20.27 0.66
6.12 3.92 -1.68
7.33 4.69 -1.69
9.35 5.99 -1.76
48.11 30.79 7.01
12.67 8.11 -1.85
18.11 11.59 -1.88
5.24 3.33 -1.66
31.91 20.26 0.66
6.13 3.89 -1.68
7.31 4.64 -1.68
9.36 5.95 -1.76
48.54 30.83 7.06
12.68 8.05 -1.84
18.13 11.52 -1.88
26.72 16.97 -1.66
5.24 3.3 -1.66
6.14 3.87 -1.68
7.34 4.63 -1.69
9.36 5.9 -1.75
48.96 30.85 7.11
12.69 8 -1.84
18.26 11.51 -1.89
5.25 3.28 -1.66
6.15 3.85 -1.68
50.33 31.47 3.11
7.33 4.58 -1.68
9.37 5.86 -1.75
49.4 30.89 7.15
12.69 7.94 -1.84
18.34 11.47 -1.89
5.26 3.26 -1.66
6.15 3.82 -1.67
7.35 4.56 -1.68
9.37 5.81 -1.75
49.85 30.93 7.2
12.68 7.87 -1.83
18.42 11.43 -1.9
5.27 3.25 -1.66
6.16 3.79 -1.67
7.35 4.52 -1.68
9.38 5.77 -1.74
50.23 30.92 7.24
12.67 7.8 -1.83
18.53 11.41 -1.9
5.28 3.23 -1.66
33.19 20.29 0.68
6.17 3.77 -1.67
7.35 4.5 -1.68
9.39 5.74 -1.74
12.67 7.74 -1.82
18.6 11.37 -1.91
5.29 3.21 -1.66
33.38 20.25 0.68
6.18 3.75 -1.67
7.36 4.47 -1.67
9.39 5.69 -1.74
12.67 7.69 -1.82
18.7 11.34 -1.91
5.3 3.19 -1.66
33.58 20.2 0.68
6.18 3.72 -1.67
52.41 31.53 3.21
7.37 4.43 -1.67
52.47 31.57 5.36
9.38 5.64 -1.73
12.67 7.62 -1.82
18.79 11.31 -1.92
5.31 3.17 -1.66
6.18 3.69 -1.66
52.65 31.42 3.21
7.39 4.41 -1.67
52.63 31.41 5.36
9.39 5.6 -1.73
12.66 7.55 -1.81
18.84 11.25 -1.92
5.32 3.15 -1.66
6.19 3.66 -1.66
7.39 4.38 -1.67
52.82 31.28 5.37
9.39 5.56 -1.73
12.65 7.49 -1.81
18.98 11.24 -1.93
5.33 3.13 -1.65
6.2 3.64 -1.66
7.39 4.34 -1.67
9.39 5.52 -1.72
12.64 7.43 -1.8
19.08 11.21 -1.94
20.81 12.23 5.57
5.32 3.1 -1.65
35.15 20.49 0.71
6.21 3.62 -1.66
7.41 4.32 -1.67
9.39 5.48 -1.72
20.87 12.16 2.97
12.65 7.37 -1.8
20.82 12.13 3.82
19.09 11.13 -1.93
20.83 12.14 4.69
5.34 3.09 -1.65
6.21 3.59 -1.66
7.42 4.29 -1.67
20.85 12.06 2.11
9.38 5.42 -1.72
20.83 12.05 2.95
12.66 7.32 -1.8
20.87 12.07 3.82
19.16 11.08 -1.94
5.35 3.07 -1.65
20.86 11.97 0.42
6.21 3.56 -1.65
20.88 11.98 1.26
7.43 4.26 -1.66
20.94 12.01 2.11
9.37 5.38 -1.71
12.65 7.26 -1.79
19.2 11.01 -1.94
20.91 11.99 -0.42
5.36 3.05 -1.65
20.91 11.9 0.42
6.22 3.54 -1.65
7.44 4.23 -1.66
9.38 5.34 -1.71
12.63 7.19 -1.78
19.18 10.91 -1.93
20.91 11.9 -1.26
20.93 11.91 -0.42
5.36 3.03 -1.65
6.23 3.52 -1.65
7.43 4.2 -1.66
9.39 5.3 -1.71
12.63 7.13 -1.78
19.08 10.77 -1.92
5.36 3 -1.65
36.64 20.52 0.73
6.25 3.5 -1.65
7.44 4.17 -1.66
9.39 5.26 -1.7
12.63 7.07 -1.78
17.47 9.78 -1.75
28.38 15.89 -1.7
5.37 2.98 -1.65
6.26 3.47 -1.65
7.45 4.13 -1.66
9.38 5.21 -1.7
12.63 7.01 -1.77
17.68 9.81 -1.77
5.38 2.96 -1.65
6.26 3.45 -1.65
7.46 4.1 -1.65
9.39 5.17 -1.7
12.64 6.96 -1.77
17.56 9.67 -1.75
28.67 15.78 -1.72
5.39 2.95 -1.65
6.27 3.42 -1.65
7.46 4.07 -1.65
9.42 5.14 -1.7
12.63 6.9 -1.77
17.39 9.5 -1.73
5.4 2.92 -1.65
6.28 3.4 -1.65
7.45 4.04 -1.65
9.44 5.11 -1.7
12.63 6.84 -1.76
17.39 9.42 -1.73
5.4 2.9 -1.64
6.29 3.38 -1.65
7.46 4.01 -1.65
9.47 5.08 -1.7
12.62 6.78 -1.76
17.43 9.36 -1.73
5.41 2.88 -1.64
6.29 3.35 -1.65
7.47 3.98 -1.64
9.31 4.96 -1.67
12.61 6.72 -1.75
17.57 9.36 -1.74
5.43 2.87 -1.64
6.29 3.32 -1.64
7.49 3.95 -1.65
9.27 4.89 -1.66
12.61 6.66 -1.75
17.74 9.37 -1.76
5.44 2.85 -1.64
6.31 3.3 -1.64
7.5 3.93 -1.65
9.27 4.85 -1.66
12.6 6.6 -1.75
17.92 9.39 -1.77
5.44 2.82 -1.64
6.32 3.28 -1.64
7.48 3.89 -1.64
9.27 4.81 -1.65
12.61 6.55 -1.74
18.06 9.38 -1.78
5.44 2.8 -1.64
6.33 3.26 -1.64
7.5 3.86 -1.64
9.28 4.77 -1.65
12.61 6.49 -1.74
18.22 9.38 -1.79
5.45 2.78 -1.64
6.34 3.24 -1.64
7.49 3.83 -1.64
9.25 4.73 -1.65
12.61 6.44 -1.74
18.36 9.38 -1.8
5.47 2.77 -1.64
6.33 3.21 -1.64
7.52 3.8 -1.64
9.26 4.69 -1.64
12.6 6.38 -1.73
18.53 9.38 -1.82
5.48 2.75 -1.64
6.34 3.18 -1.64
7.51 3.77 -1.63
25.65 12.87 2.51
9.27 4.65 -1.64
12.58 6.31 -1.73
18.6 9.34 -1.82
5.48 2.73 -1.64
6.36 3.16 -1.64
7.52 3.74 -1.63
9.28 4.61 -1.64
12.58 6.26 -1.72
18.59 9.25 -1.82
5.48 2.7 -1.64
6.37 3.14 -1.64
7.53 3.71 -1.63
9.28 4.58 -1.64
12.58 6.21 -1.72
18.59 9.17 -1.81
5.5 2.69 -1.64
6.37 3.12 -1.64
7.54 3.69 -1.63
9.27 4.53 -1.63
12.59 6.16 -1.72
18.59 9.09 -1.81
5.5 2.67 -1.64
6.37 3.09 -1.63
53.55 25.97 3.12
7.54 3.66 -1.63
9.28 4.5 -1.63
12.58 6.1 -1.72
18.42 8.93 -1.79
5.52 2.65 -1.64
6.37 3.06 -1.63
7.55 3.63 -1.63
9.28 4.46 -1.63
12.56 6.04 -1.71
18.42 8.86 -1.79
5.53 2.63 -1.64
