# .PCD v0.7 - Point Cloud Data file format
VERSION 0.7
FIELDS x y z
SIZE 4 4 4
TYPE F F F
COUNT 1 1 1
WIDTH 2907
HEIGHT 1
VIEWPOINT 0 0 0 1 0 0 0
POINTS 2907
DATA ascii
-4.29 8.68 -1.88
-22.12 44.73 4.37
-5.07 10.26 -1.81
-22.13 44.76 6.13
-6.8 13.75 -1.88
-12.36 25.01 -2.44
-22.07 45.05 2.63
-4.26 8.69 -1.88
-22.12 45.16 4.4
-5.02 10.25 -1.81
-6.73 13.73 -1.88
-12.28 25.07 -2.44
-4.13 8.42 1.82
-19.65 40.11 -2.34
-19.64 40.44 0.78
-22.09 45.49 2.65
-4.22 8.69 -1.88
-22.15 45.62 4.44
-4.99 10.28 -1.81
-6.58 13.56 -1.85
-12.25 25.24 -2.45
-19.68 40.86 0.79
-22.11 45.93 2.67
-4.18 8.69 -1.87
-22.19 46.08 4.47
-4.96 10.29 -1.81
-6.54 13.58 -1.85
-4.27 8.86 1.56
-12.18 25.31 -2.46
-4.05 8.4 1.81
-22.15 46.41 2.69
-4.16 8.71 -1.88
-22.23 46.58 4.52
-4.92 10.3 -1.81
-4.31 9.03 1.23
-6.51 13.64 -1.86
-12.06 25.28 -2.45
-4.03 8.44 1.82
-19.72 41.33 -0.8
-22.17 46.86 2.72
-4.12 8.71 -1.87
-22.27 47.07 4.56
-4.88 10.3 -1.81
-6.52 13.79 -1.87
-4.07 8.61 1.51
-11.95 25.25 -2.44
-4.02 8.49 1.83
-3.87 8.19 2.09
-4.25 8.98 2.66
-4.08 8.71 -1.87
-22.3 47.56 4.6
-4.84 10.32 -1.8
-6.48 13.83 -1.88
-4.03 8.6 1.5
-11.94 25.46 -2.46
-3.86 8.22 2.1
-20.07 42.81 -0.83
-22.26 47.9 2.77
-4.05 8.71 -1.87
-22.32 48.03 4.63
-4.8 10.33 -1.8
-6.42 13.81 -1.87
-11.82 25.43 -2.45
-3.82 8.21 2.09
-19.92 42.88 -0.83
-3.99 8.59 2.54
-22.3 48.43 2.79
-4.01 8.71 -1.86
-22.36 48.58 4.68
-4.75 10.33 -1.8
-4.21 9.13 1.23
-6.37 13.85 -1.87
-3.99 8.67 1.51
-11.65 25.31 -2.44
-4.19 9.1 2.31
-19.8 43 -0.83
-3.98 8.65 2.55
-22.34 48.93 2.82
-3.98 8.73 -1.86
-22.41 49.08 4.72
-4.7 10.29 -1.79
-6.33 13.85 -1.87
-11.58 25.36 -2.44
-22.36 49.42 2.84
-3.95 8.73 -1.86
-22.45 49.63 4.77
-4.67 10.31 -1.79
-6.2 13.7 -1.85
-11.51 25.43 -2.44
-19.88 44.37 0.85
-22.4 49.98 2.87
-3.92 8.74 -1.86
-22.48 50.17 4.81
-4.62 10.32 -1.79
-4.1 9.15 1.23
-6.14 13.7 -1.84
-11.36 25.36 -2.43
-19.89 44.37 -2.55
-19.91 44.43 -0.85
-22.43 50.52 0.96
-3.89 8.75 -1.86
-22.51 50.7 4.85
-4.58 10.32 -1.79
-6.08 13.7 -1.84
-8.31 18.72 3.24
-11.23 25.3 -2.42
-19.73 44.45 -2.55
-3.98 8.97 2.63
-22.47 51.07 0.97
-22.62 51.4 2.94
-3.86 8.76 -1.86
-22.56 51.26 4.9
-4.53 10.29 -1.78
-4.1 9.32 1.25
-6.04 13.73 -1.84
-8.17 18.56 3.21
-11.21 25.47 -2.43
-20.08 45.64 -2.61
-22.51 51.66 0.98
-22.51 51.64 2.95
-3.82 8.76 -1.86
-22.59 51.84 4.95
-4.49 10.31 -1.78
-5.98 13.73 -1.84
-8.12 18.62 3.22
-11.15 25.58 -2.44
-19.87 45.59 -2.61
-3.85 8.84 2.23
-22.6 51.86 -0.99
-22.55 52.23 0.99
-3.78 8.76 -1.86
-22.64 52.44 5
-4.47 10.35 -1.78
-3.94 9.13 1.22
-5.93 13.75 -1.84
-7.65 17.73 3.06
-11.05 25.59 -2.44
-3.59 8.31 1.76
-19.7 45.63 -2.6
-4.22 9.78 2.86
-22.59 52.83 1
-22.66 53.01 3.02
-3.74 8.75 -1.85
-22.67 53.02 5.04
-4.44 10.38 -1.79
-3.81 8.9 1.19
-5.92 13.86 -1.85
-7.6 17.77 3.06
-10.95 25.61 -2.44
-20.38 47.67 -2.72
-3.8 8.88 2.23
-3.86 9.03 2.63
-22.64 53.44 1.01
-22.89 54.04 3.08
-3.7 8.74 -1.85
-8.04 18.99 1.8
-4.4 10.38 -1.79
-3.76 8.89 1.18
-5.91 13.95 -1.86
-8.1 19.12 3.29
-10.81 25.51 -2.42
-3.88 9.16 1.93
-16.44 38.81 -2.21
-3.76 8.88 2.23
-3.82 9.02 2.62
-22.67 54.04 1.02
-22.7 54.12 3.08
-3.67 8.76 -1.85
-3.83 9.12 0.87
-4.38 10.44 -1.79
-8.27 19.72 2.63
-5.86 13.96 -1.86
-7.67 18.28 3.14
-10.7 25.5 -2.42
-3.85 9.18 1.94
-16.31 38.87 -2.21
-3.78 9.01 2.62
-22.72 54.68 1.03
-3.65 8.78 -1.85
-4.36 10.49 -1.8
-5.82 14.01 -1.86
-7.7 18.54 3.18
-10.61 25.53 -2.42
-3.89 9.37 2.34
-22.76 55.33 1.04
-3.61 8.77 -1.84
-22.84 55.53 5.25
-4.37 10.62 -1.82
-5.82 14.14 -1.88
-7.64 18.57 3.18
-10.52 25.57 -2.42
-3.55 8.62 1.81
-16.03 38.97 -2.21
-4.14 10.06 2.51
-3.37 8.19 2.37
-22.81 55.99 1.06
-23.02 56.48 3.2
-3.58 8.77 -1.84
-22.9 56.2 5.31
-4.4 10.79 -1.85
-3.59 8.8 1.17
-5.78 14.19 -1.88
-3.59 8.8 1.5
-10.43 25.6 -2.42
-7.41 18.17 3.81
-15.83 38.85 -2.2
-3.83 9.4 2.34
-3.7 9.09 2.63
-22.88 56.71 1.07
-22.85 56.64 3.2
-3.54 8.78 -1.84
-7.59 18.81 1.77
-4.36 10.81 -1.85
-3.55 8.81 1.17
-5.71 14.16 -1.88
-10.35 25.64 -2.42
-3.48 8.63 1.81
-15.82 39.21 -2.22
-4.03 9.99 2.89
-22.91 57.36 1.08
-23.07 57.78 3.26
-3.51 8.79 -1.84
-22.99 57.56 5.42
-4.32 10.82 -1.84
-3.52 8.81 1.17
-5.58 13.98 -1.85
-7.67 19.2 3.27
-10.25 25.68 -2.42
-7.78 19.48 4.08
-15.8 39.55 -2.23
-22.97 58.09 1.09
-3.49 8.82 -1.84
-3.65 9.22 0.87
-4.21 10.64 -1.81
-3.49 8.83 1.17
-5.53 14 -1.85
-3.66 9.26 1.58
-10.2 25.8 -2.43
-3.29 8.33 1.74
-15.36 38.85 -2.19
-3.22 8.14 2.02
-23.01 58.8 1.1
-3.65 9.33 0.53
-3.46 8.85 -1.85
-3.6 9.21 0.86
-3.59 9.17 -1.56
-3.61 9.23 1.22
-3.59 9.17 -1.21
-3.62 9.26 1.57
-3.59 9.17 -0.86
-3.59 9.18 -0.52
-3.3 8.45 2.09
-3.6 9.2 -0.17
-3.23 8.26 2.38
-3.55 9.17 0.17
-3.56 9.2 0.52
-3.43 8.87 -1.85
-3.55 9.18 0.86
-3.55 9.16 -1.56
-3.57 9.21 1.21
-3.54 9.15 -1.2
-3.24 8.36 1.42
-3.54 9.14 -0.86
-3.55 9.17 -0.52
-3.58 9.24 2.29
-3.53 9.13 -0.17
-3.2 8.27 2.37
-3.52 9.17 0.17
-3.4 8.85 -1.84
-3.53 9.19 0.86
-3.51 9.15 -1.55
-3.54 9.24 1.22
-3.52 9.17 -1.21
-3.51 9.15 -0.86
-3.55 9.25 1.93
-3.52 9.16 -0.51
-3.5 9.14 -0.17
-3.59 9.35 2.68
-3.49 9.19 0.17
-3.5 9.21 0.52
-3.36 8.86 -1.84
-3.48 9.17 -1.55
-3.45 9.1 1.2
-3.49 9.2 -1.21
-3.48 9.18 1.55
-3.48 9.17 -0.86
-3.5 9.22 -0.52
-3.53 9.31 2.3
-3.49 9.19 -0.17
-3.33 8.78 2.52
-3.48 9.25 0.52
-3.33 8.86 -1.84
-3.39 9.01 0.84
-4.09 10.89 -1.84
-5.17 13.77 -1.81
-3.47 9.23 1.92
-3.33 8.85 2.53
-23.28 62.6 1.17
-3.3 8.88 -1.84
-4.06 10.91 -1.84
-7.05 18.94 2.48
-5.12 13.77 -1.8
-3.52 9.46 1.6
-9.61 25.83 -2.41
-3.23 8.69 2.14
-23.33 62.72 -1.17
-3.17 8.52 2.43
-23.34 63.44 1.18
-3.35 9.11 0.51
-3.27 8.88 -1.84
-7.09 19.28 1.8
-3.99 10.85 -1.83
-6.92 18.82 2.46
-5.15 14.01 -1.83
-3.49 9.48 1.6
-9.51 25.84 -2.41
-3.14 8.53 2.1
-23.48 63.82 -1.19
-3.31 9 2.57
-23.39 64.27 1.19
-3.24 8.89 -1.84
-3.3 9.07 0.84
-3.85 10.59 -1.78
-6.93 19.03 2.49
-5.08 13.94 -1.82
-3.47 9.53 1.61
-9.4 25.83 -2.4
-14.78 40.62 -2.27
-3.47 9.54 2.34
-3.14 8.64 2.46
-23.44 65.1 1.21
-3.36 9.35 0.52
-3.2 8.9 -1.84
-3.92 10.88 -1.83
-7.46 20.72 2.7
-4.98 13.84 -1.81
-3.43 9.53 1.61
-9.29 25.79 -2.4
-3.19 8.86 1.83
-15.07 41.87 -2.33
-3.09 8.59 2.11
-3.62 10.06 2.86
-23.5 65.97 1.22
-3.17 8.9 -1.84
-3.23 9.08 0.84
-3.9 10.96 -1.84
-3.29 9.24 1.2
-4.98 14 -1.82
-6.43 18.06 3.04
-9.18 25.78 -2.39
-3.02 8.48 1.75
-14.96 41.99 -2.34
-23.61 66.28 -1.23
-23.53 66.78 1.24
-6.4 18.18 1.01
-3.13 8.87 -1.83
-3.21 9.11 0.85
-3.87 10.97 -1.84
-3.28 9.31 1.21
-4.93 13.98 -1.82
-7.14 20.27 3.4
-9.08 25.77 -2.39
-3.2 9.08 1.87
-15.14 42.98 -2.39
-3.44 9.76 2.77
-3.1 8.89 -1.83
-3.2 9.19 0.85
-3.83 10.98 -1.84
-6.37 18.27 2.38
-4.87 13.96 -1.82
-6.32 18.13 3.04
-8.98 25.77 -2.39
-15.38 44.12 -2.45
-3.36 9.63 2.73
-23.77 69 1.27
-6.36 18.46 1.02
-3.07 8.9 -1.83
-6.34 18.39 1.7
-3.75 10.88 -1.82
-6.64 19.26 2.5
-4.82 13.98 -1.82
-6.26 18.18 3.04
-8.89 25.8 -2.39
-2.96 8.58 1.76
-15.21 44.16 -2.45
-3.24 9.41 2.67
-6.27 18.39 1.02
-3.04 8.92 -1.83
-3.75 10.99 -1.84
-2.93 8.61 1.12
-4.78 14.03 -1.82
-3.01 8.84 1.48
-8.82 25.87 -2.39
-2.92 8.57 1.76
-15.4 45.21 -2.5
-3.14 9.22 2.25
-3.15 9.25 2.62
-24.08 71.47 1.32
-6.28 18.64 1.03
-3.01 8.93 -1.83
-3.27 9.7 0.9
-3.59 10.66 -1.78
-6.21 18.42 2.39
-4.72 14 -1.81
-2.97 8.82 1.47
-8.72 25.88 -2.39
-15.43 45.81 -2.53
-3.03 9 2.19
-3.14 9.31 2.63
-6.15 18.46 0.34
-6.24 18.72 1.03
-2.97 8.92 -1.83
-3.53 10.59 -1.77
-2.93 8.79 1.14
-4.66 13.97 -1.81
-6.1 18.32 -1.69
-3.3 9.9 2.03
-6.11 18.35 -1.01
-6.12 18.37 -0.34
-3.15 9.45 2.67
-6.07 18.45 0.34
-6.09 18.51 1.02
-2.93 8.91 -1.82
-3.04 9.24 0.85
-3.48 10.58 -1.76
-2.9 8.8 1.14
-4.59 13.95 -1.8
-3.27 9.94 1.66
-6.02 18.29 -1.68
-3.26 9.91 2.03
-6.03 18.33 -1.01
-2.98 9.07 2.2
-6.04 18.35 -0.34
-3.11 9.46 2.67
-6 18.45 0.34
-6.02 18.5 1.02
-2.9 8.91 -1.82
-3.01 9.26 0.85
-3.44 10.58 -1.76
-5.94 18.26 2.36
-4.66 14.31 -1.85
-3.08 9.46 1.58
-5.95 18.29 -1.68
-5.93 18.22 3.72
-5.97 18.36 -1.01
-5.98 18.38 -0.34
-3.09 9.48 2.67
-5.95 18.51 0.34
-6.02 18.71 1.03
-2.87 8.93 -1.82
-3.04 9.47 0.87
-3.4 10.57 -1.76
-6.26 19.47 2.51
-4.6 14.3 -1.84
-3.05 9.48 1.58
-5.9 18.35 -1.69
-3.29 10.23 2.09
-5.91 18.39 -1.01
-5.86 18.24 4.42
-5.93 18.46 -0.34
-3.06 9.51 2.68
-5.93 18.66 1.03
-2.84 8.95 -1.83
-3.36 10.56 -1.76
-6.21 19.55 2.52
-4.52 14.23 -1.83
-2.85 8.96 1.49
-8.26 25.99 -2.39
-5.83 18.36 -1.01
-5.78 18.41 1.01
-2.82 8.97 -1.83
-3.32 10.58 -1.76
-5.88 18.72 2.41
-4.5 14.32 -1.84
-2.82 8.97 1.49
-8.14 25.93 -2.38
-2.71 8.63 1.76
-2.81 8.95 2.16
-3.05 9.7 2.72
-5.72 18.43 1.01
-2.79 8.97 -1.83
-2.94 9.46 0.87
-3.29 10.6 -1.76
-2.76 8.88 1.14
-4.46 14.36 -1.85
-2.94 9.46 1.57
-8.05 25.94 -2.38
-2.72 8.77 1.78
-15.81 50.92 -2.79
-2.76 8.88 2.15
-5.8 18.95 1.04
-2.75 8.98 -1.83
-3.24 10.59 -1.75
-5.76 18.82 2.42
-4.41 14.4 -1.85
-7.95 25.94 -2.37
-15.67 51.14 -2.8
-2.79 9.12 2.2
-2.72 8.99 -1.83
-2.98 9.84 0.9
-3.21 10.59 -1.75
-2.65 8.76 1.12
-4.37 14.46 -1.85
-5.51 18.21 3.01
-7.86 25.98 -2.37
-3.07 10.16 2.06
-15.61 51.59 -2.82
-2.77 9.16 2.21
-2.98 9.85 2.76
-2.69 9.01 -1.83
-2.9 9.72 0.89
-3.23 10.82 -1.79
-2.92 9.76 1.25
-4.32 14.47 -1.85
-5.46 18.27 3.02
-7.79 26.07 -2.38
-15.63 52.34 -2.86
-2.77 9.28 2.24
-5.67 19.23 1.05
-2.66 9.02 -1.83
-3.28 11.12 -1.84
-2.64 8.95 1.15
-4.27 14.46 -1.85
-5.46 18.52 3.06
-7.68 26.04 -2.38
-15.57 52.77 -2.88
-2.79 9.45 2.27
-2.57 8.7 2.43
-2.62 9 -1.82
-3.2 10.98 -1.81
-2.61 8.96 1.15
-4.22 14.49 -1.85
-7.56 25.97 -2.37
-2.88 9.9 2
-15.8 54.25 -2.96
-2.76 9.47 2.28
-2.59 9 -1.82
-3.04 10.58 -1.74
-2.65 9.22 1.18
-4.17 14.51 -1.85
-7.47 25.97 -2.36
-15.88 55.21 -3.01
-2.48 8.63 2.07
-2.62 9.1 2.54
-2.56 9.02 -1.82
-2.68 9.43 0.86
-2.99 10.53 -1.73
-2.62 9.23 1.18
-4.12 14.5 -1.85
-5.38 18.96 3.12
-7.38 26 -2.36
-2.6 9.17 1.85
-15.92 56.07 -3.05
-2.7 9.52 2.28
-2.54 8.95 2.49
-2.53 9.04 -1.82
-2.61 9.32 0.85
-2.95 10.52 -1.73
-2.52 9 1.15
-4.06 14.5 -1.85
-5.33 19.01 3.13
-7.27 25.94 -2.36
-15.94 56.88 -3.1
-2.67 9.54 2.29
-2.5 9.04 -1.82
-2.91 10.52 -1.73
-2.57 9.29 1.18
-4.02 14.53 -1.85
-5.28 19.08 3.14
-7.14 25.82 -2.34
-5.12 18.51 3.73
-2.53 9.13 2.54
-2.47 9.03 -1.82
-2.88 10.56 -1.73
-2.54 9.32 1.19
-3.97 14.55 -1.85
-7.05 25.82 -2.34
-2.49 9.13 2.54
-2.43 9.04 -1.82
-2.84 10.56 -1.73
-3.92 14.56 -1.85
-6.97 25.91 -2.35
-2.4 9.03 -1.82
-5.07 19.12 1.73
-2.8 10.55 -1.73
-4.89 18.45 2.34
-3.87 14.57 -1.85
-6.86 25.86 -2.34
-13.14 49.53 -2.69
-2.36 9.04 -1.82
-2.76 10.56 -1.73
-3.81 14.56 -1.85
-6.73 25.73 -2.33
-12.96 49.53 -2.68
-2.34 9.06 -1.82
-2.73 10.59 -1.73
-3.75 14.56 -1.85
-4.95 19.18 3.14
-6.63 25.69 -2.32
-5.03 19.49 3.91
-12.71 49.28 -2.67
-2.31 9.07 -1.82
-2.7 10.6 -1.73
-3.7 14.55 -1.84
-6.54 25.73 -2.32
-12.41 48.8 -2.64
-2.28 9.1 -1.82
-2.66 10.61 -1.73
-3.65 14.57 -1.84
-6.42 25.62 -2.31
-2.25 9.11 -1.82
-2.62 10.58 -1.73
-3.61 14.59 -1.85
-6.33 25.62 -2.31
-12.08 48.85 -2.64
-2.22 9.12 -1.82
-2.57 10.53 -1.72
-3.56 14.62 -1.85
-6.23 25.57 -2.3
-2.18 9.11 -1.82
-2.52 10.52 -1.71
-3.51 14.65 -1.85
-6.14 25.61 -2.3
-2.15 9.09 -1.82
-2.48 10.5 -1.71
-3.46 14.65 -1.85
-6.05 25.65 -2.31
-2.11 9.1 -1.82
-2.44 10.51 -1.71
-3.4 14.62 -1.84
-5.95 25.61 -2.3
-2.07 9.07 -1.81
-2.41 10.52 -1.71
-3.34 14.62 -1.84
-5.86 25.61 -2.3
-2.04 9.07 -1.81
-2.37 10.53 -1.71
-3.3 14.66 -1.84
-5.77 25.64 -2.3
-10.73 47.66 -2.56
-12.25 55.29 2.97
-2.01 9.06 -1.8
-2.35 10.6 -1.72
-3.24 14.65 -1.84
-5.7 25.73 -2.31
-10.56 47.69 -2.56
-1.97 9.05 -1.8
-2.3 10.58 -1.71
-3.19 14.63 -1.84
-5.58 25.61 -2.29
-1.94 9.08 -1.81
-2.26 10.54 -1.71
-3.13 14.61 -1.83
-5.46 25.51 -2.28
-1.73 8.18 -1.93
-1.91 9.07 -1.8
-2.21 10.47 -1.69
-3.07 14.57 -1.83
-5.38 25.51 -2.28
-10 47.41 -2.54
-1.7 8.2 -1.93
-1.88 9.07 -1.8
-2.17 10.48 -1.69
-3.02 14.57 -1.83
-5.28 25.49 -2.28
-1.85 9.07 -1.8
-2.13 10.46 -1.69
-2.97 14.58 -1.83
-5.19 25.46 -2.27
-1.81 9.06 -1.8
-11.1 55.48 4.95
-2.09 10.47 -1.69
-2.92 14.58 -1.83
-5.1 25.48 -2.27
-1.78 9.06 -1.8
-2.05 10.46 -1.69
-2.86 14.58 -1.82
-5.01 25.51 -2.27
-9.2 46.83 -2.5
-1.75 9.08 -1.8
-2.01 10.45 -1.69
-2.81 14.59 -1.82
-4.91 25.45 -2.27
-9.04 46.92 -2.5
-10.54 55.7 0.99
-10.57 55.81 2.98
-1.72 9.08 -1.8
-1.99 10.49 -1.69
-2.76 14.6 -1.82
-4.8 25.35 -2.26
-10.53 55.64 -0.99
-10.37 55.82 2.98
-1.68 9.07 -1.79
-1.95 10.49 -1.69
-2.71 14.6 -1.82
-4.71 25.35 -2.26
-8.68 46.75 -2.49
-1.65 9.04 -1.79
-1.91 10.47 -1.69
-2.66 14.61 -1.82
-4.62 25.36 -2.26
-8.5 46.69 -2.49
-1.62 9.05 -1.79
-1.87 10.45 -1.68
-2.6 14.58 -1.82
-4.53 25.38 -2.26
-8.36 46.78 -2.49
-1.59 9.06 -1.79
-1.83 10.44 -1.68
-2.56 14.6 -1.82
-4.44 25.34 -2.25
-8.17 46.61 -2.48
-9.37 54.54 0.97
-1.56 9.08 -1.79
-1.79 10.44 -1.68
-2.51 14.6 -1.82
-4.35 25.32 -2.25
-8.02 46.65 -2.48
-9.27 55.1 0.98
-1.53 9.08 -1.79
-1.76 10.45 -1.68
-2.45 14.56 -1.81
-4.25 25.24 -2.24
-7.83 46.56 -2.47
-1.34 8.13 -1.9
-1.49 9.07 -1.79
-1.73 10.47 -1.68
-2.4 14.56 -1.81
-4.16 25.21 -2.24
-7.67 46.53 -2.47
-1.31 8.13 -1.9
-1.46 9.06 -1.78
-1.69 10.47 -1.68
-2.35 14.6 -1.82
-4.04 25.06 -2.22
-7.5 46.53 -2.47
-1.28 8.13 -1.9
-1.43 9.05 -1.78
-1.65 10.47 -1.68
-2.31 14.63 -1.82
-3.96 25.11 -2.22
-7.33 46.48 -2.47
-1.25 8.12 -1.9
-1.39 9.04 -1.78
-1.61 10.47 -1.68
-2.25 14.61 -1.81
-3.86 25.12 -2.22
-7.13 46.36 -2.46
-1.22 8.12 -1.9
-1.36 9.04 -1.78
-0.95 6.35 0.56
-1.58 10.48 -1.68
-2.19 14.56 -1.81
-3.77 25.1 -2.22
-6.97 46.37 -2.46
-1.19 8.12 -1.89
-1.33 9.03 -1.77
-0.93 6.35 0.56
-1.54 10.47 -1.68
-2.14 14.54 -1.8
-3.69 25.14 -2.22
-6.82 46.4 -2.46
-1.17 8.13 -1.9
-1.29 9.01 -1.77
-0.91 6.35 0.56
-1.5 10.47 -1.68
-2.09 14.54 -1.8
-3.61 25.18 -2.23
-6.67 46.43 -2.46
-1.13 8.12 -1.89
-0.89 6.34 0.34
-1.26 9 -1.77
-0.88 6.31 0.56
-1.46 10.46 -1.67
-2.03 14.51 -1.8
-3.51 25.15 -2.22
-6.49 46.47 -2.46
-9.92 71.07 -1.25
-1.1 8.1 -1.89
-0.86 6.35 0.34
-1.23 9.01 -1.77
-0.86 6.32 0.56
-1.43 10.46 -1.67
-1.98 14.5 -1.8
-3.42 25.13 -2.22
-6.32 46.41 -2.45
-1.08 8.1 -1.89
-0.84 6.35 0.34
-1.2 9 -1.76
-0.84 6.3 0.56
-1.39 10.46 -1.67
-1.93 14.5 -1.8
-3.33 25.07 -2.21
-6.16 46.31 -2.45
-1.05 8.1 -1.89
-0.82 6.32 0.33
-1.16 8.97 -1.76
-0.81 6.27 0.55
-1.35 10.45 -1.67
-1.89 14.55 -1.8
-3.24 25.02 -2.21
-6.01 46.4 -2.45
-1.02 8.09 -1.88
-0.79 6.28 0.33
-1.13 8.98 -1.76
-1.31 10.42 -1.66
-1.83 14.59 -1.81
-3.13 24.91 -2.2
-5.84 46.43 -2.45
-0.99 8.09 -1.88
-0.77 6.29 0.33
-1.1 9.01 -1.76
-1.27 10.39 -1.66
-0.77 6.29 0.78
-1.79 14.61 -1.81
-3.05 24.93 -2.2
-5.69 46.49 -2.45
-0.96 8.09 -1.88
-0.75 6.27 0.33
-1.07 9.03 -1.77
-1.23 10.35 -1.65
-0.75 6.29 0.78
-1.74 14.6 -1.81
-2.96 24.89 -2.19
-5.52 46.39 -2.45
-0.93 8.07 -1.88
-0.72 6.26 0.33
-1.04 9.03 -1.77
-0.73 6.29 0.55
-1.2 10.34 -1.65
-0.73 6.27 0.78
-1.69 14.61 -1.81
-2.88 24.87 -2.19
-5.37 46.37 -2.45
-0.9 8.03 -1.87
-1.01 9.03 -1.77
-0.71 6.3 0.55
-1.15 10.27 -1.64
-0.7 6.29 0.78
-1.64 14.6 -1.8
-5.19 46.3 -2.44
-0.87 8.04 -1.87
-0.98 9.02 -1.76
-0.69 6.31 0.56
-1.11 10.21 -1.63
-0.68 6.3 0.78
-1.58 14.55 -1.8
-5.03 46.33 -2.44
-0.84 8.03 -1.86
-0.94 8.98 -1.76
-0.66 6.32 0.56
-1.07 10.14 -1.62
-0.66 6.3 0.78
-1.52 14.5 -1.79
-4.89 46.5 -2.45
-0.64 6.34 0.11
-0.64 6.3 -1.46
-0.65 6.34 0.33
-0.64 6.31 -1.23
-0.65 6.34 0.56
-0.64 6.33 -1.01
-0.64 6.31 0.78
-0.64 6.34 -0.78
-0.65 6.34 -0.56
-0.64 6.33 -0.33
-0.64 6.33 -0.11
-0.62 6.34 0.11
-0.62 6.3 -1.46
-0.62 6.34 0.33
-0.62 6.32 -1.23
-0.62 6.36 0.56
-0.62 6.32 -1.01
-0.62 6.32 0.78
-0.62 6.33 -0.78
-0.62 6.33 -0.56
-0.62 6.34 -0.33
-0.62 6.32 -0.11
-0.6 6.36 0.11
-0.6 6.32 -1.47
-0.6 6.35 0.33
-0.6 6.3 -1.23
-0.6 6.37 0.56
-0.6 6.34 -1.01
-0.6 6.34 0.78
-0.6 6.35 -0.78
-0.6 6.34 -0.56
-0.6 6.35 -0.33
-0.6 6.35 -0.11
-0.73 8.04 -1.86
-0.58 6.37 0.34
-0.82 8.97 -1.75
-0.58 6.37 0.56
-0.91 9.97 -1.59
-0.58 6.35 0.78
-1.33 14.62 -1.8
-2.25 24.7 -2.17
-0.7 8.03 -1.86
-0.56 6.39 0.34
-0.79 8.97 -1.75
-0.56 6.39 0.56
-0.87 9.95 -1.58
-0.56 6.35 0.78
-1.28 14.63 -1.8
-2.16 24.66 -2.17
-3.95 45.06 -2.37
-0.67 8.01 -1.86
-0.54 6.4 0.34
-0.75 8.97 -1.75
-0.54 6.4 0.56
-0.84 9.93 -1.58
-0.53 6.35 0.78
-1.23 14.58 -1.8
-3.8 45.2 -2.38
-0.64 7.99 -1.85
-0.52 6.41 0.34
-0.72 8.95 -1.75
-0.52 6.42 0.56
-0.8 9.87 -1.57
-0.51 6.36 0.78
-3.64 45.03 -2.37
-0.62 8 -1.85
-0.49 6.4 0.34
-0.69 8.93 -1.74
-0.5 6.43 0.56
-0.76 9.85 -1.57
-0.49 6.36 0.78
-3.79 51.32 0.9
-0.59 8 -1.85
-0.47 6.41 0.34
-0.66 8.92 -1.74
-0.48 6.44 0.56
-0.73 9.86 -1.57
-0.47 6.41 0.79
-3.34 45.19 -2.37
-3.62 51.44 0.9
-0.56 7.99 -1.85
-0.45 6.43 0.34
-0.63 8.91 -1.74
-0.45 6.45 0.57
-0.69 9.86 -1.57
-0.45 6.45 0.79
-0.43 6.44 -1.73
-3.46 51.81 0.91
-0.53 8 -1.85
-0.43 6.43 0.34
-0.6 8.91 -1.74
-0.43 6.47 0.57
-0.66 9.86 -1.56
-0.43 6.45 0.79
-2.99 44.69 -2.35
-0.41 6.44 -1.73
-0.51 7.99 -1.85
-0.56 8.91 -1.74
-0.41 6.46 0.57
-0.62 9.85 -1.56
-0.92 14.59 -1.79
-0.38 6.43 -1.73
-0.48 8 -1.85
-0.53 8.9 -1.73
-0.39 6.47 0.57
-0.59 9.84 -1.56
-0.87 14.58 -1.79
-2.66 44.42 -2.33
-0.36 6.4 -1.72
-0.45 8 -1.85
-0.37 6.49 0.34
-0.5 8.9 -1.73
-0.37 6.45 0.57
-0.56 9.82 -1.56
-0.83 14.6 -1.8
-2.51 44.39 -2.33
-0.34 6.39 -1.71
-0.43 8 -1.85
-0.47 8.9 -1.73
-0.52 9.79 -1.55
-0.78 14.61 -1.8
-2.36 44.35 -2.33
-0.32 6.41 -1.72
-0.4 8 -1.85
-0.44 8.91 -1.73
-0.49 9.79 -1.55
-0.72 14.6 -1.8
-2.2 44.31 -2.32
-0.3 6.41 -1.72
-0.37 8.01 -1.85
-0.41 8.89 -1.73
-0.45 9.79 -1.55
-0.67 14.61 -1.8
-0.27 6.42 -1.72
-0.34 8.01 -1.85
-0.38 8.88 -1.73
-0.42 9.8 -1.55
-0.62 14.6 -1.79
-4.86 113.61 -1.98
-0.25 6.4 -1.71
-0.31 7.99 -1.85
-0.35 8.89 -1.73
-0.39 9.87 -1.56
-0.57 14.55 -1.79
-0.96 24.48 -2.14
-1.73 44.03 -2.31
-4.47 113.6 -1.98
-0.23 6.41 -1.72
-0.28 7.96 -1.84
-0.32 8.91 -1.73
-0.35 9.74 -1.54
-0.52 14.55 -1.79
-0.87 24.52 -2.15
-1.55 43.75 -2.29
-4.03 113.62 -1.98
-0.2 6.39 -1.71
-0.25 7.93 -1.83
-0.29 8.91 -1.73
-0.31 9.74 -1.54
-0.47 14.56 -1.79
-0.78 24.49 -2.14
-1.4 43.71 -2.29
-3.64 113.65 -1.98
-0.18 6.4 -1.71
-0.23 7.89 -1.82
-0.26 8.89 -1.73
-0.28 9.85 -1.56
-0.42 14.54 -1.79
-0.7 24.39 -2.13
-1.26 43.71 -2.29
-3.27 113.66 -1.98
-0.16 6.4 -1.72
-0.2 7.88 -1.82
-0.23 8.88 -1.73
-0.27 10.65 -1.69
-0.37 14.52 -1.78
-0.62 24.36 -2.13
-1.11 43.85 -2.3
-2.89 113.67 -1.98
-0.14 6.39 -1.71
-0.17 7.85 -1.81
-0.19 8.92 -1.73
-0.25 11.38 -1.8
-0.31 14.55 -1.79
-0.53 24.33 -2.13
-0.95 43.75 -2.29
-2.46 113.68 -1.98
-0.12 6.36 -1.71
-0.14 7.83 -1.81
-0.16 8.92 -1.73
-0.21 11.37 -1.8
-0.27 14.55 -1.79
-0.44 24.39 -2.13
-2.07 113.69 -1.98
-0.09 6.39 -1.71
-0.12 7.81 -1.8
-0.13 8.91 -1.73
-0.17 11.38 -1.8
-0.22 14.54 -1.79
-0.36 24.47 -2.14
-0.65 43.59 -2.28
-1.69 113.7 -1.98
-0.07 6.42 -1.72
-0.09 7.78 -1.8
-0.1 8.93 -1.74
-0.13 11.38 -1.8
-0.17 14.56 -1.79
-0.28 24.44 -2.14
-1.3 113.7 -1.98
-0.05 6.39 -1.71
-0.06 7.79 -1.8
-0.07 8.95 -1.74
-0.09 11.39 -1.8
-0.12 14.54 -1.79
-0.2 24.32 -2.13
-0.35 43.32 -2.27
-0.91 113.77 -1.99
-0.03 6.37 -1.71
-0.04 7.76 -1.79
-0.04 9.02 -1.75
-0.05 11.38 -1.8
-0.07 14.51 -1.78
-0.11 24.27 -2.12
-0.2 43.13 -2.26
-0.29 63.77 -1.11
-0.01 6.36 -1.71
-0.01 7.69 -1.78
-0.01 9.01 -1.75
-0.01 11.38 -1.8
-0.02 14.53 -1.78
-0.03 24.27 -2.12
-0.05 43.09 -2.26
0.01 6.38 -1.71
0.14 64.03 1.12
0.02 7.66 -1.77
0.02 8.95 -1.74
0.02 11.37 -1.8
0.03 14.58 -1.79
0.05 24.24 -2.12
0.09 43.13 -2.26
0.14 64.04 -1.12
0.04 6.38 -1.71
0.04 7.64 -1.76
0.05 8.9 -1.73
0.07 11.37 -1.8
0.08 14.6 -1.79
0.14 24.15 -2.11
0.25 42.94 -2.25
0.06 6.38 -1.71
0.07 7.63 -1.76
0.08 8.88 -1.73
0.1 11.37 -1.8
0.13 14.61 -1.79
0.22 24.09 -2.11
0.39 42.93 -2.25
0.08 6.38 -1.71
0.1 7.63 -1.76
0.11 8.85 -1.72
0.14 11.37 -1.8
0.18 14.64 -1.8
0.3 24.06 -2.11
0.81 64.12 -1.12
0.1 6.41 -1.72
0.12 7.62 -1.76
0.14 8.84 -1.72
0.18 11.36 -1.8
0.23 14.66 -1.8
0.38 24.07 -2.11
0.12 6.44 -1.73
0.15 7.62 -1.76
0.17 8.84 -1.72
0.22 11.36 -1.8
0.28 14.64 -1.8
0.46 24.05 -2.1
0.81 42.26 -2.22
1.86 96.95 -1.69
0.15 6.45 -1.73
0.17 7.61 -1.76
0.2 8.84 -1.72
0.26 11.37 -1.8
0.33 14.6 -1.79
0.54 24.03 -2.1
0.96 42.26 -2.22
2.19 96.96 -1.69
0.17 6.68 -1.79
1.27 48.53 0.85
0.2 7.59 -1.75
0.23 8.81 -1.71
0.3 11.36 -1.8
0.38 14.64 -1.8
0.63 24.02 -2.1
1.1 42.11 -2.21
2.54 97.02 -1.69
0.2 6.7 -1.8
0.22 7.59 -1.75
0.26 8.81 -1.71
0.34 11.36 -1.8
0.43 14.59 -1.79
0.71 23.98 -2.1
1.24 42.05 -2.2
2.87 96.89 -1.69
0.22 6.69 -1.79
0.25 7.59 -1.75
0.29 8.79 -1.71
0.38 11.34 -1.8
0.48 14.54 -1.79
0.8 23.97 -2.1
1.39 42.05 -2.2
3.21 96.88 -1.69
0.25 6.71 -1.8
0.28 7.57 -1.75
1.73 47.38 2.48
0.32 8.79 -1.71
0.42 11.35 -1.8
0.53 14.58 -1.79
0.88 23.95 -2.1
1.53 41.91 -2.2
3.54 96.86 -1.69
0.27 6.74 -1.81
0.3 7.55 -1.75
0.35 8.77 -1.71
0.46 11.35 -1.8
0.59 14.62 -1.8
0.96 23.97 -2.1
1.68 41.87 -2.2
0.27 6.7 1.8
0.29 6.72 -1.8
0.29 6.66 0.12
0.29 6.65 0.35
0.38 8.73 -1.7
0.29 6.65 0.58
0.49 11.33 -1.8
0.29 6.65 0.82
0.29 6.65 -0.82
0.29 6.66 1.06
0.29 6.66 -0.58
0.29 6.67 1.3
0.29 6.66 -0.35
0.29 6.67 1.54
0.29 6.63 -0.12
0.29 6.66 1.79
0.3 6.46 -1.73
0.31 6.62 0.12
0.31 6.61 -1.53
0.31 6.62 0.35
0.31 6.6 -1.28
0.31 6.62 0.58
0.31 6.61 -1.05
0.31 6.62 0.81
0.31 6.62 -0.81
0.31 6.63 1.05
0.31 6.59 -0.58
0.31 6.66 1.3
0.31 6.63 -0.35
0.31 6.65 1.54
0.31 6.62 -0.12
0.31 6.62 1.77
0.32 6.41 -1.72
0.33 6.6 0.12
0.33 6.58 -1.52
0.33 6.62 0.35
0.33 6.58 -1.28
0.33 6.61 0.58
0.33 6.58 -1.04
0.33 6.63 0.81
0.33 6.61 -0.81
0.33 6.62 1.05
0.33 6.59 -0.58
0.33 6.64 1.29
0.33 6.6 -0.35
0.33 6.64 1.53
0.33 6.61 -0.12
0.33 6.63 1.78
0.34 6.4 -1.72
0.35 6.6 0.12
0.35 6.55 -1.51
0.35 6.59 0.35
0.35 6.57 -1.28
0.36 6.61 0.58
0.35 6.57 -1.04
0.35 6.59 0.81
0.35 6.6 -0.81
0.36 6.63 1.05
0.35 6.58 -0.58
0.36 6.63 1.29
0.35 6.59 -0.35
0.36 6.64 1.54
0.36 6.6 -0.12
0.36 6.64 1.78
0.37 6.41 -1.72
0.38 6.6 0.12
0.38 6.57 -1.52
0.38 6.59 0.35
0.38 6.57 -1.28
0.38 6.61 0.58
0.38 6.58 -1.04
0.38 6.61 0.81
0.38 6.59 -0.81
0.38 6.64 1.05
0.38 6.58 -0.58
0.38 6.63 1.29
0.38 6.59 -0.35
0.38 6.66 1.54
0.38 6.58 -0.12
0.38 6.66 1.79
0.39 6.41 -1.72
0.4 6.6 0.12
0.4 6.58 -1.52
0.4 6.6 0.35
0.4 6.56 -1.28
0.4 6.63 0.58
0.4 6.59 -1.05
0.4 6.62 0.81
0.4 6.59 -0.81
0.4 6.63 1.05
0.4 6.59 -0.58
0.4 6.66 1.3
0.4 6.61 -0.35
0.41 6.69 1.55
0.4 6.58 -0.12
0.41 6.39 -1.72
0.42 6.62 0.12
0.42 6.6 -1.53
0.42 6.63 0.35
0.42 6.59 -1.28
0.43 6.66 0.58
0.42 6.6 -1.05
0.43 6.65 0.82
0.42 6.62 -0.81
0.43 6.68 1.06
0.42 6.61 -0.58
0.42 6.62 -0.35
0.42 6.61 -0.12
0.43 6.43 -1.73
0.5 7.37 -1.71
0.59 8.68 -1.69
0.45 6.61 -1.05
0.96 14.21 -1.75
0.46 6.45 -1.73
0.52 7.4 -1.71
3.37 47.59 2.5
0.62 8.69 -1.69
0.8 11.28 -1.79
1.01 14.21 -1.75
1.69 23.79 -2.09
2.94 41.42 -2.18
0.5 6.67 -1.79
3.65 49.11 0.86
0.55 7.39 -1.71
3.45 46.46 2.44
0.64 8.67 -1.69
0.84 11.28 -1.79
1.05 14.19 -1.75
1.77 23.78 -2.09
3.07 41.31 -2.17
4.64 62.4 -1.09
0.52 6.64 -1.78
0.57 7.37 -1.71
3.73 48.04 2.53
0.67 8.68 -1.69
0.88 11.28 -1.79
1.1 14.14 -1.74
1.85 23.74 -2.08
3.21 41.24 -2.17
0.53 6.49 -1.74
3.95 48.55 0.85
0.6 7.38 -1.71
3.86 47.51 2.5
0.71 8.73 -1.7
0.92 11.27 -1.79
1.15 14.11 -1.74
1.93 23.76 -2.09
3.36 41.25 -2.17
0.55 6.48 -1.74
0.62 7.37 -1.71
4.02 47.41 2.49
0.74 8.73 -1.7
0.96 11.27 -1.79
1.2 14.11 -1.74
2.02 23.79 -2.09
3.49 41.19 -2.17
0.57 6.45 -1.74
0.65 7.34 -1.7
0.77 8.69 -1.7
1 11.27 -1.79
1.26 14.27 -1.76
2.11 23.78 -2.09
3.64 41.11 -2.16
0.59 6.43 -1.73
0.67 7.33 -1.7
0.79 8.59 -1.68
1.04 11.26 -1.79
1.31 14.21 -1.75
2.17 23.61 -2.07
3.77 41.04 -2.16
0.61 6.41 -1.73
4.69 49.2 0.86
0.7 7.33 -1.7
0.82 8.62 -1.68
1.07 11.25 -1.79
1.33 14 -1.73
2.24 23.55 -2.07
3.91 41.06 -2.16
0.63 6.41 -1.73
0.72 7.32 -1.7
0.85 8.64 -1.69
1.11 11.24 -1.79
1.38 13.96 -1.72
2.32 23.53 -2.07
4.08 41.31 -2.18
0.66 6.42 -1.73
0.75 7.3 -1.69
0.88 8.65 -1.69
1.15 11.22 -1.79
1.42 13.9 -1.72
2.4 23.5 -2.07
4.16 40.69 -2.14
0.67 6.38 -1.72
0.77 7.27 -1.69
0.91 8.65 -1.69
1.19 11.22 -1.79
1.47 13.86 -1.71
2.49 23.53 -2.07
4.3 40.64 -2.14
0.7 6.39 -1.72
0.79 7.27 -1.69
0.95 8.7 -1.7
2.21 20.28 1.78
1.22 11.21 -1.79
1.51 13.83 -1.71
2.57 23.55 -2.07
4.43 40.57 -2.14
0.72 6.4 -1.73
7.4 65.72 1.15
0.82 7.24 -1.68
0.97 8.65 -1.69
2.27 20.14 1.77
1.26 11.21 -1.79
1.56 13.86 -1.71
2.65 23.57 -2.08
4.56 40.46 -2.13
6.69 59.4 -1.04
0.75 6.47 -1.75
7.61 65.44 1.15
0.84 7.19 -1.67
1 8.62 -1.69
1.3 11.19 -1.78
1.61 13.83 -1.71
2.74 23.61 -2.08
4.7 40.44 -2.13
6.93 59.6 -1.05
0.78 6.48 -1.75
7.83 65.44 1.15
0.86 7.17 -1.67
1.03 8.64 -1.69
1.34 11.17 -1.78
1.66 13.85 -1.71
2.83 23.61 -2.08
4.83 40.35 -2.13
7.84 65.47 -1.15
0.79 6.46 -1.74
8.05 65.46 1.15
0.88 7.14 -1.66
1.06 8.65 -1.69
2.48 20.18 1.78
1.37 11.15 -1.78
2.35 19.15 2.37
1.71 13.87 -1.72
2.89 23.53 -2.07
4.98 40.48 -2.14
8.05 65.45 -1.15
0.82 6.51 -1.76
8.28 65.49 1.15
0.9 7.14 -1.66
1.09 8.65 -1.69
2.55 20.2 1.78
1.41 11.15 -1.78
2.45 19.38 2.4
1.75 13.86 -1.72
2.38 18.83 3.01
2.97 23.48 -2.07
5.11 40.4 -2.13
8.27 65.46 -1.15
0.85 6.51 -1.76
8.52 65.49 1.15
0.94 7.2 -1.68
1.12 8.62 -1.69
2.6 19.98 1.76
1.45 11.14 -1.78
2.52 19.35 2.4
1.8 13.86 -1.72
2.45 18.82 3.01
3.05 23.46 -2.07
5.25 40.4 -2.13
8.52 65.47 -1.15
0.87 6.5 -1.76
8.74 65.49 1.15
0.97 7.23 -1.68
1.15 8.6 -1.69
2.65 19.87 1.75
1.49 11.13 -1.78
1.85 13.86 -1.72
2.67 19.98 3.19
3.13 23.46 -2.07
5.38 40.31 -2.13
8.33 62.39 -1.1
0.89 6.49 -1.75
8.97 65.5 1.15
0.99 7.21 -1.68
1.18 8.59 -1.69
2.71 19.8 1.75
1.52 11.11 -1.78
2.64 19.25 2.39
1.9 13.85 -1.72
2.81 20.52 3.28
3.21 23.47 -2.07
5.51 40.24 -2.13
8.63 62.98 -1.11
0.91 6.49 -1.76
9.21 65.54 1.16
1.01 7.16 -1.67
1.21 8.61 -1.69
1.56 11.11 -1.78
1.95 13.86 -1.72
2.66 18.93 3.03
3.3 23.48 -2.07
5.62 40.02 -2.12
0.93 6.49 -1.76
9.11 63.23 1.12
1.03 7.13 -1.66
1.24 8.6 -1.69
1.6 11.1 -1.78
2 13.85 -1.72
3.38 23.46 -2.07
5.75 39.93 -2.11
8.99 62.38 -1.1
0.95 6.47 -1.75
9.68 65.59 1.16
1.06 7.19 -1.68
1.27 8.58 -1.69
1.64 11.1 -1.78
2.9 19.64 2.44
2.04 13.84 -1.72
3.46 23.44 -2.07
5.87 39.76 -2.11
9.2 62.35 -1.1
0.97 6.44 -1.74
9.54 63.08 1.11
1.1 7.27 -1.7
1.3 8.58 -1.69
1.68 11.09 -1.78
2.09 13.84 -1.72
3.55 23.44 -2.07
6 39.64 -2.1
1 6.44 -1.75
9.74 62.97 1.11
1.13 7.28 -1.7
1.33 8.58 -1.69
1.71 11.08 -1.78
2.98 19.25 2.39
2.14 13.84 -1.72
3.63 23.46 -2.08
6.12 39.52 -2.1
1.02 6.42 -1.74
10.38 65.6 1.16
1.15 7.26 -1.7
1.35 8.55 -1.68
1.75 11.06 -1.77
3.05 19.28 2.4
2.19 13.84 -1.72
3.71 23.45 -2.08
6.24 39.46 -2.09
1.03 6.39 -1.74
10.61 65.6 1.16
1.17 7.25 -1.7
1.38 8.51 -1.68
1.79 11.06 -1.77
3.41 21.07 2.62
2.24 13.83 -1.72
3.79 23.43 -2.08
3.19 19.74 3.89
6.37 39.37 -2.09
6.75 41.75 -0.74
1.05 6.38 -1.73
10.84 65.62 1.16
1.19 7.22 -1.69
1.4 8.46 -1.67
3.21 19.42 1.72
1.83 11.05 -1.77
3.46 20.92 2.6
2.28 13.81 -1.72
3.87 23.42 -2.08
3.22 19.49 3.84
6.49 39.28 -2.09
6.85 41.46 -0.73
1.07 6.35 -1.73
11.07 65.64 1.16
1.21 7.19 -1.68
1.42 8.44 -1.66
1.86 11.03 -1.77
3.52 20.85 2.6
2.33 13.81 -1.72
3.36 19.92 3.2
3.94 23.36 -2.07
6.62 39.23 -2.08
3.59 21.3 4.99
7.01 41.55 -0.74
1.09 6.34 -1.72
11.32 65.65 1.16
1.24 7.17 -1.68
1.47 8.54 -1.68
1.9 11.02 -1.77
2.38 13.81 -1.72
3.44 19.98 3.21
4.02 23.3 -2.07
6.74 39.11 -2.08
7.18 41.63 -0.74
1.12 6.35 -1.73
11.55 65.65 1.16
1.26 7.16 -1.68
3.74 21.25 1.13
1.52 8.64 -1.7
1.94 11.01 -1.77
3.31 18.81 2.34
2.43 13.83 -1.72
3.87 21.98 3.54
4.09 23.28 -2.07
6.84 38.89 -2.07
7.41 42.12 -0.75
1.14 6.35 -1.73
11.79 65.67 1.16
1.28 7.14 -1.67
3.8 21.17 1.13
1.55 8.64 -1.71
1.98 11 -1.77
3.64 20.27 2.53
2.48 13.79 -1.72
4.18 23.3 -2.07
3.49 19.42 3.83
6.99 38.95 -2.07
7.44 41.43 -0.73
1.16 6.35 -1.73
12.03 65.7 1.17
1.3 7.13 -1.67
3.85 21.02 1.12
1.57 8.6 -1.7
2.01 11 -1.77
3.71 20.26 2.53
2.53 13.79 -1.72
4.26 23.29 -2.07
3.82 20.88 4.13
7.14 39.02 -2.08
7.59 41.48 -0.74
1.18 6.34 -1.73
12.26 65.69 1.17
1.32 7.09 -1.67
3.65 19.54 1.04
1.62 8.68 -1.72
2.05 10.99 -1.77
3.55 19.05 2.38
2.58 13.8 -1.72
4.34 23.25 -2.07
3.87 20.75 4.1
7.29 39.05 -2.08
3.58 19.17 4.5
1.21 6.34 -1.73
3.86 20.32 0.36
1.34 7.02 -1.65
3.69 19.4 1.03
1.67 8.77 -1.74
2.08 10.96 -1.77
3.62 19.03 2.38
2.63 13.82 -1.73
4.41 23.21 -2.07
7.39 38.88 -2.07
1.23 6.35 -1.73
3.92 20.26 0.36
1.35 6.98 -1.64
1.69 8.75 -1.73
2.12 10.96 -1.77
3.91 20.21 2.53
2.68 13.85 -1.73
4.49 23.19 -2.07
7.53 38.91 -2.08
3.81 19.65 4.62
8.01 41.35 -0.74
1.24 6.3 -1.72
3.96 20.06 0.36
1.38 6.97 -1.64
1.74 8.84 -1.75
3.95 20.01 1.78
2.16 10.93 -1.77
3.71 18.83 2.36
2.73 13.82 -1.73
4.57 23.17 -2.07
7.66 38.86 -2.08
3.87 19.63 4.62
8.16 41.4 -0.74
1.27 6.31 -1.72
13.21 65.68 1.17
1.4 6.96 -1.64
1.79 8.9 -1.76
2.2 10.93 -1.77
3.81 18.93 2.37
2.78 13.83 -1.73
4.64 23.1 -2.06
4.37 21.75 4.31
7.8 38.8 -2.07
4.01 19.95 4.7
1.29 6.28 -1.72
1.42 6.92 -1.63
4.23 20.69 1.11
1.82 8.92 -1.77
3.94 19.28 1.72
2.23 10.91 -1.76
3.89 18.99 2.38
2.83 13.83 -1.73
4.72 23.06 -2.06
7.92 38.72 -2.07
4.03 19.67 4.64
8.4 41.07 -0.73
1.31 6.27 -1.72
13.68 65.64 1.17
1.44 6.92 -1.63
1.87 8.95 -1.78
4.19 20.11 1.8
2.27 10.89 -1.76
3.96 19.02 2.39
2.89 13.85 -1.74
4.8 23.05 -2.06
3.88 18.61 3.69
8.1 38.89 -2.08
4.37 20.99 4.95
8.6 41.26 -0.74
1.32 6.25 -1.71
13.92 65.67 1.17
1.46 6.9 -1.63
4.11 19.38 1.04
1.9 8.97 -1.78
4.01 18.92 1.69
2.31 10.88 -1.76
4.13 19.48 2.45
2.93 13.82 -1.74
4.36 20.58 3.33
4.88 23.04 -2.06
3.98 18.78 3.73
8.24 38.9 -2.08
4.31 20.33 4.8
8.72 41.16 -0.73
1.35 6.25 -1.71
14.14 65.68 1.17
1.49 6.9 -1.63
4.16 19.33 1.04
1.93 8.96 -1.78
4.19 19.47 1.74
2.34 10.88 -1.76
4.19 19.44 2.44
2.97 13.81 -1.73
4.19 19.47 3.15
4.11 19.07 -1.71
4.15 19.27 3.83
4.11 19.1 -1.02
4.39 20.37 4.81
4.13 19.16 -0.34
1.36 6.24 -1.71
4.19 19.17 0.34
1.51 6.89 -1.63
4.23 19.34 1.04
1.96 8.94 -1.78
4.27 19.49 1.75
2.38 10.86 -1.76
3.96 18.08 2.27
3.01 13.76 -1.73
4.26 19.45 3.15
4.16 19.02 -1.7
4.44 20.3 4.04
4.17 19.04 -1.02
4.21 19.22 4.54
4.18 19.11 -0.34
1.39 6.22 -1.71
4.26 19.14 0.34
1.53 6.87 -1.62
4.31 19.37 1.04
1.99 8.96 -1.78
4.11 18.44 1.65
2.41 10.85 -1.76
4.17 18.71 2.35
3.06 13.76 -1.73
4.69 21.09 3.42
4.22 18.96 -1.7
4.35 19.52 3.89
4.24 19.03 -1.02
4.25 19.1 -0.34
4.17 18.74 5.14
1.41 6.22 -1.71
14.87 65.74 1.18
1.55 6.87 -1.63
4.24 18.75 1.01
2.05 9.04 -1.8
4.18 18.49 1.66
2.45 10.82 -1.76
4.8 21.23 2.67
3.12 13.79 -1.74
4.13 18.24 2.96
4.29 18.99 -1.7
4.31 19.06 -1.02
4.32 19.12 -0.34
1.43 6.22 -1.71
15.1 65.73 1.18
1.58 6.87 -1.63
4.35 18.93 1.02
2.08 9.05 -1.81
4.25 18.49 1.66
2.49 10.82 -1.76
4.2 18.3 2.31
3.17 13.77 -1.74
4.68 20.36 3.31
5.25 22.85 -2.05
4.75 20.67 4.12
8.87 38.59 -2.08
9.22 40.12 -0.72
4.26 18.54 5.1
1.45 6.22 -1.71
15.34 65.76 1.18
1.61 6.89 -1.63
2.11 9.05 -1.81
4.3 18.42 1.65
2.52 10.8 -1.76
3.21 13.77 -1.74
5.32 22.81 -2.05
4.71 20.19 4.03
8.92 38.24 -2.06
4.58 19.65 4.66
9.35 40.08 -0.72
4.72 20.24 5.57
1.48 6.23 -1.71
15.6 65.77 1.18
1.64 6.9 -1.64
2.14 9.02 -1.8
2.56 10.8 -1.76
4.7 19.83 2.5
3.27 13.78 -1.74
5.39 22.75 -2.05
9.06 38.21 -2.06
4.66 19.65 4.66
4.79 20.2 5.56
1.5 6.21 -1.71
15.84 65.79 1.18
1.66 6.89 -1.64
4.89 20.32 1.1
2.17 9.02 -1.8
2.59 10.78 -1.76
4.76 19.78 2.5
3.32 13.79 -1.74
4.84 20.12 3.28
5.46 22.7 -2.04
9.13 37.94 -2.04
4.64 19.26 4.57
9.62 39.96 -0.72
4.65 19.33 5.33
1.52 6.21 -1.71
16.07 65.78 1.18
1.7 6.96 -1.65
4.8 19.67 1.06
2.2 9.02 -1.8
2.63 10.76 -1.75
4.8 19.64 2.48
3.37 13.78 -1.74
4.83 19.79 3.23
5.54 22.65 -2.04
4.83 19.77 3.96
9.25 37.86 -2.04
4.51 18.47 4.39
9.75 39.91 -0.72
4.79 19.61 5.41
1.54 6.21 -1.71
16.32 65.81 1.18
1.73 6.97 -1.66
4.87 19.66 1.06
2.24 9.02 -1.81
2.67 10.76 -1.76
4.87 19.65 2.49
3.41 13.76 -1.74
5.6 22.6 -2.04
5.02 20.26 4.06
9.41 37.95 -2.05
4.55 18.35 4.37
9.93 40.06 -0.72
4.81 19.4 5.35
1.57 6.22 -1.72
16.56 65.82 1.18
1.76 7 -1.67
5.14 20.45 1.1
2.26 9 -1.8
2.66 10.59 -1.73
3.46 13.75 -1.74
4.61 18.33 2.99
5.68 22.59 -2.04
5.22 20.75 4.16
9.58 38.09 -2.06
4.84 19.25 4.58
16.58 65.91 -1.19
4.51 17.93 4.95
1.59 6.24 -1.73
16.8 65.84 1.19
1.79 7 -1.67
5.23 20.48 1.11
2.29 8.98 -1.8
2.7 10.59 -1.73
3.51 13.75 -1.74
5.74 22.48 -2.03
9.7 38.03 -2.06
4.7 18.43 4.39
10.21 40 -0.72
5.27 20.64 5.71
1.62 6.24 -1.73
17.05 65.85 1.19
1.82 7.01 -1.67
5.32 20.54 1.11
2.33 8.98 -1.8
2.74 10.57 -1.73
3.57 13.77 -1.75
4.73 18.25 2.99
5.81 22.44 -2.03
5.22 20.15 4.05
9.79 37.78 -2.05
10.32 39.84 -0.72
1.64 6.25 -1.73
17.3 65.86 1.19
1.84 7.01 -1.67
5.43 20.66 1.12
2.36 8.97 -1.8
5.45 20.74 1.88
2.77 10.55 -1.73
3.62 13.78 -1.75
4.93 18.76 3.07
5.89 22.43 -2.03
9.94 37.85 -2.05
4.79 18.23 4.35
10.38 39.51 -0.71
5.2 19.79 5.48
1.67 6.27 -1.74
17.52 65.86 1.19
1.87 7.01 -1.68
2.39 8.97 -1.8
5.47 20.57 1.86
2.81 10.56 -1.73
3.67 13.78 -1.75
4.87 18.31 3
5.94 22.34 -2.02
4.87 18.32 3.68
10.07 37.84 -2.05
5.14 19.33 4.62
10.57 39.73 -0.72
5.44 20.44 5.67
1.7 6.29 -1.75
1.9 7.06 -1.69
5.28 19.58 1.06
2.41 8.95 -1.8
5.52 20.48 1.86
2.85 10.56 -1.73
5.25 19.47 2.48
3.72 13.79 -1.75
6 22.24 -2.02
4.96 18.38 3.7
10.22 37.87 -2.06
10.72 39.73 -0.72
1.72 6.3 -1.75
18.05 65.92 1.19
2.1 7.66 -1.83
2.45 8.93 -1.8
5.6 20.46 1.86
2.89 10.56 -1.73
3.77 13.79 -1.76
6.08 22.22 -2.02
10.36 37.86 -2.06
4.96 18.12 4.34
10.98 40.1 -0.73
1.75 6.3 -1.75
5.63 20.31 0.37
2.12 7.65 -1.83
2.48 8.92 -1.8
5.68 20.47 1.86
2.93 10.55 -1.73
5.39 19.41 2.47
3.83 13.79 -1.76
5.34 19.25 3.16
6.15 22.16 -2.01
10.52 37.9 -2.06
11.07 39.89 -0.72
5.41 19.51 5.42
1.77 6.3 -1.75
18.55 65.95 1.2
2.15 7.65 -1.83
2.51 8.93 -1.8
5.32 18.91 1.72
2.97 10.55 -1.74
5.88 20.89 2.66
3.88 13.8 -1.76
5.44 19.33 3.18
6.23 22.13 -2.01
5.68 20.18 4.08
10.6 37.68 -2.05
5.35 19.02 4.56
11.23 39.92 -0.72
1.8 6.31 -1.76
18.79 65.96 1.2
2.17 7.62 -1.83
5.3 18.61 1.01
2.54 8.91 -1.8
3 10.54 -1.74
3.93 13.8 -1.76
5.53 19.4 3.2
6.28 22.05 -2.01
5.59 19.61 3.96
10.7 37.55 -2.05
5.04 17.67 4.24
11.38 39.94 -0.72
1.82 6.32 -1.76
19.03 65.96 1.2
2.2 7.62 -1.83
2.57 8.91 -1.8
5.24 18.18 1.66
3.04 10.55 -1.74
5.6 19.41 2.48
3.98 13.8 -1.76
5.92 20.53 3.38
6.36 22.06 -2.01
5.63 19.53 3.95
10.82 37.51 -2.05
5.46 18.93 4.55
11.46 39.74 -0.72
1.85 6.33 -1.77
19.28 66.01 1.2
2.22 7.61 -1.83
2.6 8.89 -1.8
3.08 10.53 -1.74
5.64 19.31 2.47
4.02 13.77 -1.76
5.74 19.66 3.24
6.39 21.88 -1.99
10.87 37.22 -2.03
5.82 19.92 4.79
11.67 39.96 -0.73
1.88 6.35 -1.78
19.54 65.99 1.2
2.25 7.6 -1.83
12.35 41.73 2.28
2.63 8.89 -1.8
5.73 19.35 1.77
3.11 10.5 -1.73
4.07 13.76 -1.76
5.8 19.58 3.23
6.45 21.78 -1.99
5.65 19.09 3.87
11.01 37.18 -2.03
11.98 40.47 -0.74
1.91 6.38 -1.79
19.79 66.02 1.2
2.27 7.59 -1.83
5.51 18.37 1.01
2.66 8.88 -1.8
6.14 20.48 1.87
3.14 10.47 -1.73
6.24 20.83 2.67
4.12 13.76 -1.76
6.18 20.61 3.41
4.06 13.56 -1.24
6.06 20.21 4.87
12.09 40.32 -0.73
1.95 6.41 -1.8
20.07 66.1 1.21
2.3 7.57 -1.83
5.53 18.22 1
2.69 8.87 -1.8
5.53 18.22 1.67
3.17 10.45 -1.73
6.28 20.69 2.65
4.17 13.74 -1.76
6.52 21.48 3.56
4.11 13.55 -1.24
5.76 18.98 3.86
4.09 13.49 -0.74
5.68 18.71 4.51
4.12 13.55 -0.25
1.97 6.4 -1.8
2.32 7.56 -1.83
12.76 41.53 2.28
2.72 8.84 -1.8
6.56 21.33 1.95
3.21 10.44 -1.73
4.2 13.68 -1.76
4.16 13.53 -1.24
5.76 18.74 3.81
4.1 13.35 -0.73
4.13 13.45 -0.25
1.99 6.41 -1.8
13.06 41.97 0.77
2.36 7.59 -1.84
2.75 8.83 -1.8
5.71 18.37 1.68
3.25 10.43 -1.73
4.25 13.68 -1.76
3.6 11.57 -1.06
5.89 18.92 3.85
4.14 13.31 -0.73
5.85 18.82 4.55
4.16 13.38 -0.24
2.02 6.4 -1.8
2.39 7.59 -1.84
5.81 18.45 1.01
2.78 8.83 -1.8
3.28 10.43 -1.73
5.77 18.33 2.36
3.63 11.54 -1.48
5.93 18.85 3.13
3.62 11.51 -1.06
5.97 18.95 3.86
3.7 11.76 -0.65
5.89 18.71 4.53
4.2 13.34 -0.24
2.04 6.41 -1.8
13.2 41.47 0.76
2.4 7.54 -1.83
5.88 18.46 1.02
2.81 8.82 -1.8
3.31 10.4 -1.73
3.67 11.52 -1.48
3.66 11.51 -1.06
5.9 18.53 3.78
3.68 11.55 -0.64
5.99 18.83 4.56
3.65 11.48 -0.21
2.07 6.44 -1.81
13.62 42.3 0.78
2.42 7.52 -1.82
2.84 8.81 -1.8
3.34 10.38 -1.73
4.31 13.38 -1.73
5.95 18.47 3.07
3.71 11.52 -1.06
5.97 18.55 3.79
3.68 11.43 -0.63
3.68 11.44 -0.21
2.1 6.43 -1.81
13.5 41.41 0.76
2.42 7.44 -1.81
2.87 8.8 -1.8
3.38 10.36 -1.73
5.98 18.33 2.37
4.36 13.37 -1.73
6.01 18.42 3.07
3.77 11.55 -1.06
3.71 11.38 -0.63
3.74 11.46 -0.21
2.12 6.43 -1.81
2.44 7.4 -1.8
2.9 8.78 -1.8
3.42 10.37 -1.73
4.42 13.41 -1.73
3.76 11.4 -1.05
6.31 19.13 3.92
3.75 11.37 -0.63
3.77 11.42 -0.21
2.14 6.42 -1.81
2.46 7.37 -1.79
2.93 8.77 -1.8
6.32 18.94 1.75
3.46 10.37 -1.73
4.5 13.5 -1.75
3.78 11.34 -1.05
6.39 19.15 3.92
3.79 11.36 -0.63
3.81 11.41 -0.21
2.17 6.43 -1.82
2.49 7.37 -1.8
2.96 8.77 -1.8
6.63 19.66 1.82
3.5 10.37 -1.73
4.08 12.09 -1.57
3.82 11.33 -1.05
6.63 19.65 4.03
3.83 11.35 -0.63
3.86 11.43 -0.21
2.19 6.41 -1.81
2.51 7.35 -1.79
2.99 8.76 -1.8
3.53 10.35 -1.73
4.1 12.02 -1.56
3.87 11.33 -1.05
6.7 19.64 4.03
3.85 11.29 -0.63
4.09 11.98 -0.22
2.21 6.41 -1.82
2.53 7.34 -1.79
3.02 8.74 -1.8
6.51 18.86 1.75
3.57 10.35 -1.73
4.14 11.98 -1.56
4.12 11.93 -1.1
6.37 18.45 3.79
3.88 11.25 -0.62
6.55 18.99 4.64
4.16 12.06 -0.22
2.23 6.39 -1.81
2.55 7.3 -1.79
3.04 8.72 -1.8
6.57 18.82 1.74
3.61 10.33 -1.73
4.21 12.07 -1.57
4.18 11.98 -1.11
6.42 18.38 3.78
3.93 11.25 -0.62
6.59 18.9 4.62
4.2 12.02 -0.22
2.26 6.41 -1.82
2.57 7.29 -1.78
3.07 8.71 -1.8
3.64 10.33 -1.73
4.29 12.15 -1.58
4.39 12.43 -1.15
4.18 11.85 -0.66
6.69 18.95 4.64
4.42 12.53 -0.23
2.28 6.4 -1.82
2.6 7.3 -1.79
3.11 8.71 -1.8
3.68 10.31 -1.73
4.34 12.15 -1.58
4.44 12.44 -1.16
4.43 12.42 -0.69
4.46 12.49 -0.23
2.31 6.39 -1.82
2.63 7.28 -1.79
3.14 8.7 -1.8
3.71 10.28 -1.73
4.51 12.5 -1.16
4.47 12.41 -0.69
4.49 12.45 -0.23
2.33 6.39 -1.82
2.67 7.31 -1.8
3.17 8.69 -1.8
3.74 10.25 -1.73
4.16 11.42 -1.49
7.53 20.64 -1.92
7.04 19.31 3.99
4.52 12.4 -0.69
4.53 12.43 -0.23
2.35 6.38 -1.82
2.69 7.31 -1.8
3.19 8.66 -1.79
3.76 10.21 -1.72
4.2 11.41 -1.49
7.59 20.6 -1.92
4.54 12.32 -0.69
4.57 12.41 -0.23
2.37 6.35 -1.82
2.73 7.34 -1.81
3.22 8.65 -1.79
7.63 20.49 1.91
3.79 10.18 -1.72
4.25 11.41 -1.5
7.64 20.51 -1.91
4.58 12.3 -0.69
4.63 12.44 -0.23
2.39 6.36 -1.82
2.77 7.35 -1.81
3.26 8.65 -1.8
7.72 20.5 1.92
3.82 10.16 -1.72
7.69 20.44 -1.91
4.63 12.31 -0.69
2.41 6.35 -1.82
2.79 7.33 -1.81
3.29 8.64 -1.8
7.8 20.49 1.92
3.87 10.17 -1.72
5.05 13.27 -1.74
7.74 20.34 -1.9
2.44 6.34 -1.82
2.82 7.33 -1.81
3.31 8.62 -1.8
8.06 20.96 1.97
3.92 10.19 -1.73
5.09 13.23 -1.74
7.81 20.31 -1.9
13.1 34.07 -1.91
2.46 6.33 -1.82
2.84 7.32 -1.81
3.34 8.6 -1.79
8.17 21.04 1.97
3.93 10.13 -1.72
5.13 13.22 -1.74
7.87 20.27 -1.9
13.18 33.95 -1.91
2.47 6.31 -1.82
2.87 7.32 -1.81
3.37 8.59 -1.79
8.01 20.42 1.92
3.96 10.11 -1.72
5.18 13.21 -1.74
7.93 20.22 -1.9
13.25 33.81 -1.9
2.5 6.31 -1.82
2.89 7.29 -1.81
3.4 8.59 -1.8
8.09 20.43 1.92
4 10.09 -1.72
5.23 13.19 -1.74
7.96 20.1 -1.89
13.33 33.65 -1.9
2.52 6.31 -1.82
2.91 7.27 -1.81
3.43 8.58 -1.8
8.13 20.31 1.91
4.03 10.08 -1.72
5.27 13.18 -1.74
8 19.99 -1.88
13.37 33.43 -1.89
2.54 6.29 -1.82
2.93 7.26 -1.81
3.46 8.56 -1.8
7.94 19.66 1.86
4.07 10.07 -1.72
5.31 13.15 -1.74
8.07 19.98 -1.89
13.46 33.32 -1.88
2.56 6.27 -1.82
2.96 7.25 -1.81
3.48 8.53 -1.79
8.05 19.72 1.86
4.1 10.06 -1.72
5.36 13.13 -1.74
8.13 19.92 -1.88
13.53 33.17 -1.88
2.58 6.26 -1.81
2.99 7.24 -1.81
3.51 8.51 -1.79
8.14 19.74 1.87
4.13 10.03 -1.72
5.4 13.11 -1.74
8.16 19.79 -1.87
13.63 33.06 -1.87
2.6 6.25 -1.81
3.01 7.23 -1.81
3.54 8.52 -1.79
7.85 18.87 1.79
4.16 9.99 -1.71
5.45 13.1 -1.74
8.2 19.7 -1.87
13.66 32.84 -1.86
2.62 6.24 -1.81
3.03 7.21 -1.81
3.57 8.5 -1.79
7.93 18.88 1.79
4.18 9.96 -1.71
8.94 21.28 2.83
5.49 13.07 -1.74
8.26 19.66 -1.87
13.72 32.65 -1.86
2.64 6.23 -1.81
3.06 7.2 -1.81
3.6 8.48 -1.79
7.95 18.74 1.78
4.22 9.94 -1.71
8.9 20.99 2.8
5.54 13.05 -1.74
8.32 19.6 -1.86
13.8 32.53 -1.85
2.67 6.22 -1.81
3.08 7.2 -1.81
8.76 20.46 1.17
3.62 8.45 -1.79
8 18.66 1.78
4.24 9.91 -1.71
9.01 21.04 2.81
5.58 13.03 -1.74
8.34 19.47 -1.85
13.9 32.45 -1.85
2.68 6.2 -1.81
3.11 7.19 -1.81
8.77 20.27 1.16
3.65 8.44 -1.79
8.08 18.69 1.78
4.28 9.89 -1.71
9.26 21.41 2.86
5.63 13.01 -1.74
8.37 19.35 -1.84
8.64 19.98 4.23
13.96 32.28 -1.84
2.71 6.21 -1.81
3.13 7.18 -1.81
8.74 20.02 1.14
3.68 8.42 -1.79
4.3 9.86 -1.7
5.67 13 -1.74
8.41 19.27 -1.84
8.83 20.22 4.29
14.04 32.17 -1.84
2.73 6.19 -1.81
3.15 7.16 -1.81
8.6 19.52 1.12
3.71 8.41 -1.79
8.13 18.45 1.76
4.34 9.84 -1.7
7.78 17.66 2.37
5.72 12.97 -1.74
8.48 19.24 -1.84
14.09 31.98 -1.83
2.75 6.19 -1.82
3.18 7.15 -1.81
8.69 19.53 1.12
3.73 8.39 -1.78
4.37 9.83 -1.7
7.87 17.7 2.38
5.75 12.94 -1.74
8.51 19.14 -1.83
14.12 31.75 -1.82
2.77 6.17 -1.81
3.21 7.15 -1.81
8.76 19.52 1.12
3.76 8.38 -1.79
4.41 9.81 -1.7
5.79 12.91 -1.74
8.55 19.04 -1.83
14.21 31.64 -1.82
2.79 6.16 -1.81
3.23 7.14 -1.81
8.71 19.22 1.11
3.79 8.36 -1.78
8.4 18.55 1.78
4.43 9.79 -1.7
9.12 20.13 2.71
5.84 12.89 -1.74
8.6 18.99 -1.82
9 19.86 4.24
14.27 31.5 -1.81
2.81 6.15 -1.81
3.24 7.09 -1.8
3.82 8.35 -1.78
4.47 9.77 -1.7
5.88 12.86 -1.74
9.02 19.73 3.44
8.63 18.87 -1.82
2.83 6.14 -1.81
3.26 7.06 -1.8
8.8 19.07 1.1
3.85 8.34 -1.79
4.5 9.75 -1.7
5.92 12.84 -1.74
9.14 19.82 3.46
8.66 18.78 -1.81
15.03 32.58 -1.88
2.86 6.14 -1.81
9.08 19.51 0.38
3.28 7.05 -1.8
23.15 49.75 2.88
3.87 8.32 -1.78
9.47 20.34 1.96
4.53 9.73 -1.7
9.21 19.79 2.68
5.96 12.81 -1.73
9.5 20.41 3.57
8.7 18.7 -1.8
15.07 32.37 -1.87
9 19.34 4.92
2.88 6.12 -1.81
9.17 19.52 0.38
3.31 7.04 -1.8
8.99 19.13 1.11
3.9 8.3 -1.78
9.28 19.75 1.91
4.56 9.71 -1.7
9.28 19.74 2.68
6.01 12.79 -1.74
9.55 20.32 3.56
8.75 18.62 -1.8
15.13 32.2 -1.86
9.04 19.25 4.91
2.89 6.1 -1.81
23.24 49.01 0.95
3.33 7.02 -1.79
9.33 19.67 1.14
3.93 8.28 -1.78
9.32 19.66 1.9
4.59 9.69 -1.7
9.12 19.23 2.61
6.05 12.76 -1.73
9.62 20.28 3.56
8.8 18.55 -1.8
9.33 19.67 4.23
15.15 31.96 -1.85
9.11 19.21 4.91
9.31 19.63 -0.38
2.91 6.09 -1.81
9.34 19.53 0.38
3.34 6.98 -1.79
9.42 19.7 1.14
3.96 8.28 -1.78
9.21 19.26 1.87
4.61 9.65 -1.69
9.3 19.46 2.65
6.09 12.74 -1.73
8.84 18.49 -1.79
9.3 19.46 -1.13
9.32 19.49 -0.38
2.93 6.08 -1.81
9.41 19.5 0.38
3.36 6.97 -1.79
9.33 19.33 1.12
3.99 8.26 -1.78
4.65 9.63 -1.69
6.13 12.71 -1.73
8.85 18.36 -1.78
9.35 19.39 -1.13
9.41 19.51 -0.38
2.96 6.07 -1.81
9.53 19.59 0.38
3.39 6.96 -1.79
9.92 20.38 1.19
4.01 8.24 -1.78
4.67 9.6 -1.69
6.17 12.67 -1.73
8.91 18.3 -1.78
9.44 19.4 -1.13
2.97 6.06 -1.81
3.43 6.98 -1.79
9.89 20.14 1.18
4.04 8.22 -1.78
4.7 9.57 -1.69
6.22 12.66 -1.73
8.94 18.21 -1.77
15.29 31.14 -1.82
9.78 19.92 5.12
2.99 6.05 -1.81
3.47 7.01 -1.81
10.04 20.28 1.19
4.07 8.21 -1.78
4.72 9.53 -1.68
6.25 12.63 -1.73
8.97 18.11 -1.77
15.33 30.95 -1.81
9.54 19.26 4.96
3.02 6.03 -1.81
3.48 6.96 -1.8
10.2 20.42 1.2
4.09 8.19 -1.78
4.74 9.49 -1.68
6.3 12.61 -1.73
9.02 18.05 -1.77
15.37 30.77 -1.8
9.63 19.28 4.98
3.04 6.03 -1.81
3.48 6.91 -1.79
10.2 20.24 1.19
4.12 8.16 -1.78
10.38 20.6 2.02
4.76 9.44 -1.67
6.34 12.57 -1.73
9.06 17.98 -1.76
15.4 30.55 -1.79
10.06 19.97 5.16
17.79 35.3 -0.69
3.06 6.02 -1.81
3.5 6.88 -1.78
10.44 20.53 1.21
4.14 8.15 -1.78
4.78 9.4 -1.67
9.84 19.36 2.67
6.38 12.55 -1.73
9.11 17.91 -1.76
15.45 30.39 -1.79
17.79 34.98 -0.69
3.09 6.02 -1.81
3.52 6.87 -1.78
4.15 8.1 -1.77
4.8 9.36 -1.67
9.92 19.36 2.67
6.41 12.52 -1.73
9.14 17.84 -1.75
15.46 30.18 -1.78
3.1 6.01 -1.81
3.55 6.86 -1.78
4.18 8.09 -1.77
4.82 9.33 -1.66
10.02 19.38 2.68
6.46 12.5 -1.73
9.96 19.27 3.44
9.16 17.72 -1.75
9.82 19 4.16
15.51 30.01 -1.77
10.3 19.93 5.18
3.12 5.99 -1.81
3.58 6.88 -1.79
4.18 8.02 -1.76
10.28 19.73 1.95
4.83 9.27 -1.66
6.5 12.48 -1.73
9.89 18.97 3.39
9.18 17.61 -1.74
15.52 29.77 -1.76
3.15 5.99 -1.81
3.61 6.87 -1.79
4.21 8 -1.76
10.77 20.49 2.03
4.85 9.23 -1.65
6.54 12.45 -1.73
9.2 17.5 -1.73
9.87 18.78 4.12
15.57 29.62 -1.75
3.17 5.98 -1.81
3.64 6.87 -1.8
4.22 7.96 -1.75
4.87 9.19 -1.65
6.58 12.42 -1.73
10.07 18.99 3.4
9.24 17.43 -1.73
15.59 29.41 -1.74
3.19 5.97 -1.81
3.67 6.86 -1.8
4.28 8.01 -1.76
10.68 19.98 1.98
4.89 9.15 -1.64
6.63 12.4 -1.73
9.28 17.38 -1.72
15.64 29.28 -1.74
3.2 5.94 -1.81
3.68 6.83 -1.79
4.3 7.98 -1.76
10.53 19.54 1.94
4.91 9.11 -1.64
6.67 12.38 -1.73
9.31 17.28 -1.72
15.68 29.09 -1.73
3.23 5.94 -1.81
3.7 6.82 -1.79
4.35 8 -1.77
10.66 19.62 1.95
4.94 9.1 -1.64
6.71 12.36 -1.73
9.34 17.19 -1.71
15.68 28.86 -1.72
3.25 5.93 -1.81
3.71 6.77 -1.78
4.37 7.99 -1.77
4.98 9.09 -1.64
6.75 12.33 -1.73
9.38 17.14 -1.71
15.72 28.71 -1.72
3.27 5.93 -1.81
3.71 6.73 -1.77
4.39 7.96 -1.77
5.01 9.07 -1.64
6.78 12.29 -1.72
9.39 17.01 -1.7
15.75 28.53 -1.71
3.29 5.91 -1.81
3.76 6.75 -1.78
4.41 7.93 -1.76
5.03 9.03 -1.64
6.83 12.27 -1.72
9.43 16.94 -1.7
15.82 28.43 -1.71
18.15 32.61 -0.65
3.3 5.89 -1.81
3.79 6.76 -1.79
4.44 7.92 -1.77
5.04 8.98 -1.63
6.87 12.24 -1.72
9.45 16.85 -1.69
15.83 28.21 -1.7
3.33 5.88 -1.81
3.82 6.75 -1.79
4.47 7.9 -1.76
5.07 8.96 -1.63
6.92 12.23 -1.72
9.51 16.82 -1.69
15.86 28.04 -1.69
3.34 5.87 -1.81
3.84 6.73 -1.79
4.48 7.86 -1.76
5.12 8.98 -1.64
6.95 12.19 -1.72
9.59 16.82 -1.69
15.89 27.87 -1.68
3.37 5.86 -1.81
3.86 6.71 -1.79
4.5 7.83 -1.76
5.17 8.99 -1.64
7 12.16 -1.72
9.65 16.77 -1.69
15.97 27.76 -1.68
3.39 5.84 -1.81
3.89 6.7 -1.79
4.51 7.78 -1.75
5.25 9.05 -1.66
7.03 12.13 -1.72
9.7 16.72 -1.69
15.96 27.52 -1.67
3.4 5.83 -1.81
3.91 6.7 -1.79
4.53 7.75 -1.75
5.29 9.05 -1.66
7.07 12.11 -1.72
9.7 16.59 -1.68
16 27.38 -1.66
3.42 5.81 -1.81
3.93 6.67 -1.79
4.55 7.72 -1.74
5.32 9.03 -1.66
7.12 12.09 -1.72
9.7 16.48 -1.67
15.98 27.13 -1.65
3.44 5.8 -1.81
3.95 6.66 -1.79
4.56 7.69 -1.74
5.34 9 -1.66
7.15 12.05 -1.72
9.74 16.41 -1.67
16.03 27 -1.65
3.47 5.8 -1.81
3.98 6.65 -1.79
4.58 7.65 -1.73
5.37 8.98 -1.66
7.19 12.02 -1.72
9.79 16.38 -1.67
16.04 26.82 -1.64
3.48 5.77 -1.81
4.01 6.64 -1.79
4.58 7.6 -1.73
5.41 8.96 -1.66
6.13 10.17 -1.46
9.83 16.3 -1.66
16.06 26.64 -1.63
3.5 5.76 -1.8
4.02 6.62 -1.79
4.6 7.56 -1.72
5.43 8.94 -1.66
6.16 10.13 -1.46
9.87 16.24 -1.66
16.11 26.52 -1.63
3.52 5.75 -1.81
4.05 6.61 -1.79
4.63 7.56 -1.72
5.48 8.96 -1.66
6.19 10.11 -1.46
9.92 16.19 -1.66
16.14 26.36 -1.62
3.54 5.74 -1.81
4.06 6.58 -1.78
4.65 7.53 -1.72
5.53 8.96 -1.67
6.23 10.1 -1.46
9.96 16.14 -1.66
16.16 26.2 -1.61
3.57 5.74 -1.81
4.08 6.57 -1.79
4.64 7.46 -1.71
5.56 8.95 -1.67
6.26 10.08 -1.46
10.01 16.11 -1.66
16.22 26.1 -1.61
3.59 5.74 -1.81
4.11 6.56 -1.79
4.66 7.44 -1.71
5.61 8.95 -1.67
6.29 10.04 -1.45
10.03 16.01 -1.65
16.22 25.9 -1.6
3.62 5.73 -1.82
4.14 6.56 -1.79
4.69 7.44 -1.71
5.66 8.96 -1.68
6.33 10.02 -1.46
10.09 15.98 -1.65
16.28 25.78 -1.6
3.65 5.74 -1.82
4.17 6.55 -1.79
4.73 7.43 -1.71
5.7 8.96 -1.68
6.36 10 -1.46
10.13 15.93 -1.65
16.33 25.66 -1.59
3.67 5.73 -1.82
4.18 6.52 -1.79
4.75 7.41 -1.71
5.75 8.97 -1.69
6.39 9.96 -1.45
10.13 15.8 -1.64
16.28 25.4 -1.58
3.7 5.73 -1.83
4.2 6.5 -1.79
4.76 7.37 -1.71
5.79 8.97 -1.69
6.42 9.93 -1.45
10.18 15.75 -1.64
16.33 25.28 -1.58
3.72 5.72 -1.83
4.22 6.49 -1.79
4.76 7.31 -1.7
5.83 8.96 -1.69
6.47 9.94 -1.46
10.22 15.71 -1.64
16.37 25.15 -1.57
3.74 5.7 -1.83
4.25 6.47 -1.79
4.78 7.28 -1.69
5.85 8.92 -1.69
6.51 9.93 -1.46
10.27 15.66 -1.64
16.37 24.96 -1.56
3.76 5.7 -1.83
4.26 6.45 -1.79
4.79 7.25 -1.69
5.87 8.9 -1.69
6.54 9.91 -1.46
10.3 15.6 -1.64
16.4 24.84 -1.56
3.78 5.68 -1.83
4.28 6.43 -1.78
4.81 7.22 -1.69
5.92 8.89 -1.69
6.61 9.94 -1.47
10.36 15.58 -1.64
16.39 24.63 -1.55
3.79 5.66 -1.83
4.3 6.41 -1.78
4.83 7.2 -1.69
5.96 8.89 -1.7
6.63 9.89 -1.46
10.41 15.53 -1.64
16.39 24.45 -1.54
3.81 5.64 -1.82
4.32 6.4 -1.78
4.84 7.16 -1.68
6 8.88 -1.7
6.68 9.89 -1.47
10.46 15.49 -1.64
16.44 24.33 -1.54
3.82 5.62 -1.82
4.35 6.39 -1.78
4.83 7.1 -1.67
6.04 8.88 -1.7
6.74 9.91 -1.47
10.52 15.46 -1.64
7.52 11.05 2.6
16.46 24.19 -1.53
3.84 5.6 -1.82
4.37 6.37 -1.78
4.85 7.07 -1.67
6.07 8.86 -1.7
6.79 9.91 -1.48
10.59 15.45 -1.64
16.48 24.04 -1.53
7.02 10.25 3.33
3.86 5.6 -1.82
4.38 6.35 -1.78
4.87 7.06 -1.67
6.11 8.85 -1.7
6.85 9.92 -1.48
10.65 15.42 -1.64
16.48 23.86 -1.52
3.89 5.59 -1.82
4.41 6.34 -1.78
4.88 7.01 -1.66
6.15 8.84 -1.71
6.9 9.92 -1.48
10.7 15.38 -1.64
16.52 23.74 -1.52
3.9 5.57 -1.82
4.44 6.33 -1.78
10.63 15.17 0.97
4.86 6.94 -1.65
10.62 15.16 1.62
6.18 8.83 -1.71
6.95 9.92 -1.49
7.62 10.88 2.1
10.7 15.27 -1.63
16.55 23.62 -1.51
7.42 10.59 3.46
3.9 5.53 -1.81
4.46 6.31 -1.78
10.63 15.06 0.97
4.86 6.88 -1.64
10.59 15.01 1.61
6.22 8.81 -1.71
6.99 9.9 -1.49
7.69 10.89 2.11
10.7 15.16 -1.62
16.57 23.48 -1.51
7.43 10.54 3.46
3.93 5.52 -1.82
10.56 14.85 0.32
4.48 6.3 -1.79
10.57 14.87 0.96
4.85 6.82 -1.63
10.6 14.91 1.6
6.25 8.79 -1.71
7.02 9.88 -1.49
10.71 15.07 -1.62
16.58 23.32 -1.5
10.55 14.84 -0.32
8.26 11.62 3.82
3.95 5.51 -1.82
4.49 6.27 -1.78
10.64 14.85 0.96
4.87 6.8 -1.63
10.65 14.86 1.6
6.28 8.77 -1.71
7.07 9.87 -1.49
10.58 14.77 -1.59
10.58 14.77 -0.95
7.14 9.97 3.29
3.97 5.51 -1.82
4.52 6.27 -1.78
10.65 14.76 0.95
4.87 6.75 -1.62
10.65 14.77 1.59
6.32 8.76 -1.71
7.1 9.85 -1.49
7.6 10.53 2.06
10.79 14.97 -1.61
16.6 23.02 -1.49
7.13 9.89 3.27
3.98 5.48 -1.81
4.54 6.25 -1.78
10.67 14.69 0.95
4.87 6.7 -1.61
6.35 8.74 -1.71
7.16 9.85 -1.49
7.93 10.91 2.14
10.81 14.87 -1.61
16.57 22.8 -1.48
7.28 10.02 2.86
8.5 11.7 3.87
4.01 5.47 -1.82
4.57 6.24 -1.79
4.88 6.67 -1.61
6.4 8.74 -1.72
7.22 9.87 -1.5
7.59 10.37 2.04
10.84 14.81 -1.61
16.59 22.67 -1.47
8.37 11.43 3.27
7.25 9.9 3.29
4.02 5.46 -1.82
4.59 6.22 -1.78
4.91 6.66 -1.61
6.44 8.74 -1.72
7.3 9.9 -1.51
7.99 10.84 2.13
10.84 14.7 -1.6
