# .PCD v0.7 - Point Cloud Data file format
VERSION 0.7
FIELDS x y z
SIZE 4 4 4
TYPE F F F
COUNT 1 1 1
WIDTH 2863
HEIGHT 1
VIEWPOINT 0 0 0 1 0 0 0
POINTS 2863
DATA ascii
-13.8 7.27 3.6
-12.65 6.66 -0.25
-4.27 2.27 -1.3
-4.27 2.27 -1.12
-33.42 17.75 1.98
-4.35 2.31 -0.96
-35.27 18.73 3.49
-1.07 0.57 -0.19
-33.42 17.75 4.65
-1.14 0.61 -0.16
-10.38 5.51 1.86
-10.78 5.73 2.37
-7.83 4.16 -0.46
-16.94 9 -0.33
-4.26 2.28 -1.3
-17.03 9.11 0.34
-4.26 2.28 -1.12
-16.35 8.75 0.97
-4.36 2.33 -0.96
-12.4 6.64 1.23
-1.07 0.57 -0.19
-16.11 8.62 2.24
-1.13 0.6 -0.16
-10.35 5.54 1.86
-7.86 4.2 -0.47
-12.74 6.81 -0.25
-15.7 8.4 4.77
-4.26 2.3 -1.3
-15.26 8.23 0.3
-4.26 2.3 -1.12
-33.09 17.86 1.97
-4.34 2.34 -0.96
-11.93 6.43 1.19
-1.06 0.57 -0.19
-1.12 0.6 -0.16
-16.28 8.79 3.6
-7.89 4.26 -0.47
-16.22 8.75 4.26
-13.06 7.05 -0.26
-14 7.56 4.26
-4.25 2.31 -1.3
-12.75 6.94 0.25
-4.25 2.31 -1.12
-32.9 17.9 1.96
-4.35 2.36 -0.96
-35.46 19.29 3.53
-1.05 0.57 -0.19
-16.04 8.73 2.24
-1.11 0.6 -0.16
-32.78 17.84 5.91
-15.18 8.26 3.36
-15.29 8.32 -0.3
-14.06 7.65 4.29
-4.25 2.33 -1.3
-41.72 22.89 0.83
-4.27 2.34 -1.12
-32.73 17.96 1.96
-4.35 2.38 -0.96
-12.91 7.08 1.29
-1.04 0.57 -0.19
-16.09 8.83 2.25
-1.09 0.6 -0.15
-32.64 17.9 5.9
-10.75 5.9 2.38
-15.73 8.63 -0.94
-15.23 8.36 4.01
-12.48 6.85 -0.25
-4.25 2.35 -1.3
-13.07 7.23 0.26
-4.26 2.36 -1.12
-12.82 7.1 0.77
-4.35 2.41 -0.97
-35.59 19.7 3.56
-1.03 0.57 -0.19
-12.01 6.65 1.69
-1.09 0.6 -0.15
-32.49 17.99 5.88
-10.65 5.9 2.37
-12.63 6.99 -0.76
-15.59 8.63 4.11
-12.51 6.93 -0.25
-15.49 8.58 4.75
-4.26 2.38 -1.31
-12.43 6.94 0.25
-4.28 2.39 -1.13
-32.38 18.08 1.94
-4.35 2.43 -0.97
-1.02 0.57 -0.19
-14.92 8.33 2.1
-1.06 0.59 -0.15
-32.33 18.05 5.86
-10.66 5.95 2.37
-14.47 8.08 -0.87
-15.53 8.67 4.11
-4.28 2.41 -1.31
-14.78 8.31 0.3
-4.27 2.4 -1.13
-32.23 18.12 1.94
-4.34 2.44 -0.97
-1.01 0.57 -0.18
-14.85 8.35 2.09
-1.05 0.59 -0.15
-32.16 18.08 5.84
-10.62 5.97 2.37
-12.36 6.95 -0.74
-8.44 4.75 2.24
-12.67 7.12 -0.25
-4.29 2.43 -1.32
-12.43 7.05 0.25
-4.65 2.64 -1.23
-32.05 18.17 1.93
-4.33 2.46 -0.97
-35.79 20.29 3.6
-1.01 0.57 -0.18
-16.18 9.17 2.28
-1.05 0.59 -0.15
-16.29 9.24 2.97
-10.58 6 2.36
-14.33 8.12 -0.86
-14.37 8.14 -0.29
-4.28 2.45 -1.32
-12.57 7.19 0.25
-4.66 2.66 -1.24
-31.89 18.24 1.93
-4.34 2.48 -0.97
-13 7.44 1.31
-1 0.57 -0.18
-16.15 9.24 2.28
-1.04 0.59 -0.15
-31.82 18.2 5.81
-10.51 6.01 2.35
-14.15 8.1 -0.85
-14.91 8.53 -0.3
-15.77 9.02 4.87
-4.29 2.47 -1.33
-42 24.22 0.85
-4.65 2.68 -1.24
-31.72 18.29 1.92
-4.35 2.51 -0.98
-0.99 0.57 -0.18
-1.03 0.6 -0.15
-16.16 9.32 2.95
-10.54 6.08 2.36
-11.43 6.59 -0.69
-11.36 6.55 3.03
-14.99 8.64 -0.3
-4.31 2.5 -1.34
-41.82 24.29 0.84
-4.63 2.69 -1.24
-31.55 18.33 1.91
-4.35 2.53 -0.98
-31.72 18.43 3.21
-0.99 0.57 -0.18
-1 0.58 -0.14
-31.48 18.29 5.77
-10.42 6.05 2.34
-14.74 8.56 -0.89
-11.4 6.62 3.04
-11.96 6.94 -0.24
-11.92 6.92 3.69
-4.31 2.53 -1.34
-31.62 18.52 0.64
-4.62 2.7 -1.24
-13.09 7.66 0.79
-4.36 2.55 -0.98
-31.66 18.54 3.21
-0.98 0.57 -0.18
-34.09 19.96 4.85
-1.03 0.6 -0.15
-31.34 18.35 5.75
-10.4 6.09 2.34
-11.51 6.74 -0.7
-11.42 6.68 3.05
-14.33 8.39 -0.29
-11.89 6.96 3.69
-4.32 2.55 -1.35
-11.59 6.84 0.23
-4.6 2.71 -1.23
-31.22 18.43 1.9
-4.36 2.57 -0.98
-0.98 0.58 -0.18
-34.1 20.13 4.86
-6.14 3.63 -0.88
-15.58 9.2 2.87
-10.43 6.16 2.35
-11.45 6.76 -0.7
-11.44 6.76 3.07
-11.5 6.79 -0.23
-4.31 2.56 -1.34
-11.51 6.85 0.23
-4.59 2.73 -1.23
-11.58 6.9 0.71
-4.37 2.6 -0.99
-11.65 6.93 1.19
-0.96 0.57 -0.18
-11.72 6.97 1.67
-6.14 3.66 -0.88
-11.78 7.01 2.17
-15.13 9.01 3.42
-11.41 6.79 -0.7
-11.51 6.85 3.09
-11.45 6.82 -0.23
-16.37 9.74 5.11
-4.31 2.59 -1.35
-11.46 6.87 0.23
-4.57 2.74 -1.23
-11.53 6.91 0.7
-4.35 2.61 -0.99
-11.58 6.95 1.18
-0.94 0.56 -0.17
-11.65 6.99 1.67
-11.72 7.03 2.17
-11.76 7.05 2.67
-11.37 6.82 -0.69
-11.83 7.1 3.19
-11.42 6.85 -0.23
-11.83 7.09 3.7
-4.33 2.62 -1.36
-11.43 6.91 0.23
-4.54 2.75 -1.23
-11.48 6.94 0.7
-4.36 2.64 -0.99
-11.55 6.98 1.18
-0.94 0.57 -0.17
-11.59 7.01 1.66
-11.67 7.05 2.16
-6.13 3.71 -0.63
-11.7 7.07 2.66
-11.33 6.85 -0.69
-11.77 7.11 3.17
-11.4 6.89 -0.23
-11.78 7.12 3.69
-4.34 2.64 -1.36
-11.42 6.96 0.23
-4.52 2.76 -1.22
-11.44 6.97 0.7
-4.36 2.66 -0.99
-11.53 7.03 1.18
-0.96 0.58 -0.18
-11.56 7.05 1.66
-6.13 3.74 -0.88
-11.61 7.08 2.15
-6.16 3.75 -0.63
-11.67 7.11 2.66
-11.32 6.9 -0.7
-11.73 7.15 3.17
-11.38 6.94 -0.23
-11.76 7.16 3.69
-4.34 2.67 -1.37
-11.42 7.02 0.23
-4.49 2.76 -1.22
-11.45 7.03 0.7
-4.36 2.68 -0.99
-11.51 7.07 1.18
-0.95 0.58 -0.18
-11.55 7.1 1.66
-6.03 3.71 -0.87
-11.59 7.12 2.15
-6.15 3.78 -0.63
-11.66 7.16 2.66
-6.02 3.7 -0.37
-11.72 7.2 3.18
-11.38 6.99 -0.23
-11.75 7.22 3.7
-4.32 2.67 -1.36
-11.45 7.08 0.23
-4.46 2.76 -1.21
-11.48 7.11 0.71
-4.37 2.7 -1
-11.54 7.14 1.19
-0.94 0.58 -0.17
-11.57 7.16 1.67
-6.11 3.78 -0.88
-11.6 7.18 2.16
-11.65 7.21 2.66
-5.96 3.69 -0.37
-11.74 7.27 3.19
-11.77 7.29 3.71
-4.33 2.7 -1.37
-30.11 18.78 0.62
-4.39 2.74 -1.2
-4.37 2.73 -1
-0.93 0.58 -0.17
-30.04 18.74 4.35
-12.08 7.53 2.25
-5.9 3.68 -0.36
-13 8.11 -0.27
-4.35 2.73 -1.38
-29.94 18.82 0.62
-4.33 2.72 -1.18
-29.96 18.83 1.85
-4.38 2.75 -1.01
-29.94 18.82 3.09
-0.93 0.58 -0.17
-29.9 18.79 4.34
-12.18 7.65 2.28
-8.74 5.49 2.01
-5.83 3.67 -0.36
-12.98 8.16 -0.27
-14.96 9.41 4.74
-4.39 2.78 -1.39
-29.79 18.87 0.62
-4.34 2.75 -1.19
-29.79 18.87 1.85
-4.38 2.77 -1.01
-29.78 18.87 3.08
-0.91 0.58 -0.17
-29.74 18.84 4.32
-4.64 2.94 -0.67
-29.75 18.85 5.58
-12.34 7.82 2.84
-5.8 3.67 -0.36
-12.3 7.79 3.36
-13.72 8.69 -0.28
-14.99 9.5 4.75
-4.46 2.85 -1.42
-29.64 18.93 0.61
-4.36 2.78 -1.19
-29.64 18.93 1.84
-4.36 2.78 -1.01
-12.35 7.89 1.28
-0.9 0.58 -0.17
-13.1 8.37 1.91
-4.63 2.96 -0.67
-29.7 18.96 5.58
-8.63 5.51 1.99
-5.75 3.67 -0.36
-12.3 7.85 3.37
-13.12 8.38 -0.27
-4.43 2.85 -1.41
-11.71 7.54 0.24
-4.37 2.81 -1.2
-29.54 19.01 1.84
-4.4 2.83 -1.02
-29.62 19.06 3.08
-0.9 0.58 -0.17
-13.1 8.43 1.91
-4.62 2.98 -0.68
-29.75 19.15 5.6
-8.6 5.54 1.99
-5.73 3.69 -0.36
-13.4 8.63 -0.28
-14.16 9.11 4.51
-4.41 2.86 -1.41
-13.16 8.52 0.27
-4.37 2.83 -1.2
-29.61 19.18 1.85
-4.41 2.86 -1.02
-14.55 9.42 1.52
-0.89 0.57 -0.17
-29.78 19.29 4.36
-4.62 2.99 -0.68
-29.83 19.33 5.63
-15.52 10.06 3.6
-5.67 3.68 -0.35
-15.32 9.93 4.21
-12.81 8.3 -0.27
-14.17 9.18 4.53
-4.38 2.86 -1.4
-29.61 19.33 0.62
-4.37 2.85 -1.2
-14.35 9.37 0.9
-4.41 2.88 -1.02
-29.78 19.45 3.11
-0.87 0.57 -0.17
-29.82 19.47 4.37
-4.61 3.01 -0.68
-29.89 19.52 5.65
-8.44 5.51 1.96
-5.63 3.68 -0.35
-13.98 9.13 3.86
-13.02 8.5 -0.27
-13.28 8.68 4.25
-4.38 2.88 -1.4
-29.68 19.52 0.62
-4.38 2.88 -1.21
-12.22 8.04 0.77
-4.42 2.91 -1.03
-13.62 8.96 1.43
-0.89 0.58 -0.17
-29.88 19.66 4.39
-4.62 3.04 -0.68
-12.99 8.55 2.46
-8.47 5.57 1.97
-5.62 3.7 -0.35
-8.59 5.65 2.37
-12.69 8.35 -0.27
-13.97 9.19 4.48
-4.39 2.91 -1.41
-12.73 8.44 0.27
-4.4 2.92 -1.22
-29.78 19.74 1.87
-4.43 2.94 -1.03
-14.53 9.63 1.53
-0.87 0.58 -0.17
-9.65 6.4 1.42
-4.64 3.08 -0.68
-12.97 8.6 2.46
-15.81 10.48 3.69
-5.62 3.72 -0.35
-15.3 10.14 4.24
-29.81 19.77 -0.62
-13.48 8.94 4.34
-4.38 2.92 -1.41
-29.81 19.91 0.63
-4.4 2.94 -1.22
-29.84 19.93 1.88
-4.42 2.95 -1.03
-14.5 9.69 1.53
-0.86 0.58 -0.16
-9.64 6.44 1.42
-30.08 20.09 5.73
-12.75 8.51 2.98
-5.6 3.74 -0.35
-12.23 8.17 3.4
-10.04 6.7 -0.21
-13.18 8.8 4.25
-4.39 2.96 -1.42
-29.84 20.09 0.63
-4.4 2.96 -1.22
-11.92 8.03 0.75
-4.47 3.01 -1.05
-14.58 9.81 1.54
-0.85 0.57 -0.16
-30.08 20.25 4.45
-4.66 3.13 -0.69
-30.13 20.28 5.75
-12.76 8.59 2.99
-5.54 3.73 -0.35
-12.24 8.24 3.41
-29.84 20.09 -0.63
-7.9 5.31 2.55
-4.41 2.99 -1.43
-29.9 20.28 0.63
-4.4 2.98 -1.23
-11.91 8.07 0.75
-0.83 0.57 -0.2
-14.4 9.76 1.52
-0.85 0.58 -0.16
-30.12 20.42 4.47
-4.64 3.15 -0.69
-30.19 20.47 5.78
-4.84 3.28 -0.51
-12.86 8.72 3.02
-5.5 3.73 -0.35
-12.25 8.31 3.42
-13.81 9.37 -0.29
-7.97 5.4 2.58
-4.43 3.02 -1.44
-14.37 9.82 0.3
-4.41 3.01 -1.23
-11.92 8.14 0.76
-0.83 0.57 -0.2
-14.37 9.82 1.52
-0.85 0.58 -0.16
-30.18 20.62 4.49
-4.65 3.18 -0.69
-13.86 9.47 2.66
-4.83 3.3 -0.51
-12.79 8.74 3.01
-5.52 3.77 -0.35
-15.04 10.28 4.21
-12.78 8.73 -0.27
-13.04 8.91 4.23
-4.43 3.05 -1.44
-14.33 9.86 0.3
-4.42 3.04 -1.24
-0.84 0.58 -0.2
-14.35 9.87 1.52
-0.84 0.58 -0.16
-30.25 20.82 4.51
-4.65 3.2 -0.69
-12.68 8.73 2.44
-4.82 3.32 -0.51
-12.75 8.78 3.01
-5.47 3.77 -0.35
-13.66 9.4 3.83
-13.15 9.05 -0.28
-7.89 5.43 2.57
-4.44 3.08 -1.45
-12.51 8.68 0.27
-4.43 3.07 -1.24
-30.14 20.91 1.92
-0.83 0.58 -0.2
-14.31 9.92 1.52
-0.85 0.59 -0.16
-14.73 10.21 2.2
-14 9.71 2.7
-4.79 3.32 -0.51
-7.83 5.43 1.85
-5.43 3.77 -0.35
-7.67 5.32 2.16
-12.56 8.71 -0.27
-7.86 5.45 2.56
-4.44 3.1 -1.45
-14.23 9.94 0.3
-4.44 3.1 -1.25
-30.21 21.1 1.93
-0.82 0.57 -0.19
-11.78 8.23 1.26
-0.83 0.58 -0.16
-14.73 10.29 2.21
-13.92 9.72 2.69
-4.8 3.35 -0.51
-15.05 10.52 3.57
-5.44 3.8 -0.35
-9.41 6.58 2.65
-12.94 9.04 -0.28
-7.84 5.48 2.56
-4.45 3.13 -1.46
-30.22 21.27 0.65
-4.43 3.12 -1.25
-30.28 21.32 1.94
-0.83 0.59 -0.2
-11.79 8.3 1.26
-0.84 0.59 -0.16
-13.39 9.43 2.01
-6.35 4.47 -0.95
-13.01 9.16 2.52
-4.79 3.37 -0.51
-15.02 10.57 3.57
-5.43 3.83 -0.35
-14.43 10.16 4.07
-12.66 8.91 -0.27
-13.44 9.46 4.4
-4.47 3.17 -1.47
-30.3 21.49 0.65
-4.45 3.16 -1.26
-30.34 21.51 1.95
-0.81 0.58 -0.19
-11.8 8.37 1.27
-0.83 0.59 -0.16
-13.39 9.49 2.01
-6.31 4.47 -0.95
-13 9.22 2.52
-4.79 3.4 -0.51
-14.57 10.33 3.47
-5.38 3.82 -0.35
-8.16 5.78 2.31
-13.58 9.63 -0.29
-7.86 5.57 2.58
-4.47 3.19 -1.47
-12.5 8.93 0.27
-4.46 3.18 -1.26
-10.86 7.76 0.7
-0.8 0.57 -0.19
-14.27 10.2 1.53
-0.82 0.59 -0.16
-14.58 10.42 2.2
-9.89 7.07 1.93
-4.8 3.43 -0.52
-14.78 10.56 3.53
-5.37 3.84 -0.35
-8.14 5.82 2.31
-10.53 7.52 -0.23
-13.31 9.51 4.38
-4.48 3.22 -1.48
-10.49 7.55 0.23
-4.46 3.21 -1.27
-30.46 21.92 1.97
-0.8 0.58 -0.19
-14.09 10.14 1.52
-0.82 0.59 -0.16
-14.5 10.43 2.19
-12.87 9.26 2.51
-12.36 8.9 2.96
-5.36 3.86 -0.35
-14.24 10.25 4.05
-10.6 7.63 -0.23
-7.77 5.59 2.56
-4.49 3.25 -1.49
-10.55 7.65 0.23
-4.46 3.24 -1.27
-10.06 7.29 0.65
-14.72 10.67 1.59
-0.82 0.59 -0.16
-8.61 6.24 1.68
-8.49 6.15 2.04
-5.35 3.88 -0.35
-12.9 9.35 3.68
-13.17 9.55 -0.28
-13.1 9.49 4.33
-4.5 3.28 -1.49
-31.64 23.1 0.68
-4.46 3.26 -1.28
-30.59 22.33 1.98
-0.79 0.58 -0.19
-14.51 10.59 1.57
-0.81 0.59 -0.16
-14.21 10.38 2.16
-30.81 22.49 6.04
-6.49 4.74 -0.7
-12.18 8.89 2.93
-5.34 3.9 -0.35
-8.59 6.27 2.45
-10.48 7.65 -0.23
-7.79 5.69 2.58
-4.5 3.31 -1.5
-10.69 7.86 0.23
-4.48 3.3 -1.28
-10.47 7.7 0.68
-14.14 10.4 1.54
-0.81 0.6 -0.16
-14.21 10.45 2.17
-30.84 22.67 6.06
-6.48 4.76 -0.7
-5.32 3.91 -0.35
-10.5 7.72 -0.23
-11.61 8.53 3.86
-2.97 2.2 -0.99
-10.15 7.52 0.22
-4.49 3.33 -1.29
-30.73 22.77 2
-8.6 6.37 0.94
-0.81 0.6 -0.16
-8.53 6.32 1.3
-8.53 6.32 1.68
-8.59 6.37 2.08
-5.3 3.93 -0.35
-6.94 5.14 1.99
-10.39 7.7 -0.23
-7.68 5.69 2.56
-2.94 2.2 -0.98
-8.6 6.42 0.19
-4.51 3.36 -1.3
-8.57 6.4 0.56
-8.57 6.4 0.94
-0.81 0.6 -0.16
-8.51 6.35 1.3
-8.55 6.38 1.69
-7.38 5.5 1.79
-5.29 3.95 -0.35
-8.35 6.23 2.4
-8.63 6.44 -0.19
-11.95 8.92 4
-2.93 2.2 -0.98
-10.3 7.74 0.22
-4.51 3.39 -1.3
-8.57 6.44 0.56
-8.46 6.36 0.93
-0.8 0.6 -0.16
-12.89 9.69 1.98
-12.15 9.13 2.96
-5.29 3.98 -0.35
-8.52 6.41 2.46
-8.62 6.48 -0.19
-11.92 8.96 4
-2.91 2.21 -0.98
-10.44 7.9 0.23
-4.51 3.42 -1.31
-8.45 6.4 0.56
-13.95 10.56 1.53
-0.8 0.61 -0.16
-13.1 9.92 2.02
-8.49 6.43 1.69
-11.49 8.7 2.8
-5.27 3.99 -0.35
-12.69 9.61 3.68
-10.27 7.77 -0.22
-7.58 5.74 2.55
-2.91 2.22 -0.98
-8.47 6.46 0.19
-4.52 3.45 -1.31
-13.99 10.67 0.92
-13.54 10.33 1.49
-0.81 0.61 -0.16
-13.06 9.96 2.02
-12.3 9.38 2.45
-7.02 5.36 1.72
-5.26 4.01 -0.35
-12.92 9.86 3.75
-8.51 6.49 -0.19
-8.15 6.21 2.75
-2.89 2.22 -0.98
-4.53 3.48 -1.32
-13.94 10.71 0.92
-13.54 10.4 1.49
-0.8 0.61 -0.16
-11.85 9.1 1.83
-11.85 9.1 2.37
-11.41 8.76 2.8
-5.26 4.04 -0.35
-11.69 8.98 3.4
-8.47 6.51 -0.19
-11.89 9.13 4.02
-2.87 2.22 -0.97
-4.54 3.52 -1.33
-13.96 10.8 0.92
-11.88 9.19 1.31
-0.78 0.61 -0.16
-11.71 9.06 1.82
-9.5 7.35 1.9
-11.36 8.79 2.79
-5.27 4.08 -0.35
-11.7 9.05 3.41
-10.07 7.79 -0.22
-11.9 9.21 4.03
-2.85 2.22 -0.97
-10.21 7.96 0.23
-4.55 3.55 -1.33
-13.89 10.82 0.92
-11.87 9.25 1.32
-11.74 9.15 1.83
-11.65 9.08 2.34
-9.17 7.14 2.26
-5.27 4.1 -0.35
-8.97 6.99 2.62
-11.92 9.29 4.05
-2.85 2.23 -0.97
-4.56 3.58 -1.34
-13.85 10.87 0.92
-11.82 9.27 1.31
-0.78 0.62 -0.16
-11.69 9.17 1.82
-11.62 9.12 2.34
-8.91 6.99 2.2
-5.24 4.11 -0.35
-11.63 9.13 3.41
-10.04 7.88 -0.22
-11.95 9.38 4.07
-2.84 2.24 -0.97
-27.97 22.1 0.62
-4.57 3.61 -1.35
-13.62 10.77 0.91
-12.87 10.17 1.44
-0.78 0.62 -0.16
-9.4 7.43 1.47
-11.59 9.15 2.34
-9.35 7.38 2.32
-5.22 4.12 -0.35
-11.58 9.15 3.41
-9.66 7.63 -0.21
-12.12 9.58 4.14
-2.82 2.25 -0.97
-12.88 10.25 0.29
-4.58 3.65 -1.35
-13.46 10.71 0.9
-12.86 10.23 1.44
-0.77 0.62 -0.16
-11.62 9.25 1.82
-11.66 9.28 2.36
-9.37 7.46 2.33
-5.23 4.17 -0.35
-8.97 7.14 2.65
-9.69 7.72 -0.22
-11.91 9.48 4.08
-2.8 2.24 -0.96
-12.84 10.29 0.29
-4.6 3.68 -1.36
-13.34 10.69 0.9
-13.53 10.84 1.52
-0.78 0.62 -0.16
-11.53 9.25 1.82
-12.11 9.71 2.46
-8.99 7.21 2.24
-5.23 4.19 -0.35
-8.95 7.17 2.65
-9.53 7.64 -0.21
-7.67 6.15 2.63
-2.79 2.25 -0.96
-9.51 7.68 0.21
-4.6 3.71 -1.36
-13.18 10.64 0.89
-13.38 10.8 1.5
-0.8 0.64 -0.16
-11.52 9.3 1.82
-12.07 9.75 2.46
-4.91 3.96 -0.55
-7.42 6 1.86
-5.24 4.23 -0.35
-11.52 9.3 3.42
-9.6 7.75 -0.22
-11.77 9.5 4.05
-2.78 2.26 -0.96
-27.43 22.31 0.62
-3.12 2.53 -0.93
-13.78 11.2 0.93
-13.23 10.76 1.49
-4.72 3.83 -0.96
-11.34 9.22 1.79
-4.83 3.93 -0.76
-12.07 9.81 2.46
-4.92 4 -0.56
-9.5 7.73 2.38
-5.23 4.26 -0.35
-11.55 9.39 3.44
-9.62 7.83 -0.22
-7.68 6.24 2.65
-2.77 2.27 -0.96
-8.8 7.21 0.2
-3.1 2.54 -0.92
-13.9 11.38 0.94
-11.52 9.43 1.3
-4.66 3.81 -0.95
-11.28 9.24 1.79
-4.8 3.93 -0.76
-11.99 9.82 2.46
-4.93 4.03 -0.56
-7.27 5.95 1.83
-5.23 4.28 -0.35
-11.44 9.37 3.41
-12.73 10.43 4.41
-2.75 2.27 -0.96
-9.23 7.62 0.21
-3.09 2.55 -0.92
-13.7 11.3 0.93
-11.43 9.43 1.3
-4.64 3.82 -0.95
-27.17 22.41 4.32
-4.82 3.97 -0.77
-13.01 10.73 2.67
-4.92 4.06 -0.56
-7.23 5.96 1.82
-5.24 4.32 -0.36
-11.35 9.36 3.4
-9.49 7.83 -0.21
-7.65 6.31 2.66
-2.74 2.27 -0.95
-12.22 10.16 0.28
-3.07 2.55 -0.92
-13.65 11.34 0.93
-11.38 9.45 1.29
-4.64 3.86 -0.96
-27.05 22.47 4.32
-4.83 4.01 -0.77
-12.95 10.76 2.67
-4.96 4.12 -0.56
-7.25 6.02 1.83
-5.25 4.36 -0.36
-11.32 9.4 3.4
-9.37 7.78 -0.21
-12.65 10.51 4.41
-2.72 2.28 -0.95
-26.91 22.51 0.61
-3.05 2.55 -0.92
-13.65 11.42 0.93
-13.2 11.04 1.51
-4.62 3.86 -0.95
-26.91 22.51 4.31
-4.83 4.04 -0.77
-12.88 10.77 2.66
-6.85 5.73 1.74
-5.24 4.39 -0.36
-11.29 9.44 3.4
-8.24 6.9 -0.19
-12.65 10.58 4.42
-2.71 2.28 -0.95
-26.75 22.53 0.61
-3.03 2.55 -0.91
-13.65 11.49 0.94
-13.22 11.14 1.51
-4.66 3.92 -0.96
-26.76 22.54 4.3
-4.84 4.08 -0.78
-11.29 9.5 2.34
-10.97 9.24 2.79
-5.25 4.42 -0.36
-11.19 9.43 3.38
-8.21 6.91 -0.19
-12.6 10.61 4.41
-2.71 2.3 -0.95
-26.63 22.58 0.61
-3.02 2.56 -0.91
-13.47 11.42 0.93
-26.67 22.61 3.06
-4.66 3.95 -0.97
-26.63 22.58 4.29
-4.87 4.13 -0.78
-26.67 22.61 5.54
-9.28 7.86 2.36
-5.28 4.47 -0.36
-11.66 9.89 3.53
-9.31 7.9 -0.21
-7.3 6.19 2.56
-2.7 2.3 -0.95
-12.2 10.43 0.28
-3.01 2.57 -0.91
-13.31 11.37 0.92
-26.5 22.65 3.05
-4.68 4 -0.97
-26.48 22.63 4.28
-4.84 4.14 -0.78
-26.49 22.64 5.52
-9.25 7.91 2.37
-5.3 4.53 -0.37
-11.66 9.96 3.54
-9.31 7.96 -0.21
-7.29 6.23 2.57
-2.68 2.31 -0.95
-12.2 10.5 0.28
-2.98 2.57 -0.91
-13.33 11.47 0.92
-26.37 22.69 3.04
-4.68 4.03 -0.98
-26.35 22.67 4.27
-4.86 4.18 -0.79
-13.38 11.51 2.8
-26.37 22.69 6.76
-5.24 4.51 -0.36
-9.12 7.85 -0.21
-11.37 9.78 4.02
-2.67 2.31 -0.95
-26.23 22.72 0.61
-3 2.6 -0.92
-26.24 22.73 1.82
-26.24 22.73 3.04
-4.69 4.06 -0.98
-26.22 22.71 4.26
-4.86 4.21 -0.79
-26.24 22.73 5.5
-26.23 22.72 6.75
-5.34 4.63 -0.37
-7.27 6.3 2.22
-9.37 8.11 -0.22
-12.54 10.86 4.44
-2.66 2.32 -0.95
-26.09 22.75 0.6
-26.11 22.77 1.82
-12.94 11.28 1.5
-4.69 4.09 -0.99
-26.07 22.73 4.25
-4.88 4.25 -0.79
-26.1 22.76 5.49
-8.6 7.5 2.22
-5.37 4.68 -0.37
-8.74 7.62 2.68
-10.01 8.73 -0.23
-9.11 7.94 3.24
-2.65 2.33 -0.95
-25.93 22.78 0.6
-25.96 22.81 1.81
-12.95 11.38 1.51
-4.72 4.15 -1
-25.94 22.79 4.24
-4.86 4.27 -0.79
-8.63 7.59 1.82
-8.65 7.6 2.24
-9.45 8.31 -0.66
-8.65 7.59 2.66
-8.52 7.49 3.04
-2.64 2.33 -0.94
-10.2 9.02 0.24
-25.84 22.85 1.81
-25.83 22.85 3.02
-4.72 4.17 -1
-25.82 22.84 4.23
-4.87 4.31 -0.8
-10.96 9.69 2.32
-11.04 9.76 2.86
-5.73 5.07 -0.4
-8.7 7.7 2.68
-9.39 8.31 -0.22
-7.45 6.59 2.66
-2.62 2.34 -0.94
-25.7 22.91 0.6
-25.7 22.9 1.8
-25.69 22.9 3.01
-4.73 4.22 -1
-25.67 22.88 4.22
-4.87 4.34 -0.8
-10.89 9.7 2.31
-8.75 7.8 2.28
-9.14 8.14 -0.64
-8.42 7.5 2.6
-9.3 8.29 -0.22
-7.4 6.6 2.66
-2.61 2.34 -0.94
-25.56 22.93 0.6
-25.58 22.95 1.8
-25.57 22.94 3.01
-4.73 4.24 -1.01
-24.69 22.15 4.07
-4.88 4.38 -0.8
-10.86 9.75 2.31
-11.01 9.88 2.87
-9.19 8.25 -0.65
-8.51 7.64 2.64
-9.23 8.28 -0.22
-9.22 8.28 3.32
-2.6 2.35 -0.94
-25.42 22.97 0.6
-25.43 22.99 1.8
-11 9.94 1.3
-4.74 4.29 -1.01
-25.4 22.96 4.2
-4.89 4.42 -0.81
-10.72 9.69 2.29
-11 9.95 2.88
-19.19 17.34 -1.36
-7.06 6.38 2.2
-9.29 8.39 -0.22
-9.25 8.36 3.34
-2.6 2.36 -0.94
-25.3 23.02 0.6
-25.31 23.03 1.79
-10.98 9.99 1.3
-4.75 4.32 -1.02
-25.27 22.99 4.19
-4.89 4.45 -0.81
-10.61 9.66 2.27
-10.93 9.95 2.87
-7.82 7.12 -0.55
-6.66 6.06 2.08
-8.8 8.01 3.19
-2.58 2.37 -0.94
-25.16 23.07 0.6
-25.15 23.06 1.79
-10.96 10.05 1.3
-4.77 4.37 -1.03
-25.15 23.05 4.19
-4.9 4.49 -0.82
-10.62 9.74 2.28
-10.74 9.84 2.83
-8.28 7.59 -0.59
-8.69 7.96 3.16
-2.57 2.37 -0.94
-25.04 23.11 1.79
-10.89 10.04 1.3
-4.78 4.41 -1.03
-25.09 23.15 4.19
-4.91 4.53 -0.82
-10.76 9.93 2.32
-5.07 4.68 -0.6
-10.76 9.93 2.85
-9.76 9.01 -0.7
-7.02 6.48 2.21
-9.34 8.62 -0.22
-6.61 6.1 2.41
-2.55 2.37 -0.93
-9.57 8.89 0.68
-10.97 10.2 1.31
-4.78 4.45 -1.03
-10.73 9.98 1.8
-4.92 4.57 -0.82
-24.15 22.45 5.22
-5.08 4.72 -0.61
-10.69 9.93 2.84
-9.74 9.06 -0.7
-8.83 8.21 2.78
-8.96 8.33 -0.21
-8.64 8.03 3.16
-2.55 2.38 -0.93
-10.93 10.22 0.78
-10.97 10.26 1.31
-4.8 4.49 -1.04
-10.7 10.01 1.8
-4.92 4.6 -0.83
-10.94 10.24 2.37
-10.38 9.71 2.76
-9.74 9.11 -0.7
-8.89 8.32 2.81
-8.27 7.74 -0.2
-11.17 10.46 4.1
-2.54 2.39 -0.93
-25.1 23.65 1.81
-10.98 10.34 1.32
-4.81 4.53 -1.05
-25.31 23.85 4.27
-4.92 4.64 -0.83
-10.89 10.26 2.37
-9.7 9.14 -0.7
-8.91 8.4 2.83
-9.53 8.98 -0.23
-11.11 10.47 4.09
-2.53 2.4 -0.93
-22.38 21.23 0.54
-25.17 23.88 1.82
-10.95 10.39 1.32
-4.82 4.57 -1.05
-25.39 24.08 4.3
-4.93 4.68 -0.83
-25.6 24.28 6.86
-9.65 9.15 -0.7
-8.79 8.34 2.8
-9.75 9.25 -0.23
-11.15 10.57 4.12
-2.51 2.4 -0.93
-25.27 24.14 1.83
-10.95 10.46 1.33
-4.83 4.62 -1.06
-25.46 24.32 4.32
-4.94 4.72 -0.84
-23.48 22.43 5.14
-25.65 24.5 6.89
-8.9 8.5 2.84
-11.08 10.59 4.11
-2.5 2.41 -0.93
-25.34 24.37 1.84
-10.88 10.46 1.32
-3.26 3.14 -0.72
-23.67 22.76 4.03
-4.96 4.77 -0.84
-23.67 22.76 5.2
-5.17 4.97 -0.63
-23.62 22.71 6.37
-17.4 16.74 -1.27
-6.7 6.45 2.15
-9.2 8.85 -0.22
-11.07 10.64 4.11
-2.5 2.42 -0.93
-10.97 10.63 0.27
-25.41 24.63 1.85
-9.69 9.39 1.18
-3.26 3.16 -0.72
-23.49 22.76 4.02
-4.95 4.8 -0.85
-10.8 10.46 2.38
-5.15 4.99 -0.63
-25.82 25.02 6.99
-17.29 16.76 -1.26
-6.65 6.45 2.14
-11.08 10.74 4.14
-2.49 2.43 -0.93
-23.98 23.39 0.58
-8.95 8.73 0.66
-10.86 10.59 1.33
-3.25 3.17 -0.72
-9.92 9.67 1.7
-4.95 4.83 -0.85
-25.81 25.17 5.71
-5.18 5.06 -0.63
-25.89 25.26 7.03
-9.45 9.21 -0.69
-6.8 6.64 2.19
-11.07 10.8 4.14
-2.47 2.42 -0.93
-9.61 9.44 0.24
-23.46 23.06 1.72
-10.81 10.62 1.33
-3.22 3.16 -0.71
-9.92 9.75 1.71
-4.95 4.87 -0.85
-10.62 10.43 2.36
-5.18 5.09 -0.64
-23.32 22.92 6.36
-9.14 8.99 -0.67
-6.79 6.68 2.2
-9.3 9.14 -0.23
-10.87 10.68 4.08
-2.45 2.42 -0.92
-23.37 23.12 0.57
-25.65 25.37 1.89
-10.76 10.64 1.32
-3.21 3.17 -0.71
-25.9 25.62 4.47
-4.97 4.92 -0.86
-25.97 25.69 5.78
-5.2 5.14 -0.64
-11.74 11.62 3.21
-9.17 9.08 -0.68
-6.72 6.65 2.18
-9.3 9.2 -0.23
-11.07 10.95 4.17
-2.44 2.43 -0.92
-8.5 8.47 0.21
-25.72 25.62 1.9
-3.18 3.17 -0.71
-9.86 9.83 1.71
-4.99 4.97 -0.87
-10.52 10.48 2.35
-5.24 5.22 -0.65
-11.86 11.81 3.25
-9.29 9.26 -0.69
-6.75 6.72 2.2
-8.57 8.54 -0.21
-11.07 11.03 4.19
-2.43 2.43 -0.92
-10.44 10.47 0.26
-25.6 25.67 1.9
-10.73 10.76 1.33
-3.18 3.19 -0.71
-9.75 9.77 1.69
-5.01 5.02 -0.87
-10.6 10.62 2.38
-5.26 5.27 -0.65
-11.7 11.74 3.22
-8.95 8.98 -0.66
-6.66 6.68 2.18
-11.07 11.1 4.2
-2.43 2.45 -0.92
-24.21 24.46 0.6
-25.51 25.78 1.9
-10.6 10.71 1.32
-3.15 3.18 -0.71
-9.73 9.83 1.7
-5 5.05 -0.87
-26.24 26.51 5.91
-7.28 7.36 -0.91
-11.81 11.93 3.26
-9.06 9.16 -0.68
-6.69 6.76 2.2
-9.03 9.13 -0.22
-6.4 6.47 2.44
-2.42 2.46 -0.92
-8.7 8.85 0.22
-10.51 10.69 1.31
-3.11 3.16 -0.7
-10.3 10.48 1.8
-5.02 5.11 -0.88
-8.16 8.3 1.84
-7.2 7.32 -0.9
-7.27 7.4 2.02
-7.25 7.37 -0.54
-8.7 8.85 -0.22
-11.03 11.22 4.22
-2.4 2.46 -0.92
-9.16 9.38 0.23
-26.1 26.73 1.96
-10.78 11.04 1.35
-3.08 3.15 -0.7
-9.73 9.97 1.71
-3.28 3.36 -0.58
-10.48 10.74 2.38
-5.41 5.54 1.5
-7.19 7.37 -0.54
-5.46 5.6 1.81
-7.23 7.41 -0.18
-2.39 2.46 -0.92
-7.26 7.49 0.18
-26.19 27.01 1.97
-10.73 11.06 1.35
-3.06 3.16 -0.7
-10.06 10.38 1.78
-3.29 3.39 -0.58
-26.52 27.35 6.03
-6.66 6.87 -0.84
-5.38 5.55 1.5
-7.15 7.37 -0.54
-7.18 7.4 -0.18
-11.02 11.36 4.24
-2.39 2.49 -0.92
-7.18 7.46 0.18
-7.27 7.55 0.55
-26.42 27.45 3.33
-3.05 3.16 -0.7
-8.11 8.42 1.44
-3.27 3.4 -0.58
-10.32 10.72 2.36
-7.02 7.3 -0.89
-8 8.31 2.24
-7.09 7.36 -0.54
-6.58 6.83 2.19
-7.14 7.42 -0.18
-9.39 9.76 3.63
-2.38 2.49 -0.92
-7.13 7.46 0.18
-7.2 7.53 0.55
-26.48 27.7 3.35
-3.04 3.18 -0.7
-10.21 10.68 1.81
-3.24 3.39 -0.58
-9.98 10.44 2.29
-6.67 6.98 -0.84
-7.98 8.35 2.24
-7.03 7.35 -0.53
-6.54 6.84 2.18
-7.08 7.41 -0.18
-10.89 11.39 4.22
-2.37 2.49 -0.92
-7.07 7.45 0.18
-7.12 7.49 0.54
-7.19 7.57 0.91
-3.04 3.2 -0.7
-10.24 10.78 1.83
-3.22 3.39 -0.57
-8.02 8.45 1.85
-6.94 7.31 -0.88
-7.42 7.81 2.09
-7 7.37 -0.53
-7.96 8.38 2.67
-7.03 7.4 -0.18
-5.97 6.29 2.32
-2.36 2.51 -0.92
-7.04 7.46 0.18
-7.07 7.49 0.54
-7.12 7.55 0.91
-3.02 3.2 -0.7
-7.2 7.63 1.29
-3.22 3.41 -0.58
-9.65 10.23 2.23
-6.79 7.19 -0.87
-7.38 7.83 2.09
-6.96 7.38 -0.53
-6.99 7.41 2.35
-7 7.42 -0.18
-6.01 6.38 2.35
-2.35 2.51 -0.92
-7 7.48 0.18
-7.03 7.51 0.54
-7.06 7.54 0.9
-2.98 3.19 -0.69
-7.12 7.6 1.28
-3.21 3.43 -0.58
-9.97 10.65 2.31
-6.77 7.22 -0.87
-9.33 9.96 2.65
-6.93 7.4 -0.53
-7.95 8.49 2.69
-6.96 7.43 -0.18
-6.01 6.42 2.36
-2.34 2.52 -0.92
-6.98 7.5 0.18
-7.01 7.53 0.54
-7.02 7.55 0.9
-2.99 3.21 -0.69
-7.06 7.59 1.27
-7.13 7.67 1.66
-6.87 7.39 -0.88
-7.85 8.44 2.24
-6.9 7.42 -0.53
-7.01 7.54 2.38
-6.94 7.46 -0.18
-5.98 6.43 2.35
-6.95 7.53 0.18
-6.97 7.55 0.54
-7 7.58 0.9
-2.95 3.19 -0.69
-7.02 7.6 1.27
-7.06 7.64 1.65
-6.85 7.41 -0.88
-7.13 7.72 2.04
-6.89 7.46 -0.53
-11.52 12.47 3.92
-6.91 7.49 -0.18
-10.38 11.25 4.1
-6.94 7.56 0.18
-6.94 7.57 0.54
-6.97 7.6 0.9
-2.94 3.2 -0.69
-6.97 7.6 1.27
-7 7.63 1.64
-6.61 7.21 -0.86
-7.04 7.68 2.03
-6.47 7.05 -0.5
-5.69 6.21 1.94
-6.83 7.44 -0.18
-5.83 6.35 2.31
-6.91 7.59 0.18
-6.93 7.61 0.54
-6.94 7.62 0.9
-2.92 3.21 -0.69
-6.94 7.62 1.27
-6.97 7.65 1.64
-6.55 7.2 -0.85
-6.99 7.68 2.02
-6.87 7.55 -0.54
-5.7 6.26 1.95
-6.89 7.57 -0.18
-6.9 7.64 0.18
-6.91 7.64 0.54
-6.92 7.65 0.9
-6.91 7.64 1.27
-6.94 7.68 1.64
-6.7 7.41 -0.87
-5.27 5.82 1.53
-6.69 7.4 -0.52
-6.9 7.63 -0.18
-2.29 2.55 -0.92
-6.91 7.7 0.18
-6.9 7.68 0.54
-6.91 7.69 0.9
-2.88 3.2 -0.68
-6.89 7.67 1.27
-6.91 7.7 1.64
-6.33 7.05 -0.83
-6.9 7.69 2.01
-6.34 7.06 -0.5
-6.41 7.14 2.22
-6.93 7.72 -0.18
-5.83 6.49 2.34
-2.28 2.55 -0.92
-6.9 7.73 0.54
-6.9 7.74 0.91
-2.88 3.23 -0.69
-6.87 7.71 1.27
-6.89 7.72 1.64
-6.88 7.71 2.01
-6.32 7.09 -0.5
-6.91 7.75 2.4
-6.84 7.67 2.75
-2.26 2.56 -0.92
-8.85 10 0.23
-6.94 7.83 0.55
-6.91 7.81 0.91
-2.89 3.27 -0.69
-6.87 7.76 1.27
-6.85 7.74 1.64
-3.29 3.72 -0.43
-6.85 7.73 2.01
-8.63 9.75 -0.68
-6.88 7.77 2.4
-8.57 9.68 -0.23
-6.78 7.66 2.74
-2.25 2.56 -0.91
-9.78 11.12 0.26
-2.84 3.23 -0.68
-6.86 7.8 1.28
-6.84 7.77 1.64
-3.24 3.69 -0.43
-6.83 7.76 2.01
-6.17 7.02 -0.49
-6.86 7.8 2.4
-8.66 9.85 -0.23
-6.2 7.06 2.52
-2.24 2.56 -0.91
-8.85 10.14 0.23
-25.71 29.46 2.05
-2.81 3.22 -0.68
-6.87 7.87 1.28
-6.84 7.83 1.65
-3.22 3.68 -0.43
-6.8 7.79 2.01
-8.63 9.88 -0.69
-5.67 6.49 1.99
-9.69 11.09 -0.26
-6.2 7.1 2.53
-2.23 2.57 -0.91
-9.48 10.93 0.25
-25.58 29.51 2.05
-9.44 10.89 1.26
-2.8 3.23 -0.68
-6.87 7.92 1.29
-6.85 7.91 1.66
-3.19 3.68 -0.43
-6.79 7.83 2.01
-8.5 9.8 -0.68
-6.82 7.87 2.4
-8.48 9.78 -0.23
-6.19 7.14 2.53
-2.22 2.58 -0.91
-9.56 11.11 0.26
-9.78 11.36 0.79
-23.15 26.9 3.11
-2.76 3.21 -0.67
-6.83 7.94 1.29
-9.11 10.58 2.21
-3.17 3.68 -0.42
-6.79 7.89 2.02
-8.53 9.91 -0.69
-6.81 7.91 2.41
-8.78 10.2 -0.23
-6.79 7.89 2.79
-2.21 2.58 -0.91
-9.59 11.21 0.26
-9.66 11.3 0.78
-9.44 11.04 1.27
-2.75 3.22 -0.67
-6.8 7.95 1.28
-3.14 3.68 -0.42
-6.82 7.98 2.04
-9.48 11.08 -0.76
-6.82 7.98 2.42
-9.33 10.91 -0.25
-2.19 2.58 -0.91
-8.43 9.92 0.23
-25.16 29.63 2.04
-9.41 11.08 1.27
-2.76 3.24 -0.67
-6.78 7.99 1.29
-9.82 11.56 2.4
-3.12 3.68 -0.42
-7.59 8.94 2.28
-9.29 10.94 -0.75
-6.35 7.48 2.63
-2.19 2.59 -0.91
-9.07 10.76 0.25
-25.03 29.68 2.03
-10.14 12.02 1.38
-2.72 3.23 -0.67
-7.31 8.67 1.39
-9.85 11.68 2.42
-3.1 3.68 -0.42
-7.25 8.6 2.19
-9.26 10.98 -0.75
-7.71 9.14 2.76
-9.16 10.86 -0.25
-8.05 9.54 3.35
-2.18 2.61 -0.91
-9.49 11.33 0.26
-24.88 29.72 2.03
-7.22 8.62 0.98
-2.7 3.22 -0.67
-7.24 8.64 1.38
-7.38 8.82 1.82
-3.08 3.68 -0.42
-7.29 8.7 2.21
-9.08 10.85 -0.74
-6.1 7.29 2.19
-8.43 10.07 -0.23
-8.01 9.57 3.34
-2.18 2.62 -0.91
-22.42 26.97 0.61
-9.04 10.87 0.74
-2.69 3.24 -0.67
-3.06 3.68 -0.42
-9.08 10.92 -0.74
-7.62 9.16 2.75
-8.99 10.82 -0.25
-9.96 11.98 4.18
-8.96 10.86 0.25
-22.34 27.06 1.84
-7.18 8.69 0.99
-2.68 3.24 -0.67
-7.18 8.7 1.39
-9.12 11.05 2.27
-3.04 3.68 -0.42
-9.48 11.48 2.89
-6.33 7.67 -0.52
-7.69 9.31 2.79
-7.88 9.55 3.32
-2.21 2.7 -0.93
-22.2 27.09 0.61
-9.47 11.56 0.78
-2.67 3.25 -0.67
-7.28 8.89 1.41
-7.01 8.55 1.75
-3.01 3.67 -0.42
-9.58 11.68 2.94
-8.13 9.92 -0.67
-7.65 9.33 2.78
-9.12 11.13 -0.25
-8.51 10.38 3.6
-2.17 2.66 -0.92
-25.15 30.89 0.7
-9.41 11.56 0.78
-9.38 11.52 1.3
-2.69 3.3 -0.67
-7.25 8.9 1.41
-7.18 8.81 1.8
-3 3.68 -0.42
-9.52 11.7 2.93
-6.13 7.53 -0.51
-7.59 9.32 2.77
-8.98 11.03 -0.25
-5.83 7.16 2.48
-2.15 2.66 -0.92
-25.02 30.95 0.69
-24.19 29.92 2.02
-9.32 11.52 1.3
-2.66 3.29 -0.67
-7.32 9.05 1.43
-9.2 11.38 2.32
-2.98 3.68 -0.41
-9.43 11.66 2.91
-8.99 11.12 -0.75
-6.84 8.47 2.51
-8.89 11 -0.25
-7.39 9.14 3.15
-2.15 2.68 -0.92
-8.99 11.21 0.25
-8.96 11.17 0.75
-9.43 11.74 1.32
-9 11.21 1.77
-9.9 12.34 2.51
-2.96 3.69 -0.41
-7.37 9.18 2.29
-8.97 11.18 -0.75
-8.13 10.13 3
-9.15 11.4 -0.26
-5.84 7.27 2.5
-24.73 31.03 0.69
-8.4 10.54 0.71
-7.14 8.96 1
-21.23 26.64 4.18
-7.05 8.85 1.79
-2.94 3.69 -0.41
-7.23 9.08 2.26
-9.05 11.36 -0.76
-8.11 10.17 3
-7.41 9.29 3.18
-2.11 2.67 -0.91
-9.11 11.52 0.26
-8.36 10.58 0.71
-9.49 12 1.34
-8.64 10.92 1.71
-2.91 3.68 -0.41
-7.2 9.11 2.26
-8.97 11.35 -0.76
-18.88 23.88 7.03
-8.95 11.32 -0.25
-7.31 9.25 3.16
-2.09 2.67 -0.91
-24.44 31.13 0.69
-23.63 30.11 2.01
-9.28 11.82 1.32
-9.17 11.68 1.82
-7.3 9.3 1.87
-2.9 3.69 -0.41
-8.9 11.33 -0.75
-8.06 10.26 3.01
-8.75 11.15 -0.25
-5.56 7.08 2.41
-2.09 2.68 -0.91
-8.96 11.49 0.25
-9.24 11.84 1.31
-9.13 11.71 1.82
-2.83 3.63 -0.56
-7.26 9.31 1.87
-2.88 3.7 -0.41
-8.07 10.35 2.55
-9 11.54 -0.77
-18.55 23.78 6.96
-8.94 11.46 -0.25
-5.48 7.02 2.39
-2.07 2.67 -0.9
-23.41 30.24 0.67
-7.03 9.08 0.6
-21.15 27.32 3.02
-9.15 11.81 1.83
-2.79 3.6 -0.56
-7.07 9.13 1.83
-2.87 3.71 -0.41
-7.95 10.27 2.53
-8.98 11.6 -0.77
-6.96 8.99 2.62
-8.8 11.37 -0.25
-5.62 7.26 2.46
-2.06 2.69 -0.91
-23.23 30.22 2
-9.5 12.37 1.36
-2.55 3.32 -0.66
-6.89 8.96 1.39
-2.76 3.59 -0.56
-7.06 9.18 1.83
-2.85 3.71 -0.41
-9.02 11.74 2.88
-8.85 11.52 -0.76
-7.93 10.32 3
-8.73 11.36 -0.25
-7.18 9.35 3.16
-2.06 2.69 -0.91
-6.96 9.12 0.2
-23.1 30.28 2
-9.45 12.39 1.36
-2.53 3.31 -0.66
-6.91 9.06 1.4
-2.75 3.61 -0.56
-6.99 9.16 1.83
-2.83 3.71 -0.41
-8.97 11.76 2.88
-8.85 11.6 -0.76
-7.13 9.35 2.71
-5.19 6.81 2.29
-8.55 11.28 0.25
-19.04 25.14 1.65
-9.25 12.22 1.34
-2.54 3.35 -0.67
-6.92 9.14 1.41
-2.68 3.54 -0.55
-6.92 9.14 1.82
-2.81 3.71 -0.41
-9.37 12.37 3.02
-8.73 11.53 -0.76
-8.16 10.78 3.12
-6.91 9.12 -0.2
-19.04 25.33 0.55
-22.83 30.36 1.99
-6.8 9.04 0.99
-7.63 10.15 1.56
-2.67 3.55 -0.55
-7.71 10.26 2.03
-2.79 3.71 -0.41
-7.7 10.24 2.49
-8.64 11.5 -0.75
-7.8 10.38 3
-6.88 9.15 -0.2
-5.2 6.92 2.32
-7.52 10.07 0.22
-22.7 30.41 1.99
-2.4 3.21 -0.78
-6.83 9.14 1
-7.58 10.16 1.56
-2.66 3.57 -0.55
-8.85 11.86 2.34
-2.78 3.73 -0.41
-7.65 10.25 2.49
-6.83 9.15 -0.6
-9.08 12.16 3.5
-8.61 11.54 -0.25
-8.96 12.01 4.01
-6.76 9.13 0.6
-2.37 3.19 -0.77
-2.65 3.58 -0.55
-4.79 6.47 1.28
-2.77 3.74 -0.41
-7.87 10.62 2.57
-6.81 9.19 -0.6
-8.38 11.31 -0.25
-8.92 12.04 4.01
-6.75 9.17 0.2
-6.74 9.15 0.6
-6.83 9.28 1.01
-7.53 10.23 1.56
-2.64 3.58 -0.55
-4.78 6.5 1.28
-2.75 3.73 -0.41
-8.88 12.07 2.91
-6.76 9.18 -0.6
-8.51 11.56 3.31
-6.74 9.16 -0.2
-6.85 9.31 3.1
-6.74 9.22 0.2
-6.79 9.29 0.6
-21.06 28.83 3.12
-6.99 9.56 1.45
-2.63 3.61 -0.55
-4.76 6.52 1.28
-2.73 3.74 -0.41
-21.35 29.23 7.04
-6.73 9.21 -0.6
-17.75 24.3 6.95
-5.24 7.17 2.38
-6.65 9.16 0.2
-6.74 9.29 0.6
-7.31 10.07 1.09
-6.96 9.59 1.45
-2.61 3.6 -0.55
-9.66 13.32 2.61
-2.72 3.75 -0.41
-4.27 5.89 1.41
-8.4 11.58 -0.75
-6.17 8.51 2.43
-8.31 11.46 -0.25
-8.86 12.22 4.04
-2.58 3.59 -0.54
-9.22 12.81 2.5
-2.71 3.76 -0.41
-8.54 11.86 2.84
-8.26 11.47 -0.74
-6.12 8.5 2.42
-6.6 9.17 -0.2
-6.79 9.42 3.11
-19.8 27.7 0.59
-21.91 30.64 1.97
-6.77 9.47 1.02
-6.77 9.46 1.43
-2.58 3.6 -0.54
-9 12.58 2.45
-2.69 3.77 -0.41
-8.39 11.74 2.8
-8.33 11.65 -0.75
-6.09 8.52 2.42
-6.55 9.16 -0.2
-6.81 9.53 3.14
-8.17 11.52 0.25
-19.59 27.61 1.77
-6.85 9.65 1.03
-6.76 9.53 1.43
-6.77 9.54 1.85
-2.67 3.76 -0.4
-8.78 12.37 2.95
-6.51 9.18 -0.59
-6.08 8.56 2.42
-8 11.27 -0.24
-6.86 9.66 3.17
-7.58 10.76 0.23
-7.03 9.99 0.64
-6.85 9.73 1.04
-6.74 9.58 1.85
-2.65 3.77 -0.4
-8.87 12.6 2.99
-6.56 9.31 -0.6
-8.18 11.61 -0.25
-7.92 11.24 3.69
-8.04 11.5 0.24
-6.82 9.76 0.62
-8.09 11.58 1.24
-8.14 11.65 1.74
-7.26 10.38 2.01
-2.64 3.78 -0.4
-7.22 10.32 2.45
-6.52 9.33 -0.6
-8.32 11.9 3.35
-8.08 11.56 -0.25
-6.62 9.47 3.1
-6.87 9.9 0.21
-6.74 9.71 0.62
-8.04 11.59 1.23
-8.1 11.67 1.74
-7.2 10.37 2
-2.63 3.79 -0.4
-6.66 9.6 2.27
-6.48 9.34 -0.6
-8.27 11.91 3.35
-6.51 9.39 -0.2
-6.73 9.7 3.16
-6.78 9.85 0.21
-6.95 10.08 0.64
-8.02 11.65 1.24
-7.31 10.61 2.04
-2.61 3.79 -0.4
-6.64 9.64 2.28
-6.36 9.23 -0.59
-6.9 10.02 2.81
-6.45 9.36 -0.2
-6.65 9.72 0.21
-8.47 12.4 1.84
-9.18 13.43 2.58
-2.59 3.79 -0.4
-8.19 11.98 2.82
-6.65 9.73 -0.62
-6.56 9.6 2.68
-6.32 9.25 -0.2
-6.52 9.53 3.09
-6.41 9.45 0.2
-32.57 48.01 5.08
-8.25 12.16 1.8
-6.59 9.71 1.86
-2.58 3.81 -0.4
-6.59 9.71 2.28
-6.47 9.53 -0.6
-6.58 9.69 2.7
-6.57 9.69 -0.2
-6.48 9.55 3.09
-6.3 9.35 0.2
-20.86 30.98 1.96
-7.64 11.34 1.2
-8.57 12.72 1.88
-4.48 6.66 1.27
-2.57 3.82 -0.4
-6.58 9.77 2.29
-6.32 9.39 -0.59
-8.36 12.42 3.46
-7.18 10.67 -0.22
-7.66 11.46 0.72
-8.26 12.35 1.3
-17.88 26.74 3.95
-4.73 7.07 1.35
-2.56 3.83 -0.4
-8.65 12.93 3.02
-5.31 7.94 -0.5
-8.32 12.44 3.45
-7.6 11.36 -0.24
-6.6 9.88 3.18
-7.4 11.15 0.23
-6.22 9.37 0.59
-31.97 48.17 5.06
-7.39 11.13 1.64
-9.27 13.97 2.66
-2.54 3.83 -0.4
-8.44 12.71 2.97
-7.57 11.4 -0.72
-6.74 10.16 2.82
-6.28 9.46 -0.2
-9.29 13.99 4.5
-6.9 10.47 0.22
-6.27 9.51 0.6
-6.18 9.38 0.98
-5.91 8.97 1.32
-8.7 13.21 2.51
-2.53 3.83 -0.4
-8.28 12.56 2.92
-7.52 11.41 -0.72
-8.28 12.57 3.47
-6.25 9.49 -0.2
-6.58 9.99 3.2
-7.06 10.8 0.23
-7.37 11.28 0.71
-6.03 9.22 0.96
-6.63 10.15 1.49
-8.31 12.72 2.41
-2.51 3.84 -0.4
-8.08 12.37 2.87
-7.48 11.45 -0.72
-8.3 12.7 3.5
-6.36 9.73 3.12
-6.19 9.54 0.2
-6.17 9.51 0.59
-6.23 9.61 1
-7.15 11.03 1.61
-8.76 13.5 2.55
-2.5 3.85 -0.4
-8.32 12.82 2.97
-7.59 11.7 -0.73
-8.11 12.5 3.44
-7.15 11.02 -0.23
-6.57 10.13 3.24
-6.17 9.59 0.2
-20.08 31.21 1.95
-6.2 9.63 1
-6.38 9.92 1.45
-8.26 12.83 2.42
-2.49 3.86 -0.4
-8.41 13.08 3.02
-5.23 8.12 -0.51
-6.59 10.25 2.81
-7.01 10.89 -0.23
-6.64 10.33 3.29
-7.71 12.07 0.25
-19.96 31.26 1.94
-6.66 10.43 1.08
-7.39 11.57 1.69
-2.47 3.87 -0.4
-8.46 13.24 3.05
-5.13 8.03 -0.5
-17.97 28.14 7.71
-6.82 10.68 -0.22
-3.79 5.93 1.89
-19.92 31.44 0.65
-6.11 9.64 0.6
-6.23 9.83 1.02
-7.52 11.87 1.73
-2.45 3.87 -0.4
-7.91 12.48 2.87
-6.12 9.66 -0.6
-6.51 10.28 2.81
-7.65 12.08 -0.25
-7.88 12.44 3.95
-6.87 10.92 0.23
-6.09 9.68 0.6
-6.12 9.74 1.01
-3.98 6.32 0.92
-8.13 12.93 2.42
-2.44 3.89 -0.4
-8.36 13.29 3.05
-5.15 8.2 -0.51
-6.48 10.3 2.81
-7.69 12.22 -0.25
-18.07 28.74 9.1
-7.24 11.6 0.72
-6.08 9.75 1.01
-6.06 9.71 1.4
-7.77 12.45 2.32
-2.43 3.9 -0.4
-6.2 9.93 2.28
-6.02 9.64 -0.6
-5.35 8.57 2.33
-5.12 8.2 -0.17
-5.03 8.06 2.55
-7.15 11.54 0.24
-6.05 9.76 0.6
-6.09 9.83 1.01
-6.1 9.86 1.42
-4.3 6.95 1.29
-2.42 3.91 -0.4
-6.08 9.82 2.67
-4.69 7.58 2.39
-7.09 11.53 0.24
-6.17 10.03 0.62
-5.93 9.65 0.99
-4.41 7.17 1.33
-2.41 3.91 -0.4
-5.19 8.44 -0.52
-6.08 9.89 2.68
-5.93 9.66 -0.2
-5.88 9.63 0.2
-19.21 31.5 1.93
-5.99 9.83 1.01
-7.11 11.67 1.68
-5.81 9.53 1.77
-2.39 3.92 -0.4
-4.18 6.86 1.56
-5.87 9.62 -0.59
-6.05 9.92 2.68
-4.74 7.77 2.44
-5.95 9.83 0.2
-5.84 9.65 0.59
-5.81 9.6 0.98
-5.78 9.56 1.37
-7.87 13 2.41
-2.38 3.93 -0.4
-4.15 6.87 1.56
-6.96 11.51 -0.7
-4.75 7.86 2.12
-6.84 11.3 -0.23
-4.67 7.72 2.42
-5.87 9.78 0.2
-5.79 9.65 0.59
-6.99 11.65 1.19
-5.93 9.89 1.42
-5.86 9.77 1.8
-2.37 3.95 -0.4
-4.02 6.7 1.52
-6.9 11.5 -0.7
-3.85 6.41 1.73
-5.95 9.9 -0.2
-4.68 7.79 2.44
-5.83 9.79 0.6
-6.05 10.17 1.04
-5.72 9.61 1.37
-5.85 9.83 1.81
-2.36 3.96 -0.4
-4.01 6.73 1.52
-6.67 11.2 -0.68
-3.85 6.46 1.74
-6 10.08 -0.2
-4.66 7.83 2.44
-5.74 9.71 0.2
-5.82 9.85 0.6
-2.02 3.42 -0.77
-6.01 10.18 1.45
-4.72 8 1.47
-2.35 3.97 -0.4
-6.5 11 -0.67
-4.64 7.85 2.11
-4.64 7.85 2.44
-6.96 11.89 0.24
-5.9 10.06 0.61
-1.99 3.4 -0.77
-26.18 44.67 4.53
-4.72 8.05 1.15
-4.67 7.97 1.46
-2.33 3.97 -0.4
-4.64 7.92 1.78
-6.52 11.12 -0.68
-3.78 6.45 1.73
-5.96 10.17 -0.21
-4.42 7.55 2.34
-4.75 8.17 0.17
-7.1 12.22 0.74
-1.99 3.42 -0.77
-4.7 8.09 0.82
-4.67 8.03 1.14
-2.21 3.81 -0.54
-4.63 7.97 1.46
-2.32 3.99 -0.4
-4.61 7.92 1.78
-3.77 6.48 1.73
-5.92 10.17 -0.21
-4.71 8.16 0.16
-4.7 8.14 0.49
-1.97 3.41 -0.77
-4.66 8.07 0.82
-4.63 8.02 1.14
-2.19 3.79 -0.54
-4 6.94 1.27
-2.31 4 -0.4
-4.59 7.95 1.78
-5.97 10.35 -0.63
-5.95 10.31 2.75
-4.73 8.2 -0.17
-6.13 10.62 3.29
-4.67 8.15 0.16
-4.65 8.11 0.49
-1.96 3.42 -0.77
-4.62 8.07 0.81
-2.05 3.58 -0.65
-4.6 8.03 1.14
-2.19 3.82 -0.54
-4.58 8 1.46
-2.3 4.02 -0.4
-4.73 8.27 -0.5
-4.68 8.17 -0.16
-4.63 8.16 0.16
-1.95 3.43 -0.77
-4.59 8.08 0.81
-2.04 3.58 -0.65
-4.57 8.05 1.14
-2.18 3.83 -0.54
-4.56 8.02 1.46
-2.29 4.03 -0.41
-4.52 7.96 1.78
-4.68 8.25 -0.5
-4.48 7.89 2.1
-4.64 8.17 -0.16
-4.57 8.05 2.48
-4.61 8.18 0.16
-1.94 3.44 -0.77
-4.57 8.11 0.81
-2.02 3.59 -0.65
-4.55 8.08 1.14
-4.55 8.07 1.47
-2.27 4.04 -0.41
-4.48 7.96 1.78
-4.65 8.25 -0.5
-3.66 6.49 1.72
-4.61 8.18 -0.16
-4.55 8.08 2.49
-4.59 8.21 0.16
-4.57 8.18 0.49
-1.93 3.46 -0.77
-4.56 8.16 0.82
-2.01 3.6 -0.65
-5.73 10.25 1.44
-2.12 3.8 -0.53
-2.26 4.05 -0.41
-4.44 7.95 1.77
-4.62 8.28 -0.5
-3.62 6.49 1.72
-4.59 8.21 -0.16
-4.49 8.04 2.47
-6.31 11.38 0.23
-4.14 7.47 0.45
-1.94 3.49 -0.78
-5.78 10.42 1.04
-2.01 3.63 -0.66
-6.49 11.71 1.64
-2.09 3.78 -0.53
-2.26 4.08 -0.41
-4.43 7.99 1.77
-4.6 8.3 -0.5
-4.48 8.09 2.13
-4.58 8.26 -0.16
-3.4 6.13 1.88
-6.43 11.71 0.23
-1.91 3.47 -0.77
-6.81 12.4 1.24
-1.98 3.6 -0.65
-5.75 10.46 1.47
-2.09 3.79 -0.53
-4.52 8.22 1.49
-2.25 4.1 -0.41
-3.68 6.7 1.49
-4.58 8.34 -0.5
-4.36 7.94 2.09
-6.51 11.85 -0.24
-4.2 7.64 2.34
-5.94 10.9 0.22
-1.88 3.45 -0.76
-6.52 11.96 1.19
-1.97 3.62 -0.65
-6.21 11.39 1.59
-2.09 3.83 -0.54
-4.48 8.21 1.48
-2.25 4.14 -0.41
-5.34 9.79 2.17
-6.62 12.13 -0.72
-4.31 7.9 2.08
-6.7 12.4 0.25
-6.71 12.42 0.74
-1.88 3.47 -0.77
-6.13 11.35 1.13
-1.96 3.63 -0.65
-6.16 11.41 1.59
-2.09 3.87 -0.54
-2.27 4.2 -0.42
-5.11 9.45 2.09
-6.22 11.52 -0.69
-4.27 7.9 2.07
-5.34 9.89 3.01
-6.61 12.33 0.24
-17.22 32.12 1.91
-1.88 3.5 -0.77
-1.96 3.65 -0.66
-24.26 45.25 6.3
-5.6 10.44 1.88
-2.28 4.25 -0.42
-4.97 9.26 2.04
-5.56 10.38 -0.62
-3.5 6.52 1.71
-6.57 12.25 -0.24
-5.27 9.82 2.99
-6 11.29 0.22
-5.05 9.51 0.56
-1.87 3.52 -0.77
-16 30.11 2.98
-1.96 3.69 -0.66
-6.51 12.25 1.7
-5.88 11.07 -1.54
-15.49 29.14 5.23
-2.3 4.33 -0.43
-4.94 9.3 2.05
-6.4 12.05 -0.72
-5.93 11.16 -0.22
-5.26 9.89 3
-6.22 11.8 0.23
-6.6 12.52 0.74
-1.87 3.55 -0.78
-15.72 29.81 2.95
-4.13 7.83 -1.4
-5.99 11.36 1.58
-4.5 8.53 1.53
-2.32 4.4 -0.43
-6.41 12.17 -0.72
-4.18 7.93 2.07
-5.83 11.05 -0.22
-4.01 7.6 2.3
-6.47 12.38 0.24
-5.89 11.26 0.67
-1.88 3.59 -0.79
-6.62 12.67 1.25
-4.17 7.98 1.11
-15.66 29.96 5.36
-2.36 4.52 -0.45
-4.43 8.47 -0.5
-4.16 7.96 2.07
-6.39 12.22 -0.24
-5.21 9.97 3.01
-6.56 12.64 0.25
-5.61 10.81 0.64
-1.93 3.72 -0.82
-6.25 12.05 1.19
-12.92 24.92 3.45
-13.95 26.91 4.8
-2.36 4.54 -0.45
-5.9 11.37 -0.67
-6.39 12.31 -0.24
-6.39 12.44 0.24
-16.61 32.31 1.9
-1.86 3.62 -0.79
-5.77 11.22 1.1
-4.76 9.27 -1.65
-23.4 45.53 6.29
-13.87 27 4.81
-2.37 4.61 -0.45
-6.15 11.96 -0.7
-3.68 7.17 1.86
-6.38 12.41 -0.24
-4.15 8.07 2.43
-6.37 12.49 0.24
-6.03 11.83 0.7
-1.84 3.61 -0.79
-5.75 11.27 1.11
-23.23 45.58 6.28
-4.75 9.31 -1.28
-4.14 8.11 1.44
-6.22 12.19 -1.2
-4.52 8.86 1.93
-6.22 12.2 -0.72
-4.92 9.65 2.9
-6.3 12.49 0.24
-6.32 12.53 0.74
-1.82 3.61 -0.79
-23.05 45.68 4.48
-4 7.92 1.09
-4.66 9.24 -1.27
-4.15 8.23 1.46
-2.46 4.87 -0.48
-4.49 8.89 1.94
-5.84 11.58 -0.68
-4.68 9.27 2.4
-3.06 6.06 1.82
-5.46 10.9 0.21
-16.24 32.45 1.9
-1.81 3.61 -0.78
-3.88 7.74 0.76
-3.97 7.93 1.09
-2.26 4.51 -0.62
-3.33 6.65 1.18
-4.42 8.83 1.92
-5.05 10.09 2.6
-5.69 11.37 -0.22
-3.9 7.78 2.33
-6.12 12.33 0.24
-16.13 32.5 1.9
-1.8 3.62 -0.79
-3.87 7.79 1.07
-2.26 4.54 -0.62
-2.51 5.06 -0.49
-5.98 12.05 -0.7
-3.68 7.42 1.91
-6.26 12.62 -0.25
-3.84 7.74 2.32
-12.45 25.3 0.49
-12.37 25.13 1.47
-1.8 3.65 -0.79
-3.62 7.36 0.72
-5.45 11.07 -1.96
-2.28 4.62 -0.63
-5.74 11.66 2.06
-2.54 5.16 -0.5
-13.54 27.5 5.96
-6.16 12.51 -0.73
-3.64 7.39 1.9
-6.13 12.46 -0.24
-3.81 7.74 2.31
-6.17 12.66 0.25
-6.04 12.39 0.72
-1.79 3.68 -0.8
-12.03 24.66 3.37
-11.74 24.06 4.24
-2.57 5.27 -0.51
-4.3 8.82 1.91
-5.79 11.87 -0.69
-4.99 10.22 2.63
-6.03 12.36 -0.24
-4.89 10.02 2.99
-5.75 11.89 0.23
-3.8 7.86 0.46
-1.79 3.7 -0.8
-5.86 12.13 1.18
-2.19 4.52 -0.8
-5.42 11.2 1.53
-2.36 4.87 -0.66
-2.57 5.31 -0.52
-4.35 9 1.94
-5.8 11.99 -0.7
-5.8 11.99 3.08
-5.98 12.36 -0.24
-4.89 10.11 3.01
-5.9 12.31 0.24
-11.43 23.85 1.39
-1.79 3.73 -0.8
-5.79 12.09 1.17
-2.17 4.52 -0.79
-11.37 23.73 3.23
-2.37 4.95 -0.67
-11.46 23.91 4.2
-5.68 11.86 -1.15
-3.43 7.15 1.54
-5.39 11.26 -0.65
-5.75 12 3.07
-5.96 12.44 -0.24
-5.6 11.69 3.47
-12.05 25.38 0.49
-15.55 32.75 1.9
-1.79 3.77 -0.81
-3.77 7.93 0.77
-2.18 4.59 -0.81
-4.04 8.5 1.16
-2.41 5.08 -0.69
-11.35 23.9 4.19
-5.31 11.17 -1.08
-3.38 7.12 1.53
-5.74 12.09 -0.7
-4.41 9.29 2.37
-5.52 11.62 -0.22
-5.96 12.67 0.24
-15.44 32.8 1.9
-2.05 4.36 -0.94
-3.74 7.95 -1.39
-3.27 6.96 0.94
-2.45 5.2 -0.71
-4.02 8.55 1.5
-5.21 11.06 -1.07
-3.36 7.14 1.53
-5.24 11.12 -0.64
-15.43 32.77 -0.63
-3.01 6.39 1.89
-15.33 32.86 0.63
-15.33 32.86 1.9
-2.09 4.48 -0.96
-11.57 24.8 2.39
-2.26 4.85 -0.85
-21.52 46.13 6.25
-2.49 5.33 -0.72
-11.86 25.41 4.44
-5.55 11.89 -1.15
-4.88 10.45 2.24
-5.7 12.22 -0.71
-5.8 12.43 -0.24
-5.48 11.74 3.47
-5.13 11.1 0.21
-5.68 12.28 0.71
-2.09 4.53 -0.97
-11.71 25.33 2.44
-2.27 4.91 -0.86
-11.41 24.68 3.34
-2.51 5.42 -0.73
-5.46 11.81 2.06
-5.35 11.57 -1.12
-11.99 25.94 5.56
-5.12 11.08 -0.64
-5.41 11.71 -0.23
-4.77 10.32 3.05
-5.7 12.45 0.24
-11.13 24.3 1.4
-2.12 4.64 -0.99
-11.89 25.96 2.5
-2.29 5.01 -0.87
-3.09 6.75 0.91
-5.03 10.99 -1.48
-5.42 11.82 2.06
-5.39 11.77 -1.13
-4.81 10.5 2.24
-5.59 12.19 -0.7
-11.97 26.12 6.63
-5.82 12.71 -0.24
-3.73 8.13 2.4
-5.59 12.31 0.24
-14.98 33.01 1.9
-2.16 4.76 -1.02
-3.33 7.34 0.7
-2.32 5.11 -0.89
-3.19 7.03 0.95
-4.99 11 -1.48
-11.06 24.37 4.24
-5.24 11.54 -1.11
-4.01 8.83 1.88
-5.54 12.2 -0.7
-11.83 26.06 6.61
-5.64 12.43 -0.24
-5.36 11.81 3.48
-5.16 11.48 0.22
-14.85 33.02 1.9
-2.21 4.91 -1.05
-3.22 7.16 0.69
-2.36 5.25 -0.91
-12.14 26.99 3.63
-4.96 11.02 -1.48
-12.5 27.79 4.83
-5.17 11.49 -1.1
-3.88 8.62 1.84
-5.27 11.71 -0.67
-4.88 10.85 2.75
-11.12 24.73 -0.47
-4.75 10.56 3.1
-13.47 30.24 0.58
-3.38 7.58 0.44
-2.27 5.1 -1.09
-3.4 7.62 0.73
-2.42 5.44 -0.94
-20.66 46.38 6.23
-4.91 11.02 -1.48
-10.93 24.53 4.25
-5.12 11.5 -1.1
-3.18 7.13 1.52
-4.82 10.83 2.74
-5.16 11.58 -0.22
-4.66 10.46 3.07
-5.45 12.35 0.24
-3.35 7.59 0.43
-2.28 5.16 -1.1
-3.99 9.05 -1.57
-12.27 27.81 3.73
-4.87 11.03 -1.48
-10.91 24.72 4.28
-5.29 11.98 -1.15
-3.16 7.17 1.52
-5.35 12.12 -0.69
-4.79 10.85 2.74
-10.96 24.83 -0.47
-3.62 8.2 2.4
-13.29 30.4 0.58
-14.48 33.13 1.89
-2.28 5.22 -1.11
-12.16 27.81 2.66
-3.94 9.02 -1.56
-12.17 27.84 3.73
-4.83 11.05 -1.48
-10.82 24.75 4.28
-5.04 11.54 -1.1
-5.14 11.75 -0.67
-11.85 27.12 6.83
-5.36 12.27 -0.23
-4.74 10.84 3.17
-11.96 27.62 0.53
-4.98 11.49 0.66
-2.43 5.62 -1.19
-11.86 27.39 2.61
-3.91 9.02 -1.56
-11.18 25.81 3.45
-4.79 11.06 -1.48
-11.77 27.19 4.69
-5.32 12.28 -1.17
-11.82 27.3 5.78
-11.51 26.57 6.69
-5.1 11.78 -0.22
-4.47 10.32 3.01
-11.86 27.66 0.53
-5.34 12.46 0.71
-2.41 5.63 -1.19
-11.76 27.44 2.61
-3.87 9.02 -1.55
-11.67 27.22 3.64
-4.75 11.09 -1.48
-11.62 27.09 4.67
-4.9 11.43 -1.09
-3.87 9.02 1.91
-11.55 26.93 6.77
-5.29 12.33 -0.23
-4.59 10.72 3.12
-5.26 12.38 0.23
-5.28 12.43 0.71
-2.95 6.95 -1.47
-14.06 33.11 3.15
-3.83 9.03 -1.55
-11.7 27.54 3.67
-4.71 11.1 -1.48
-12.52 29.48 5.07
-3.04 7.16 1.51
-4.43 10.42 2.61
-4.75 11.19 -0.21
-4.26 10.02 2.92
-14 33.28 0.63
-5.24 12.47 0.71
-2.93 6.98 -1.47
-13.93 33.13 3.14
-3.8 9.03 -1.55
-11.81 28.07 3.74
-4.67 11.1 -1.48
-4.54 10.79 1.85
-4.91 11.67 -1.11
-3.03 7.2 1.52
-4.81 11.43 -0.65
-4.36 10.37 2.6
-5.23 12.42 -0.24
-4.59 10.91 3.17
-13.83 33.2 0.63
-13.82 33.18 1.88
-2.91 6.99 -1.47
-13.82 33.18 3.14
-3.77 9.04 -1.55
-19.48 46.76 6.22
-4.63 11.11 -1.48
-11.55 27.72 4.76
-5.15 12.36 -1.17
-3.71 8.89 1.87
-11.12 26.7 6.68
-5.26 12.64 -0.24
-4.26 10.22 2.97
-13.7 33.23 0.63
-13.7 33.23 1.88
-2.87 6.97 -1.47
-5.12 12.42 1.18
-3.72 9.02 -1.55
-10.66 25.85 3.43
-4.58 11.11 -1.48
-11.4 27.63 4.73
-4.76 11.55 -1.09
-4.85 11.75 -0.67
-4.5 10.91 2.73
-4.57 11.09 -0.21
-4.25 10.31 2.99
-13.58 33.26 0.63
-13.58 33.26 1.88
-2.84 6.95 -1.46
-13.58 33.24 3.14
-3.68 9.02 -1.54
-19.14 46.87 6.22
-4.55 11.13 -1.48
-12.05 29.49 5.05
-4.84 11.85 -1.12
-11.05 27.07 5.68
-4.73 11.58 -0.66
-4.3 10.54 2.63
-5.16 12.64 -0.24
-4.22 10.33 2.99
-13.47 33.3 0.63
-13.47 33.31 1.88
-2.81 6.95 -1.46
-13.46 33.29 3.14
-3.67 9.08 -1.55
-11.47 28.35 3.76
-4.5 11.14 -1.47
-10.99 27.18 4.64
-4.82 11.93 -1.13
-4.15 10.26 2.15
-4.81 11.89 -0.67
-4.3 10.63 2.65
-4.17 10.32 2.98
-13.37 33.4 0.63
-5.14 12.84 0.72
-2.79 6.96 -1.46
-11.08 27.68 2.61
-3.65 9.11 -1.55
-18.81 46.98 6.21
-4.46 11.14 -1.47
-11.16 27.86 4.75
-4.6 11.5 -1.08
-3.6 8.98 1.88
-4.69 11.7 -0.66
-3.43 8.57 2.13
-4.65 11.62 -0.22
-3.5 8.74 2.52
-4.99 12.59 0.24
-2.64 6.65 -1.65
-13.24 33.41 1.88
-2.77 6.98 -1.46
-13.21 33.32 3.14
-3.61 9.11 -1.55
-11.8 29.78 3.93
-4.41 11.13 -1.47
-4.16 10.5 1.79
-4.6 11.6 -1.09
-3.57 9.01 1.88
-4.42 11.14 -0.63
-4.3 10.84 2.69
-4.52 11.42 -0.21
-4.15 10.48 3.02
-5.04 12.83 0.24
-5.06 12.9 0.73
-2.76 7.04 -1.47
-3.03 7.72 0.73
-3.54 9.02 -1.54
-2.94 7.5 0.99
-4.35 11.09 -1.46
-10.48 26.72 4.55
-4.61 11.75 -1.1
-4.11 10.46 2.18
-4.72 12.02 -0.68
-4.59 11.7 2.9
-4.82 12.28 -0.23
-4.81 12.4 0.23
-4.98 12.83 0.72
-2.74 7.04 -1.47
-2.98 7.68 0.72
-3.48 8.96 -1.52
-18.31 47.15 6.21
-4.31 11.09 -1.46
-10.46 26.95 4.58
-4.56 11.74 -1.1
-3.65 9.4 1.96
-4.65 11.97 -0.67
-4.5 11.58 -0.22
-4 10.31 2.96
-4.32 11.24 0.21
-4.95 12.87 0.72
-2.71 7.06 -1.47
-3.45 8.99 -1.53
-10.62 27.64 3.64
-4.26 11.08 -1.46
-10.3 26.79 4.55
-4.53 11.78 -1.1
-3.49 9.09 1.89
-4.74 12.32 -0.69
-3.71 9.65 2.39
-9.64 25.09 -0.47
-3.91 10.18 2.92
-14.98 39.39 0.74
-15.25 40.11 2.25
-2.7 7.1 -1.48
-17.98 47.29 4.43
-3.43 9.03 -1.53
-17.97 47.25 6.21
-4.22 11.1 -1.46
-10.25 26.94 4.57
-4.46 11.74 -1.1
-4.51 11.87 -0.67
-4.43 11.66 2.88
-4.5 11.84 -0.22
-3.85 10.12 2.9
-4.39 11.67 0.22
-4.27 11.35 0.64
-2.68 7.11 -1.48
-10.23 27.19 2.54
-3.41 9.05 -1.53
-17.8 47.32 6.21
-4.19 11.14 -1.46
-3.99 10.6 1.79
-4.42 11.74 -1.1
-4.19 11.14 2.31
-4.35 11.55 2.85
-4.8 12.77 -0.24
-17.66 47.42 0.88
-4.69 12.59 0.7
-2.63 7.06 -1.46
-17.73 47.63 4.45
-3.37 9.05 -1.53
-17.63 47.36 6.2
-4.17 11.2 -1.47
-3.94 10.58 1.79
-4.64 12.46 -1.16
-4.16 11.17 2.32
-4.33 11.64 -0.65
-4.33 11.64 2.87
-4.41 11.83 -0.22
-4.71 12.78 0.71
-2.58 7.01 -1.45
-9.97 27.07 2.52
-3.08 8.37 -1.41
-2.87 7.79 1.02
-3.03 8.23 -1.08
-10.22 27.75 4.68
-4.37 11.86 -1.11
-4.34 11.78 -0.66
-4.31 11.71 2.88
-4.82 13.09 -0.24
-4.6 12.63 0.23
-4.66 12.8 0.71
-2.52 6.92 -1.43
-3.33 9.15 -1.54
-2.73 7.49 0.98
-3 8.23 -1.07
-10.06 27.61 4.65
-4.25 11.67 -1.09
-3.44 9.44 1.95
-4.24 11.65 -0.65
-4.21 11.56 2.84
-4.54 12.45 -0.23
-4.55 12.63 0.23
-17.14 47.55 2.65
-2.51 6.97 -1.44
-2.97 8.24 -1.39
-17.12 47.51 6.2
-2.95 8.19 -1.07
-9.9 27.46 4.62
-4.31 11.97 -1.11
-3.4 9.43 1.95
-4.23 11.74 -0.65
-3.16 8.77 2.15
-4.51 12.53 -0.23
-4.6 12.92 0.24
-4.47 12.53 0.7
-2.51 7.04 -1.45
-9.79 27.47 2.55
-2.97 8.33 -1.4
-3.57 10.02 1.31
-2.98 8.35 -1.09
-9.84 27.62 4.64
-4.22 11.83 -1.1
-3.37 9.46 1.95
-4.1 11.5 -0.64
-4.13 11.58 2.84
-4.02 11.27 -0.21
-4.54 12.88 0.24
-16.8 47.67 2.65
-2.48 7.04 -1.45
-2.67 7.57 0.7
-2.93 8.32 -1.4
-16.79 47.62 6.2
-2.88 8.18 -1.06
-9.87 27.99 4.7
-4.12 11.68 -1.08
-4.17 11.82 -0.66
-3.14 8.92 2.18
-4.45 12.62 -0.23
-3.91 11.21 0.21
-16.65 47.72 2.65
-2.46 7.05 -1.45
-2.89 8.28 0.77
-2.88 8.26 -1.39
-2.65 7.59 0.99
-3.89 11.17 -1.45
-9.72 27.87 4.67
-4.07 11.66 -1.08
-3.31 9.48 1.95
-4.21 12.08 -0.67
-16.47 47.76 0.88
-16.47 47.76 2.65
-2.42 7 -1.44
-2.87 8.32 0.77
-2.84 8.24 -1.38
-16.46 47.72 6.2
-3.84 11.14 -1.45
-4.07 11.81 -1.09
-4.09 11.86 -0.66
-3.07 8.89 2.17
-4.29 12.42 -0.23
-3.95 11.59 0.21
-16.31 47.82 2.65
-2.39 7 -1.44
-3.34 9.81 0.91
-3.19 9.36 -1.57
-16.29 47.77 6.2
-3.8 11.14 -1.45
-2.48 7.28 1.22
-4.01 11.75 -1.09
-4.01 11.75 -0.65
-3.02 8.86 2.16
-4.05 11.89 -0.22
-16.14 47.88 0.88
-4.36 12.93 0.72
-2.36 7 -1.43
-3.28 9.74 0.9
-16.12 47.82 6.2
-3.77 11.19 -1.45
-4.05 12.01 -1.11
-2.78 8.26 -0.46
-3.91 11.61 -0.21
-15.97 47.93 2.65
-2.34 7.01 -1.44
-3.24 9.72 0.9
-2.76 8.29 -1.38
-3.25 9.74 1.26
-3.73 11.2 -1.45
-4.04 12.12 -1.12
-3.96 11.87 -0.66
-3.83 11.5 -0.21
-4.22 12.82 0.24
-3.2 9.71 0.54
-2.31 7.02 -1.44
-3.19 9.7 0.89
-3.09 9.39 -1.57
-15.79 47.94 6.2
-3.68 11.18 -1.45
-3.27 9.91 1.65
-3.97 12.06 -1.11
-2.35 7.14 1.46
-3.85 11.7 -0.65
-4.04 12.25 -0.23
-15.7 48.22 0.89
-3.15 9.69 0.53
-2.29 7.03 -1.44
-3.06 9.4 -1.57
-3.13 9.61 1.24
-3.63 11.15 -1.44
-3.29 10.11 1.68
-4.01 12.33 -1.13
-3.88 11.92 -0.66
-3.83 11.78 -0.22
-2.87 8.83 2.49
-15.53 48.29 0.89
-3.12 9.71 0.53
-2.26 7.03 -1.43
-3.16 9.81 0.9
-3 9.34 -1.55
-3.19 9.91 1.28
-3.58 11.12 -1.43
-3.85 11.98 -1.1
-3.75 11.65 -0.64
-4.19 13.01 -0.24
-2.56 8.06 0.15
-3.1 9.76 0.54
-2.24 7.04 -1.44
-3.16 9.93 1.28
-3.53 11.1 -1.43
-3.83 12.03 -1.1
-3.71 11.67 -0.64
-3.84 12.07 -0.22
-2.88 9.05 2.55
-3.04 9.67 0.18
-2.22 7.06 -1.44
-15.18 48.34 4.43
-2.92 9.29 -1.54
-3.03 9.64 1.24
-3.49 11.1 -1.43
-3.02 9.62 1.6
-3.8 12.1 -1.11
-3.68 11.71 -0.64
-3.78 12.03 -0.22
-3 9.69 0.18
-14.97 48.26 2.65
-2.19 7.08 -1.44
-14.96 48.25 4.42
-2.88 9.29 -1.54
-14.95 48.2 6.2
-3.45 11.14 -1.43
-3.85 12.4 -1.14
-3.62 11.67 -0.64
-3.68 11.88 -0.22
-3.9 12.73 0.23
-3.86 12.61 0.69
-2.17 7.09 -1.44
-3.11 10.14 0.93
-2.84 9.28 -1.54
-14.78 48.25 6.2
-3.41 11.15 -1.43
-3.83 12.5 -1.14
-3.68 12.03 -0.66
-2.97 9.69 -0.18
-2.72 8.88 2.49
-3.74 12.37 0.23
-2.94 9.73 0.53
-14.63 48.36 4.42
-14.61 48.31 6.2
-3.37 11.14 -1.43
-3.77 12.47 -1.14
-3.55 11.75 -0.64
-2.94 9.72 -0.18
-3.75 12.56 0.69
-1.1 3.68 -0.75
-14.46 48.43 4.42
-14.45 48.38 6.2
-3.31 11.08 -1.42
-3.79 12.7 -1.16
-3.5 11.7 -0.64
-3.5 11.71 -0.21
-3.7 12.54 0.23
-14.3 48.48 2.65
-1.07 3.64 -0.74
-15.78 53.51 4.88
-2.74 9.3 -1.54
-14.28 48.42 6.2
-3.27 11.09 -1.42
-3.47 11.76 -1.07
-3.46 11.72 -0.21
-2.51 8.63 0.16
-3.54 12.16 0.66
-1.06 3.64 -0.74
-15.6 53.61 4.88
-2.71 9.31 -1.54
-14.11 48.47 6.2
-3.23 11.1 -1.42
-2.83 9.72 1.6
-3.68 12.66 -1.15
-3.76 12.92 -0.71
-8.79 30.19 7.26
-3.42 11.76 -0.21
-2.53 8.69 2.43
-3.3 11.48 0.21
-13.95 48.57 2.65
-1.04 3.64 -0.74
