# .PCD v0.7 - Point Cloud Data file format
VERSION 0.7
FIELDS x y z
SIZE 4 4 4
TYPE F F F
COUNT 1 1 1
WIDTH 2832
HEIGHT 1
VIEWPOINT 0 0 0 1 0 0 0
POINTS 2832
DATA ascii
-6.78 9.03 -1.39
-9.76 13 2.57
-10.44 13.9 3.38
-11.85 15.78 -1.03
-12.2 16.24 4.69
-11.54 15.37 -0.34
-11.18 14.89 4.99
-4.19 5.62 -1.88
-11.29 15.14 0.33
-10.32 13.85 0.91
-6.38 8.56 -2.08
-10.41 13.96 1.52
-6.63 8.9 -1.76
-10.07 13.52 2.07
-6.76 9.07 -1.39
-17.83 23.92 4.72
-10.5 14.09 3.42
-15.37 20.62 -1.35
-10.02 13.44 3.87
-11.51 15.45 -0.34
-11.24 15.07 5.04
-4.17 5.63 -1.88
-10.45 14.14 0.92
-6.36 8.6 -2.08
-11.44 15.47 1.68
-6.6 8.93 -1.76
-10.02 13.55 2.07
-6.73 9.11 -1.39
-17.71 23.95 4.72
-10.19 13.77 3.33
-15.13 20.46 -1.33
-10.13 13.7 3.93
-16.42 22.2 -0.48
-11.06 14.96 4.99
-4.15 5.65 -1.88
-10.94 14.9 0.32
-10.22 13.92 0.9
-6.34 8.63 -2.08
-10.97 14.95 1.62
-6.57 8.95 -1.76
-9.99 13.61 2.07
-6.64 9.05 -1.38
-17.61 23.99 4.71
-10.56 14.39 3.47
-14.87 20.25 -1.32
-10.08 13.74 3.93
-10.23 13.94 -0.3
-10.98 14.96 4.97
-4.14 5.68 -1.88
-10.16 13.93 0.9
-6.32 8.67 -2.09
-10.74 14.72 1.59
-6.54 8.97 -1.76
-9.99 13.71 2.08
-6.65 9.12 -1.39
-10.56 14.48 2.84
-10.56 14.48 3.48
-14.9 20.43 -1.32
-10.65 14.6 4.17
-10.17 13.95 -0.3
-12.76 17.49 5.8
-4.12 5.69 -1.88
-10.12 13.98 0.9
-6.3 8.71 -2.09
-10.62 14.67 1.58
-6.52 9.01 -1.76
-9.92 13.7 2.08
-6.63 9.16 -1.39
-17.16 23.71 4.64
-9.79 13.53 3.25
-14.73 20.35 -1.32
-9.78 13.52 3.85
-12.66 17.48 5.78
-11.34 15.79 0.34
-10.19 14.18 0.92
-6.26 8.71 -2.09
-12.85 17.89 1.93
-6.5 9.04 -1.76
-9.9 13.78 2.08
-6.6 9.18 -1.39
-9.61 13.38 2.61
-14.94 20.8 4.98
-14.7 20.47 -1.32
-9.74 13.56 3.85
-12.59 17.52 5.78
-10.81 15.16 0.33
-10.45 14.66 0.94
-10.62 14.89 1.6
-6.46 9.05 -1.76
-10.76 15.09 2.28
-6.61 9.27 -1.4
-16.74 23.48 4.57
-11.04 15.48 3.69
-10.01 14.03 3.98
-10.84 15.2 5
-9.82 13.87 0.3
-9.9 13.99 0.9
-6.22 8.79 -2.09
-10.22 14.44 1.55
-6.46 9.12 -1.77
-10.97 15.49 2.33
-6.54 9.24 -1.39
-9.92 14.01 2.72
-9.67 13.67 3.25
-9.97 14.08 3.98
-11.81 16.68 -0.36
-14.47 20.44 6.71
-10.06 14.32 0.92
-9.67 13.76 1.47
-6.44 9.17 -1.77
-11.81 16.81 2.52
-6.49 9.23 -1.39
-9.47 13.48 2.61
-12.48 17.76 4.22
-9.67 13.77 3.88
-11.75 16.72 -0.36
-14.31 20.37 6.67
-10.1 14.49 0.31
-10.75 15.41 0.98
-10.5 15.06 1.61
-6.41 9.19 -1.77
-11.05 15.84 2.37
-6.45 9.25 -1.38
-10.93 15.67 3.03
-10.9 15.63 3.7
-13.56 19.44 5.47
-14.58 20.9 6.83
-9.52 13.75 0.29
-10.75 15.54 0.99
-10.81 15.62 1.66
-6.43 9.29 -1.79
-9.96 14.39 2.15
-9.44 13.64 2.63
-7.8 11.27 -1.2
-9.6 13.87 3.28
-15.28 22.08 6.2
-11.78 17.02 -0.36
-14.94 21.59 7.04
-9.48 13.79 0.29
-10.65 15.51 0.99
-9.38 13.66 1.45
-6.38 9.29 -1.79
-10.26 14.93 2.22
-9.33 13.58 2.61
-10.07 14.66 3.46
-10.1 14.71 4.12
-9.76 14.2 -0.3
-11.48 16.71 5.43
-10.69 15.67 0.33
-9.85 14.44 1.53
-6.34 9.3 -1.78
-9.36 13.73 2.04
-9.45 13.85 2.66
-9.62 14.11 3.32
-10.11 14.82 4.14
-10.91 16 -0.34
-11.51 16.87 5.47
-10.15 14.98 0.32
-9.93 14.67 0.93
-10.45 15.43 1.63
-6.36 9.39 -1.8
-9.33 13.78 2.64
-9.16 13.53 3.18
-9.62 14.21 3.96
-10.82 15.98 -0.34
-11.43 16.87 5.46
-10.37 15.43 0.32
-9.16 13.62 1.44
-6.36 9.47 -1.81
-9.79 14.56 2.15
-13.93 20.73 3.96
-9.55 14.2 3.95
-10.78 16.04 -0.34
-11.39 16.95 5.47
-9.87 14.8 0.93
-10.33 15.49 1.63
-6.38 9.56 -1.82
-10.73 16.09 2.37
-9.43 14.14 2.69
-10.35 15.53 3.63
-9.44 14.16 3.93
-11.03 16.54 -0.35
-11.31 16.96 5.46
-10.41 15.73 0.99
-10.93 16.52 1.73
-6.39 9.65 -1.83
-9.33 14.09 2.07
-9.21 13.92 2.64
-10.42 15.74 3.67
-9.33 14.09 3.9
-11.22 16.96 5.45
-10.36 15.77 0.99
-10.43 15.88 1.66
-6.39 9.73 -1.84
-15.81 24.06 3.53
-10.26 15.62 2.96
-6.54 9.96 -1.04
-13.76 20.94 4.87
-9.36 14.25 3.94
-10.98 16.71 -0.35
-10.49 15.97 5.12
-10.29 15.78 0.99
-9.16 14.05 1.47
-6.4 9.82 -1.86
-9.53 14.62 2.14
-6.41 9.83 -1.44
-9.17 14.07 2.66
-13.9 21.32 4.95
-9.28 14.24 3.92
-13.11 20.11 -0.42
-10.45 16.02 5.13
-12.91 19.95 0.41
-12.76 19.73 2.06
-6.44 9.96 -1.88
-12.65 19.55 2.86
-12.58 19.45 3.67
-6.51 10.06 -1.05
-12.51 19.33 4.48
-9.26 14.31 3.94
-12.98 20.06 -0.42
-10.37 16.04 5.12
-9.37 14.6 0.3
-9.59 14.93 0.93
-12.66 19.72 2.05
-6.38 9.94 -1.87
-12.56 19.56 2.85
-9.77 15.22 2.86
-12.39 19.3 4.46
-9.54 14.86 4.08
-12.87 20.05 -0.42
-12.26 19.1 6.08
-9.32 14.62 0.3
-10 15.7 0.98
-12.58 19.75 2.05
-6.37 10 -1.88
-12.49 19.6 2.85
-6.41 10.07 -1.47
-12.41 19.47 3.66
-12.32 19.35 4.46
-9.44 14.82 4.06
-12.8 20.09 -0.42
-10.3 16.17 5.14
-12.65 20.01 0.41
-12.58 19.91 1.23
-9.97 15.77 1.63
-6.36 10.05 -1.88
-12.43 19.67 2.86
-6.36 10.06 -1.46
-8.82 13.95 2.61
-6.48 10.25 -1.06
-12.23 19.35 4.45
-9.54 15.09 4.12
-12.75 20.17 -0.42
-12.06 19.08 6.05
-12.61 20.1 0.41
-12.53 19.98 1.24
-12.46 19.87 2.05
-6.36 10.14 -1.9
-12.4 19.77 2.87
-12.32 19.63 3.67
-12.12 19.33 4.43
-6.88 10.96 -0.68
-9.35 14.91 4.06
-12.72 20.28 -0.42
-11.96 19.07 6.03
-12.6 20.25 0.42
-9.37 15.05 0.93
-12.39 19.9 2.05
-6.36 10.21 -1.91
-8.78 14.11 2.04
-6.41 10.3 -1.49
-8.82 14.18 2.64
-7.54 12.11 -1.25
-8.99 14.45 3.31
-6.84 10.99 -0.68
-9 14.46 3.93
-11.88 19.09 6.02
-10.48 16.96 0.35
-13.88 22.46 1.38
-12.3 19.9 2.05
-6.36 10.29 -1.92
-13.81 22.36 3.23
-6.38 10.32 -1.49
-14.24 23.05 4.29
-6.37 10.31 -1.06
-8.82 14.28 3.26
-6.8 11.01 -0.68
-8.95 14.48 3.93
-10.38 16.79 -0.34
-9.99 16.16 5.09
-9.43 15.39 0.95
-5.74 9.36 -2.13
-10.16 16.58 1.7
-6.35 10.36 -1.92
-8.47 13.82 1.99
-9.88 16.11 2.99
-6.31 10.3 -1.06
-15.31 24.97 5.69
-6.76 11.03 -0.68
-8.88 14.48 3.92
-12.86 20.98 -0.43
-9.86 16.08 5.05
-9.29 15.27 0.31
-9.63 15.84 0.97
-5.68 9.34 -2.12
-8.65 14.22 1.46
-6.35 10.44 -1.94
-8.43 13.86 1.99
-8.44 13.88 2.57
-6.3 10.36 -1.06
-9.32 15.32 3.49
-6.73 11.06 -0.68
-8.83 14.52 3.92
-12.78 21.02 -0.43
-10.02 16.48 5.17
-12.62 20.92 0.43
-9.29 15.4 0.94
-5.65 9.36 -2.13
-12.01 19.9 2.03
-6.35 10.52 -1.95
-9.62 15.95 2.29
-15.43 25.57 4.73
-8.59 14.24 3.23
-8.85 14.66 3.95
-12.74 21.12 -0.43
-10.07 16.69 5.22
-12.55 20.96 0.43
-9.98 16.66 1.02
-5.62 9.39 -2.13
-8.58 14.34 1.46
-6.36 10.61 -1.96
-8.52 14.22 2.04
-12.28 20.51 3.79
-8.51 14.21 3.22
-6.65 11.1 -0.68
-8.83 14.75 3.97
-12.54 20.95 -0.43
-13.69 22.87 7.14
-10.36 17.44 0.35
-9.1 15.31 0.93
-5.58 9.4 -2.13
-12.37 20.82 2.12
-6.38 10.75 -1.98
-11.62 19.56 2.79
-12.2 20.54 3.78
-9.01 15.17 3.43
-8.76 14.74 3.96
-12.67 21.32 -0.43
-12 20.21 6.3
-9.17 15.55 0.32
-8.94 15.16 0.92
-5.56 9.42 -2.13
-12.3 20.87 2.12
-6.44 10.92 -2.01
-11.52 19.54 2.79
-6.36 10.8 -1.54
-12.17 20.65 3.8
-8.51 14.44 3.26
-8.71 14.77 3.96
-12.19 20.68 -0.42
-13.56 23 7.16
-12.1 20.68 0.42
-9.09 15.55 0.94
-5.53 9.45 -2.13
-8.47 14.48 1.47
-6.47 11.07 -2.03
-11.42 19.52 2.78
-6.33 10.82 -1.54
-9.08 15.52 2.85
-6.55 11.19 -1.13
-8.75 14.97 3.37
-8.62 14.73 3.94
-12.35 21.11 -0.43
-11.85 20.27 6.29
-12.33 21.27 0.43
-9.04 15.59 0.94
-5.49 9.47 -2.13
-8.45 14.57 1.47
-7.17 12.36 -2.26
-9.04 15.59 2.21
-6.34 10.93 -1.55
-8.66 14.94 2.74
-8.48 14.63 3.29
-8.51 14.68 3.92
-12.21 21.05 -0.42
-12.26 21.14 6.55
-9.48 16.47 1
-5.47 9.5 -2.13
-8.45 14.68 1.48
-7.14 12.41 -2.27
-8.95 15.55 2.2
-6.35 11.03 -1.56
-11.62 20.19 3.69
-6.42 11.15 -1.13
-8.5 14.78 3.31
-9.74 16.93 -0.34
-11.67 20.28 6.27
-12.48 21.86 0.44
-8.99 15.75 0.95
-5.43 9.51 -2.13
-8.38 14.69 1.48
-7.09 12.42 -2.26
-12.3 21.55 3.05
-6.33 11.09 -1.57
-9.4 16.46 3
-6.45 11.3 -1.14
-8.51 14.9 3.34
-8.58 15.04 4
-14.19 24.85 7.67
-8.94 15.79 0.32
-5.4 9.54 -2.13
-8.48 14.96 1.5
-7.06 12.46 -2.27
-11.85 20.93 2.95
-6.3 11.13 -1.57
-9.35 16.51 3
-8.43 14.89 3.33
-8.55 15.1 4.01
-11.93 21.06 -0.42
-11.41 20.15 6.2
-8.78 15.63 0.31
-9.35 16.64 1
-5.36 9.55 -2.13
-8.41 14.97 1.5
-7 12.46 -2.26
-9.43 16.8 2.37
-6.33 11.27 -1.59
-9.33 16.61 3.02
-8.37 14.9 3.32
-9.33 16.62 4.4
-12.02 21.4 -0.43
-8.76 15.59 4.79
-8.68 15.58 0.31
-5.34 9.59 -2.13
-8.28 14.85 1.49
-6.95 12.47 -2.26
-8.78 15.77 2.22
-6.29 11.29 -1.59
-8.31 14.92 3.32
-9.31 16.71 4.42
-11.58 20.78 -0.42
-8.72 15.65 4.8
-8.34 15.1 0.3
-9.9 17.91 1.07
-5.31 9.6 -2.13
-8.23 14.89 1.49
-6.9 12.49 -2.26
-8.04 14.55 2.04
-8.2 14.84 2.68
-9.26 16.76 4.42
-12.05 21.82 -0.44
-8.63 15.61 4.78
-11.9 21.72 0.43
-8.84 16.14 0.96
-5.27 9.62 -2.13
-8.16 14.89 1.49
-6.86 12.52 -2.26
-8.9 16.25 2.27
-6.31 11.51 -1.61
-8.13 14.83 2.68
-7.84 14.31 3.17
-15.96 29.12 -1.74
-7.98 14.55 3.83
-11.99 21.87 -0.44
-8.41 15.35 4.69
-8.18 15.05 0.3
-8.72 16.05 0.96
-5.24 9.65 -2.13
-13.79 25.37 2.53
-6.83 12.57 -2.27
-9.62 17.69 2.47
-6.32 11.62 -1.62
-8.04 14.8 2.67
-8.11 14.91 3.3
-15.83 29.11 -1.74
-7.82 14.39 3.78
-11.96 21.99 -0.44
-8.36 15.38 4.69
-8.23 15.27 0.3
-8.64 16.02 0.95
-5.21 9.67 -2.14
-9.57 17.74 1.76
-6.77 12.55 -2.26
-11.67 21.65 3.02
-6.32 11.73 -1.64
-7.98 14.8 2.66
-6.42 11.91 -1.18
-7.8 14.47 3.19
-15.71 29.13 -1.73
-7.77 14.41 3.78
-11.86 22 -0.44
-8.28 15.36 4.67
-11.78 22.03 0.44
-9.5 17.78 1.06
-5.18 9.69 -2.14
-6.42 12.01 -2.16
-9.38 17.54 2.44
-7.94 14.86 2.67
-6.4 11.97 -1.19
-7.89 14.75 3.25
-15.67 29.32 -1.74
-7.75 14.49 3.79
-11.76 22 -0.44
-8.56 16.01 4.86
-8.54 16.11 0.32
-13.97 26.35 1.56
-5.15 9.72 -2.14
-9.08 17.12 1.7
-6.37 12.01 -2.15
-7.93 14.96 2.08
-8.25 15.56 2.79
-6.41 12.09 -1.2
-7.77 14.66 3.23
-11.94 22.53 -1.34
-7.71 14.54 3.8
-11.71 22.09 -0.44
-8.47 15.97 4.84
-11.4 21.67 0.43
-11.38 21.64 1.28
-5.11 9.72 -2.13
-6.32 12.02 -2.15
-9.86 18.75 2.6
-6.29 11.96 -1.66
-8.11 15.41 2.76
-6.41 12.18 -1.2
-7.83 14.89 3.27
-15.57 29.6 -1.75
-7.65 14.55 3.8
-11.63 22.11 -0.44
-8.22 15.63 4.73
-7.84 15.04 0.3
-9.55 18.31 1.08
-5.08 9.75 -2.14
-9.22 17.68 1.74
-6.3 12.08 -2.16
-9.79 18.78 2.6
-6.31 12.11 -1.68
-8.06 15.46 2.76
-6.38 12.24 -1.21
-7.77 14.9 3.27
-13.32 25.53 -1.51
-9.33 17.89 4.66
-8.16 15.65 4.73
-8.17 15.81 0.31
-9.28 17.96 1.06
-5.05 9.77 -2.14
-12.37 23.92 2.36
-6.29 12.16 -2.17
-7.88 15.25 2.11
-6.32 12.21 -1.69
-7.82 15.13 2.7
-7.8 15.09 3.3
-15.47 29.93 -1.77
-7.6 14.7 3.82
-11.25 21.75 -0.43
-8.1 15.66 4.72
-8.2 15.99 0.31
-5.02 9.79 -2.14
-12.24 23.88 2.35
-6.29 12.26 -2.18
-7.84 15.29 2.11
-6.3 12.29 -1.7
-7.76 15.14 2.7
-7.74 15.1 3.3
-13.37 26.07 -1.54
-7.61 14.85 3.85
-8.02 15.65 4.71
-7.68 15.1 0.3
-8.2 16.13 0.95
-4.99 9.81 -2.14
-7.91 15.56 1.53
-6.28 12.36 -2.2
-8.26 16.25 2.24
-6.32 12.44 -1.71
-7.67 15.1 2.68
-7.77 15.29 3.33
-16 31.49 -1.85
-9.15 18.01 4.66
-13.1 25.78 -0.5
-7.96 15.66 4.71
-7.59 15.07 0.29
-8.12 16.12 0.95
-4.94 9.81 -2.14
-7.83 15.54 1.52
-6.45 12.8 -2.27
-7.65 15.17 2.09
-6.32 12.55 -1.73
-7.63 15.14 2.69
-7.75 15.38 3.35
-15.86 31.47 -1.85
-9.14 18.14 4.69
-11.97 23.75 -0.46
-9.72 19.28 5.79
-8.87 17.77 0.35
-4.91 9.84 -2.14
-9.57 19.17 1.87
-6.4 12.82 -2.27
-8.03 16.08 2.21
-6.27 12.56 -1.72
-10.46 20.94 -2.05
-7.72 15.47 3.36
-9.98 19.99 -1.17
-9.08 18.19 4.69
-11.89 23.82 -0.46
-9.56 19.15 5.74
-7.59 15.33 0.3
-11.31 22.85 1.34
-4.88 9.87 -2.14
-9.49 19.18 1.87
-6.35 12.83 -2.27
-7.92 15.99 2.19
-6.32 12.76 -1.75
-7.98 16.13 2.85
-11.75 23.73 -2.32
-9.16 18.51 4.01
-13.01 26.29 -1.54
-9.02 18.22 4.69
-11.23 22.69 -0.44
-9.46 19.12 5.72
-8.67 17.67 0.34
-7.56 15.4 0.9
-4.85 9.88 -2.14
-9.4 19.14 1.87
-6.31 12.85 -2.27
-7.9 16.1 2.2
-8.19 16.69 -2.28
-7.94 16.17 2.85
-9.46 19.26 -1.88
-9.7 19.76 4.28
-9.82 20 -1.17
-9 18.32 4.71
-11.58 23.59 -0.46
-9.32 18.98 5.67
-8.69 17.84 0.35
-7.82 16.07 0.94
-4.82 9.9 -2.14
-9.33 19.17 1.87
-6.26 12.87 -2.27
-7.94 16.32 2.23
-8.48 17.41 -2.38
-7.86 16.15 2.84
-9.32 19.16 -1.86
-8.04 16.51 3.57
-9.39 19.28 -1.12
-9.49 19.49 5
-11.48 23.59 -0.46
-9.23 18.95 5.65
-8.65 17.94 0.35
-7.53 15.62 0.91
-4.78 9.91 -2.14
-9.24 19.15 1.86
-6.22 12.9 -2.27
-7.9 16.39 2.23
-8.39 17.39 -2.37
-8.2 16.99 2.99
-9.28 19.24 -1.87
-8 16.59 3.58
-9.69 20.09 -1.17
-9.17 19.01 4.87
-9.08 18.83 5.6
-8.64 18.07 0.35
-7.48 15.64 0.91
-4.75 9.94 -2.14
-9.14 19.13 1.85
-6.18 12.92 -2.27
-7.76 16.22 2.21
-8.31 17.39 -2.37
-8.16 17.07 3
-9.26 19.36 -1.88
-8.02 16.76 3.61
-9.6 20.08 -1.17
-9.1 19.04 4.87
-11.31 23.65 -0.46
-9.02 18.86 5.6
-11.15 23.53 1.36
-4.71 9.95 -2.14
-9.08 19.16 1.85
-6.13 12.94 -2.27
-7.67 16.2 2.2
-8.26 17.43 -2.37
-8.06 17 2.98
-9.15 19.32 -1.87
-8 16.89 3.63
-9.51 20.07 -1.16
-9.07 19.14 4.89
-11.23 23.7 -0.46
-8.98 18.95 5.62
-12.22 26.02 1.51
-4.68 9.98 -2.14
-8.39 17.86 1.73
-6.08 12.96 -2.27
-7.68 16.36 2.22
-8.19 17.44 -2.36
-8.03 17.11 2.99
-9.4 20.02 -1.93
-7.94 16.92 3.63
-9.35 19.91 -1.15
-9.08 19.34 4.93
-11.08 23.6 -0.46
-8.91 18.98 5.62
-12.18 26.18 1.51
-4.65 9.99 -2.14
-8.46 18.19 1.76
-6.04 12.98 -2.27
-7.65 16.44 2.23
-8.13 17.47 -2.37
-7.97 17.14 2.99
-9.28 19.95 -1.93
-7.92 17.01 3.65
-9.25 19.88 -1.15
-9.01 19.37 4.93
-11.08 23.81 -0.46
-8.89 19.1 5.64
-12.01 26.05 0.5
-11.68 25.33 1.46
-4.61 10 -2.14
-8.24 17.88 1.72
-6 13.01 -2.27
-7.59 16.47 2.23
-8.06 17.49 -2.36
-9.24 20.05 -1.93
-8.95 19.41 4.15
-9.16 19.87 -1.15
-8.92 19.34 4.92
-10.95 23.75 -0.46
-11.58 25.37 0.49
-11.42 25.01 1.44
-4.58 10.02 -2.14
-8.1 17.74 1.71
-5.95 13.03 -2.27
-7.51 16.46 2.22
-8 17.52 -2.36
-10.83 23.73 4.13
-8.86 19.4 -1.87
-8.93 19.55 4.18
-9.24 20.23 -1.17
-8.84 19.36 4.91
-10.86 23.78 -0.46
-11.51 25.21 7.43
-11.47 25.37 0.49
-11.9 26.31 1.51
-4.55 10.06 -2.15
-8.06 17.83 1.71
-5.9 13.05 -2.27
-7.43 16.42 2.21
-7.96 17.6 -2.37
-8.8 19.45 -1.87
-8.84 19.54 4.17
-9.31 20.57 -1.18
-8.78 19.41 4.92
-10.8 23.86 -0.46
-11.68 25.82 7.59
-11.41 25.46 0.49
-12.74 28.43 1.63
-4.51 10.07 -2.14
-8.27 18.46 1.77
-5.85 13.06 -2.27
-7.39 16.49 2.22
-7.93 17.7 -2.38
-11.58 25.85 4.49
-8.84 19.72 -1.89
-11.55 25.78 5.49
-9.01 20.1 -1.15
-8.74 19.51 4.94
-10.84 24.2 -0.46
-13.17 29.67 0.57
-12.49 28.12 1.61
-4.48 10.08 -2.14
-8.1 18.25 1.75
-5.81 13.08 -2.27
-7.36 16.57 2.23
-7.89 17.77 -2.39
-10.68 24.06 4.17
-8.8 19.83 -1.9
-8.75 19.7 4.19
-8.91 20.06 -1.15
-8.67 19.52 4.93
-10.64 23.96 -0.46
-12.12 27.55 0.53
-10.1 22.97 1.32
-4.44 10.09 -2.14
-5.77 13.11 -2.27
-7.3 16.59 2.23
-7.86 17.88 -2.4
-10.63 24.17 4.18
-8.79 19.98 -1.91
-11.45 26.03 5.53
-9.21 20.93 -1.2
-10.32 23.47 5.92
-10.74 24.43 -0.47
-11.42 25.98 7.6
-12.09 27.76 0.53
-10.05 23.07 1.32
-4.4 10.11 -2.14
-8.15 18.72 1.79
-5.72 13.12 -2.27
-7.31 16.78 2.25
-7.8 17.9 -2.4
-10.5 24.1 4.16
-9.15 21.01 -2.01
-11.49 26.38 5.59
-9.19 21.09 -1.21
-11.25 25.81 -0.49
-11.22 25.76 7.53
-12.27 28.4 0.54
-12.67 29.33 1.67
-4.38 10.13 -2.15
-8.19 18.97 1.81
-5.67 13.13 -2.27
-7.37 17.07 2.28
-7.74 17.93 -2.4
-10.42 24.12 4.16
-9.01 20.86 -1.99
-10.55 24.44 5.17
-9.12 21.12 -1.21
-10.17 23.56 5.92
-11.14 25.78 7.52
-12.46 29.12 0.55
-10.25 23.97 1.37
-4.34 10.15 -2.15
-7.74 18.08 1.72
-5.63 13.15 -2.27
-7.2 16.83 2.25
-7.68 17.96 -2.4
-9.04 21.14 -2.01
-9.97 23.32 4.93
-9.37 21.91 -1.25
-10.52 24.58 6.17
-10.94 25.57 -0.49
-10.06 23.77 0.45
-10.68 25.23 1.44
-4.3 10.16 -2.14
-7.96 18.8 1.79
-5.58 13.18 -2.27
-7.09 16.76 2.23
-7.61 17.97 -2.4
-10.34 24.41 4.2
-9.09 21.47 -2.04
-10.41 24.59 5.19
-9.11 21.51 -1.22
-12.04 28.43 -0.54
-12.53 29.89 0.57
-10.61 25.29 1.44
-4.26 10.16 -2.14
-7.93 18.9 1.79
-5.53 13.2 -2.27
-7.55 18 -2.4
-9.88 23.56 4.05
-9.01 21.48 -2.04
-10.29 24.54 5.17
-10.12 24.14 6.04
-11.95 28.5 -0.54
-9.39 22.6 0.43
-9.89 23.8 1.35
-4.23 10.19 -2.14
-7.92 19.05 1.81
-5.49 13.22 -2.27
-6.95 16.72 2.22
-7.48 18.02 -2.4
-10.32 24.84 4.26
-9.13 21.97 -2.08
-9 21.66 -1.23
-9.51 22.88 5.72
-10.84 26.1 -0.49
-10.49 25.25 7.33
-11.87 28.86 0.54
-10.59 25.74 1.46
-4.2 10.2 -2.14
-7.92 19.26 1.82
-5.44 13.22 -2.26
-6.88 16.74 2.22
-7.42 18.04 -2.4
-10.23 24.88 4.26
-9.06 22.02 -2.08
-9.73 23.64 4.97
-8.92 21.69 -1.23
-11.19 27.19 -0.51
-11.24 27.61 0.52
-11.71 28.75 1.63
-4.16 10.21 -2.14
-7.86 19.3 1.82
-5.39 13.24 -2.26
-6.83 16.76 2.22
-7.35 18.05 -2.39
-10.12 24.84 4.25
-9.02 22.16 -2.09
-10.1 24.79 5.2
-8.89 21.82 -1.23
-9.45 23.19 5.78
-11.23 27.57 -0.52
-11.66 28.91 0.54
-11.38 28.23 1.6
-4.12 10.23 -2.14
-7.8 19.35 1.83
-5.34 13.25 -2.26
-6.76 16.78 2.22
-7.29 18.07 -2.39
-9.65 23.94 4.09
-8.89 22.04 -2.08
-8.86 21.96 -1.24
-10.01 24.83 6.18
-11.19 27.74 -0.52
-9.93 24.62 7.11
-11.55 28.93 0.54
-9.54 23.9 1.35
-4.08 10.23 -2.14
-7.73 19.37 1.82
-5.3 13.28 -2.26
-6.72 16.84 2.23
-7.23 18.1 -2.39
-10.89 27.27 4.65
-8.87 22.23 -2.09
-9.97 24.99 5.23
-8.79 22.03 -1.24
-10.58 26.5 6.59
-11.59 29.04 -0.55
-9.85 24.66 7.12
-10.76 27.23 0.51
-9.51 24.06 1.36
-4.05 10.25 -2.14
-7.66 19.38 1.82
-5.25 13.29 -2.26
-10.76 27.24 3.6
-7.16 18.12 -2.39
-9.56 24.19 4.12
-8.81 22.31 -2.1
-8.76 22.16 -1.25
-14.88 37.65 9.35
-11.83 29.93 -0.56
-11.37 29.1 0.55
-9.48 24.25 1.36
-4.02 10.28 -2.14
-7.58 19.38 1.82
-5.2 13.29 -2.26
-9.53 24.39 3.21
-7.1 18.16 -2.39
-8.78 22.45 -2.11
-10.24 26.21 5.47
-8.75 22.38 -1.26
-9.74 24.92 6.18
-9.06 23.17 -0.43
-9.56 24.46 7.04
-10.89 28.15 0.53
-10.88 28.13 1.58
-3.98 10.29 -2.15
-7.52 19.44 1.82
-5.15 13.32 -2.26
-8.94 23.1 3.04
-7.03 18.17 -2.39
-9.87 25.51 4.33
-7.62 19.69 -1.85
-8.73 22.57 -1.27
-9.25 23.9 5.92
-8.91 23.04 -0.43
-9.68 25.01 7.19
-10.16 26.54 0.5
-9.11 23.79 1.33
-3.95 10.31 -2.15
-8.8 22.98 2.15
-5.1 13.33 -2.26
-8.82 23.04 3.03
-6.96 18.18 -2.39
-15.4 40.23 6.82
-7.52 19.64 -1.84
-8.66 22.61 -1.27
-8.87 23.17 -0.43
-10.34 27.29 0.51
-9.02 23.82 1.33
-3.91 10.31 -2.14
-10.12 26.72 2.5
-5.06 13.35 -2.26
-8.9 23.5 3.09
-6.9 18.21 -2.39
-9.58 25.29 4.28
-7.43 19.61 -1.83
-8.65 22.83 -1.28
-9.44 24.92 6.15
-9.86 26.3 1.47
-3.87 10.33 -2.14
-8.55 22.8 2.13
-5.01 13.36 -2.26
-14.41 38.43 5.04
-6.84 18.23 -2.39
-8.79 23.43 3.96
-7.34 19.56 -1.83
-9.59 25.57 5.31
-8.61 22.96 -1.28
-9.41 25.08 6.19
-8.77 23.38 -0.44
-10.12 27.26 0.51
-8.81 23.74 1.33
-3.84 10.36 -2.15
-8.48 22.86 2.13
-4.96 13.36 -2.26
-8.93 24.07 3.15
-6.78 18.26 -2.39
-9.12 24.57 4.15
-7.25 19.55 -1.82
-9.23 24.87 5.16
-8.5 22.92 -1.28
-13.73 36.99 9.11
-10.89 29.34 -0.55
-9.02 24.31 6.95
-9.78 26.64 0.5
-8.78 23.91 1.33
-3.81 10.38 -2.15
-9.11 24.82 2.31
-4.91 13.38 -2.26
-8.83 24.05 3.15
-6.71 18.28 -2.39
-9.24 25.16 4.24
-7.17 19.53 -1.82
-9.67 26.34 5.45
-8.44 23 -1.28
-13.59 37.02 9.1
-8.74 23.8 -0.44
-13.81 37.61 10.74
-10.69 29.44 0.55
-8.63 23.75 1.32
-3.77 10.38 -2.15
-9.04 24.9 2.32
-4.86 13.39 -2.26
-8.73 24.05 3.14
-6.64 18.3 -2.39
-12.99 35.78 6.03
-7.09 19.52 -1.82
-9.15 25.2 5.21
-8.28 22.8 -1.27
-13.38 36.83 9.05
-13.44 37 10.55
-10.64 29.6 1.65
-3.73 10.38 -2.14
-9.57 26.63 2.48
-4.82 13.41 -2.26
-8.65 24.05 3.14
-6.59 18.33 -2.39
-12.87 35.81 6.03
-7.01 19.51 -1.81
-7.48 20.82 -1.16
-13.25 36.87 9.05
-10.38 28.87 -0.54
-13.25 36.87 10.5
-8.29 23.31 0.43
-9.19 25.86 1.44
-3.7 10.4 -2.14
-8.9 25.04 2.33
-4.77 13.42 -2.26
-8.54 24.04 3.13
-6.52 18.34 -2.39
-9.04 25.43 4.28
-6.93 19.51 -1.81
-9.19 25.84 5.33
-13.1 36.85 9.03
-8.43 23.72 -0.44
-8.17 23.26 0.43
-9.08 25.83 1.43
-3.66 10.42 -2.15
-8.78 25 2.32
-4.72 13.42 -2.25
-8.46 24.07 3.13
-6.46 18.37 -2.39
-14.09 40.1 6.73
-6.85 19.51 -1.81
-9.18 26.12 5.38
-8.69 24.72 6.05
-12.83 36.53 10.37
-8.19 23.56 0.44
-9.02 25.97 1.44
-3.62 10.43 -2.15
-8.74 25.15 2.33
-4.67 13.44 -2.25
-8.61 24.78 3.22
-6.39 18.39 -2.39
-8.78 25.26 4.24
-6.78 19.5 -1.81
-12.94 37.25 7.66
-12.57 36.18 8.84
-22.69 65.32 -1.21
-9.85 28.66 0.53
-3.59 10.44 -2.15
-10.03 29.17 2.7
-4.63 13.46 -2.25
-8.53 24.82 3.22
-6.32 18.4 -2.39
-12.35 35.92 6.02
-6.7 19.51 -1.8
-12.92 37.59 7.73
-13.69 39.84 9.73
-22.43 65.24 -1.2
-12.96 37.71 10.68
-8.81 25.92 0.48
-8.72 25.65 1.42
-3.55 10.44 -2.14
-12.85 37.82 3.49
-4.58 13.47 -2.25
-8.49 24.99 3.24
-6.26 18.43 -2.39
-13.4 39.44 6.6
-6.63 19.51 -1.8
-8.97 26.41 6.44
-22.16 65.2 -1.2
-8.42 25.07 1.39
-3.51 10.46 -2.14
-12.74 37.94 3.5
-4.53 13.48 -2.25
-8.36 24.88 3.22
-6.2 18.45 -2.39
-8.54 25.42 4.25
-6.57 19.55 -1.8
-8.36 24.89 6.06
-21.9 65.19 -1.2
-8.31 25.04 0.46
-9.88 29.76 1.64
-3.48 10.48 -2.15
-8.29 24.98 2.3
-4.48 13.49 -2.25
-8.18 24.64 3.19
-6.14 18.48 -2.39
-8.22 24.76 4.13
-6.48 19.53 -1.8
-12.01 36.17 8.8
-11.55 34.79 -0.64
-12.57 37.84 10.68
-8.2 25 0.46
-8.17 24.89 1.37
-3.44 10.49 -2.15
-8.14 24.8 2.28
-4.43 13.51 -2.25
-8.41 25.62 3.31
-6.08 18.51 -2.39
-8.29 25.27 4.21
-6.41 19.53 -1.8
-8.41 25.63 5.24
-11.95 36.42 8.85
-21.36 65.09 -1.2
-12.25 37.34 10.53
-7.94 24.47 0.45
-8.08 24.93 1.37
-3.41 10.5 -2.15
-9.06 27.93 2.57
-4.38 13.52 -2.25
-12.06 37.18 4.8
-6 18.51 -2.39
-8.28 25.54 4.25
-6.34 19.56 -1.8
-11.61 35.8 8.69
-21.08 65.01 -1.19
-12.16 37.49 10.56
-7.71 24.05 0.44
-7.79 24.31 1.34
-3.37 10.5 -2.14
-4.34 13.53 -2.25
-8.17 25.49 3.29
-5.94 18.54 -2.39
-11.63 36.28 6.03
-6.28 19.59 -1.8
-11.48 35.83 8.69
-9.83 30.67 -0.56
-11.92 37.2 10.47
-7.72 24.39 0.45
-7.76 24.52 1.35
-3.33 10.52 -2.14
-11.85 37.42 3.43
-4.29 13.54 -2.25
-8.08 25.53 3.29
-5.87 18.55 -2.39
-8.11 25.61 4.26
-6.21 19.63 -1.8
-11.39 35.96 8.71
-9.91 31.29 -0.57
-11.93 37.68 10.59
-7.7 24.61 0.45
-7.71 24.65 1.35
-3.29 10.53 -2.14
-7.74 24.76 2.27
-4.24 13.54 -2.25
-11.67 37.32 4.8
-5.81 18.58 -2.39
-7.47 23.87 3.96
-6.17 19.71 -1.81
-7.65 24.46 4.98
-11.23 35.9 8.68
-9.36 29.93 -0.55
-7.65 24.77 0.45
-7.51 24.31 1.33
-3.26 10.54 -2.14
-8.28 26.81 2.46
-4.19 13.56 -2.25
-7.82 25.32 3.25
-5.75 18.61 -2.39
-6.13 19.85 -1.82
-7.8 25.24 5.13
-9.51 30.79 -0.56
-7.97 26.07 1.43
-3.22 10.55 -2.14
-13.63 44.6 4.08
-4.15 13.57 -2.25
-7.54 24.69 3.17
-5.69 18.63 -2.39
-11.38 37.23 6.17
-6.21 20.31 -1.86
-7.74 25.32 5.15
-12.25 40.08 9.67
-10.87 35.58 -0.65
-7.85 26.02 0.47
-7.53 24.96 1.37
-3.18 10.55 -2.14
-7.56 25.04 2.29
-4.1 13.58 -2.25
-12.72 42.16 5.41
-5.63 18.65 -2.39
-6.13 20.3 -1.86
-7.65 25.36 5.15
-6.24 20.68 -1.13
-11.01 36.48 8.8
-9.17 30.41 -0.55
-7.96 26.72 0.49
-7.41 24.89 1.36
-3.15 10.57 -2.14
-13.41 45 4.11
-4.05 13.6 -2.25
-5.56 18.66 -2.39
-8.19 27.49 4.54
-6.09 20.45 -1.87
-7.59 25.46 5.16
-11 36.92 8.89
-9.25 31.06 -0.57
-7.27 24.71 0.45
-3.11 10.58 -2.14
-13.17 44.77 4.08
-4 13.59 -2.24
-5.49 18.68 -2.39
-8.08 27.48 4.54
-6.08 20.65 -1.88
-11.1 37.72 7.64
-11.8 40.11 9.65
-8.97 30.49 -0.55
-12.84 44.23 0.8
-7.65 26.35 1.44
-3.08 10.6 -2.14
-13.01 44.82 4.08
-3.95 13.61 -2.24
-5.42 18.68 -2.39
-6.06 20.86 -1.9
-10.97 37.8 7.65
-11.57 39.85 9.58
-9.2 31.7 -0.58
-10.39 35.8 9.99
-7.71 26.91 0.49
-3.04 10.6 -2.14
-11.25 39.28 3.57
-3.9 13.62 -2.24
-11.17 38.98 4.98
-5.36 18.71 -2.39
-6.04 21.06 -1.92
-11.36 39.63 9.52
-8.77 30.59 -0.56
-10.23 35.71 9.95
-6.99 24.71 0.45
-7.5 26.52 1.44
-3 10.6 -2.14
-11.13 39.37 3.58
-3.86 13.64 -2.24
-10.96 38.77 4.95
-5.3 18.74 -2.39
-11.51 40.71 6.7
-6.01 21.26 -1.93
-13.11 46.37 9.37
-10.91 38.59 9.26
-8.51 30.09 -0.55
-10.12 35.8 9.97
-11.09 39.75 0.72
-2.96 10.61 -2.14
-10.98 39.34 3.57
-3.81 13.65 -2.24
-10.04 35.99 4.59
-5.23 18.74 -2.39
-10.71 38.37 6.31
-5.98 21.45 -1.95
-10.05 36.02 8.63
-8.34 29.89 -0.54
-10.6 37.98 10.57
-10.94 39.76 0.72
-10.91 39.62 2.15
-2.92 10.62 -2.14
-10.86 39.44 3.58
-3.76 13.66 -2.24
-9.94 36.1 4.6
-5.17 18.77 -2.39
-10.56 38.37 6.3
-5.97 21.7 -1.97
-12.92 46.93 9.46
-9.93 36.09 8.64
-8.19 29.74 -0.54
-9.81 35.66 9.91
-10.82 39.85 0.72
-6.97 25.68 1.39
-2.89 10.65 -2.14
-6.81 25.08 2.27
-3.71 13.67 -2.24
-9.91 36.5 4.64
-5.1 18.79 -2.39
-5.98 22.02 -2
-9.69 35.68 7.19
-6.09 22.44 -1.22
-9.82 36.15 8.65
-8.24 30.34 -0.55
-10.72 40.03 0.72
-10.65 39.77 2.16
-2.85 10.65 -2.14
-10.6 39.6 3.59
-3.66 13.68 -2.24
-9.82 36.69 4.66
-5.03 18.8 -2.39
-5.94 22.19 -2.01
-9.58 35.76 7.2
-8.02 29.96 -1.63
-9.09 33.96 8.12
-8.08 30.17 -0.55
-10.49 39.17 10.87
-6.53 24.74 1.34
-2.81 10.65 -2.14
-10.47 39.65 3.59
-3.62 13.7 -2.24
-9.76 36.97 4.69
-4.97 18.83 -2.39
-5.94 22.48 -2.03
-9.46 35.82 7.2
-6.97 26.41 -1.43
-8.96 33.94 8.1
-8.24 31.22 -0.56
-9.93 37.62 10.43
-9.36 35.94 1.95
-2.78 10.65 -2.14
-6.78 26.05 2.35
-3.57 13.71 -2.24
-10.29 39.51 5.01
-4.9 18.83 -2.39
-10.26 39.4 6.45
-5.93 22.75 -2.06
-11.76 45.16 9.07
-8.82 33.85 8.08
-7.97 30.6 -0.55
-6.66 25.94 0.47
-9.41 36.65 1.98
-2.74 10.66 -2.14
-6.46 25.17 2.27
-3.52 13.73 -2.24
-11.75 45.75 5.8
-4.84 18.85 -2.39
-10.12 39.43 6.45
-6.41 24.95 -2.25
-10.11 39.39 7.91
-8.71 33.94 8.09
-7.92 30.85 -0.56
-9.65 38.13 0.69
-2.7 10.67 -2.14
-6.42 25.38 2.29
-3.48 13.74 -2.25
-11.57 45.74 5.79
-4.77 18.86 -2.39
-10 39.53 6.46
-6.31 24.95 -2.25
-9.95 39.33 7.88
-8.62 34.08 8.12
-7.77 30.72 -0.55
-9.83 39.43 0.71
-9.05 36.28 1.96
-2.66 10.68 -2.14
-6.33 25.41 2.29
-3.43 13.75 -2.25
-9.94 39.86 5.04
-4.7 18.87 -2.39
-9.87 39.58 6.46
-6.21 24.93 -2.25
-8.41 33.73 8.03
-7.84 31.45 -0.57
-9.58 39 0.7
-9.51 38.73 2.09
-2.62 10.68 -2.14
-3.38 13.77 -2.25
-9.81 39.93 5.05
-4.64 18.88 -2.39
-9.73 39.6 6.46
-6.11 24.89 -2.24
-11.15 45.39 9.09
-8.28 33.73 8.02
-7.92 32.23 -0.58
-9.86 40.13 11.07
-11.04 45.64 0.82
-11.08 45.8 2.47
-2.59 10.69 -2.14
-6.38 26.39 2.38
-3.33 13.77 -2.24
-11.08 45.79 5.78
-4.57 18.9 -2.39
-6.03 24.92 -2.24
-11.19 46.26 9.25
-8.21 33.95 8.06
-7.73 31.96 -0.57
-9.42 38.95 10.74
-10.85 45.55 0.82
-10.9 45.74 2.46
-2.55 10.7 -2.14
-10.92 45.84 4.12
-3.28 13.79 -2.24
-10.93 45.9 5.79
-4.51 18.91 -2.39
-11 46.19 7.52
-5.88 24.7 -2.22
-9.63 40.44 8.08
-8.12 34.09 8.09
-7.69 32.26 -0.58
-8.73 36.65 10.1
-10.74 45.78 0.82
-8.49 36.21 1.95
-2.51 10.71 -2.14
-3.24 13.8 -2.24
-4.44 18.92 -2.39
-10.86 46.29 7.53
-5.8 24.71 -2.22
-9.59 40.9 8.17
-8.35 35.6 8.44
-7.62 32.47 -0.58
-2.48 10.72 -2.14
-10.72 46.43 4.17
-3.19 13.81 -2.25
-4.37 18.93 -2.38
-10.7 46.35 7.53
-9.45 40.94 8.17
-8.22 35.62 8.44
-7.47 32.36 -0.58
-8.41 36.41 10.01
-2.43 10.72 -2.14
-8.51 37.47 3.36
-3.14 13.83 -2.25
-9.22 40.59 5.11
-4.3 18.94 -2.38
-9.4 41.39 6.72
-5.65 24.87 -2.23
-9.27 40.79 8.13
-8.25 36.32 8.6
-7.54 33.17 -0.59
-8.26 36.35 9.99
-9.92 44.39 0.79
-2.4 10.74 -2.14
-8.35 37.35 3.35
-3.09 13.84 -2.25
-10.15 45.41 5.71
-4.24 18.96 -2.39
-9.3 41.62 6.75
-5.56 24.88 -2.23
-9.1 40.73 8.11
-7.65 34.21 8.09
-7.33 32.8 -0.59
-8.13 36.35 9.98
-9.77 44.42 0.79
-9.79 44.54 2.39
-2.36 10.74 -2.14
-8.28 37.67 3.37
-3.04 13.85 -2.25
-4.17 18.99 -2.39
-9.18 41.76 6.77
-5.49 24.95 -2.23
-10.12 46.01 9.16
-7.53 34.26 8.1
-8.01 36.44 10
-8.56 39.61 0.71
-9.62 44.51 2.39
-2.33 10.76 -2.14
-8.18 37.84 3.39
-3 13.85 -2.24
-4.11 18.99 -2.39
-9.04 41.8 6.77
-5.42 25.05 -2.24
-8.11 37.51 7.46
-7.38 34.14 8.06
-2.28 10.75 -2.14
-7.85 36.93 3.3
-2.95 13.86 -2.24
-9.49 44.66 5.61
-4.03 18.98 -2.38
-9.42 44.33 7.18
-5.36 25.23 -2.26
-9.42 44.33 8.81
-7.29 34.3 8.1
-7.39 34.77 -0.62
-9.76 46.7 0.83
-2.25 10.75 -2.14
-7.74 37.06 3.31
-2.9 13.89 -2.25
-9.35 44.74 5.61
-3.97 19.01 -2.38
-9.32 44.62 7.22
-5.36 25.64 -2.29
-7.68 36.76 7.3
-5.43 25.99 -1.39
-7.18 34.36 8.1
-8.02 38.37 -0.68
-7.63 36.53 10
-9.6 46.76 0.83
-2.21 10.76 -2.14
-7.6 37.02 3.31
-2.85 13.89 -2.25
-3.9 19.01 -2.38
-8.57 41.75 6.75
-5.32 25.9 -2.31
-8.1 39.47 7.83
-7.08 34.47 8.12
-7.49 36.47 9.98
-9.49 47.07 2.52
-2.17 10.78 -2.14
-2.8 13.89 -2.24
-8.32 41.25 5.17
-3.84 19.03 -2.38
-8.4 41.64 6.73
-5.3 26.3 -2.35
-9 44.65 8.85
-7.14 35.42 8.34
-7.31 36.28 9.92
-7.69 38.81 0.69
-9.25 46.73 2.5
-2.13 10.78 -2.14
-9.38 47.38 4.23
-2.75 13.91 -2.25
-8.16 41.22 5.16
-3.77 19.04 -2.38
-8.26 41.73 6.74
-5.29 26.69 -2.38
-5.2 26.28 -1.4
-6.9 34.83 8.2
-7.61 38.43 -0.68
-7.19 36.31 9.92
-7.47 38.45 0.68
-8.71 44.83 2.39
-2.1 10.79 -2.14
-2.71 13.92 -2.25
-8.6 44.24 5.53
-3.7 19.04 -2.38
-7.81 40.2 6.49
-5.66 29.13 -2.6
-7.3 37.53 7.43
-6.79 34.95 8.22
-7.04 36.23 9.89
-2.06 10.78 -2.13
-8.82 46.24 4.12
-2.66 13.93 -2.25
-7.8 40.87 5.11
-3.64 19.05 -2.38
-7.69 40.28 6.49
-5.56 29.15 -2.6
-7.08 37.12 7.35
-6.64 34.82 8.18
-6.92 36.25 9.89
-8.18 43.64 2.33
-2.02 10.79 -2.13
-7.5 40.06 3.57
-2.61 13.94 -2.25
-3.57 19.06 -2.38
-5.46 29.14 -2.59
-6.94 37.03 7.32
-6.49 34.65 8.14
-7.06 37.69 -0.67
-6.83 36.46 9.94
-8 43.55 0.77
-7.96 43.31 2.31
-1.99 10.8 -2.13
-8.28 45.04 4.01
-2.56 13.94 -2.25
-7.41 40.31 5.03
-3.51 19.07 -2.38
-8.28 45.07 7.26
-5.16 28.09 -2.5
-6.73 36.6 7.23
-5.16 28.09 -1.5
-6.34 34.5 8.1
-6.92 37.66 -0.67
-6.68 36.36 9.91
-7.1 39.43 0.7
-7.81 43.37 2.31
-1.95 10.8 -2.13
-8.07 44.82 3.98
-2.51 13.95 -2.24
-7.29 40.46 5.05
-3.44 19.08 -2.38
-7.5 41.64 6.7
-5.07 28.13 -2.5
-6.57 36.49 7.21
-5.11 28.4 -1.51
-6.19 34.4 8.07
-6.56 36.42 9.92
-6.96 39.4 0.7
-7.68 43.49 2.31
-1.91 10.8 -2.13
-7.85 44.43 3.95
-2.47 13.96 -2.25
-7.12 40.34 5.03
-3.37 19.07 -2.38
-7.11 40.27 6.48
-5.01 28.39 -2.52
-6.43 36.44 7.19
-6.14 34.78 8.15
-6.72 38.07 -0.67
-6.41 36.29 9.87
-6.84 39.55 2.1
-1.87 10.8 -2.13
-7.66 44.3 3.93
-2.42 13.98 -2.25
-7.67 44.38 5.53
-3.3 19.09 -2.38
-6.83 39.48 6.35
-5.05 29.21 -2.59
-6.3 36.44 7.19
-5.54 32.02 -1.7
-6.07 35.11 8.23
-6.65 38.43 -0.68
-6.84 39.58 10.76
-7.16 42.24 0.75
-7.52 44.39 2.36
-1.83 10.81 -2.13
-6.69 39.47 3.5
-2.37 13.98 -2.25
-7.53 44.45 5.54
-3.24 19.1 -2.38
-6.72 39.68 6.37
-4.95 29.21 -2.59
-6.21 36.68 7.23
-5.43 32.04 -1.7
-5.93 34.99 8.19
-6.74 39.76 10.81
-1.79 10.82 -2.13
-6.81 41.06 3.64
-2.32 13.98 -2.24
-7.39 44.56 5.55
-3.17 19.12 -2.38
-6.83 41.23 6.62
-4.85 29.27 -2.6
-6.28 37.9 7.47
-5.78 34.89 8.16
-7.36 44.42 12.06
-1.39 8.55 -2
-6.54 40.34 2.14
-1.76 10.83 -2.13
-7.24 44.62 3.96
-2.27 13.99 -2.24
-6.38 39.32 4.89
-3.1 19.13 -2.38
-7.3 45.01 7.22
-4.75 29.25 -2.59
-6.16 37.96 7.48
-5.19 32 -1.7
-5.66 34.91 8.16
-6.63 41.84 0.74
-1.35 8.49 -1.98
-1.72 10.83 -2.13
-2.22 14 -2.24
-7.13 44.98 5.59
-3.03 19.12 -2.38
-7.09 44.73 7.17
-4.64 29.24 -2.59
-6.06 38.2 7.52
-5.08 32.04 -1.7
-6.89 43.45 10.16
-6.12 39.49 0.7
-1.32 8.51 -1.99
-1.68 10.83 -2.13
-6.33 40.85 3.62
-2.17 14.01 -2.24
-2.97 19.14 -2.38
-4.54 29.25 -2.59
-5.94 38.32 7.54
-4.98 32.11 -1.7
-6.65 42.88 10.02
-5.98 39.52 0.7
-1.29 8.54 -1.99
-1.64 10.84 -2.13
-6.06 40 3.54
-2.12 14.01 -2.24
-6.96 45.95 5.71
-2.9 19.16 -2.38
-6.8 44.9 7.19
-4.44 29.31 -2.59
-7.11 46.96 9.23
-4.86 32.13 -1.7
-6.58 43.45 10.15
-1.26 8.5 -1.98
-5.96 40.29 2.13
-1.6 10.84 -2.13
-2.07 14.01 -2.24
-6.62 44.73 5.55
-2.84 19.19 -2.38
-6.67 45.1 7.22
-4.34 29.31 -2.59
-6.97 47.12 9.26
-4.77 32.22 -1.71
-6.35 42.91 10.01
-6.51 45.12 0.8
-1.22 8.44 -1.97
-1.57 10.85 -2.13
-5.66 39.26 3.47
-2.02 14.02 -2.24
-6.47 44.84 5.56
-2.77 19.21 -2.38
-6.51 45.13 7.22
-4.24 29.36 -2.6
-6.3 43.7 10.19
-6.28 44.61 0.79
-1.19 8.44 -1.97
-1.53 10.84 -2.13
-5.61 39.87 3.52
-1.97 14.03 -2.24
-6.33 44.96 5.57
-2.71 19.21 -2.38
-6.55 46.54 7.44
-4.14 29.41 -2.6
-5.83 41.4 8.13
-6.17 43.81 10.21
-6.13 44.61 0.79
-1.16 8.42 -1.96
-1.49 10.84 -2.13
-1.93 14.04 -2.24
-5.54 40.35 5
-2.64 19.24 -2.38
-5.39 39.26 6.28
-4.04 29.45 -2.6
-5.68 41.33 8.11
-6.16 44.84 10.45
-5.96 44.54 0.78
-1.12 8.4 -1.96
-1.45 10.84 -2.13
-1.88 14.04 -2.24
-2.58 19.27 -2.39
-3.95 29.49 -2.6
-5.53 41.32 8.1
-5.88 45.14 0.79
-1.08 8.27 -1.93
-5.55 42.59 2.25
-1.42 10.87 -2.13
-5.93 45.52 4.02
-1.83 14.05 -2.24
-2.51 19.29 -2.39
-3.85 29.53 -2.61
-5.44 41.76 8.18
-5.69 44.89 0.79
-1.06 8.33 -1.94
-1.38 10.87 -2.13
-5.8 45.72 4.03
-1.78 14.06 -2.25
-5.71 45.01 5.57
-2.45 19.31 -2.39
-3.75 29.57 -2.61
-6.19 48.8 -0.86
-5.58 45.31 0.8
-1.02 8.32 -1.94
-5.51 44.78 2.36
-1.34 10.87 -2.13
-1.73 14.07 -2.24
-5.78 46.93 5.81
-2.38 19.32 -2.39
-3.65 29.61 -2.61
-5.99 48.68 -0.86
-5.51 46.01 0.81
-0.99 8.28 -1.93
-5.35 44.72 2.36
-1.3 10.88 -2.13
-5.71 47.68 4.2
-1.68 14.07 -2.24
-5.65 47.19 5.84
-2.32 19.36 -2.39
-5.33 45.94 0.81
-0.96 8.23 -1.91
-5.21 44.87 2.37
-1.26 10.87 -2.13
-4.68 40.35 3.55
-1.63 14.07 -2.24
-2.25 19.37 -2.39
-7.37 63.5 10.12
-5.26 46.71 0.82
-0.92 8.2 -1.9
-5.01 44.51 2.35
-1.23 10.88 -2.13
-5.4 47.92 4.22
-1.58 14.07 -2.24
-2.19 19.41 -2.4
-7.05 62.59 9.98
-5.02 46.07 0.81
-0.89 8.14 -1.89
-1.19 10.88 -2.13
-1.53 14.08 -2.24
-6.91 63.41 7.83
-2.12 19.43 -2.4
-4.83 45.78 0.8
-0.86 8.14 -1.89
-1.15 10.88 -2.13
-6.75 63.99 5.63
-1.49 14.09 -2.24
-2.05 19.42 -2.4
-4.71 46.22 0.81
-0.83 8.15 -1.89
-1.11 10.88 -2.13
-6.44 63.18 5.56
-1.44 14.09 -2.24
-4.56 46.3 0.81
-0.8 8.16 -1.89
-1.07 10.89 -2.13
-6.35 64.53 5.67
-1.39 14.09 -2.24
-0.77 8.13 -1.88
-1.03 10.89 -2.13
-1.34 14.09 -2.24
-5.95 62.71 7.73
-5.19 54.74 -0.96
-0.74 8.09 -1.88
-1 10.9 -2.13
-1.29 14.1 -2.24
-5.71 62.49 7.7
-4.1 44.89 -2.36
-4.91 55.73 0.98
-0.71 8.07 -1.87
-5.93 67.37 3.54
-0.77 8.72 -1.7
-1.24 14.1 -2.24
-5.48 62.28 7.68
-5.53 62.86 10
-3.95 44.9 -2.36
-4.71 55.75 0.98
-0.67 7.9 -1.83
-0.92 10.9 -2.13
-5.63 66.65 5.85
-1.19 14.1 -2.24
-3.8 44.92 -2.36
-5.04 59.67 -1.05
-0.63 7.76 -1.8
-5.23 64.46 3.39
-0.88 10.89 -2.12
-5.12 63.14 5.54
-1.14 14.11 -2.24
-5.13 63.18 7.78
-5.25 64.67 10.28
-3.64 44.87 -2.36
-0.6 7.74 -1.79
-5.26 67.7 3.56
-0.67 8.65 -1.69
-4.91 63.2 5.55
-1.09 14.1 -2.24
-3.49 44.92 -2.36
-0.57 7.67 -1.78
-5.01 67.68 3.56
-0.64 8.66 -1.69
-4.7 63.5 5.57
-1.04 14.1 -2.24
-0.54 7.66 -1.77
-0.77 10.89 -2.12
-4.46 63.36 5.56
-0.82 11.64 -1.85
-0.48 7.1 -1.91
-0.52 7.68 -1.78
-4.24 63.21 3.32
-0.73 10.88 -2.12
-4.38 65.2 5.72
-0.78 11.59 -1.84
-0.78 11.58 -1.43
-4.45 66.32 10.53
-0.45 7.06 -1.9
-0.49 7.7 -1.78
-0.69 10.89 -2.12
-4.03 63.32 5.55
-0.74 11.55 -1.83
-0.74 11.58 -1.42
-4.2 66.01 10.48
-0.42 7.07 -1.9
-0.46 7.68 -1.78
-0.65 10.88 -2.12
-3.78 63.12 5.53
-0.69 11.53 -1.83
-3.95 65.88 10.45
-0.4 7.07 -1.9
-0.43 7.54 -1.74
-0.61 10.88 -2.12
-0.65 11.52 -1.83
-3.72 65.84 10.45
-0.37 7.07 -1.9
-0.4 7.5 -1.73
-0.58 10.88 -2.12
-3.26 61.67 5.4
-0.62 11.76 -1.87
-3.48 65.71 10.42
-2.67 50.36 -2.64
-0.35 7.05 -1.89
-3.22 65.18 1.14
-0.37 7.47 -1.73
-0.54 10.87 -2.12
-3.05 61.78 5.41
-0.57 11.5 -1.82
-3.25 65.84 10.44
-0.32 7.02 -1.88
-0.34 7.44 -1.72
-3.05 66.33 3.48
-0.5 10.87 -2.12
-0.53 11.47 -1.82
-3.05 66.3 8.15
-0.53 11.59 -1.42
-2.35 51.2 -2.69
-0.3 7.01 -1.88
-0.32 7.44 -1.72
-0.46 10.87 -2.12
-0.49 11.45 -1.82
-0.49 11.58 -1.42
-0.28 7.01 -1.88
-0.29 7.41 -1.71
-0.43 10.88 -2.12
-0.46 11.61 -1.84
-2.54 64.73 7.95
-0.46 11.66 -1.43
-0.25 6.97 -1.87
-0.26 7.36 -1.7
-0.39 10.88 -2.12
-0.42 11.59 -1.84
-2.34 65.28 8.02
-0.22 6.95 -1.86
-0.24 7.43 -1.72
-0.35 10.86 -2.11
-0.37 11.47 -1.82
-2.09 65.26 8.02
-0.5 15.66 4.2
-0.2 6.92 -1.86
-0.21 7.28 -1.68
-0.31 10.85 -2.11
-0.33 11.51 -1.82
-1.86 65.22 8.01
-0.44 15.59 4.18
-0.17 6.91 -1.85
-0.19 7.39 -1.71
-0.28 10.87 -2.11
-0.29 11.52 -1.82
-0.4 15.75 4.22
-0.15 6.9 -1.85
-0.16 7.29 -1.68
-0.24 10.87 -2.11
-0.25 11.53 -1.83
-0.26 11.81 -1.03
-0.34 15.76 4.22
-0.12 6.87 -1.84
-0.13 7.27 -1.68
-0.2 10.85 -2.11
-0.21 11.47 -1.82
-0.28 15.35 3.54
-0.28 15.53 4.16
-0.1 6.84 -1.83
-0.1 7.25 -1.67
-0.16 10.83 -2.11
-0.16 11.5 -1.82
-0.17 11.68 -1.02
-0.22 15.11 4.05
-0.08 6.8 -1.82
-0.08 7.23 -1.67
-0.12 10.82 -2.1
-0.13 11.5 -1.82
-0.13 11.59 -1.42
-0.13 11.66 -1.02
-0.17 15.2 4.07
-0.05 6.77 -1.81
-0.05 7.21 -1.66
-0.08 10.82 -2.1
-0.09 11.49 -1.82
-0.09 11.59 -1.42
-0.09 11.81 -1.03
-0.11 15.29 3.53
-0.11 14.21 3.81
-0.03 6.74 -1.81
-0.03 7.27 -1.68
-0.05 10.82 -2.1
-0.05 11.5 -1.82
-0.05 11.56 -1.42
-0.05 12.21 -0.64
-0.06 15.43 3.56
-0.06 14.46 3.87
-0 6.72 -1.8
-0 7.24 -1.67
-0.01 10.81 -2.1
-0.01 11.57 -1.83
-0.01 11.56 -1.42
-0.01 12.18 -0.64
-0.01 14.21 3.28
-0.01 15.19 4.07
0.02 6.69 -1.79
0.02 7.25 -1.67
0.03 10.79 -2.1
0.03 11.75 -1.86
0.03 11.56 -1.42
0.03 12.08 -0.63
0.04 14.48 3.88
0.04 6.64 -1.78
0.04 6.88 -1.59
0.07 10.76 -2.09
0.07 11.53 -1.83
0.07 11.58 -1.42
0.07 11.69 -1.02
0.08 12.01 -0.63
0.09 14.17 3.27
0.09 14.1 3.78
0.06 6.61 -1.77
0.07 6.82 -1.58
0.1 10.77 -2.09
0.11 11.55 -1.83
0.11 11.59 -1.42
0.12 11.99 -0.63
0.14 14.14 3.26
0.14 14.07 3.77
0.09 6.56 -1.76
0.09 6.79 -1.57
0.14 10.76 -2.09
0.15 11.57 -1.83
0.15 11.57 -1.42
0.16 11.94 -0.63
0.19 14.12 3.26
0.19 14.16 3.79
0.11 6.54 -1.75
0.11 6.8 -1.57
0.18 10.75 -2.09
0.19 11.57 -1.83
0.19 11.58 -1.42
0.23 14.14 3.26
0.24 14.19 3.8
0.13 6.52 -1.75
0.14 6.84 -1.58
0.22 10.73 -2.09
0.23 11.58 -1.83
0.23 11.57 -1.42
0.29 14.18 3.27
0.29 14.09 3.78
0.15 6.51 -1.74
0.16 6.86 -1.59
0.25 10.71 -2.08
0.27 11.59 -1.84
0.27 11.57 -1.42
0.29 12.31 -1.08
0.33 14.11 3.26
0.33 14.1 3.78
0.18 6.5 -1.74
0.19 6.89 -1.59
0.29 10.72 -2.08
0.31 11.59 -1.84
0.31 11.6 -1.42
0.32 11.89 -1.04
0.39 14.45 3.34
0.38 14.06 3.77
0.2 6.51 -1.74
0.21 6.91 -1.59
0.33 10.71 -2.08
0.35 11.6 -1.84
0.35 11.6 -1.42
0.36 11.88 -1.04
0.43 14.09 3.25
0.49 16.01 4.29
0.22 6.5 -1.74
0.36 10.69 -2.08
0.39 11.6 -1.84
0.39 11.59 -1.42
0.4 11.87 -1.04
0.48 14.07 3.77
0.24 6.54 -1.75
0.25 6.83 -1.58
0.4 10.69 -2.08
0.43 11.61 -1.84
0.43 11.6 -1.43
0.44 11.87 -1.04
0.27 6.5 -1.74
0.28 6.81 -1.57
0.44 10.68 -2.08
0.47 11.61 -1.84
0.47 11.61 -1.43
0.48 11.87 -1.04
0.29 6.49 -1.74
0.3 6.78 -1.57
0.47 10.68 -2.08
0.51 11.6 -1.84
0.52 11.62 -1.43
0.52 11.68 -1.02
0.31 6.48 -1.74
0.32 6.75 -1.56
0.51 10.66 -2.07
0.56 11.61 -1.84
0.56 11.6 -1.43
0.56 11.7 -1.02
0.32 6.24 -1.67
0.54 10.64 -2.07
0.59 11.61 -1.84
0.59 11.6 -1.43
0.6 11.71 -1.03
0.34 6.16 -1.65
0.42 7.74 -1.79
0.58 10.63 -2.07
0.64 11.62 -1.84
0.64 11.61 -1.43
0.64 11.71 -1.03
0.36 6.13 -1.64
0.45 7.74 -1.79
0.62 10.62 -2.07
0.68 11.63 -1.84
0.68 11.61 -1.43
0.68 11.74 -1.03
0.94 16.18 4.34
0.38 6.09 -1.64
0.48 7.72 -1.79
0.66 10.61 -2.07
0.72 11.63 -1.84
0.72 11.63 -1.43
0.73 11.79 -1.03
1.01 16.27 4.37
0.39 6.05 -1.63
0.5 7.7 -1.78
0.69 10.61 -2.07
0.76 11.62 -1.84
0.76 11.63 -1.43
0.77 11.79 -1.03
1.06 16.22 4.35
0.41 6.03 -1.62
0.53 7.69 -1.78
0.73 10.6 -2.07
0.8 11.64 -1.85
0.8 11.62 -1.43
0.81 11.79 -1.03
1.11 16.19 4.35
0.43 6 -1.61
0.56 7.7 -1.78
0.76 10.57 -2.06
0.84 11.64 -1.85
0.84 11.62 -1.43
0.85 11.73 -1.03
1.17 16.16 4.34
0.45 5.98 -1.61
0.58 7.69 -1.78
0.8 10.56 -2.06
0.88 11.65 -1.85
0.88 11.64 -1.43
0.89 11.75 -1.03
1.23 16.22 4.36
0.47 5.97 -1.6
0.61 7.68 -1.78
0.83 10.54 -2.05
0.92 11.63 -1.85
0.92 11.67 -1.44
0.93 11.75 -1.03
1.25 15.74 3.65
1.25 15.75 4.23
0.49 5.96 -1.6
0.63 7.65 -1.77
0.87 10.54 -2.06
0.96 11.64 -1.85
0.96 11.64 -1.43
0.97 11.73 -1.03
1.3 15.71 4.22
0.51 5.97 -1.6
0.66 7.65 -1.77
0.91 10.53 -2.05
1 11.65 -1.85
1 11.65 -1.44
1.01 11.75 -1.03
1.35 15.72 3.64
1.35 15.72 4.23
0.53 5.96 -1.6
0.68 7.65 -1.77
0.94 10.51 -2.05
1.04 11.66 -1.85
1.04 11.65 -1.44
1.05 11.73 -1.03
1.41 15.7 3.64
1.42 15.88 4.27
0.56 5.98 -1.61
0.71 7.64 -1.77
0.98 10.51 -2.05
1.09 11.65 -1.85
1.09 11.66 -1.44
1.09 11.73 -1.03
1.12 11.98 -0.63
1.49 15.98 4.3
0.58 5.96 -1.61
0.74 7.63 -1.77
1.01 10.49 -2.05
1.13 11.65 -1.85
1.13 11.65 -1.44
1.13 11.72 -1.03
1.17 12.12 -0.64
1.16 12.03 3.24
0.6 5.97 -1.61
0.76 7.61 -1.77
1.05 10.47 -2.05
1.17 11.67 -1.86
1.17 11.66 -1.44
1.18 11.74 -1.03
1.67 16.69 -0.88
1.59 15.86 4.27
0.62 5.96 -1.61
0.79 7.61 -1.77
1.08 10.45 -2.04
1.21 11.66 -1.86
1.21 11.66 -1.44
1.22 11.75 -1.03
1.25 12.05 3.25
0.64 5.94 -1.6
0.81 7.59 -1.76
1.12 10.42 -2.04
1.25 11.68 -1.86
1.25 11.66 -1.44
1.26 11.74 -1.03
0.66 5.94 -1.6
0.84 7.6 -1.76
1.14 10.34 -2.02
1.29 11.68 -1.86
1.29 11.67 -1.44
1.3 11.74 -1.03
1.31 11.85 3.19
0.68 5.92 -1.6
0.87 7.59 -1.76
1.17 10.24 -2
1.33 11.67 -1.86
1.33 11.67 -1.44
1.34 11.73 -1.03
1.37 12.01 3.24
0.7 5.92 -1.6
4.47 38.01 0.67
0.89 7.57 -1.76
1.2 10.21 -2
1.37 11.68 -1.86
1.37 11.68 -1.44
1.38 11.75 -1.03
1.4 11.89 3.21
0.71 5.84 -1.58
0.92 7.56 -1.76
1.23 10.17 -1.99
1.42 11.7 -1.87
1.42 11.68 -1.44
2.9 23.86 3.81
1.43 11.77 -1.04
1.4 11.57 2.69
1.44 11.9 3.21
0.72 5.8 -1.57
0.94 7.56 -1.76
1.26 10.13 -1.98
1.46 11.71 -1.87
1.46 11.68 -1.45
1.47 11.78 -1.04
2.13 17.03 -0.9
1.95 15.59 3.63
1.88 15.1 4.08
0.74 5.78 -1.56
0.97 7.55 -1.76
1.29 10.09 -1.98
1.5 11.72 -1.87
1.5 11.69 -1.45
1.51 11.76 -1.04
2.43 18.96 -1
1.99 15.55 3.62
9.17 71.58 -1.26
1.47 11.45 3.09
0.76 5.77 -1.56
0.99 7.54 -1.76
8.78 66.74 3.53
1.3 9.86 -1.93
1.54 11.72 -1.87
1.54 11.68 -1.45
1.55 11.76 -1.04
2.49 18.96 -1
2.07 15.75 3.67
8.77 66.64 -1.17
1.97 14.98 4.05
0.79 5.79 -1.57
1.02 7.52 -1.75
8.37 61.75 3.27
1.33 9.79 -1.92
1.59 11.73 -1.87
1.58 11.69 -1.45
1.6 11.77 -1.04
2.58 19.02 -1.01
2.1 15.48 3.61
8.36 61.68 -1.09
2.03 14.99 4.05
0.81 5.8 -1.57
7.85 56.46 1
1.04 7.51 -1.75
2.97 21.34 1.13
1.35 9.75 -1.91
2.94 21.14 1.87
1.63 11.75 -1.88
1.63 11.7 -1.45
1.64 11.8 -1.04
3.19 22.93 4.5
2.66 19.14 -1.01
7.85 56.44 -0.99
1.59 11.45 3.1
0.82 5.78 -1.56
8.05 56.44 1
1.07 7.51 -1.75
3.04 21.33 1.13
1.39 9.72 -1.91
3.03 21.2 1.87
1.68 11.75 -1.88
1.67 11.71 -1.45
3.12 21.88 3.5
1.68 11.79 -1.04
2.16 15.15 2.98
5.28 36.99 -1.96
2.16 15.17 3.54
8.05 56.42 -0.99
1.63 11.42 3.09
0.84 5.76 -1.56
8.25 56.43 1
1.1 7.5 -1.75
3.08 21.05 1.11
1.41 9.67 -1.9
3.1 21.21 1.88
1.71 11.72 -1.88
3.44 23.57 2.92
1.71 11.69 -1.45
3.21 21.94 3.51
1.72 11.78 -1.04
3.33 22.8 4.48
5.4 36.93 -1.96
2.2 15.04 3.51
8.25 56.44 -1
1.68 11.49 3.11
0.86 5.74 -1.55
8.44 56.41 1
1.12 7.49 -1.75
3.13 20.89 1.11
1.44 9.65 -1.9
3.18 21.24 1.88
1.96 13.11 -2.1
3.53 23.57 2.93
1.75 11.69 -1.45
3.08 20.57 3.29
1.76 11.79 -1.04
3.39 22.66 4.45
5.52 36.92 -1.96
8.44 56.38 -1
1.72 11.52 3.12
0.88 5.73 -1.55
8.63 56.37 1
1.14 7.47 -1.74
3.19 20.82 1.1
1.47 9.61 -1.89
3.19 20.81 1.84
2.01 13.1 -2.1
3.6 23.5 2.92
1.79 11.69 -1.45
3.14 20.48 3.28
1.82 11.88 -1.05
3.49 22.78 4.48
5.68 37.11 -1.97
2.36 15.39 3.59
8.63 56.39 -1
1.74 11.39 3.09
0.9 5.73 -1.55
8.84 56.37 1
1.17 7.46 -1.74
3.22 20.57 1.09
1.5 9.56 -1.88
3.26 20.79 1.84
1.83 11.69 -1.87
3.68 23.48 2.92
1.83 11.68 -1.45
3.22 20.51 3.29
3.57 22.74 4.47
5.84 37.23 -1.97
2.35 15.02 3.51
8.83 56.35 -1
1.77 11.31 3.07
0.92 5.72 -1.55
9.03 56.37 1
1.19 7.45 -1.74
3.28 20.45 1.09
1.52 9.48 -1.87
3.33 20.77 1.84
1.87 11.66 -1.87
3.77 23.52 2.93
1.9 11.85 -1.47
3.26 20.35 3.26
3.65 22.8 4.49
5.96 37.21 -1.97
3.5 21.85 5.11
9.03 56.33 -1
1.8 11.26 3.06
0.94 5.71 -1.55
4.31 26.32 0.47
1.22 7.44 -1.74
3.38 20.59 1.09
1.55 9.45 -1.86
3.42 20.86 1.85
1.91 11.65 -1.87
3.37 20.56 2.56
1.97 12.02 -1.5
3.36 20.52 3.29
3.74 22.83 4.5
5.74 34.99 -1.86
2.48 15.15 3.54
9.23 56.32 -1
2.48 15.16 4.12
1 5.99 -1.63
3.6 21.52 0.38
1.24 7.42 -1.74
3.4 20.3 1.08
1.58 9.43 -1.86
3.44 20.56 1.82
1.95 11.64 -1.87
3.45 20.63 2.57
1.98 11.82 -1.47
3.44 20.52 3.3
3.62 21.64 4.26
5.8 34.64 -1.84
2.54 15.2 3.56
9.43 56.3 -1
1.93 11.54 3.13
1.08 6.3 -1.71
3.71 21.72 0.38
1.27 7.4 -1.73
3.42 19.99 1.06
1.6 9.39 -1.85
3.51 20.55 1.82
1.99 11.66 -1.87
3.57 20.87 2.6
2.01 11.74 -1.46
3.65 21.34 3.43
2.63 15.4 3.04
5.91 34.59 -1.84
3.7 21.63 5.07
9.62 56.28 -1
2.59 15.13 4.11
1.1 6.3 -1.71
3.8 21.76 0.39
1.29 7.4 -1.73
3.45 19.78 1.05
1.63 9.35 -1.84
3.58 20.51 1.82
2.24 12.83 -2.06
3.61 20.68 2.58
2.05 11.73 -1.46
3.71 21.26 3.42
3.96 22.69 4.48
6.04 34.62 -1.84
3.8 21.79 5.11
9.82 56.27 -1
3.73 21.37 5.81
1.12 6.27 -1.71
3.89 21.85 0.39
1.32 7.39 -1.73
3.63 20.39 1.09
1.66 9.31 -1.84
3.65 20.5 1.82
2.08 11.7 -1.88
3.72 20.89 2.61
2.09 11.73 -1.46
3.78 21.23 3.42
3.7 20.78 4.1
6.16 34.58 -1.84
3.77 21.19 4.97
10.02 56.24 -1
1.95 10.95 2.98
1.12 6.18 -1.68
3.97 21.88 0.39
1.34 7.38 -1.73
3.69 20.32 1.08
1.68 9.26 -1.83
3.75 20.63 1.83
2.12 11.65 -1.88
3.72 20.49 2.56
2.13 11.75 -1.47
3.83 21.07 3.39
2.2 12.1 -1.08
3.77 20.78 4.11
6.28 34.59 -1.84
3.84 21.14 4.96
10.21 56.22 -1
3.91 21.53 5.86
1.15 6.2 -1.69
4.04 21.78 0.39
1.37 7.37 -1.73
3.74 20.16 1.07
1.72 9.27 -1.83
3.86 20.84 1.85
2.16 11.67 -1.88
3.85 20.79 2.6
2.18 11.78 -1.47
3.94 21.26 3.42
2.26 12.2 -1.09
4.02 21.69 4.29
6.41 34.57 -1.84
4.33 23.34 5.48
7.03 37.94 -0.67
3.96 21.38 5.83
1.18 6.26 -1.71
4.11 21.79 0.39
1.39 7.35 -1.73
3.74 19.8 1.06
1.76 9.3 -1.84
3.97 21.04 1.87
2.21 11.7 -1.89
3.94 20.87 2.61
2.27 12 -1.5
4.01 21.23 3.42
5.13 27.18 -2.42
4.09 21.68 4.29
6.53 34.56 -1.84
4.21 22.3 5.24
7.19 38.07 -0.68
2.15 11.37 3.1
1.2 6.25 -1.71
4.12 21.41 0.38
1.41 7.34 -1.73
3.89 20.21 1.08
1.77 9.21 -1.82
4 20.81 1.85
2.25 11.69 -1.89
3.92 20.4 2.55
2.3 11.97 -1.5
4.05 21.06 3.4
5.19 27 -2.41
4.12 21.41 4.24
6.65 34.55 -1.84
4.29 22.29 5.24
10.06 52.27 -0.93
2.15 11.18 3.05
1.22 6.24 -1.7
4.2 21.46 0.38
1.44 7.33 -1.72
3.94 20.1 1.07
1.8 9.2 -1.82
4.06 20.73 1.85
2.29 11.71 -1.89
3.99 20.36 2.55
2.32 11.83 -1.48
4.12 21.04 3.4
5.27 26.9 -2.4
4.16 21.25 4.21
6.77 34.56 -1.85
4.09 20.88 4.91
5.14 26.23 -0.47
4.18 21.35 5.83
1.24 6.21 -1.7
4.33 21.65 0.39
1.46 7.33 -1.73
3.97 19.86 1.06
1.84 9.2 -1.82
4.06 20.31 1.81
2.35 11.76 -1.9
4.08 20.44 2.56
4.21 21.07 3.4
5.4 27.02 -2.41
4.23 21.17 4.2
5.51 27.58 -1.47
4.17 20.85 4.91
4.87 24.39 -0.43
2.2 11.01 3.01
1.24 6.11 -1.67
4.3 21.13 0.38
1.49 7.32 -1.72
4.02 19.75 1.06
1.87 9.18 -1.82
4.1 20.15 1.8
2.59 12.71 -2.05
4.15 20.41 2.56
4.22 20.75 3.35
5.49 26.98 -2.41
4.3 21.13 4.19
5.62 27.64 -1.48
4.26 20.96 4.94
10.28 50.55 -0.9
4.34 21.33 5.83
1.28 6.2 -1.7
4.35 20.98 0.37
1.51 7.31 -1.72
4.14 19.98 1.07
1.89 9.13 -1.81
4.13 19.96 1.78
2.63 12.7 -2.05
4.21 20.31 2.55
2.46 11.88 -1.49
4.35 20.99 3.4
5.15 24.87 -2.22
4.38 21.15 4.2
5.73 27.69 -1.48
2.3 11.11 2.62
5.09 24.58 -0.44
2.3 11.12 3.04
1.31 6.22 -1.7
4.44 21.06 0.38
1.54 7.3 -1.72
4.2 19.92 1.07
1.92 9.09 -1.81
4.22 20.04 1.79
2.67 12.67 -2.05
4.26 20.22 2.54
4.35 20.65 3.34
5.3 25.14 -2.25
4.18 19.85 3.94
5.82 27.65 -1.48
4.69 22.25 5.25
5.12 24.28 -0.43
2.33 11.07 3.03
1.33 6.21 -1.7
4.43 20.68 0.37
1.56 7.29 -1.72
4.3 20.08 1.08
1.94 9.08 -1.8
4.3 20.06 1.8
2.71 12.67 -2.05
4.3 20.09 2.52
4.48 20.94 3.39
5.55 25.9 -2.32
4.7 21.93 4.36
5.91 27.61 -1.48
2.36 11.03 2.6
5.19 24.25 -0.43
2.34 10.94 3
1.35 6.19 -1.7
4.49 20.63 0.37
1.59 7.29 -1.72
4.41 20.25 1.09
1.97 9.05 -1.8
4.39 20.15 1.8
2.42 11.09 -1.8
4.33 19.89 2.5
4.53 20.79 3.37
5.1 23.41 -2.1
4.3 19.73 3.92
5.25 24.1 -1.29
2.43 11.14 2.63
5.27 24.2 -0.43
2.38 10.93 3
1.37 6.19 -1.7
4.55 20.56 0.37
1.61 7.27 -1.72
5.02 22.68 1.22
1.98 8.93 -1.78
4.48 20.23 1.81
2.45 11.06 -1.79
4.37 19.72 2.48
4.64 20.98 3.4
5.14 23.21 -2.08
4.39 19.83 3.95
5.37 24.25 -1.3
4.83 21.8 5.16
5.4 24.38 -0.44
2.37 10.73 2.94
1.39 6.18 -1.7
5.52 24.52 0.44
1.63 7.26 -1.72
4.45 19.8 1.06
2 8.89 -1.77
4.52 20.08 1.8
2.49 11.07 -1.8
4.42 19.64 2.47
3.15 14.02 -1.76
4.7 20.89 3.39
5.15 22.9 -2.05
4.47 19.87 3.96
5.45 24.23 -1.3
4.88 21.69 5.13
5.4 24.02 -0.43
1.41 6.18 -1.7
5.58 24.39 0.44
1.66 7.25 -1.72
4.45 19.46 1.05
2.02 8.84 -1.76
4.57 19.97 1.79
2.51 10.99 -1.79
4.51 19.72 2.48
3.21 14.03 -1.77
4.82 21.05 3.42
5.22 22.8 -2.05
4.53 19.79 3.95
5.52 24.13 -1.3
3.34 14.6 3.46
5.52 24.11 -0.43
2.43 10.61 2.92
1.43 6.17 -1.7
5.71 24.55 0.44
1.68 7.24 -1.72
4.53 19.47 1.05
2.04 8.76 -1.75
4.64 19.95 1.79
2.34 10.05 -1.63
3.36 14.44 1.82
3.3 14.18 -1.79
5.09 21.88 3.56
5.16 22.2 -1.99
4.57 19.64 3.92
5.6 24.1 -1.3
3.36 14.45 3.42
5.64 24.27 -0.43
3.52 15.12 4.16
1.45 6.16 -1.7
11.93 50.52 0.91
1.71 7.24 -1.72
4.63 19.59 1.05
2.06 8.71 -1.74
4.71 19.93 1.79
2.38 10.07 -1.64
4.86 20.57 2.6
3.38 14.32 -1.81
3.41 14.42 2.35
5.21 22.08 -1.98
4.68 19.8 3.96
5.71 24.16 -1.3
4.67 19.75 4.69
5.72 24.21 -0.43
3 12.68 3.49
1.48 6.15 -1.7
5.73 23.9 0.43
1.73 7.23 -1.72
4.66 19.42 1.05
2.08 8.69 -1.74
4.79 19.97 1.8
2.41 10.06 -1.64
3.53 14.71 1.86
3.65 15.21 -1.92
3.43 14.3 2.33
5.29 22.05 -1.98
4.75 19.79 3.96
5.79 24.14 -1.3
3.13 13.04 3.1
5.92 24.66 -0.44
3.07 12.79 3.52
1.5 6.15 -1.7
4.98 20.47 0.37
1.76 7.21 -1.71
4.72 19.4 1.05
2.1 8.63 -1.73
4.88 20.06 1.81
2.45 10.06 -1.64
3.57 14.66 1.85
3.68 15.13 -1.91
3.46 14.2 2.32
5.34 21.96 -1.98
4.74 19.49 3.9
6.61 27.15 -1.46
3.16 12.97 3.08
11.67 47.96 -0.86
3.09 12.68 3.5
1.52 6.14 -1.7
5.06 20.46 0.37
1.78 7.2 -1.71
4.86 19.69 1.06
2.12 8.58 -1.72
3.59 14.55 1.31
2.48 10.05 -1.64
3.6 14.56 1.84
3.73 15.1 -1.91
3.59 14.53 2.37
5.42 21.92 -1.98
3.57 14.44 2.89
6.45 26.12 -1.41
3.43 13.89 3.3
6.07 24.57 -0.44
3.16 12.8 3.53
1.54 6.13 -1.69
5.12 20.41 0.37
1.8 7.2 -1.71
4.93 19.67 1.06
2.14 8.55 -1.71
5.05 20.14 1.82
2.52 10.06 -1.64
5.06 20.19 2.56
3.78 15.06 -1.91
3.62 14.42 2.35
5.5 21.95 -1.98
4.87 19.43 3.89
6.55 26.1 -1.41
3.44 13.7 3.26
6.11 24.37 -0.44
3.25 12.94 3.58
1.56 6.11 -1.69
5.19 20.4 0.37
1.83 7.19 -1.71
5.06 19.88 1.07
2.17 8.52 -1.71
5.08 19.94 1.8
2.56 10.05 -1.64
3.71 14.56 1.84
3.83 15.06 -1.91
5.6 22.02 -1.99
3.67 14.42 2.89
6.93 27.24 -1.47
3.51 13.78 3.28
6.24 24.53 -0.44
5.2 20.44 5.65
1.58 6.11 -1.69
10.24 39.66 0.72
1.85 7.18 -1.71
5.11 19.79 1.07
2.2 8.52 -1.71
5.15 19.94 1.8
2.6 10.07 -1.65
5.2 20.15 2.55
3.89 15.06 -1.91
3.72 14.42 2.36
5.7 22.07 -1.99
5.07 19.65 3.95
6.98 27.04 -1.46
5.19 20.09 4.79
6.23 24.14 -0.44
3.38 13.1 3.62
1.6 6.1 -1.69
4.91 18.74 0.34
1.88 7.16 -1.71
5.2 19.84 1.07
2.22 8.49 -1.71
5.19 19.83 1.79
2.64 10.08 -1.65
5.6 21.38 2.71
3.93 15.01 -1.9
3.68 14.03 2.3
5.77 22.04 -1.99
5.09 19.44 3.91
7.09 27.04 -1.47
3.38 12.91 3.08
6.34 24.2 -0.44
5.67 21.65 6
1.62 6.11 -1.69
4.99 18.79 0.34
1.9 7.16 -1.71
4.9 18.46 1
2.25 8.48 -1.71
5.28 19.89 1.8
2.68 10.08 -1.65
3.7 13.91 1.77
3.95 14.88 -1.89
3.73 14.04 2.3
4.22 15.87 -1.44
5.2 19.57 3.94
6.92 26.05 -1.41
3.45 12.99 3.1
