# .PCD v0.7 - Point Cloud Data file format
VERSION 0.7
FIELDS x y z
SIZE 4 4 4
TYPE F F F
COUNT 1 1 1
WIDTH 2812
HEIGHT 1
VIEWPOINT 0 0 0 1 0 0 0
POINTS 2812
DATA ascii
9.67 -5.64 -1.37
9.94 -5.8 1.82
13.53 -7.89 -1.37
9.96 -5.81 2.24
16.46 -9.6 -1
8.95 -5.22 2.39
16.44 -9.59 -0.33
8.19 -4.77 2.54
4.81 -2.83 -1.5
5.25 -3.09 -1.41
6.23 -3.66 -1.41
8.36 -4.92 -1.54
8.93 -5.25 1.27
9.64 -5.67 -1.37
13.49 -7.93 -1.37
9.57 -5.62 2.16
16.33 -9.6 -0.99
8.93 -5.25 2.39
16.33 -9.6 -0.33
4.8 -2.85 -1.5
5.22 -3.1 -1.4
6.14 -3.64 -1.39
8.34 -4.94 -1.54
8.83 -5.23 1.26
9.59 -5.68 -1.37
13.46 -7.98 -1.37
9.52 -5.64 2.15
16.22 -9.61 -0.99
8.99 -5.33 2.41
16.21 -9.61 -0.33
4.78 -2.86 -1.49
5.2 -3.11 -1.4
6.01 -3.59 -1.36
8.32 -4.97 -1.53
8.78 -5.24 1.26
9.55 -5.71 -1.37
13.43 -8.02 -1.37
8.52 -5.09 1.93
16.11 -9.62 -0.98
16.09 -9.61 -0.33
8.68 -5.18 2.71
4.77 -2.87 -1.49
5.18 -3.12 -1.4
5.96 -3.59 -1.35
8.29 -4.99 -1.53
8.78 -5.28 1.26
9.56 -5.75 -1.37
8.75 -5.27 1.62
13.39 -8.06 -1.37
16.03 -9.65 -0.98
8.68 -5.22 2.34
16.07 -9.67 -0.33
8.67 -5.21 2.71
4.75 -2.88 -1.49
8.7 -5.28 0.18
5.17 -3.14 -1.4
8.71 -5.29 0.53
5.92 -3.59 -1.35
8.73 -5.3 0.89
8.27 -5.02 -1.53
8.73 -5.3 1.25
9.54 -5.79 -1.37
8.72 -5.29 1.61
13.37 -8.11 -1.37
8.67 -5.26 1.97
15.91 -9.65 -0.98
8.68 -5.26 2.34
8.7 -5.28 -0.18
8.67 -5.26 2.72
4.74 -2.9 -1.49
8.67 -5.3 0.18
5.15 -3.15 -1.39
8.68 -5.3 0.53
5.87 -3.59 -1.34
8.71 -5.32 0.89
8.26 -5.05 -1.53
8.7 -5.32 1.25
8.74 -5.34 -1.26
8.7 -5.32 1.61
8.7 -5.32 -0.89
8.68 -5.31 1.98
8.68 -5.31 -0.53
9.07 -5.54 2.45
8.67 -5.3 -0.18
8.59 -5.25 2.7
4.73 -2.92 -1.49
8.65 -5.33 0.18
5.14 -3.17 -1.39
8.66 -5.34 0.53
5.83 -3.59 -1.33
8.69 -5.36 0.89
8.25 -5.09 -1.54
8.69 -5.35 1.25
8.68 -5.35 -1.25
8.68 -5.35 1.61
8.67 -5.34 -0.89
8.66 -5.33 -0.53
7.62 -4.7 2.07
8.64 -5.32 -0.18
8.55 -5.27 2.69
4.72 -2.93 -1.49
8.65 -5.37 0.18
5.14 -3.19 -1.4
8.64 -5.37 0.53
5.8 -3.6 -1.33
8.69 -5.4 0.9
8.25 -5.12 -1.54
8.67 -5.38 1.25
8.66 -5.38 -1.25
8.64 -5.36 -0.89
8.6 -5.34 1.97
8.65 -5.37 -0.53
9.88 -6.13 2.68
8.65 -5.37 -0.18
8.54 -5.31 2.69
4.69 -2.93 -1.48
5.14 -3.21 -1.4
5.78 -3.62 -1.33
8.23 -5.15 -1.54
8.65 -5.41 -1.25
8.65 -5.42 -0.89
8.59 -5.38 1.97
15.75 -9.86 -0.97
9.83 -6.15 2.68
4.67 -2.95 -1.48
5.12 -3.23 -1.4
5.78 -3.64 -1.33
8.22 -5.18 -1.54
9.56 -6.03 1.39
9.52 -6 -1.38
13.17 -8.3 -1.36
8.57 -5.4 1.97
17.8 -11.22 -1.1
4.66 -2.96 -1.48
5.1 -3.24 -1.39
5.77 -3.67 -1.33
8.21 -5.22 -1.54
9.4 -5.98 1.37
9.53 -6.05 -1.39
13.14 -8.35 -1.36
8.55 -5.43 1.97
14.88 -9.46 -0.92
9.77 -6.21 2.67
4.65 -2.98 -1.48
5.08 -3.25 -1.39
5.75 -3.68 -1.33
8.2 -5.25 -1.54
9.33 -5.97 1.36
9.48 -6.07 -1.38
13.1 -8.39 -1.36
8.5 -5.44 1.96
14.81 -9.48 -0.92
4.62 -2.98 -1.47
5.06 -3.27 -1.39
5.73 -3.7 -1.32
8.17 -5.27 -1.54
9.31 -6.01 1.36
9.45 -6.1 -1.38
13.06 -8.43 -1.36
14.75 -9.52 -0.92
9.65 -6.22 3.08
4.59 -2.99 -1.47
15.65 -10.17 0.33
5.05 -3.29 -1.39
15.47 -10.06 0.97
5.71 -3.72 -1.32
8.16 -5.3 -1.54
8.64 -5.62 1.27
9.45 -6.14 -1.38
13.03 -8.47 -1.36
14.62 -9.5 -0.91
17.28 -11.24 -0.36
9.56 -6.21 3.06
4.59 -3.01 -1.47
15.59 -10.21 0.33
5.04 -3.3 -1.39
16.23 -10.63 1.02
5.7 -3.74 -1.33
8.11 -5.32 -1.54
8.62 -5.65 1.27
9.42 -6.17 -1.38
13 -8.52 -1.36
8.44 -5.53 1.96
14.53 -9.52 -0.91
15.57 -10.2 -0.32
9.82 -6.43 3.15
4.58 -3.02 -1.47
5.01 -3.31 -1.39
16.17 -10.67 1.02
5.71 -3.77 -1.33
8.07 -5.33 -1.53
8.61 -5.69 1.27
9.4 -6.21 -1.38
12.95 -8.55 -1.36
8.39 -5.54 1.95
14.51 -9.58 -0.91
17.25 -11.39 -0.36
9.64 -6.36 3.09
4.58 -3.05 -1.47
4.99 -3.32 -1.38
15.27 -10.16 0.96
5.67 -3.77 -1.32
8.05 -5.35 -1.53
8.61 -5.73 1.27
9.39 -6.25 -1.39
8.59 -5.71 1.63
12.92 -8.6 -1.36
14.33 -9.53 -0.9
4.58 -3.07 -1.48
15.55 -10.41 0.33
4.98 -3.34 -1.38
15.14 -10.14 0.95
5.64 -3.78 -1.32
8.04 -5.39 -1.53
8.67 -5.81 1.28
9.4 -6.3 -1.39
8.53 -5.72 1.63
12.89 -8.63 -1.36
14.27 -9.56 -0.9
18.18 -12.18 -0.38
4.55 -3.07 -1.47
15.37 -10.37 0.32
4.97 -3.36 -1.39
15.74 -10.62 0.99
5.62 -3.79 -1.32
8.04 -5.42 -1.54
9.41 -6.35 -1.39
12.84 -8.67 -1.36
8.29 -5.6 1.94
14.21 -9.59 -0.9
16.17 -10.91 -0.34
4.53 -3.08 -1.47
15.16 -10.31 0.32
4.97 -3.38 -1.39
15.12 -10.28 0.96
5.57 -3.78 -1.31
8.02 -5.45 -1.54
9.39 -6.39 -1.39
12.81 -8.71 -1.36
14.15 -9.62 -0.9
15.48 -10.52 -0.33
9.58 -6.51 3.1
4.55 -3.12 -1.48
15.38 -10.54 0.33
4.95 -3.39 -1.38
15.89 -10.88 1.01
5.52 -3.78 -1.3
8.02 -5.49 -1.54
8.95 -6.13 1.33
9.38 -6.42 -1.4
12.77 -8.75 -1.35
8.01 -5.49 1.89
14.1 -9.66 -0.9
9.8 -6.71 2.74
15.19 -10.41 -0.32
7.94 -5.44 2.58
4.54 -3.13 -1.48
15.11 -10.42 0.32
4.95 -3.42 -1.39
15.31 -10.57 0.98
5.51 -3.8 -1.3
7.99 -5.52 -1.54
9.38 -6.47 -1.4
12.75 -8.8 -1.35
7.98 -5.51 1.88
14.05 -9.7 -0.89
8.13 -5.61 2.28
15.33 -10.58 -0.33
9.58 -6.61 3.12
4.53 -3.15 -1.48
15.3 -10.64 0.33
4.92 -3.42 -1.38
15.01 -10.44 0.96
5.48 -3.81 -1.3
7.97 -5.54 -1.54
9.38 -6.52 -1.4
7.9 -5.49 1.52
12.7 -8.83 -1.35
8.03 -5.58 1.9
14 -9.73 -0.89
8.11 -5.64 2.28
14.63 -10.17 -0.31
7.81 -5.43 2.55
4.51 -3.16 -1.48
15.34 -10.74 0.33
4.91 -3.44 -1.38
15.41 -10.8 0.99
5.44 -3.81 -1.29
7.95 -5.57 -1.54
8.9 -6.24 1.33
9.41 -6.59 -1.41
7.93 -5.56 1.53
12.66 -8.87 -1.35
8.11 -5.68 1.92
13.91 -9.74 -0.89
14.8 -10.36 -0.32
4.49 -3.17 -1.47
15.28 -10.78 0.33
4.88 -3.44 -1.38
15.31 -10.81 0.98
5.43 -3.83 -1.29
7.97 -5.62 -1.54
9.45 -6.67 -1.42
7.9 -5.58 1.53
12.61 -8.9 -1.35
13.85 -9.78 -0.89
14.58 -10.29 -0.31
4.43 -3.15 -1.46
14.88 -10.57 0.32
4.85 -3.45 -1.37
14.62 -10.39 0.94
5.42 -3.85 -1.29
7.97 -5.66 -1.55
9.46 -6.73 -1.43
7.85 -5.58 1.53
12.59 -8.95 -1.35
13.79 -9.8 -0.89
14.54 -10.33 -0.31
4.4 -3.15 -1.45
15.33 -10.97 0.33
4.83 -3.46 -1.37
15.62 -11.18 1.01
5.4 -3.86 -1.29
7.96 -5.7 -1.55
8.62 -6.17 1.3
9.46 -6.77 -1.43
7.78 -5.57 1.52
12.54 -8.98 -1.35
13.75 -9.85 -0.89
14.41 -10.32 -0.31
4.35 -3.14 -1.44
14.53 -10.48 0.31
4.8 -3.46 -1.37
15.35 -11.07 0.99
5.37 -3.87 -1.29
7.96 -5.74 -1.56
8.73 -6.29 1.32
9.92 -7.15 -1.5
9.25 -6.67 1.81
12.49 -9.01 -1.35
13.68 -9.86 -0.88
8.23 -5.93 2.34
15.45 -11.15 -0.33
4.28 -3.11 -1.42
14.92 -10.84 0.32
4.78 -3.48 -1.37
15.57 -11.31 1.01
5.35 -3.88 -1.28
46.25 -33.61 5
7.97 -5.79 -1.56
8.63 -6.27 1.31
9.9 -7.19 -1.5
8.24 -5.99 1.61
12.45 -9.05 -1.35
13.56 -9.85 -0.88
8.04 -5.84 2.29
14.98 -10.88 -0.32
4.27 -3.12 -1.42
14.4 -10.54 0.31
4.76 -3.48 -1.36
15.79 -11.55 1.03
5.34 -3.91 -1.29
7.95 -5.82 -1.56
9.89 -7.24 -1.5
12.41 -9.08 -1.35
13.41 -9.81 -0.87
7.25 -5.31 2.07
15.53 -11.37 -0.34
7.69 -5.63 2.55
4.25 -3.13 -1.41
14.43 -10.64 0.31
4.73 -3.49 -1.36
15.15 -11.17 0.99
5.32 -3.92 -1.29
7.95 -5.86 -1.56
9.87 -7.27 -1.51
8.22 -6.06 1.62
12.37 -9.12 -1.34
7.54 -5.56 1.82
13.15 -9.7 -0.86
7.3 -5.39 2.1
14.34 -10.57 -0.31
7.74 -5.71 2.58
4.24 -3.15 -1.41
14.32 -10.64 0.31
4.71 -3.5 -1.35
14.4 -10.7 0.94
5.24 -3.89 -1.27
15.47 -11.49 1.69
7.97 -5.92 -1.57
9.83 -7.3 -1.5
8.19 -6.08 1.62
12.33 -9.16 -1.34
7.51 -5.58 1.82
13.04 -9.69 -0.85
14.42 -10.71 -0.31
7.79 -5.78 2.6
4.23 -3.16 -1.41
14.1 -10.54 0.31
4.7 -3.51 -1.35
14.33 -10.72 0.94
5.23 -3.91 -1.27
7.95 -5.95 -1.57
8.35 -6.25 1.28
9.82 -7.34 -1.51
8.1 -6.06 1.6
12.3 -9.2 -1.34
13.01 -9.73 -0.85
14.08 -10.53 -0.31
7.79 -5.82 2.61
4.22 -3.18 -1.41
14.04 -10.58 0.31
4.68 -3.53 -1.35
15.35 -11.57 1.01
5.16 -3.88 -1.25
15.3 -11.53 1.68
7.93 -5.98 -1.57
8.33 -6.28 1.28
9.79 -7.38 -1.51
7.99 -6.02 1.58
12.24 -9.23 -1.34
13.02 -9.81 -0.85
14.04 -10.58 -0.31
4.21 -3.2 -1.42
13.94 -10.58 0.31
4.67 -3.54 -1.35
14.56 -11.06 0.96
5.08 -3.86 -1.24
7.93 -6.02 -1.58
9.78 -7.42 -1.51
8.03 -6.1 1.6
12.2 -9.26 -1.34
13.02 -9.89 -0.86
7.4 -5.61 2.14
13.97 -10.6 -0.31
4.21 -3.22 -1.42
13.86 -10.59 0.3
4.65 -3.55 -1.35
15 -11.46 0.99
5.04 -3.85 -1.23
15.09 -11.53 1.66
7.92 -6.06 -1.58
45.16 -34.52 6.98
9.75 -7.45 -1.51
12.16 -9.29 -1.34
13.07 -9.99 -0.86
7.3 -5.58 2.12
13.88 -10.61 -0.3
4.19 -3.22 -1.42
13.78 -10.61 0.3
4.64 -3.57 -1.35
14.81 -11.4 0.98
5.03 -3.87 -1.23
7.92 -6.1 -1.58
9.73 -7.49 -1.51
12.13 -9.34 -1.34
13.15 -10.13 -0.87
7.28 -5.6 2.12
13.79 -10.61 -0.3
4.17 -3.23 -1.41
13.67 -10.6 0.3
4.61 -3.57 -1.35
14.65 -11.36 0.97
5.01 -3.89 -1.23
15.35 -11.9 1.7
7.9 -6.13 -1.58
9.7 -7.52 -1.51
7.23 -5.6 1.45
12.1 -9.38 -1.34
8.11 -6.29 1.99
13.7 -10.62 -0.91
7.2 -5.59 2.1
13.68 -10.61 -0.3
8.25 -6.4 2.8
4.15 -3.24 -1.41
13.59 -10.62 0.3
4.61 -3.6 -1.35
14.45 -11.29 0.96
5 -3.9 -1.23
14.68 -11.47 1.63
7.9 -6.17 -1.59
9.68 -7.56 -1.51
7.31 -5.71 1.47
12.05 -9.41 -1.34
13.61 -10.63 -0.9
13.61 -10.63 -0.3
8.29 -6.47 2.82
4.11 -3.24 -1.4
13.51 -10.63 0.3
4.6 -3.62 -1.35
14.23 -11.2 0.95
4.98 -3.92 -1.23
15 -11.8 1.67
7.88 -6.2 -1.59
9.65 -7.59 -1.51
7.79 -6.12 1.57
11.97 -9.42 -1.33
13.52 -10.64 -0.9
7.13 -5.61 2.1
13.53 -10.64 -0.3
4.1 -3.25 -1.4
13.41 -10.62 0.3
4.56 -3.62 -1.34
14.18 -11.23 0.95
4.96 -3.93 -1.23
14.79 -11.72 1.65
7.85 -6.22 -1.59
9.62 -7.63 -1.51
7.77 -6.16 1.57
11.94 -9.46 -1.33
13.43 -10.64 -0.9
7.07 -5.6 2.08
13.43 -10.64 -0.3
6.79 -5.38 2.32
4.02 -3.21 -1.38
13.32 -10.63 0.3
4.49 -3.58 -1.33
14.66 -11.7 0.98
4.95 -3.95 -1.23
14.8 -11.81 1.66
7.82 -6.24 -1.58
9.59 -7.65 -1.51
11.91 -9.51 -1.33
13.33 -10.64 -0.89
13.34 -10.64 -0.3
6.77 -5.41 2.32
4.01 -3.22 -1.38
13.23 -10.63 0.3
4.46 -3.59 -1.32
14.9 -11.97 1
4.92 -3.95 -1.23
15.15 -12.18 1.7
7.81 -6.28 -1.59
9.57 -7.69 -1.51
11.88 -9.54 -1.33
13.26 -10.66 -0.89
13.24 -10.64 -0.3
8.14 -6.54 2.8
3.99 -3.23 -1.37
13.15 -10.64 0.3
4.45 -3.6 -1.32
14.29 -11.56 0.96
4.9 -3.97 -1.23
16.9 -13.68 1.9
7.78 -6.3 -1.59
9.55 -7.73 -1.51
11.82 -9.57 -1.33
13.18 -10.67 -0.89
13.16 -10.65 -0.3
6.97 -5.64 2.4
3.98 -3.24 -1.37
13.07 -10.65 0.29
4.44 -3.62 -1.32
14.33 -11.68 0.97
4.89 -3.98 -1.23
7.73 -6.3 -1.58
9.53 -7.76 -1.51
8.26 -6.73 1.69
11.78 -9.6 -1.33
7.14 -5.82 1.79
13.08 -10.66 -0.88
13.09 -10.67 -0.29
3.99 -3.28 -1.38
12.98 -10.65 0.29
4.43 -3.63 -1.32
14.14 -11.61 0.96
4.86 -3.99 -1.22
7.72 -6.34 -1.58
9.5 -7.79 -1.51
7.82 -6.42 1.6
11.73 -9.63 -1.33
13 -10.67 -0.88
13.01 -10.68 -0.29
3.97 -3.28 -1.38
12.9 -10.66 0.29
4.38 -3.62 -1.31
14.37 -11.88 0.98
4.84 -4 -1.22
16.95 -14.01 1.92
7.71 -6.37 -1.58
9.46 -7.82 -1.51
7.8 -6.45 1.6
11.66 -9.64 -1.32
7.12 -5.89 1.8
12.91 -10.67 -0.88
6.93 -5.72 2.07
12.91 -10.67 -0.29
3.94 -3.28 -1.37
12.82 -10.68 0.29
4.25 -3.54 -1.28
14.07 -11.72 0.96
4.8 -4 -1.22
7.68 -6.4 -1.58
14.72 -12.26 2.35
9.44 -7.86 -1.51
14.52 -12.09 2.99
11.58 -9.64 -1.32
12.83 -10.68 -0.88
12.84 -10.69 -0.29
7.68 -6.4 2.68
3.87 -3.25 -1.35
12.74 -10.68 0.29
4.2 -3.52 -1.27
14.23 -11.93 0.97
4.79 -4.01 -1.21
16.97 -14.23 1.94
7.64 -6.41 -1.58
9.41 -7.89 -1.51
11.5 -9.64 -1.31
12.75 -10.69 -0.87
12.75 -10.69 -0.29
7.71 -6.46 2.69
3.82 -3.23 -1.34
12.64 -10.67 0.29
4.15 -3.5 -1.25
14.32 -12.1 0.98
4.77 -4.03 -1.21
7.63 -6.44 -1.58
14 -11.82 2.25
9.39 -7.93 -1.51
11.45 -9.67 -1.31
12.68 -10.7 -0.87
12.67 -10.7 -0.29
7.69 -6.49 2.7
3.79 -3.22 -1.33
12.56 -10.68 0.29
4.05 -3.44 -1.23
14.4 -12.24 0.99
4.74 -4.03 -1.21
16.7 -14.2 1.92
7.61 -6.47 -1.58
9.36 -7.96 -1.51
11.38 -9.68 -1.31
7.83 -6.66 2
12.6 -10.71 -0.87
12.59 -10.71 -0.29
3.77 -3.23 -1.33
12.5 -10.7 0.29
4.03 -3.45 -1.22
14.33 -12.27 0.99
4.72 -4.04 -1.21
16.69 -14.29 1.92
7.58 -6.49 -1.58
9.33 -7.99 -1.51
11.38 -9.74 -1.31
7.8 -6.68 2
12.5 -10.71 -0.86
12.52 -10.72 -0.29
3.77 -3.25 -1.33
12.41 -10.7 0.29
4.02 -3.46 -1.22
4.68 -4.04 -1.2
14.11 -12.17 1.63
7.56 -6.52 -1.58
9.31 -8.03 -1.51
11.51 -9.93 -1.33
12.43 -10.72 -0.86
12.42 -10.71 -0.29
3.75 -3.26 -1.33
12.33 -10.7 0.29
4 -3.47 -1.22
14.54 -12.62 1.01
4.64 -4.03 -1.19
14.07 -12.21 1.63
7.53 -6.54 -1.58
9.28 -8.06 -1.51
13.38 -11.61 2.81
11.47 -9.96 -1.33
12.34 -10.71 -0.86
13.76 -11.94 4.21
12.32 -10.69 -0.28
3.73 -3.26 -1.33
12.21 -10.67 0.28
3.98 -3.48 -1.22
14.47 -12.65 1.01
4.6 -4.02 -1.19
16.57 -14.48 1.93
7.51 -6.56 -1.58
15.32 -13.39 2.5
9.26 -8.09 -1.51
14.4 -12.58 3.03
11.44 -10 -1.33
7.69 -6.72 1.99
12.24 -10.7 -0.85
12.22 -10.68 -0.28
3.72 -3.27 -1.33
12.13 -10.68 0.28
3.94 -3.47 -1.21
14.46 -12.73 1.01
4.56 -4.02 -1.18
13.99 -12.31 1.63
7.49 -6.59 -1.58
14.43 -12.7 2.36
9.23 -8.13 -1.51
13.46 -11.85 2.84
11.38 -10.02 -1.33
12.16 -10.71 -0.85
13.5 -11.89 4.15
12.14 -10.69 -0.28
3.68 -3.27 -1.32
12.06 -10.69 0.28
3.92 -3.48 -1.21
12.87 -11.41 0.9
4.51 -4 -1.17
13.97 -12.38 1.63
7.47 -6.62 -1.58
14.52 -12.87 2.38
9.2 -8.16 -1.51
14 -12.41 2.96
11.36 -10.07 -1.33
12.08 -10.71 -0.85
14.19 -12.58 4.38
12.07 -10.7 -0.28
3.65 -3.26 -1.31
11.98 -10.7 0.28
3.9 -3.48 -1.21
14.41 -12.86 1.01
4.47 -3.99 -1.16
13.93 -12.44 1.63
7.45 -6.66 -1.58
14.45 -12.9 2.38
9.17 -8.19 -1.51
13.91 -12.42 2.95
11.33 -10.12 -1.33
7.59 -6.77 1.98
12.02 -10.73 -0.84
13.56 -12.11 4.2
11.98 -10.7 -0.28
3.62 -3.25 -1.3
11.91 -10.7 0.28
3.89 -3.5 -1.21
12.98 -11.67 0.91
4.45 -4 -1.16
13.55 -12.18 1.59
7.44 -6.69 -1.58
14.43 -12.98 2.38
9.15 -8.22 -1.51
14.56 -13.09 3.1
11.27 -10.13 -1.33
11.95 -10.74 -0.84
11.91 -10.7 -0.28
3.61 -3.27 -1.3
11.82 -10.7 0.28
3.97 -3.59 -1.23
14.36 -13 1.02
4.38 -3.97 -1.15
12.61 -11.42 1.49
7.42 -6.72 -1.59
14.34 -12.99 2.38
9.12 -8.26 -1.51
12.92 -11.7 2.76
11.24 -10.18 -1.33
13.72 -12.42 3.6
11.85 -10.73 -0.84
13.2 -11.95 4.11
11.84 -10.72 -0.28
3.6 -3.28 -1.3
11.76 -10.72 0.28
3.96 -3.61 -1.24
14.28 -13.02 1.01
4.33 -3.94 -1.14
12.29 -11.21 1.46
7.39 -6.74 -1.58
14.34 -13.07 2.38
9.1 -8.29 -1.51
14.37 -13.1 3.08
11.22 -10.23 -1.33
13.72 -12.51 3.61
11.78 -10.74 -0.84
16.5 -15.04 5.16
11.76 -10.72 -0.28
3.59 -3.29 -1.3
11.68 -10.72 0.28
3.96 -3.63 -1.24
15.47 -14.2 1.1
4.3 -3.95 -1.13
7.36 -6.76 -1.58
9.07 -8.32 -1.51
13.31 -12.22 2.86
11.18 -10.26 -1.33
13.78 -12.65 3.64
11.71 -10.75 -0.83
13.22 -12.14 4.14
11.69 -10.73 -0.28
16.29 -14.95 5.92
3.56 -3.29 -1.3
11.6 -10.73 0.28
3.97 -3.67 -1.25
4.22 -3.9 -1.12
12.86 -11.88 1.53
7.34 -6.79 -1.58
13.86 -12.81 2.32
9.04 -8.36 -1.51
12.8 -11.83 2.76
11.15 -10.3 -1.33
11.63 -10.75 -0.83
37.63 -34.78 11.83
11.61 -10.73 -0.28
3.53 -3.29 -1.29
11.53 -10.74 0.28
3.95 -3.68 -1.25
15.23 -14.18 1.09
4.2 -3.91 -1.12
12.48 -11.62 1.49
7.3 -6.8 -1.58
9.01 -8.39 -1.51
12.99 -12.09 2.81
11.02 -10.26 -1.32
13.2 -12.28 3.5
11.56 -10.76 -0.83
11.54 -10.74 -0.28
3.52 -3.3 -1.29
11.46 -10.74 0.27
3.92 -3.68 -1.24
15.17 -14.22 1.09
4.1 -3.85 -1.09
12.48 -11.69 1.5
7.27 -6.81 -1.58
14.21 -13.32 2.39
8.99 -8.42 -1.51
14.37 -13.47 3.12
10.97 -10.29 -1.32
13.14 -12.32 3.5
11.48 -10.76 -0.82
14.75 -13.83 4.67
11.47 -10.75 -0.27
3.5 -3.31 -1.29
11.38 -10.74 0.27
3.87 -3.65 -1.23
4.05 -3.83 -1.08
12.55 -11.85 1.51
7.26 -6.85 -1.58
13.85 -13.08 2.34
8.96 -8.47 -1.51
12.24 -11.56 2.67
10.77 -10.17 -1.3
13.87 -13.1 3.71
11.4 -10.77 -0.82
15.86 -14.98 5.04
11.4 -10.76 -0.27
3.48 -3.31 -1.29
11.31 -10.75 0.27
3.85 -3.66 -1.23
13.37 -12.71 0.97
4.04 -3.84 -1.08
13.9 -13.21 1.68
7.24 -6.89 -1.58
12.45 -11.84 2.11
8.93 -8.49 -1.51
12.21 -11.61 2.67
10.58 -10.06 -1.28
11.34 -10.78 -0.82
11.32 -10.76 -0.27
3.46 -3.32 -1.28
11.3 -10.81 0.27
3.84 -3.68 -1.23
13.33 -12.76 0.97
4.09 -3.91 -1.1
13.59 -13.01 1.65
7.22 -6.91 -1.58
8.9 -8.51 -1.51
15.32 -14.66 3.36
10.52 -10.06 -1.27
13.03 -12.46 3.5
11.31 -10.82 -0.82
13.78 -13.18 4.4
11.3 -10.81 -0.27
3.44 -3.31 -1.28
3.9 -3.76 -1.25
15.69 -15.12 1.14
4.08 -3.93 -1.1
12.31 -11.86 1.5
7.2 -6.94 -1.58
8.88 -8.55 -1.51
13.76 -13.26 3.03
10.47 -10.09 -1.27
13.59 -13.1 3.67
11.37 -10.95 -0.83
12.29 -11.84 3.94
12.78 -12.31 4.75
3.41 -3.31 -1.27
11.33 -11 0.28
3.92 -3.8 -1.26
12.97 -12.59 0.95
4.07 -3.95 -1.1
14.12 -13.71 1.72
7.19 -6.98 -1.59
12.4 -12.03 2.12
8.85 -8.59 -1.51
12.16 -11.8 2.68
10.35 -10.05 -1.26
13.75 -13.35 3.72
11.36 -11.03 -0.83
14.22 -13.8 4.58
11.38 -11.04 -0.28
3.39 -3.31 -1.27
11.34 -11.08 0.28
3.69 -3.61 -1.19
15.82 -15.46 1.16
4.05 -3.96 -1.1
15.54 -15.19 1.9
7.16 -7 -1.59
8.82 -8.62 -1.51
12.58 -12.29 2.79
10.26 -10.02 -1.25
14.11 -13.79 3.84
11.36 -11.1 -0.83
12.67 -12.38 4.09
11.38 -11.13 -0.28
12.66 -12.37 4.74
3.36 -3.31 -1.26
11.35 -11.18 0.28
3.66 -3.6 -1.18
15.44 -15.2 1.14
4 -3.94 -1.09
13.57 -13.36 1.67
7.13 -7.02 -1.59
12.34 -12.14 2.13
8.79 -8.65 -1.51
13.97 -13.75 3.11
10.16 -10 -1.25
13.48 -13.27 3.68
11.37 -11.19 -0.84
12.95 -12.75 4.19
11.37 -11.19 -0.28
12.87 -12.67 4.84
3.34 -3.31 -1.26
11.35 -11.25 0.28
3.64 -3.6 -1.18
15.46 -15.33 1.14
3.88 -3.85 -1.06
12.61 -12.49 1.55
7.1 -7.04 -1.58
13.34 -13.22 2.31
8.76 -8.68 -1.51
13.64 -13.52 3.04
10.11 -10.02 -1.25
11.38 -11.28 -0.84
12.27 -12.16 3.99
11.39 -11.29 -0.28
13.03 -12.91 4.91
3.32 -3.31 -1.26
11.37 -11.35 0.28
3.62 -3.61 -1.18
15.6 -15.58 1.16
3.87 -3.86 -1.06
12.73 -12.71 1.57
7.07 -7.06 -1.58
13.51 -13.49 2.34
8.74 -8.72 -1.52
13.69 -13.67 3.06
10.03 -10.01 -1.24
11.39 -11.37 -0.84
11.96 -11.94 3.9
11.39 -11.37 -0.28
13.93 -13.91 5.27
3.29 -3.31 -1.25
11.36 -11.42 0.28
3.6 -3.62 -1.18
15.48 -15.56 1.15
3.91 -3.93 -1.08
15.5 -15.58 1.92
7.07 -7.1 -1.59
13.27 -13.33 2.31
8.71 -8.76 -1.52
13.54 -13.61 3.04
9.98 -10.03 -1.24
14.09 -14.16 3.88
11.4 -11.46 -0.85
13.33 -13.39 4.36
11.39 -11.45 -0.28
12.49 -12.55 4.75
3.28 -3.32 -1.25
11.37 -11.51 0.28
3.58 -3.62 -1.18
15.46 -15.65 1.15
3.83 -3.87 -1.06
12.24 -12.39 1.52
7.05 -7.13 -1.59
13.18 -13.34 2.3
8.68 -8.79 -1.52
14.16 -14.34 3.19
9.93 -10.05 -1.24
12.39 -12.55 3.43
11.39 -11.53 -0.85
11.96 -12.1 3.93
11.41 -11.55 -0.28
12.67 -12.82 4.83
3.25 -3.31 -1.24
11.38 -11.6 0.28
3.57 -3.63 -1.18
14.02 -14.29 1.05
3.7 -3.77 -1.03
12.32 -12.55 1.54
7.04 -7.17 -1.59
13.11 -13.36 2.3
8.65 -8.82 -1.52
12.82 -13.06 2.9
9.86 -10.05 -1.23
12.74 -12.98 3.53
11.39 -11.61 -0.85
12.62 -12.86 4.16
11.4 -11.62 -0.28
12.35 -12.59 4.73
3.23 -3.32 -1.24
11.38 -11.68 0.28
3.55 -3.64 -1.17
14.68 -15.07 1.1
3.67 -3.76 -1.02
13.49 -13.84 1.69
7.01 -7.2 -1.59
15.48 -15.89 2.72
8.64 -8.86 -1.52
11.81 -12.12 2.68
9.77 -10.02 -1.22
12.29 -12.61 3.42
11.41 -11.71 -0.86
12.31 -12.63 4.07
11.4 -11.69 -0.29
12.02 -12.33 4.61
3.21 -3.32 -1.24
11.39 -11.77 0.29
3.53 -3.65 -1.17
12.2 -12.6 0.92
3.65 -3.77 -1.02
11.87 -12.27 1.49
6.98 -7.21 -1.59
10.19 -10.53 1.8
8.62 -8.9 -1.52
13.92 -14.38 3.17
9.7 -10.02 -1.22
12.66 -13.07 3.54
11.42 -11.8 -0.86
12.76 -13.18 4.23
11.41 -11.79 -0.29
12.94 -13.37 4.99
3.2 -3.33 -1.24
11.4 -11.86 0.29
3.42 -3.55 -1.14
12.16 -12.65 0.92
3.63 -3.77 -1.02
12.42 -12.93 1.57
6.95 -7.23 -1.59
10.12 -10.53 1.79
8.58 -8.93 -1.52
12.41 -12.92 2.84
9.65 -10.04 -1.22
15.14 -15.76 4.25
11.42 -11.89 -0.86
11.76 -12.24 3.92
11.43 -11.89 -0.29
12.98 -13.51 5.02
3.19 -3.34 -1.24
11.4 -11.94 0.29
3.37 -3.53 -1.13
13.35 -13.98 1.01
3.62 -3.8 -1.02
11.67 -12.22 1.48
6.94 -7.27 -1.59
9.99 -10.47 1.78
8.55 -8.96 -1.52
12.08 -12.66 2.77
9.59 -10.05 -1.22
12 -12.57 3.38
11.43 -11.97 -0.87
11.8 -12.36 3.95
11.44 -11.98 -0.29
11.83 -12.39 4.59
3.17 -3.35 -1.24
11.41 -12.04 0.29
3.36 -3.54 -1.13
13.29 -14.02 1.01
3.61 -3.81 -1.02
12.85 -13.56 1.63
4.06 -4.28 -0.93
9.78 -10.32 1.75
8.52 -8.99 -1.52
12.55 -13.24 2.89
9.52 -10.05 -1.21
14.3 -15.09 4.04
10.1 -10.66 -0.77
10.02 -10.58 3.36
11.44 -12.08 -0.29
12.16 -12.83 4.74
3.16 -3.35 -1.23
11.42 -12.13 0.29
3.34 -3.55 -1.12
12.1 -12.85 0.93
3.58 -3.81 -1.02
10.97 -11.65 1.4
4.05 -4.3 -0.94
10.24 -10.88 1.83
8.49 -9.02 -1.52
10.49 -11.15 2.42
9.43 -10.01 -1.2
13.65 -14.5 3.87
11.44 -12.15 -0.87
11.96 -12.7 4.03
11.44 -12.15 -0.29
13.54 -14.38 5.29
3.14 -3.36 -1.23
11.42 -12.21 0.29
3.33 -3.56 -1.12
11.98 -12.82 0.92
3.57 -3.82 -1.02
10.04 -10.74 1.29
4.04 -4.32 -0.94
9.79 -10.48 1.76
8.47 -9.06 -1.52
12.19 -13.04 2.83
9.36 -10.02 -1.2
10.22 -10.94 2.91
11.45 -12.25 -0.88
10.16 -10.87 3.44
11.45 -12.25 -0.29
10.01 -10.71 3.93
3.13 -3.37 -1.23
11.43 -12.31 0.29
3.31 -3.56 -1.12
11.91 -12.83 0.92
3.55 -3.82 -1.01
12.72 -13.69 1.64
4.01 -4.32 -0.93
10.11 -10.89 1.82
8.44 -9.09 -1.52
9.98 -10.74 2.32
9.29 -10 -1.19
10.29 -11.08 2.94
11.46 -12.34 -0.88
9.99 -10.76 3.39
11.45 -12.34 -0.29
9.91 -10.67 3.9
3.11 -3.38 -1.23
11.42 -12.39 0.29
3.28 -3.56 -1.12
15.11 -16.39 1.17
3.54 -3.84 -1.01
9.86 -10.7 1.27
3.98 -4.32 -0.93
9.8 -10.64 1.78
8.41 -9.12 -1.52
10 -10.84 2.34
9.23 -10.01 -1.19
10.06 -10.91 2.89
11.46 -12.43 -0.89
9.97 -10.81 3.39
11.45 -12.42 -0.29
12.24 -13.28 4.84
3.07 -3.36 -1.22
10.36 -11.31 0.27
3.25 -3.55 -1.11
11.72 -12.8 0.91
3.52 -3.85 -1.01
9.84 -10.75 1.28
3.96 -4.33 -0.93
9.95 -10.87 1.81
8.38 -9.15 -1.52
10.36 -11.32 2.43
9.16 -10.01 -1.19
10.02 -10.95 2.89
11.42 -12.47 -0.89
9.89 -10.8 3.38
11.41 -12.47 -0.3
11.42 -12.47 4.53
3.05 -3.35 -1.21
12.85 -14.14 0.33
3.24 -3.56 -1.11
12.44 -13.68 0.97
3.5 -3.85 -1.01
9.76 -10.74 1.27
3.94 -4.34 -0.93
10.18 -11.2 1.86
8.35 -9.18 -1.52
10.02 -11.03 2.36
9.1 -10.02 -1.18
10.12 -11.13 2.92
12.87 -14.16 -1
11.44 -12.58 3.93
11.63 -12.79 4.63
3.03 -3.36 -1.21
10.23 -11.33 0.27
3.22 -3.57 -1.11
11.44 -12.67 0.89
3.5 -3.88 -1.02
9.72 -10.77 1.27
3.92 -4.34 -0.93
9.93 -11 1.82
8.33 -9.23 -1.53
10.06 -11.14 2.38
9.05 -10.03 -1.18
11.13 -12.32 3.23
12.79 -14.17 -1
9.78 -10.83 3.37
12.85 -14.23 -0.33
12.31 -13.64 4.92
3.01 -3.35 -1.21
10.12 -11.29 0.26
3.2 -3.56 -1.11
11.48 -12.8 0.9
3.5 -3.9 -1.02
9.6 -10.7 1.26
3.88 -4.33 -0.92
9.92 -11.06 1.82
8.3 -9.26 -1.53
9.83 -10.96 2.33
9.02 -10.06 -1.18
9.94 -11.09 2.89
15.83 -17.65 -1.24
9.58 -10.68 3.31
11.88 -13.24 -0.31
9.89 -11.04 3.97
3 -3.37 -1.21
12.41 -13.94 0.33
3.17 -3.56 -1.1
11.41 -12.82 0.9
3.54 -3.97 -1.03
9.62 -10.81 1.27
3.85 -4.32 -0.92
9.82 -11.02 1.81
8.27 -9.29 -1.53
9.9 -11.12 2.36
9.06 -10.17 -1.19
9.89 -11.11 2.89
12.59 -14.15 -0.99
9.64 -10.83 3.35
11.78 -13.23 -0.31
9.77 -10.97 3.94
2.98 -3.37 -1.2
12.33 -13.95 0.32
3.15 -3.56 -1.1
11.56 -13.08 0.91
3.51 -3.97 -1.03
9.97 -11.28 1.32
3.82 -4.33 -0.91
9.69 -10.96 1.8
8.24 -9.32 -1.53
9.86 -11.16 2.36
9.44 -10.68 -1.25
10.31 -11.66 3.03
15.63 -17.68 -1.24
9.6 -10.85 3.35
12.43 -14.06 -0.33
9.7 -10.97 3.92
2.96 -3.37 -1.2
11.65 -13.27 0.31
3.13 -3.57 -1.1
12.28 -13.98 0.98
3.46 -3.94 -1.02
10.5 -11.96 1.39
3.8 -4.33 -0.91
9.63 -10.97 1.79
8.21 -9.35 -1.53
9.77 -11.13 2.35
9.36 -10.66 -1.24
9.74 -11.09 2.87
12.43 -14.16 -0.99
9.46 -10.78 3.31
12.38 -14.1 -0.33
9.64 -10.98 3.92
2.96 -3.39 -1.21
11.59 -13.3 0.31
3.13 -3.59 -1.1
10.06 -11.54 0.8
3.45 -3.96 -1.02
10.17 -11.66 1.35
3.78 -4.33 -0.91
9.6 -11.02 1.79
8.18 -9.39 -1.53
9.15 -10.5 2.21
9.42 -10.81 -1.25
9.74 -11.18 2.88
11.91 -13.66 -0.95
9.45 -10.84 3.32
12.3 -14.11 -0.33
9.92 -11.38 4.04
2.96 -3.42 -1.21
11.55 -13.35 0.31
3.12 -3.61 -1.1
12.19 -14.09 0.98
3.42 -3.95 -1.01
9.46 -10.93 1.26
3.76 -4.35 -0.91
9.56 -11.05 1.79
8.15 -9.42 -1.53
9.74 -11.25 2.36
9.41 -10.87 -1.26
9.61 -11.1 2.85
11.34 -13.1 -0.91
10.22 -11.81 3.61
9.56 -11.04 -0.25
10.05 -11.61 4.11
2.93 -3.41 -1.21
9.16 -10.65 0.25
3.13 -3.64 -1.11
10.02 -11.66 0.81
3.38 -3.93 -1.01
9.39 -10.93 1.26
3.74 -4.35 -0.91
9.49 -11.05 1.79
8.12 -9.45 -1.53
9.61 -11.18 2.34
9.35 -10.87 -1.25
9.43 -10.97 2.81
11.93 -13.88 -0.96
9.92 -11.55 3.52
12.05 -14.02 -0.32
9.52 -11.08 3.91
2.94 -3.44 -1.21
9.07 -10.63 0.24
3.11 -3.64 -1.11
10.04 -11.77 0.81
3.36 -3.94 -1.01
9.07 -10.63 1.22
3.72 -4.36 -0.91
9.41 -11.02 1.78
8.09 -9.48 -1.53
9.08 -10.64 2.22
9.3 -10.89 -1.25
9.24 -10.83 2.77
11.45 -13.41 -0.92
9.17 -10.75 3.26
11.84 -13.87 -0.32
9.41 -11.02 3.88
2.91 -3.44 -1.21
8.95 -10.57 0.24
3.03 -3.58 -1.08
9.94 -11.73 0.81
3.34 -3.94 -1
9.17 -10.83 1.24
3.71 -4.38 -0.91
9.31 -10.99 1.77
8.06 -9.51 -1.53
9.11 -10.75 2.23
9.24 -10.91 -1.25
9.41 -11.1 2.83
11.59 -13.68 -0.94
9.21 -10.87 3.29
10.55 -12.45 -0.28
9.23 -10.89 3.82
2.87 -3.41 -1.19
9.16 -10.89 0.25
3.01 -3.58 -1.08
9.84 -11.69 0.8
3.32 -3.94 -1
9.25 -11 1.26
3.71 -4.41 -0.91
9.28 -11.03 1.77
8.03 -9.54 -1.53
9.59 -11.4 2.36
9.19 -10.92 -1.25
9.29 -11.04 2.81
11.64 -13.83 -0.95
9.1 -10.81 3.26
9.57 -11.37 -0.26
9.14 -10.86 3.8
2.84 -3.4 -1.19
9.6 -11.48 0.26
2.99 -3.58 -1.08
11.03 -13.2 0.9
3.3 -3.95 -1
9.49 -11.35 1.29
3.68 -4.4 -0.91
9.22 -11.03 1.76
8 -9.57 -1.53
9.19 -10.99 2.27
9.14 -10.94 -1.25
9.2 -11.01 2.79
9.22 -11.03 -0.75
9.14 -10.94 3.29
11.5 -13.76 -0.31
9.11 -10.9 3.81
2.84 -3.42 -1.19
9.36 -11.27 0.26
2.98 -3.59 -1.08
9.8 -11.81 0.8
3.27 -3.94 -1
9.13 -11 1.25
3.69 -4.44 -0.91
9.43 -11.36 1.81
7.97 -9.6 -1.53
9.37 -11.29 2.32
9.11 -10.97 -1.25
9.37 -11.29 2.85
11.45 -13.79 -0.94
8.92 -10.75 3.23
10.09 -12.16 -0.28
9.4 -11.33 3.94
2.84 -3.44 -1.19
8.91 -10.81 0.24
2.98 -3.62 -1.08
10.91 -13.24 0.9
3.25 -3.94 -0.99
9.26 -11.23 1.27
3.68 -4.47 -0.92
9.13 -11.09 1.76
7.92 -9.61 -1.53
9.35 -11.35 2.33
9.06 -10.99 -1.25
8.73 -10.6 2.67
9.47 -11.49 -0.78
8.99 -10.91 3.26
9.26 -11.23 -0.25
9.13 -11.08 3.85
2.82 -3.45 -1.19
9.53 -11.64 0.26
2.97 -3.62 -1.08
9.82 -12 0.81
3.22 -3.94 -0.99
9.23 -11.28 1.28
3.66 -4.48 -0.92
9.33 -11.4 1.81
7.89 -9.65 -1.53
9.28 -11.35 2.32
8.99 -10.99 -1.24
9.34 -11.41 2.87
9.03 -11.03 -0.75
9.36 -11.44 3.41
9.33 -11.4 -0.26
9.38 -11.46 3.97
2.8 -3.45 -1.19
8.77 -10.79 0.24
2.98 -3.66 -1.09
9.62 -11.84 0.8
3.21 -3.95 -0.99
8.69 -10.69 1.21
3.63 -4.47 -0.91
9.28 -11.42 1.81
7.87 -9.68 -1.53
8.89 -10.94 2.23
8.91 -10.96 -1.24
9.16 -11.28 2.82
8.71 -10.71 -0.72
9.18 -11.3 3.36
9.75 -12 -0.27
9.32 -11.46 3.96
2.81 -3.48 -1.2
8.43 -10.44 0.23
2.98 -3.69 -1.1
10.62 -13.16 0.89
3.18 -3.94 -0.98
9.16 -11.35 1.28
3.61 -4.48 -0.91
9.19 -11.39 1.8
7.84 -9.71 -1.53
9.34 -11.57 2.35
8.94 -11.07 -1.24
8.96 -11.1 2.77
9.24 -11.45 -0.77
9.55 -11.84 3.51
8.79 -10.89 -0.24
9.25 -11.46 3.95
2.83 -3.54 -1.21
8.11 -10.13 0.23
2.96 -3.7 -1.09
8.81 -11 0.74
3.16 -3.94 -0.98
8.96 -11.19 1.25
3.6 -4.49 -0.91
9.1 -11.37 1.79
7.8 -9.74 -1.53
8.87 -11.07 2.25
8.9 -11.11 -1.25
8.94 -11.16 2.78
9.59 -11.98 -0.8
9.44 -11.79 3.49
8.69 -10.85 -0.24
9.26 -11.57 3.97
2.82 -3.55 -1.22
8.13 -10.22 0.23
2.94 -3.7 -1.09
10.39 -13.06 0.87
3.14 -3.95 -0.98
8.94 -11.25 1.26
3.6 -4.53 -0.92
9.22 -11.59 1.82
7.76 -9.77 -1.53
8.6 -10.82 2.19
8.9 -11.19 -1.25
8.88 -11.16 2.77
9.44 -11.88 -0.8
9.23 -11.6 3.42
8.67 -10.9 -0.24
9.27 -11.66 3.99
2.78 -3.52 -1.2
8.32 -10.53 0.23
2.94 -3.73 -1.1
8.84 -11.19 0.75
3.1 -3.93 -0.97
8.97 -11.35 1.27
3.59 -4.54 -0.92
9.22 -11.67 1.83
7.72 -9.78 -1.53
9.21 -11.66 2.35
8.2 -10.39 -1.16
8.87 -11.23 2.78
8.12 -10.27 -0.69
8.94 -11.32 3.33
8.32 -10.53 -0.23
2.72 -3.47 -1.18
8.6 -10.97 0.24
2.94 -3.75 -1.1
8.58 -10.94 0.73
3.09 -3.94 -0.97
8.99 -11.46 1.27
3.59 -4.57 -0.92
9.21 -11.74 1.83
7.69 -9.8 -1.53
9.14 -11.66 2.35
8.81 -11.23 -1.25
9.15 -11.66 2.88
8.07 -10.29 -0.69
8.95 -11.41 3.35
8.28 -10.56 -0.23
8.5 -10.83 3.69
2.71 -3.48 -1.18
7.92 -10.17 0.22
2.93 -3.77 -1.1
8.53 -10.96 0.73
3.08 -3.96 -0.97
8.91 -11.45 1.27
3.59 -4.61 -0.92
9.32 -11.97 1.86
7.66 -9.84 -1.53
8.79 -11.29 2.27
8.73 -11.22 -1.24
8.84 -11.35 2.8
8.47 -10.88 -0.72
8.95 -11.5 3.37
8.8 -11.3 -0.25
8.48 -10.9 3.7
2.69 -3.48 -1.18
7.86 -10.17 0.22
2.89 -3.75 -1.09
9.78 -12.66 0.84
3.07 -3.97 -0.98
9.22 -11.93 1.32
3.57 -4.62 -0.93
9.13 -11.82 1.83
7.62 -9.86 -1.53
4.78 -6.19 1.24
8.77 -11.35 -1.26
8.41 -10.89 2.67
8.43 -10.91 -0.72
4.78 -6.18 1.8
9.6 -12.43 -0.27
9.08 -11.74 3.98
2.65 -3.45 -1.16
7.93 -10.34 0.23
2.88 -3.75 -1.09
9.11 -11.87 0.78
3.06 -3.99 -0.98
8.98 -11.7 1.29
3.58 -4.66 -0.93
9.13 -11.9 1.84
7.58 -9.87 -1.53
8.75 -11.4 -1.26
4.8 -6.26 1.53
8.41 -10.96 -0.72
8.16 -10.63 -0.23
9.28 -12.08 4.08
2.61 -3.43 -1.15
4.86 -6.38 0.14
2.87 -3.76 -1.09
8.55 -11.22 0.74
3.05 -4.01 -0.98
8.26 -10.83 1.19
3.57 -4.69 -0.93
4.77 -6.25 0.97
7.53 -9.89 -1.53
8.72 -11.44 -1.26
8.32 -10.92 -0.72
8.01 -10.52 -0.23
8.29 -10.88 3.67
2.6 -3.43 -1.15
4.83 -6.39 0.14
2.86 -3.78 -1.09
9.19 -12.14 0.8
3.04 -4.02 -0.98
8.5 -11.24 1.23
3.57 -4.72 -0.94
4.76 -6.3 0.97
7.5 -9.91 -1.53
8.12 -10.74 -1.18
8.07 -10.67 -0.7
7.99 -10.56 -0.23
8.17 -10.8 3.63
2.59 -3.45 -1.15
4.85 -6.46 0.14
2.85 -3.8 -1.1
9.28 -12.36 0.81
3.04 -4.05 -0.98
8.21 -10.93 1.2
3.56 -4.74 -0.94
4.77 -6.35 0.97
7.45 -9.92 -1.52
4.76 -6.33 1.25
8.01 -10.67 -1.17
7.88 -10.49 -0.69
8.5 -11.32 -0.25
8.15 -10.85 3.64
2.57 -3.45 -1.15
4.83 -6.48 0.14
2.83 -3.8 -1.09
9.26 -12.41 0.81
3.03 -4.07 -0.99
4.84 -6.49 0.71
6.07 -8.13 -1.61
4.75 -6.37 0.98
7.44 -9.98 -1.53
4.76 -6.39 1.26
8.08 -10.83 -1.18
7.99 -10.72 -0.7
4.77 -6.39 1.84
7.87 -10.56 -0.23
8.59 -11.52 3.85
2.56 -3.46 -1.15
4.81 -6.49 0.14
2.82 -3.8 -1.09
4.8 -6.48 0.42
3.02 -4.08 -0.99
4.79 -6.47 0.7
4.82 -6.51 -1.28
4.82 -6.51 -0.99
4.77 -6.44 1.27
4.82 -6.51 -0.71
4.76 -6.42 1.55
4.81 -6.5 -0.42
4.76 -6.43 1.85
4.8 -6.49 -0.14
8.59 -11.6 3.87
2.55 -3.47 -1.15
4.79 -6.51 0.14
2.81 -3.82 -1.1
4.78 -6.5 0.42
3.02 -4.11 -0.99
4.79 -6.52 0.71
4.8 -6.54 -1.28
4.8 -6.53 -1
4.76 -6.47 1.27
4.8 -6.52 -0.71
4.75 -6.46 1.56
4.8 -6.53 -0.42
4.75 -6.47 1.85
4.78 -6.51 -0.14
8.59 -11.69 3.89
2.53 -3.47 -1.15
2.8 -3.84 -1.1
3.02 -4.14 -1
9.01 -12.34 1.34
5.98 -8.19 -1.61
4.75 -6.51 0.99
7.33 -10.04 -1.53
4.76 -6.52 1.28
8.33 -11.41 -1.24
4.75 -6.51 1.57
10.9 -14.93 -0.97
4.76 -6.52 1.86
7.74 -10.61 -0.23
8.44 -11.56 3.84
2.52 -3.48 -1.15
9.44 -13.03 0.28
2.78 -3.84 -1.09
8.87 -12.25 0.79
3.02 -4.17 -1
8.84 -12.2 1.32
5.95 -8.22 -1.61
4.75 -6.56 1
7.29 -10.07 -1.53
4.75 -6.55 1.28
8.36 -11.54 -1.25
4.75 -6.55 1.57
4.77 -6.58 1.88
13.24 -18.28 -0.39
8.13 -11.22 3.71
2.51 -3.49 -1.15
8.15 -11.33 0.24
2.76 -3.84 -1.09
8.85 -12.31 0.79
3.01 -4.18 -1
9 -12.51 1.35
5.93 -8.24 -1.61
4.75 -6.6 1
7.25 -10.09 -1.53
4.76 -6.62 1.29
8.33 -11.59 -1.25
4.75 -6.6 1.58
10.15 -14.11 -0.91
4.77 -6.63 1.89
10.01 -13.92 -0.3
8.01 -11.14 3.68
2.5 -3.5 -1.15
8.42 -11.8 0.25
2.72 -3.81 -1.08
8.83 -12.37 0.8
2.99 -4.19 -1
8.63 -12.1 1.3
5.9 -8.27 -1.61
4.74 -6.64 1
7.21 -10.11 -1.52
4.75 -6.66 1.3
8.25 -11.56 -1.24
4.74 -6.64 1.59
9.47 -13.26 -0.85
4.76 -6.67 1.89
9.98 -13.99 -0.3
8.41 -11.78 3.88
2.48 -3.51 -1.15
12.41 -17.51 0.37
2.69 -3.8 -1.08
8.69 -12.26 0.79
2.98 -4.21 -1
5.88 -8.29 -1.61
4.75 -6.71 1.01
7.16 -10.1 -1.52
4.76 -6.72 1.3
8.25 -11.63 -1.25
4.74 -6.69 1.59
9.94 -14.03 -0.9
4.75 -6.71 1.9
12.42 -17.53 -0.37
8.14 -11.49 3.77
2.47 -3.51 -1.15
7.42 -10.54 0.23
2.7 -3.83 -1.08
8.71 -12.37 0.79
2.98 -4.23 -1
8.41 -11.95 1.28
5.85 -8.31 -1.61
4.76 -6.76 1.01
7.11 -10.1 -1.52
4.76 -6.76 1.31
8.21 -11.67 -1.25
4.75 -6.74 1.6
9.89 -14.05 -0.9
4.75 -6.74 1.9
8.99 -12.77 -0.27
8.22 -11.67 3.83
2.46 -3.52 -1.15
10.06 -14.4 0.31
2.71 -3.87 -1.09
8.61 -12.33 0.79
2.97 -4.25 -1.01
8.4 -12.02 1.28
5.81 -8.32 -1.61
4.74 -6.79 1.02
7.07 -10.11 -1.51
4.74 -6.78 1.31
7.94 -11.37 -1.21
7.71 -11.04 -0.71
10.59 -15.16 -0.32
8.31 -11.9 3.89
2.46 -3.54 -1.15
8.36 -12.05 0.26
2.7 -3.89 -1.09
8.5 -12.25 0.78
2.95 -4.26 -1.01
8.4 -12.12 1.29
5.79 -8.35 -1.61
7.04 -10.14 -1.52
4.71 -6.79 1.31
8.15 -11.75 -1.25
4.69 -6.76 1.6
9.77 -14.08 -0.9
8.26 -11.91 -0.25
7.97 -11.5 3.75
2.44 -3.55 -1.15
8.16 -11.85 0.25
2.68 -3.89 -1.09
8.95 -12.99 0.83
2.94 -4.28 -1.01
8.27 -12.01 1.28
5.77 -8.38 -1.61
7.01 -10.18 -1.52
4.68 -6.8 1.31
8.1 -11.77 -1.25
4.67 -6.78 1.6
10.74 -15.6 -0.99
7.46 -10.83 3.04
10.53 -15.29 -0.32
8.16 -11.85 3.86
2.43 -3.55 -1.15
8.07 -11.82 0.25
2.66 -3.89 -1.09
7.61 -11.14 0.71
2.93 -4.29 -1.01
7.61 -11.14 1.18
5.74 -8.41 -1.61
9.65 -14.13 2.1
6.97 -10.21 -1.52
8.09 -11.85 -1.26
10.64 -15.58 3.67
11.03 -16.15 -1.03
7.41 -10.84 3.03
8.25 -12.07 -0.26
10.62 -15.55 5.05
2.41 -3.55 -1.15
7.67 -11.31 0.24
2.63 -3.88 -1.08
7.74 -11.42 0.72
2.92 -4.3 -1.01
7.96 -11.74 1.24
5.71 -8.43 -1.61
8.02 -11.84 1.76
6.94 -10.23 -1.52
8.6 -12.69 2.43
8.01 -11.82 -1.25
8.19 -12.09 2.84
10.98 -16.19 -1.03
7.36 -10.86 3.03
8.19 -12.09 -0.25
9.66 -14.24 4.61
2.39 -3.55 -1.15
7.81 -11.61 0.24
2.61 -3.88 -1.08
8.04 -11.95 0.75
2.91 -4.32 -1.01
7.44 -11.05 1.17
5.68 -8.45 -1.61
7.97 -11.85 1.75
6.88 -10.23 -1.51
8.75 -13.01 2.48
7.94 -11.8 -1.24
7.29 -10.84 2.54
9.38 -13.95 -0.88
7.34 -10.91 3.04
8.01 -11.91 -0.25
7.09 -10.54 3.4
2.38 -3.56 -1.15
7.76 -11.63 0.24
2.59 -3.88 -1.08
7.69 -11.52 0.73
2.9 -4.34 -1.01
8 -11.98 1.26
5.66 -8.47 -1.61
7.48 -11.2 1.65
6.83 -10.22 -1.51
9.19 -13.77 2.62
7.86 -11.77 -1.24
7.13 -10.68 2.5
9.31 -13.94 -0.88
7.46 -11.17 3.1
7.84 -11.74 -0.25
7.4 -11.08 3.57
2.37 -3.57 -1.15
8.59 -12.96 0.27
2.58 -3.89 -1.08
7.59 -11.44 0.72
2.89 -4.35 -1.02
7.77 -11.71 1.23
5.63 -8.49 -1.61
7.38 -11.13 1.64
6.78 -10.23 -1.51
8.14 -12.27 2.33
7.87 -11.86 -1.25
7.81 -11.77 2.75
9.27 -13.99 -0.88
7.44 -11.22 3.11
8 -12.07 -0.25
12.33 -18.59 5.98
2.35 -3.57 -1.15
7.82 -11.87 0.25
2.56 -3.89 -1.08
7.64 -11.6 0.73
2.87 -4.36 -1.02
7.73 -11.74 1.23
5.6 -8.51 -1.61
7.34 -11.15 1.64
6.76 -10.27 -1.51
9.26 -14.07 2.67
7.82 -11.88 -1.24
7.04 -10.69 2.49
8.06 -12.24 -0.77
7.5 -11.39 3.15
7.95 -12.07 -0.25
8.98 -13.64 4.38
2.33 -3.57 -1.14
7.82 -11.98 0.25
2.53 -3.87 -1.07
7.35 -11.26 0.7
2.86 -4.37 -1.02
7.46 -11.43 1.19
5.57 -8.53 -1.61
7.63 -11.69 1.71
6.7 -10.26 -1.51
7.02 -10.74 2.03
7.8 -11.94 -1.25
9.21 -14.1 3.27
7.99 -12.24 -0.77
9.2 -14.09 3.89
9.43 -14.44 -0.3
9.04 -13.83 4.43
2.32 -3.58 -1.14
7.75 -11.95 0.25
2.5 -3.85 -1.06
7.37 -11.37 0.71
2.85 -4.39 -1.02
8.71 -13.43 1.4
5.54 -8.55 -1.61
7.75 -11.96 1.75
6.67 -10.29 -1.51
7.4 -11.41 2.15
7.72 -11.9 -1.24
7.32 -11.29 2.61
7.98 -12.31 -0.77
7.92 -12.22 3.36
7.86 -12.12 -0.25
9.07 -13.99 4.47
2.31 -3.59 -1.15
2.47 -3.84 -1.05
9.7 -15.08 0.94
2.83 -4.4 -1.02
9 -14 1.46
5.52 -8.58 -1.62
8.04 -12.5 1.83
6.6 -10.27 -1.5
6.89 -10.71 2.02
7.66 -11.92 -1.24
6.94 -10.79 2.49
7.86 -12.22 -0.76
9.08 -14.12 3.88
7.83 -12.19 3.88
2.3 -3.6 -1.15
7.99 -12.52 0.26
2.44 -3.83 -1.05
7.77 -12.17 0.76
2.81 -4.41 -1.02
9.02 -14.14 1.47
5.49 -8.6 -1.62
7.95 -12.46 1.81
6.55 -10.26 -1.49
9.42 -14.76 2.77
7.37 -11.55 2.66
7.82 -12.25 -0.76
9.5 -14.88 4.08
8.85 -13.87 4.41
2.29 -3.61 -1.15
8.1 -12.8 0.26
2.43 -3.84 -1.05
7.47 -11.79 0.73
2.8 -4.42 -1.02
7.14 -11.28 1.17
5.46 -8.63 -1.62
7.08 -11.18 1.62
6.48 -10.24 -1.49
6.84 -10.8 2.02
7.5 -11.85 -1.23
7.2 -11.37 2.62
9.36 -14.79 -0.92
7.25 -11.44 3.13
8 -12.63 -0.26
8.19 -12.93 4.1
2.27 -3.61 -1.14
8.13 -12.94 0.27
2.42 -3.85 -1.05
8.07 -12.84 0.79
2.79 -4.43 -1.02
7.17 -11.41 1.18
5.44 -8.65 -1.62
7.71 -12.27 1.78
6.45 -10.27 -1.49
7.6 -12.09 2.26
7.53 -11.99 -1.24
7.12 -11.32 2.6
8.07 -12.83 -0.79
7.01 -11.16 3.04
7.61 -12.11 -0.25
11.34 -18.05 5.71
2.26 -3.63 -1.15
8.2 -13.14 0.27
2.41 -3.86 -1.05
9.13 -14.64 0.9
2.78 -4.45 -1.02
7.06 -11.31 1.17
5.4 -8.66 -1.62
7.58 -12.15 1.76
6.42 -10.29 -1.49
7.49 -12 -1.24
6.83 -10.95 2.51
7.99 -12.8 -0.79
6.99 -11.2 3.05
7.56 -12.12 -0.25
9.08 -14.55 4.59
2.25 -3.63 -1.15
9.2 -14.85 0.3
2.39 -3.87 -1.05
12.01 -19.39 1.2
2.76 -4.46 -1.02
7.24 -11.68 1.2
5.38 -8.69 -1.62
7.28 -11.76 1.7
6.4 -10.33 -1.49
7.29 -11.76 2.19
7.42 -11.98 -1.23
6.79 -10.97 2.51
7.91 -12.77 -0.79
7.33 -11.84 3.22
7.51 -12.12 -0.25
7.28 -11.76 3.71
2.24 -3.65 -1.15
7.08 -11.52 0.24
2.38 -3.88 -1.05
8.38 -13.64 0.84
2.74 -4.46 -1.02
8.38 -13.64 1.4
5.35 -8.71 -1.62
6.68 -10.88 1.57
6.36 -10.35 -1.49
7.25 -11.81 -1.21
6.75 -10.98 2.51
7.85 -12.78 -0.79
7.21 -11.74 3.18
7.67 -12.49 -0.26
6.64 -10.81 3.4
2.23 -3.65 -1.15
7.15 -11.73 0.24
2.37 -3.89 -1.05
8.09 -13.27 0.81
2.72 -4.47 -1.02
8.23 -13.5 1.38
5.33 -8.74 -1.62
6.68 -10.95 1.57
6.31 -10.35 -1.49
7.65 -12.55 2.33
7.2 -11.81 -1.21
7.66 -12.56 2.86
7.68 -12.6 -0.77
7.17 -11.76 3.18
7.65 -12.55 -0.26
6.99 -11.47 3.6
2.21 -3.65 -1.14
2.36 -3.91 -1.05
7.48 -12.37 0.76
2.72 -4.5 -1.02
7.4 -12.23 1.25
5.29 -8.75 -1.62
7.13 -11.79 1.69
6.28 -10.38 -1.49
7.09 -11.72 2.17
7.14 -11.82 -1.21
7.29 -12.05 3.25
7.63 -12.62 -0.26
7.06 -11.67 3.65
2.19 -3.66 -1.14
7.54 -12.56 0.26
2.35 -3.92 -1.06
7.36 -12.26 0.75
2.72 -4.53 -1.03
7.26 -12.1 1.23
5.26 -8.77 -1.62
7.19 -11.99 1.72
6.26 -10.43 -1.49
7.78 -12.96 2.39
7.32 -12.2 -1.24
7.21 -12.01 2.72
7.61 -12.68 -0.77
7.47 -12.45 -0.25
7.06 -11.76 3.68
2.18 -3.67 -1.14
8.64 -14.52 0.29
2.33 -3.92 -1.05
2.71 -4.55 -1.03
7.08 -11.9 1.21
5.23 -8.79 -1.62
6.96 -11.69 1.67
6.21 -10.44 -1.49
7.4 -12.44 2.29
7.25 -12.18 -1.24
6.63 -11.14 2.52
7.57 -12.72 -0.78
6.69 -11.24 3.02
7.17 -12.04 3.75
2.17 -3.67 -1.14
7.65 -12.95 0.26
2.32 -3.93 -1.05
6.91 -11.7 0.71
2.69 -4.55 -1.03
7.25 -12.27 1.25
5.21 -8.82 -1.62
7.95 -13.45 1.92
6.18 -10.46 -1.49
7.34 -12.43 2.29
7.13 -12.06 -1.23
7.81 -13.22 2.99
6.92 -11.71 -0.71
6.62 -11.2 3
6.84 -11.58 3.6
2.15 -3.67 -1.14
7.19 -12.27 0.25
2.31 -3.94 -1.05
7.37 -12.58 0.76
2.65 -4.53 -1.02
7.01 -11.96 1.21
5.18 -8.85 -1.62
6.64 -11.33 1.61
6.15 -10.5 -1.49
7.22 -12.32 2.26
7.02 -11.99 -1.22
6.47 -11.05 2.49
7.61 -12.98 -0.79
7.41 -12.64 3.38
7.45 -12.73 -0.26
6.78 -11.57 3.59
2.13 -3.67 -1.14
9.02 -15.52 0.31
2.3 -3.96 -1.06
7.58 -13.04 0.79
2.63 -4.53 -1.02
6.73 -11.57 1.17
5.15 -8.87 -1.62
8.64 -14.86 2.11
6.12 -10.53 -1.5
6.86 -11.81 2.16
6.98 -12 -1.21
8.71 -14.98 3.37
7.48 -12.87 -0.78
6.68 -11.49 3.07
7.15 -12.29 -0.25
7.35 -12.64 3.92
2.12 -3.67 -1.14
7.41 -12.86 0.26
2.29 -3.97 -1.06
7.15 -12.41 0.75
2.61 -4.53 -1.02
7.03 -12.19 1.23
5.12 -8.88 -1.62
6.54 -11.35 1.61
6.09 -10.56 -1.5
6.62 -11.49 2.1
7.01 -12.15 -1.23
8.52 -14.78 3.32
7.12 -12.35 -0.75
6.7 -11.62 3.1
7.08 -12.27 -0.25
6.77 -11.73 3.63
2.11 -3.69 -1.14
7.38 -12.89 0.26
2.27 -3.96 -1.05
10.67 -18.65 1.13
2.59 -4.53 -1.02
7.62 -13.32 1.34
5.1 -8.91 -1.63
7.31 -12.78 1.81
6.05 -10.57 -1.49
7.97 -13.93 2.54
6.98 -12.2 -1.23
8.85 -15.46 3.46
7.33 -12.81 -0.77
6.45 -11.27 3
8.37 -14.63 -0.29
6.79 -11.86 3.66
2.09 -3.69 -1.14
2.25 -3.97 -1.05
6.62 -11.68 0.7
2.57 -4.53 -1.01
7.47 -13.16 1.32
5.07 -8.93 -1.63
10.2 -17.98 2.54
6.01 -10.58 -1.49
6.46 -11.39 2.07
6.92 -12.19 -1.23
6.99 -12.33 2.75
7.73 -13.63 -0.82
6.67 -11.75 3.12
6.99 -12.33 3.8
2.08 -3.69 -1.13
7.55 -13.4 0.27
2.24 -3.98 -1.06
6.59 -11.7 0.7
2.55 -4.54 -1.01
7.45 -13.23 1.33
5.05 -8.96 -1.63
6.54 -11.62 1.64
5.98 -10.62 -1.5
7.58 -13.46 2.45
6.76 -12.01 -1.21
7.22 -12.82 2.86
7.37 -13.08 -0.79
8.49 -15.09 4
6.9 -12.26 -0.25
7.04 -12.51 3.85
2.06 -3.69 -1.13
10.07 -18.04 0.36
2.23 -4 -1.06
10.61 -19.01 1.14
2.53 -4.54 -1.01
7.26 -13.01 1.3
5.01 -8.98 -1.63
7.25 -12.99 1.83
5.94 -10.65 -1.5
6.35 -11.38 2.06
6.76 -12.11 -1.21
7.03 -12.59 2.8
7.35 -13.17 -0.79
7.53 -13.49 3.57
6.84 -12.25 -0.24
6.69 -11.99 3.68
2.05 -3.69 -1.13
7.07 -12.77 0.25
2.22 -4.01 -1.06
8.31 -15 0.9
2.53 -4.56 -1.01
7.63 -13.78 1.38
4.98 -9 -1.63
7.22 -13.04 1.83
5.91 -10.68 -1.5
7.23 -13.06 2.36
6.82 -12.31 -1.23
6.85 -12.37 2.75
6.56 -11.84 -0.71
6.53 -11.79 3.11
7.11 -12.84 -0.26
6.55 -11.83 3.62
2.03 -3.7 -1.13
6.63 -12.06 0.24
2.2 -4.01 -1.06
7.14 -13 0.78
2.52 -4.59 -1.02
7 -12.74 1.27
4.95 -9.02 -1.63
7.29 -13.27 1.86
5.89 -10.72 -1.5
6.3 -11.46 2.07
6.74 -12.27 -1.22
6.72 -12.23 2.71
7.21 -13.11 -0.78
6.49 -11.82 3.11
6.73 -12.25 -0.24
6.67 -12.15 3.71
2.02 -3.71 -1.13
6.7 -12.28 0.24
2.19 -4.02 -1.06
7.06 -12.95 0.77
2.56 -4.69 -1.04
7.4 -13.56 1.35
4.93 -9.04 -1.63
7.25 -13.29 1.86
5.86 -10.75 -1.5
6.23 -11.43 2.06
6.68 -12.26 -1.22
6.77 -12.41 2.75
6.43 -11.8 3.1
7.67 -14.07 -0.28
6.65 -12.2 3.72
2.01 -3.71 -1.13
6.65 -12.31 0.24
2.18 -4.03 -1.06
6.6 -12.22 0.73
2.53 -4.68 -1.03
4.9 -9.07 -1.63
6.4 -11.85 1.65
5.81 -10.76 -1.5
8.24 -15.25 2.75
6.59 -12.2 -1.21
7.33 -13.56 3
6.61 -12.23 -0.73
6.39 -11.83 3.1
7.67 -14.19 -0.28
6.62 -12.25 3.73
1.99 -3.71 -1.13
7.55 -14.08 0.28
2.17 -4.05 -1.06
10.25 -19.12 1.14
2.52 -4.69 -1.04
6.62 -12.35 1.23
4.87 -9.09 -1.63
6.41 -11.96 1.67
5.77 -10.77 -1.5
8.13 -15.17 2.73
6.66 -12.42 -1.23
6.21 -11.58 2.55
7.52 -14.02 -0.83
6.37 -11.87 3.11
7.59 -14.16 -0.28
10.96 -20.44 6.22
1.98 -3.72 -1.13
7.54 -14.18 0.28
2.15 -4.05 -1.06
7.54 -14.18 0.84
2.53 -4.76 -1.05
6.82 -12.84 1.27
4.83 -9.09 -1.63
6.9 -12.98 1.8
5.75 -10.82 -1.5
7.17 -13.49 2.42
6.54 -12.31 -1.22
6.2 -11.66 2.57
6.96 -13.1 3.42
6.88 -12.95 -0.26
7.57 -14.24 4.32
1.97 -3.74 -1.13
7.51 -14.24 0.28
2.14 -4.05 -1.06
7.34 -13.92 0.82
2.52 -4.78 -1.05
6.77 -12.84 1.27
4.8 -9.11 -1.63
6.38 -12.11 1.68
5.71 -10.84 -1.5
8.65 -16.41 2.94
6.67 -12.64 -1.25
6.92 -13.12 2.88
7.34 -13.91 -0.82
6.91 -13.11 3.42
7.31 -13.87 -0.27
6.73 -12.77 3.87
1.96 -3.74 -1.13
8.25 -15.79 0.31
2.12 -4.06 -1.06
7.5 -14.34 0.85
2.47 -4.73 -1.04
6.63 -12.68 1.25
4.78 -9.15 -1.64
6.34 -12.14 1.68
5.68 -10.86 -1.51
6.92 -13.25 2.37
6.62 -12.67 -1.25
6.74 -12.91 2.83
8.19 -15.68 -0.93
6.96 -13.32 3.47
6.69 -12.81 3.87
1.94 -3.75 -1.13
8.05 -15.54 0.31
2.11 -4.07 -1.06
7.37 -14.23 0.84
2.44 -4.71 -1.03
6.5 -12.54 1.24
4.76 -9.19 -1.64
8.04 -15.52 2.15
5.64 -10.89 -1.51
8.49 -16.39 2.92
6.56 -12.66 -1.25
6.76 -13.04 2.86
7.83 -15.12 -0.89
6.52 -12.59 3.27
6.86 -13.23 -0.26
6.62 -12.78 3.86
1.93 -3.75 -1.13
6.61 -12.86 0.25
2.09 -4.08 -1.06
7.96 -15.5 0.91
2.42 -4.71 -1.03
6.44 -12.53 1.23
4.73 -9.2 -1.64
7.46 -14.53 2.01
5.62 -10.93 -1.51
8.31 -16.17 2.88
6.05 -11.78 -1.16
6.91 -13.45 2.94
5.99 -11.66 -0.69
6.47 -12.59 3.27
6.72 -13.08 -0.26
6.52 -12.7 3.82
1.91 -3.76 -1.13
6.59 -12.95 0.25
2.08 -4.08 -1.06
7.37 -14.46 0.85
2.39 -4.69 -1.02
7.9 -15.51 1.52
4.69 -9.22 -1.64
6.67 -13.1 1.8
5.61 -11.01 -1.52
6.95 -13.64 2.42
6.46 -12.69 -1.25
8.37 -16.44 3.59
7.88 -15.46 -0.91
6.73 -13.21 3.42
7.48 -14.68 -0.29
6.5 -12.76 3.84
1.9 -3.77 -1.13
6.57 -13 0.25
2.06 -4.08 -1.06
8.16 -16.15 0.95
2.37 -4.69 -1.02
7.23 -14.31 1.4
4.67 -9.24 -1.64
7.94 -15.72 2.16
5.59 -11.07 -1.52
6.37 -12.61 2.24
6.4 -12.68 -1.24
6.82 -13.49 2.94
6.68 -13.22 3.42
7.97 -15.77 -0.31
6.64 -13.15 3.95
1.89 -3.77 -1.13
8.04 -16.05 0.31
2.05 -4.09 -1.06
7.07 -14.12 0.83
2.34 -4.68 -1.02
7.17 -14.33 1.4
4.63 -9.26 -1.64
6.52 -13.02 1.79
5.56 -11.11 -1.53
6.14 -12.27 2.17
6.34 -12.67 -1.24
6.99 -13.95 3.03
7.76 -15.49 -0.91
6.58 -13.14 3.39
7.9 -15.77 -0.31
6.51 -13 3.9
1.87 -3.78 -1.13
7.98 -16.07 0.31
2.03 -4.1 -1.06
7.01 -14.12 0.83
2.32 -4.68 -1.02
6.44 -12.98 1.27
4.61 -9.29 -1.64
8 -16.12 2.21
5.54 -11.16 -1.53
6.06 -12.21 2.16
6.3 -12.7 -1.24
8.3 -16.71 3.63
7.71 -15.54 -0.91
6.53 -13.15 3.39
8.12 -16.36 -0.32
6.47 -13.04 3.9
1.85 -3.77 -1.13
6.77 -13.75 0.27
2.03 -4.12 -1.06
2.3 -4.68 -1.01
6.39 -12.98 1.27
4.58 -9.31 -1.64
7.12 -14.46 1.98
5.51 -11.19 -1.53
6.21 -12.61 2.23
6.29 -12.78 -1.25
6.44 -13.1 2.84
9.51 -19.32 -1.13
6.44 -13.08 3.37
6.72 -13.66 -0.27
7.55 -15.34 4.58
1.84 -3.77 -1.12
6.37 -13.06 0.25
2.01 -4.12 -1.06
7.01 -14.37 0.84
2.29 -4.69 -1.01
7.67 -15.72 1.53
4.55 -9.33 -1.64
6.27 -12.86 1.76
5.48 -11.24 -1.54
7.11 -14.59 2.57
6.24 -12.8 -1.25
6.35 -13.01 2.81
9.42 -19.3 -1.13
7.64 -15.66 4.02
7.18 -14.73 -0.29
6.39 -13.1 3.91
1.82 -3.77 -1.12
9.98 -20.64 0.4
1.99 -4.11 -1.05
7.13 -14.75 0.86
2.27 -4.69 -1.01
6.28 -12.99 1.26
4.51 -9.34 -1.64
6.22 -12.88 1.76
5.44 -11.26 -1.54
6.29 -13.01 2.29
6.18 -12.79 -1.24
6.21 -12.85 2.77
9.31 -19.26 -1.12
10.08 -20.85 5.35
10.12 -20.93 -0.41
6.43 -13.29 3.96
1.8 -3.77 -1.12
7.16 -14.94 0.29
1.97 -4.11 -1.05
7.08 -14.78 0.86
2.24 -4.68 -1.01
7.31 -15.26 1.48
4.49 -9.37 -1.65
6.16 -12.86 1.75
5.4 -11.27 -1.53
6.28 -13.1 2.3
6.12 -12.78 -1.24
10.03 -20.93 4.51
9.19 -19.18 -1.11
6.44 -13.45 3.44
6.53 -13.64 -0.26
7.43 -15.51 4.61
1.79 -3.76 -1.12
7.16 -15.08 0.29
1.96 -4.12 -1.05
9.94 -20.94 1.21
2.22 -4.67 -1.01
9.8 -20.65 2
4.46 -9.4 -1.65
6.1 -12.85 1.75
5.37 -11.3 -1.54
7.51 -15.81 2.77
6.04 -12.72 -1.23
6.26 -13.19 2.84
9.17 -19.3 -1.12
6.44 -13.56 3.47
6.83 -14.38 -0.28
7.4 -15.59 4.62
1.77 -3.75 -1.11
7.06 -15 0.29
1.94 -4.13 -1.05
7.75 -16.46 0.95
2.2 -4.68 -1.01
6.1 -12.96 1.25
4.43 -9.41 -1.65
6.05 -12.85 1.74
5.33 -11.32 -1.54
6.14 -13.04 2.28
6 -12.75 -1.23
6.14 -13.04 2.8
9.13 -19.39 -1.12
9.6 -20.38 5.2
6.75 -14.34 -0.28
6.05 -12.86 3.81
1.75 -3.75 -1.11
6.99 -14.99 0.29
1.93 -4.14 -1.05
7.36 -15.77 0.91
2.19 -4.69 -1.01
6.59 -14.12 1.36
4.4 -9.42 -1.65
5.97 -12.79 1.73
5.3 -11.36 -1.54
7.76 -16.64 2.91
5.96 -12.77 -1.23
6.52 -13.98 3
5.91 -12.66 -0.73
6.01 -12.89 3.28
6.8 -14.57 -0.28
6.15 -13.18 3.9
1.73 -3.74 -1.1
6.94 -15.01 0.29
1.91 -4.14 -1.05
7.5 -16.23 0.94
2.17 -4.7 -1.01
7.18 -15.54 1.5
4.37 -9.45 -1.65
5.9 -12.77 1.73
5.26 -11.38 -1.54
6.02 -13.03 2.27
5.95 -12.86 -1.24
6.3 -13.63 2.92
9.05 -19.58 -1.13
5.96 -12.89 3.28
6.81 -14.72 -0.28
6.7 -14.49 4.28
1.7 -3.71 -1.09
10 -21.83 0.42
1.9 -4.15 -1.05
7.27 -15.87 0.91
2.16 -4.71 -1.01
9.9 -21.61 2.08
4.34 -9.48 -1.65
5.82 -12.72 1.72
5.22 -11.39 -1.54
6.02 -13.14 2.29
5.94 -12.96 -1.25
6.25 -13.65 2.92
5.84 -12.75 -0.74
5.93 -12.95 3.29
10.05 -21.95 -0.42
9.48 -20.7 6.1
1.68 -3.71 -1.09
7.24 -15.96 0.31
1.9 -4.18 -1.06
7.69 -16.94 0.98
2.13 -4.7 -1
6.55 -14.43 1.39
4.32 -9.51 -1.65
9.65 -21.27 2.87
5.19 -11.43 -1.54
5.74 -12.65 2.2
5.89 -12.98 -1.25
7.11 -15.66 3.34
7.43 -16.37 -0.94
5.93 -13.06 3.31
9.92 -21.87 -0.42
5.59 -12.33 3.63
1.66 -3.7 -1.09
7.2 -16.01 0.31
1.9 -4.22 -1.07
7.55 -16.79 0.96
2.12 -4.71 -1
6.6 -14.67 1.41
4.28 -9.52 -1.65
7.64 -16.99 2.29
5.17 -11.49 -1.55
7.23 -16.07 2.79
5.83 -12.98 -1.24
5.57 -12.38 2.64
8.9 -19.8 -1.14
5.92 -13.16 3.33
9.87 -21.95 -0.42
6.55 -14.56 4.28
1.64 -3.69 -1.08
7.59 -17.02 0.33
1.89 -4.23 -1.07
7.21 -16.18 0.93
2.12 -4.75 -1.01
7.33 -16.46 1.58
4.25 -9.53 -1.65
7.14 -16.02 2.15
5.15 -11.55 -1.55
6.23 -13.97 2.42
5.8 -13.01 -1.25
6.36 -14.27 3.04
8.75 -19.64 -1.13
6.39 -14.33 3.62
7.22 -16.2 -0.31
5.59 -12.55 3.68
1.63 -3.69 -1.08
7.01 -15.87 0.3
1.87 -4.24 -1.07
7.24 -16.41 0.94
2.13 -4.83 -1.03
6.43 -14.56 1.39
4.22 -9.55 -1.65
5.73 -12.97 1.74
5.11 -11.58 -1.55
5.65 -12.79 2.21
5.7 -12.9 -1.23
5.61 -12.71 2.7
8.55 -19.36 -1.11
5.87 -13.29 3.35
7.58 -17.16 -0.33
6.34 -14.36 4.21
1.62 -3.71 -1.08
7.1 -16.23 0.31
1.86 -4.25 -1.07
7.13 -16.31 0.93
2.13 -4.87 -1.03
6.38 -14.58 1.39
4.19 -9.58 -1.66
7.54 -17.24 2.31
5.07 -11.59 -1.55
5.52 -12.63 2.18
5.59 -12.78 -1.22
6.01 -13.73 2.91
8.6 -19.67 -1.12
5.84 -13.35 3.36
7.66 -17.51 -0.33
5.53 -12.65 3.7
1.61 -3.71 -1.08
9.69 -22.37 0.43
1.84 -4.26 -1.07
6.94 -16.02 0.92
2.12 -4.89 -1.04
6.36 -14.68 1.4
4.16 -9.61 -1.66
6.68 -15.42 2.06
5.04 -11.63 -1.56
5.61 -12.96 2.24
5.55 -12.82 -1.22
7.14 -16.49 3.49
8.53 -19.69 -1.12
6.04 -13.95 3.51
9.21 -21.26 -0.4
6.41 -14.79 4.32
1.59 -3.71 -1.08
9.47 -22.08 0.42
1.83 -4.27 -1.07
6.98 -16.26 0.93
2.1 -4.9 -1.04
6.88 -16.04 1.53
4.13 -9.63 -1.66
6.62 -15.44 2.06
4.99 -11.64 -1.56
5.52 -12.88 2.22
5.5 -12.83 -1.22
5.88 -13.72 2.9
6.12 -14.26 -0.81
6.06 -14.12 3.55
9.06 -21.13 -0.4
6.05 -14.11 4.11
1.58 -3.72 -1.08
6.91 -16.27 0.31
1.81 -4.27 -1.07
6.9 -16.24 0.92
2.09 -4.91 -1.04
6.81 -16.02 1.52
4.1 -9.64 -1.66
8.91 -20.97 2.8
4.95 -11.65 -1.55
5.45 -12.83 2.21
5.41 -12.74 -1.21
5.83 -13.72 2.9
7.51 -17.67 -1.01
5.96 -14.02 3.52
14.62 -34.42 -0.65
6.01 -14.15 4.12
1.57 -3.73 -1.08
6.84 -16.26 0.31
1.79 -4.25 -1.07
6.85 -16.29 0.93
2.08 -4.93 -1.04
9.46 -22.49 2.13
2.47 -5.88 -1.01
5.49 -13.06 1.74
4.91 -11.66 -1.55
5.45 -12.95 2.23
5.37 -12.77 -1.21
5.78 -13.73 2.9
8.31 -19.76 -1.12
6.6 -15.69 3.93
14.5 -34.47 -0.65
5.39 -12.82 3.73
1.56 -3.74 -1.09
9.36 -22.46 0.42
1.77 -4.25 -1.06
6.79 -16.28 0.92
2.06 -4.93 -1.04
6.76 -16.22 1.54
2.47 -5.92 -1.02
6.55 -15.73 2.09
4.86 -11.67 -1.55
5.94 -14.24 2.44
5.36 -12.86 -1.22
5.74 -13.77 2.9
8.33 -20 -1.14
6.32 -15.16 3.79
7.15 -17.16 -0.32
5.97 -14.33 4.16
1.55 -3.75 -1.09
8.87 -21.51 0.41
1.75 -4.25 -1.06
9.73 -23.57 1.34
2.03 -4.93 -1.04
6.01 -14.57 1.38
4.01 -9.72 -1.67
5.42 -13.14 1.75
4.83 -11.69 -1.55
5.89 -14.28 2.45
5.34 -12.94 -1.22
8.56 -20.75 4.36
8.3 -20.11 -1.14
6.22 -15.07 3.76
7.13 -17.29 -0.33
6.12 -14.85 4.3
1.53 -3.76 -1.09
9.13 -22.34 0.42
1.74 -4.26 -1.06
7.38 -18.05 1.02
2.03 -4.98 -1.05
5.93 -14.52 1.37
3.98 -9.73 -1.67
6.45 -15.78 2.09
4.79 -11.72 -1.55
5.84 -14.29 2.45
5.29 -12.95 -1.22
5.67 -13.87 2.91
8.2 -20.07 -1.14
6.17 -15.11 3.77
14.22 -34.81 -0.66
8.97 -21.95 6.35
1.52 -3.76 -1.09
9.01 -22.26 0.42
1.73 -4.27 -1.06
7.23 -17.88 1.01
2.05 -5.07 -1.06
5.88 -14.52 1.37
2.23 -5.51 -0.94
9.24 -22.83 3.02
4.74 -11.72 -1.55
5.8 -14.33 2.45
5.27 -13.02 -1.23
5.7 -14.1 2.96
8.1 -20.02 -1.13
8.25 -20.39 5.08
9.08 -22.44 -0.42
6.26 -15.46 4.47
1.51 -3.77 -1.09
8.93 -22.29 0.42
1.71 -4.27 -1.06
15 -37.43 2.11
1.96 -4.88 -1.02
6.61 -16.49 1.55
2.21 -5.52 -0.94
8.56 -21.38 2.83
4.7 -11.73 -1.55
5.76 -14.37 2.45
5.24 -13.09 -1.23
5.62 -14.04 2.94
8.06 -20.12 -1.14
8.35 -20.85 5.19
6.97 -17.4 -0.33
5.81 -14.51 4.19
1.5 -3.78 -1.09
8.68 -21.88 0.41
1.7 -4.28 -1.06
9.52 -24.01 1.35
1.9 -4.78 -1
6.45 -16.26 1.53
2.2 -5.54 -0.94
8.47 -21.35 2.82
4.66 -11.74 -1.55
5.21 -13.14 -1.24
5.49 -13.84 2.89
8 -20.18 -1.14
8.83 -22.27 5.53
6.87 -17.31 -0.33
5.71 -14.4 4.15
1.49 -3.79 -1.09
9.1 -23.19 0.43
1.68 -4.28 -1.06
9.47 -24.13 1.36
1.88 -4.79 -1
9.35 -23.83 2.24
2.18 -5.56 -0.95
4.6 -11.73 -1.55
5.64 -14.38 2.45
5.07 -12.91 -1.21
5.28 -13.44 2.81
7.88 -20.08 -1.13
8.51 -21.69 5.38
6.67 -17 -0.32
5.65 -14.38 4.14
