# .PCD v0.7 - Point Cloud Data file format
VERSION 0.7
FIELDS x y z
SIZE 4 4 4
TYPE F F F
COUNT 1 1 1
WIDTH 2903
HEIGHT 1
VIEWPOINT 0 0 0 1 0 0 0
POINTS 2903
DATA ascii
18.08 28.42 5.34
11.97 18.8 -1.95
18.11 28.46 6.56
12.15 19.09 -1.19
12.39 19.47 -0.4
10.69 16.79 5.33
3.79 5.9 -1.88
18.54 28.91 0.6
4.56 7.11 -1.95
18.56 28.95 1.8
5.42 8.46 -1.95
18.87 29.42 3.06
6.99 10.9 -2.05
18.89 29.45 4.3
8.88 13.85 -2.02
18.23 28.43 5.35
10.05 15.67 -1.63
18.26 28.48 6.58
10.05 15.67 -0.98
10.68 16.66 4.57
12.42 19.37 -0.4
3.8 5.89 -1.88
18.81 29.13 0.61
4.58 7.09 -1.95
18.97 29.38 1.83
5.46 8.46 -1.96
19 29.43 3.06
7.01 10.85 -2.05
19.03 29.47 4.31
8.92 13.81 -2.02
18.37 28.45 5.36
10.12 15.68 -1.63
18.4 28.5 6.59
18.35 28.41 -1.77
14.22 22.02 6.05
12.5 19.36 -0.4
3.82 5.88 -1.88
18.96 29.14 0.61
4.6 7.07 -1.95
19.13 29.4 1.84
5.5 8.45 -1.96
19.17 29.47 3.08
7.06 10.85 -2.05
19.23 29.55 4.33
8.95 13.76 -2.02
18.52 28.47 5.38
12.27 18.86 -1.97
13.6 20.91 4.85
12.63 19.4 -1.21
11.97 18.4 5.07
12.34 18.97 -0.4
10.75 16.52 5.28
3.83 5.85 -1.87
19.12 29.16 0.61
4.62 7.05 -1.95
19.29 29.42 1.84
5.55 8.46 -1.97
19.3 29.44 3.08
7.12 10.86 -2.06
9 13.73 -2.02
18.66 28.46 5.39
12.34 18.82 -1.97
13.23 20.18 4.69
12.48 19.03 -1.19
11.51 17.55 4.84
12.41 18.94 -0.4
13.89 21.19 6.79
3.85 5.83 -1.87
19.26 29.15 0.61
4.64 7.03 -1.94
5.59 8.46 -1.97
19.46 29.46 3.09
7.18 10.86 -2.06
9.05 13.7 -2.02
18.82 28.48 5.41
12.92 19.56 -2.05
12.26 18.56 -1.17
11.69 17.69 4.89
12.73 19.26 -0.4
10.88 16.47 5.29
3.87 5.82 -1.87
19.43 29.17 0.61
4.65 6.99 -1.94
19.61 29.44 1.85
5.64 8.47 -1.98
19.61 29.45 3.1
7.23 10.86 -2.07
9.09 13.66 -2.01
18.97 28.49 5.42
12.66 19.01 -2
12.46 18.71 -1.18
11.69 17.56 4.87
12.45 18.7 -0.39
3.9 5.81 -1.87
19.57 29.17 0.61
4.67 6.97 -1.94
19.74 29.42 1.86
5.68 8.46 -1.98
19.77 29.47 3.1
7.27 10.83 -2.07
19.71 29.37 4.34
9.14 13.62 -2.01
19.12 28.49 5.43
12.87 19.18 -2.02
11.35 16.92 3.96
12.55 18.7 -1.18
11.63 17.33 4.82
10.58 15.77 -0.33
3.91 5.79 -1.87
19.72 29.2 0.62
4.7 6.95 -1.94
19.91 29.48 1.86
5.72 8.46 -1.99
19.95 29.53 3.12
7.32 10.83 -2.07
19.81 29.32 4.35
9.18 13.59 -2.01
19.27 28.52 5.45
12.79 18.94 -2
12.88 19.07 -1.21
11.12 16.45 4.58
12.63 18.69 -0.39
11.91 17.63 5.7
3.92 5.77 -1.87
19.87 29.2 0.62
4.72 6.93 -1.94
20.02 29.41 1.86
5.76 8.47 -1.99
20.08 29.5 3.12
7.35 10.8 -2.07
19.97 29.35 4.36
9.22 13.54 -2.01
19.41 28.52 5.46
13.28 19.52 -2.07
10.72 15.76 -1
11.5 16.9 4.72
13.2 19.4 -0.41
3.94 5.75 -1.87
20.03 29.2 0.62
4.73 6.9 -1.93
20.24 29.5 1.87
5.81 8.47 -2
20.22 29.47 3.13
7.39 10.78 -2.07
20.12 29.34 4.37
9.27 13.51 -2.01
19.57 28.52 5.48
13.65 19.9 -2.11
13.1 19.1 -1.21
11.42 16.64 4.66
13.26 19.33 -0.41
3.96 5.73 -1.87
20.19 29.22 0.62
4.75 6.87 -1.93
20.23 29.26 1.86
5.86 8.48 -2
20.23 29.28 3.11
7.45 10.78 -2.08
20.19 29.21 4.36
9.31 13.47 -2.01
19.72 28.53 5.49
13.77 19.92 -2.12
11.46 16.59 3.92
13.5 19.54 -1.24
11.96 17.31 4.86
13.39 19.38 -0.41
3.98 5.72 -1.87
20.29 29.15 0.62
4.77 6.85 -1.93
20.27 29.12 1.86
5.9 8.48 -2.01
20.29 29.15 3.11
7.49 10.76 -2.08
20.43 29.35 4.39
9.34 13.42 -2.01
19.87 28.55 5.51
10.94 15.71 -1.67
20.27 29.13 -1.86
12.03 17.29 4.86
13.56 19.48 -0.41
11.76 16.9 5.52
4 5.7 -1.87
20.36 29.04 0.62
4.79 6.83 -1.93
20.59 29.37 1.88
5.94 8.48 -2.01
20.73 29.57 3.16
7.54 10.76 -2.08
20.6 29.38 4.41
9.38 13.38 -2.01
20.02 28.55 5.52
13.71 19.55 -2.09
13.66 19.49 -1.25
12.27 17.5 4.93
13.67 19.5 -0.42
11.81 16.85 5.51
4.01 5.68 -1.86
11.17 15.82 0.34
4.81 6.81 -1.92
20.87 29.55 1.9
5.99 8.48 -2.02
20.88 29.56 3.17
7.6 10.76 -2.09
20.76 29.39 4.42
9.43 13.35 -2.01
20.18 28.58 5.54
13.97 19.78 -2.12
14.22 20.13 -1.29
12.34 17.47 4.94
13.85 19.61 -0.42
4.03 5.66 -1.86
11.23 15.79 0.34
4.82 6.78 -1.92
20.97 29.48 1.9
6.02 8.47 -2.02
21.05 29.59 3.18
7.66 10.77 -2.09
20.93 29.42 4.43
9.46 13.3 -2
20.33 28.58 5.56
11.21 15.76 -1.69
11.23 15.79 -1.02
12.46 17.52 4.96
11.24 15.8 -0.34
4.05 5.64 -1.86
11.35 15.84 0.34
4.84 6.75 -1.92
6.04 8.43 -2.02
21.21 29.59 3.19
7.69 10.73 -2.09
21.09 29.43 4.45
9.51 13.27 -2
20.49 28.59 5.57
11.27 15.73 -1.69
11.29 15.75 -1.02
13.92 19.42 -0.42
4.06 5.63 -1.86
11.43 15.84 0.34
4.86 6.73 -1.92
6.08 8.42 -2.02
21.37 29.6 3.19
7.73 10.71 -2.09
21.26 29.45 4.46
9.54 13.22 -2
20.65 28.6 5.59
14.15 19.6 -2.11
12.88 17.85 4.28
14.07 19.49 -1.26
13.85 19.19 -0.41
12 16.63 5.5
4.08 5.61 -1.86
11.51 15.83 0.34
4.88 6.71 -1.92
21.51 29.58 1.92
6.1 8.38 -2.01
21.51 29.57 3.2
7.8 10.72 -2.1
21.42 29.45 4.47
9.59 13.18 -2
20.81 28.61 5.6
13.88 19.09 -2.07
11.56 15.89 3.82
13.67 18.79 -1.22
11.73 16.12 4.6
13.99 19.23 -0.42
4.09 5.58 -1.85
11.62 15.86 0.34
4.9 6.68 -1.91
6.13 8.37 -2.02
21.69 29.61 3.21
7.84 10.71 -2.1
21.59 29.47 4.49
9.63 13.14 -2
20.97 28.62 5.62
13.88 18.95 -2.06
11.57 15.8 -1.03
11.8 16.11 4.61
13.83 18.88 -0.41
12.41 16.93 5.62
4.11 5.57 -1.85
11.7 15.85 0.34
4.92 6.67 -1.91
6.16 8.35 -2.02
21.84 29.6 3.22
7.86 10.65 -2.1
21.74 29.46 4.5
9.67 13.11 -2
21.15 28.65 5.64
14.38 19.49 -2.12
11.65 15.79 -1.03
11.82 16.01 4.59
14.1 19.11 -0.41
4.13 5.55 -1.85
11.79 15.85 0.34
4.93 6.64 -1.91
22 29.59 1.93
6.2 8.34 -2.02
21.97 29.55 3.22
7.93 10.67 -2.11
21.89 29.45 4.51
9.71 13.06 -2
21.3 28.65 5.65
14.8 19.92 -2.17
15.02 20.21 -1.32
12 16.14 4.64
14.19 19.08 -0.42
12.35 16.61 5.55
4.14 5.54 -1.85
11.89 15.89 0.35
4.95 6.62 -1.91
21.97 29.36 1.92
6.23 8.32 -2.02
21.96 29.34 3.21
8.03 10.73 -2.12
21.96 29.35 4.5
9.74 13.02 -2
21.46 28.67 5.67
14.86 19.85 -2.17
14.05 18.77 -1.23
22.01 29.41 -0.64
12.58 16.81 5.62
4.15 5.51 -1.85
22.02 29.22 0.64
4.97 6.6 -1.91
22.02 29.22 1.92
6.23 8.26 -2.01
22.14 29.37 3.22
8.05 10.68 -2.12
22.15 29.38 4.52
9.79 12.98 -2
21.61 28.67 5.69
14.5 19.24 -2.11
14.11 18.73 -1.23
14.8 19.64 -0.43
13.27 17.61 5.91
4.16 5.49 -1.85
22.19 29.22 0.64
4.99 6.58 -1.91
22.23 29.27 1.93
6.24 8.22 -2.01
22.24 29.3 3.22
8.05 10.6 -2.11
22.25 29.3 4.52
9.83 12.95 -2
21.78 28.69 5.7
12.02 15.83 -1.74
14.23 18.74 -1.23
12.77 16.81 4.87
14.29 18.82 -0.41
12.42 16.35 5.5
4.18 5.47 -1.84
22.31 29.17 0.64
5.01 6.55 -1.9
22.32 29.19 1.93
6.26 8.18 -2
22.34 29.22 3.22
8.09 10.57 -2.11
22.35 29.23 4.52
9.88 12.92 -2
21.95 28.71 5.72
12.11 15.83 -1.74
14.34 18.75 -1.24
12.63 16.51 4.8
14.36 18.78 -0.41
12.75 16.67 5.62
4.2 5.45 -1.84
22.4 29.07 0.64
5.02 6.52 -1.9
22.42 29.1 1.93
6.29 8.16 -2
22.45 29.14 3.22
8.12 10.54 -2.11
22.45 29.14 4.52
9.92 12.88 -2
22.12 28.71 5.74
12.22 15.87 -1.75
14.43 18.73 -1.24
14.47 18.78 -0.41
12.7 16.49 5.58
4.22 5.44 -1.84
22.5 29.01 0.64
5.04 6.5 -1.9
22.51 29.02 1.92
6.3 8.12 -2
22.54 29.06 3.22
8.2 10.57 -2.12
22.54 29.06 4.52
9.96 12.84 -2
22.29 28.73 5.76
12.31 15.87 -1.76
14.57 18.77 -1.25
13.09 16.88 4.93
14.67 18.91 -0.42
12.67 16.34 5.54
4.23 5.42 -1.84
22.6 28.93 0.64
5.06 6.48 -1.9
22.61 28.94 1.92
6.3 8.06 -1.99
22.64 28.98 3.22
8.27 10.59 -2.13
22.64 28.98 4.52
10 12.8 -1.99
22.44 28.72 5.77
12.4 15.88 -1.76
14.69 18.8 -1.25
14.7 18.82 -0.42
4.24 5.39 -1.84
22.7 28.85 0.64
5.08 6.46 -1.9
22.71 28.86 1.92
6.32 8.04 -1.99
22.73 28.89 3.22
8.32 10.57 -2.13
22.74 28.9 4.51
10.05 12.77 -2
22.62 28.75 5.79
12.48 15.87 -1.77
12.72 16.17 4
14.75 18.74 -1.25
12.71 16.16 4.75
14.82 18.83 -0.42
4.25 5.36 -1.83
22.79 28.76 0.64
5.1 6.43 -1.9
22.81 28.78 1.92
6.34 8 -1.98
22.83 28.81 3.22
8.34 10.53 -2.13
22.84 28.81 4.51
10.08 12.72 -1.99
22.79 28.76 5.81
12.58 15.88 -1.77
13.24 16.7 4.14
14.84 18.72 -1.25
12.84 16.2 4.77
14.93 18.84 -0.42
4.27 5.35 -1.83
22.89 28.68 0.64
5.11 6.4 -1.89
22.91 28.71 1.92
6.37 7.98 -1.98
22.94 28.74 3.22
8.39 10.51 -2.13
22.93 28.73 4.51
10.12 12.67 -1.99
22.97 28.78 5.83
12.69 15.89 -1.78
12.7 15.91 -1.07
13.45 16.86 4.98
15.05 18.85 -0.42
13.34 16.71 5.73
4.29 5.33 -1.83
23 28.6 0.64
5.12 6.37 -1.89
23.02 28.63 1.93
6.38 7.94 -1.98
23.06 28.68 3.22
8.48 10.55 -2.14
23.09 28.71 4.52
10.15 12.63 -1.99
23.15 28.79 5.85
12.78 15.89 -1.78
15.14 18.83 -1.27
15.2 18.91 -0.42
4.3 5.31 -1.83
23.11 28.55 0.64
5.14 6.35 -1.89
23.15 28.59 1.93
6.4 7.9 -1.98
23.23 28.69 3.23
8.52 10.53 -2.15
23.27 28.74 4.54
10.19 12.58 -1.99
23.3 28.78 5.87
12.88 15.91 -1.79
12.87 15.9 -1.07
15.32 18.93 -0.43
4.31 5.28 -1.83
23.29 28.56 0.64
5.16 6.33 -1.89
23.32 28.6 1.93
6.42 7.87 -1.97
23.39 28.68 3.24
8.53 10.46 -2.14
23.44 28.74 4.55
10.24 12.55 -1.99
23.49 28.8 5.89
12.96 15.9 -1.79
15.52 19.02 -1.29
15.34 18.81 -0.42
4.33 5.27 -1.83
23.45 28.55 0.64
5.18 6.3 -1.88
23.5 28.61 1.94
6.44 7.84 -1.97
23.58 28.71 3.25
8.58 10.45 -2.14
23.61 28.75 4.57
10.28 12.51 -1.99
23.67 28.82 5.91
13.07 15.91 -1.8
15.5 18.87 -1.28
23.51 28.63 -0.65
4.34 5.25 -1.83
23.65 28.58 0.65
5.19 6.27 -1.88
23.69 28.63 1.95
6.46 7.81 -1.97
23.75 28.71 3.26
8.64 10.44 -2.15
23.79 28.75 4.58
10.31 12.46 -1.99
23.85 28.84 5.93
13.17 15.92 -1.81
16.12 19.49 -1.33
12.99 15.7 4.7
15.99 19.33 -0.44
4.36 5.23 -1.82
23.81 28.59 0.65
5.2 6.25 -1.88
23.85 28.63 1.95
6.48 7.78 -1.97
8.68 10.42 -2.15
24.52 29.44 4.7
10.34 12.41 -1.98
24.03 28.85 5.95
13.27 15.93 -1.81
22.48 26.99 -1.84
15.91 19.1 -0.43
4.37 5.21 -1.82
13.4 15.98 0.36
5.23 6.23 -1.88
6.49 7.73 -1.96
8.75 10.43 -2.16
24.69 29.43 4.72
10.37 12.36 -1.98
24.2 28.84 5.96
13.37 15.94 -1.82
16.09 19.18 -1.31
15.79 18.83 -0.43
4.38 5.19 -1.82
13.48 15.96 0.36
5.24 6.21 -1.88
6.51 7.7 -1.96
8.76 10.37 -2.15
24.86 29.43 4.73
10.41 12.33 -1.98
24.38 28.87 5.98
13.46 15.93 -1.82
13.46 15.93 -1.09
13.47 15.95 -0.36
4.4 5.17 -1.82
13.57 15.95 0.37
5.26 6.18 -1.87
6.53 7.68 -1.96
8.78 10.32 -2.15
25.04 29.43 4.74
10.45 12.29 -1.98
24.58 28.89 6.01
13.53 15.91 -1.83
13.53 15.9 -1.09
16.02 18.83 -0.43
4.42 5.16 -1.82
13.72 16.01 0.37
5.27 6.15 -1.87
6.55 7.64 -1.96
8.83 10.3 -2.15
25.21 29.42 4.76
10.49 12.24 -1.98
24.76 28.9 6.03
13.67 15.96 -1.84
16.14 18.84 -1.3
16.54 19.3 -0.44
4.43 5.13 -1.82
13.82 16.01 0.37
5.28 6.12 -1.87
24.61 28.52 1.97
6.56 7.6 -1.95
25.6 29.67 3.43
8.86 10.27 -2.15
25.39 29.42 4.77
10.53 12.2 -1.98
24.94 28.9 6.05
13.77 15.95 -1.84
16.25 18.83 -1.3
16.22 18.8 -0.43
4.44 5.11 -1.81
25.65 29.52 0.68
5.31 6.11 -1.87
25.63 29.5 2.05
6.57 7.56 -1.95
25.63 29.5 3.42
7.82 9.01 -1.89
25.55 29.41 4.78
10.55 12.15 -1.98
25.13 28.92 6.07
13.86 15.95 -1.85
16.34 18.81 -1.31
16.3 18.77 -0.43
4.45 5.08 -1.81
25.71 29.39 0.68
5.32 6.08 -1.87
24.82 28.37 1.98
6.58 7.53 -1.94
7.89 9.02 -1.9
25.75 29.43 4.8
10.6 12.11 -1.98
25.3 28.92 6.09
13.98 15.97 -1.86
16.62 19 -1.32
16.78 19.18 -0.44
4.46 5.06 -1.81
14.12 16.03 0.37
5.34 6.06 -1.86
6.6 7.5 -1.94
8.06 9.15 -1.93
25.91 29.42 4.81
10.63 12.07 -1.98
25.5 28.95 6.11
14.07 15.98 -1.86
16.74 19 -1.33
16.81 19.08 -0.44
4.47 5.04 -1.81
25.48 28.72 0.67
5.35 6.03 -1.86
24.77 27.92 1.96
6.62 7.46 -1.94
8.09 9.11 -1.93
26.09 29.41 4.83
10.65 12 -1.97
25.7 28.97 6.13
14.18 15.99 -1.87
16.76 18.89 -1.32
16.98 19.14 -0.45
4.49 5.03 -1.81
17.46 19.55 0.46
5.37 6.01 -1.86
24.94 27.92 1.96
6.64 7.43 -1.94
25.5 28.54 3.35
8.09 9.05 -1.92
26.27 29.41 4.84
10.68 11.95 -1.97
25.88 28.97 6.15
14.3 16.01 -1.88
16.9 18.92 -1.33
17.46 19.54 -0.46
4.5 5 -1.8
17.49 19.44 0.46
5.38 5.98 -1.86
6.65 7.39 -1.93
8.07 8.97 -1.91
26.45 29.39 4.85
10.71 11.9 -1.97
26.08 28.98 6.18
17.17 19.09 -2.25
17.25 19.17 -1.35
17.07 18.97 -0.45
4.51 4.98 -1.8
17.58 19.41 0.46
5.4 5.96 -1.86
25.11 27.72 1.96
6.67 7.37 -1.93
8.1 8.94 -1.91
26.64 29.4 4.87
10.7 11.81 -1.96
26.28 29.01 6.2
17.24 19.03 -2.25
17.18 18.96 -1.34
17.63 19.46 -0.46
4.53 4.97 -1.8
17.65 19.34 0.46
5.42 5.94 -1.86
25.32 27.75 1.97
6.69 7.33 -1.93
8.01 8.78 -1.88
26.82 29.4 4.89
10.71 11.74 -1.95
26.48 29.02 6.22
17.33 19 -2.25
17.27 18.92 -1.34
17.43 19.1 -0.45
4.55 4.95 -1.8
14.76 16.06 0.38
5.43 5.91 -1.85
6.71 7.3 -1.93
27.39 29.82 3.54
8.02 8.73 -1.88
27 29.39 4.9
10.7 11.64 -1.94
26.67 29.02 6.24
17.38 18.91 -2.25
14.72 16.02 -1.14
17.37 18.91 -0.45
4.56 4.93 -1.8
14.88 16.08 0.38
5.45 5.89 -1.85
27.42 29.64 2.12
6.72 7.27 -1.92
27.43 29.64 3.53
8.05 8.7 -1.88
27.2 29.39 4.92
10.71 11.57 -1.94
26.87 29.04 6.27
17.45 18.86 -2.25
17.54 18.95 -1.35
17.62 19.05 -0.45
4.56 4.89 -1.79
5.46 5.86 -1.85
6.73 7.22 -1.92
26.66 28.62 3.42
8.08 8.67 -1.88
27.36 29.37 4.93
10.8 11.59 -1.95
27.07 29.05 6.29
17.5 18.78 -2.25
17.61 18.9 -1.35
17.75 19.05 -0.45
4.56 4.86 -1.79
18.49 19.71 0.47
5.48 5.84 -1.85
27.07 28.85 2.07
6.74 7.19 -1.92
8.11 8.65 -1.88
26.85 28.62 4.82
10.84 11.55 -1.95
27.28 29.08 6.31
17.49 18.64 -2.24
17.77 18.94 -1.36
17.88 19.06 -0.46
4.58 4.85 -1.79
18.44 19.53 0.47
5.49 5.81 -1.85
6.76 7.16 -1.91
8.16 8.64 -1.88
27.74 29.38 4.96
10.87 11.51 -1.94
27.47 29.09 6.34
17.59 18.63 -2.24
18.77 19.87 -0.48
4.59 4.83 -1.78
15.31 16.1 0.39
5.5 5.78 -1.84
6.78 7.13 -1.91
8.22 8.64 -1.89
27.95 29.38 4.98
10.92 11.48 -1.95
27.68 29.1 6.36
17.66 18.56 -2.24
18.37 19.31 -0.47
4.61 4.81 -1.78
18.87 19.7 0.48
5.51 5.76 -1.84
6.79 7.09 -1.91
8.28 8.64 -1.9
27.28 28.48 4.84
10.99 11.48 -1.95
27.91 29.14 6.39
17.71 18.49 -2.24
26.78 27.96 7.53
18.85 19.68 -1.43
18.4 19.21 -0.46
4.63 4.8 -1.79
19.03 19.72 0.48
5.53 5.73 -1.84
6.8 7.05 -1.9
8.34 8.65 -1.9
28.33 29.36 5.01
11.03 11.43 -1.95
26.56 27.54 6.06
17.78 18.43 -2.24
26.91 27.9 7.54
18.42 19.09 -0.46
4.63 4.77 -1.78
15.68 16.14 0.39
5.55 5.71 -1.84
26.85 27.64 2.02
6.82 7.02 -1.9
25.91 26.67 3.25
8.41 8.66 -1.91
27.19 27.99 4.79
11.01 11.34 -1.94
28.33 29.17 6.44
17.83 18.35 -2.24
19.2 19.77 -1.44
18.46 19.01 -0.46
4.65 4.75 -1.78
15.74 16.09 0.39
5.56 5.69 -1.84
26.99 27.59 2.02
6.84 6.99 -1.9
27.02 27.62 3.38
8.46 8.65 -1.92
26.97 27.57 4.74
11.14 11.39 -1.96
26.75 27.35 6.06
15.73 16.08 -1.97
27.05 27.65 7.52
15.73 16.08 -1.18
15.74 16.09 -0.39
4.67 4.74 -1.78
19.29 19.59 0.48
5.57 5.66 -1.83
29.24 29.7 2.18
6.86 6.96 -1.9
29.37 29.82 3.66
8.52 8.65 -1.92
28.9 29.35 5.06
11.19 11.36 -1.96
26.7 27.12 6.03
15.79 16.03 -1.97
15.82 16.07 -1.18
18.73 19.02 -0.47
4.69 4.73 -1.78
19.39 19.56 0.48
5.58 5.63 -1.83
29.44 29.7 2.19
6.87 6.93 -1.9
29.47 29.73 3.66
8.58 8.65 -1.93
27.5 27.74 4.8
11.21 11.3 -1.95
28.97 29.22 6.52
18.01 18.17 -2.24
18.93 19.09 -1.41
4.69 4.7 -1.78
19.56 19.6 0.48
5.59 5.61 -1.83
29.56 29.63 2.19
6.88 6.89 -1.89
29.59 29.65 3.67
8.64 8.66 -1.94
27.3 27.36 4.75
11.25 11.28 -1.96
29.16 29.22 6.54
18.08 18.12 -2.24
19.14 19.18 -1.42
19.07 19.11 -0.47
4.64 4.62 -1.76
19.83 19.73 0.49
5.61 5.58 -1.83
29.67 29.51 2.19
6.9 6.86 -1.89
29.69 29.54 3.66
8.71 8.66 -1.95
27.27 27.13 4.72
11.31 11.25 -1.96
29.37 29.22 6.56
18.16 18.07 -2.24
19.88 19.77 -1.47
19.16 19.06 -0.47
4.63 4.58 -1.74
19.92 19.68 0.49
5.63 5.56 -1.83
29.85 29.49 2.2
6.91 6.83 -1.89
29.81 29.46 3.67
8.76 8.66 -1.95
29.73 29.38 5.13
11.35 11.21 -1.96
29.6 29.25 6.59
18.19 17.97 -2.24
19.45 19.22 -1.43
19.26 19.04 -0.47
4.65 4.56 -1.75
20 19.62 0.49
5.64 5.53 -1.82
29.9 29.33 2.19
6.93 6.8 -1.89
29.93 29.36 3.67
8.82 8.65 -1.96
29.94 29.37 5.15
11.44 11.22 -1.97
29.81 29.25 6.61
18.26 17.91 -2.24
19.62 19.25 -1.44
4.65 4.53 -1.74
19.99 19.48 0.49
5.65 5.5 -1.82
30 29.23 2.2
6.93 6.76 -1.88
30.05 29.28 3.67
8.9 8.67 -1.97
26.65 25.97 4.57
11.46 11.17 -1.96
30.04 29.27 6.64
18.31 17.84 -2.24
19.81 19.3 -0.48
4.66 4.51 -1.74
20.11 19.46 0.49
5.66 5.48 -1.82
30.11 29.14 2.2
6.93 6.71 -1.88
30.17 29.2 3.67
8.97 8.68 -1.98
26.64 25.78 4.55
11.58 11.2 -1.98
30.26 29.29 6.67
18.37 17.78 -2.24
21.37 20.68 -1.56
20.16 19.51 -0.49
4.66 4.48 -1.73
20.13 19.35 0.49
5.68 5.46 -1.82
30.25 29.08 2.2
6.95 6.68 -1.87
30.36 29.18 3.68
9.02 8.67 -1.98
26.82 25.78 4.57
11.61 11.17 -1.98
30.48 29.3 6.7
18.47 17.76 -2.24
20.63 19.83 -1.5
4.68 4.46 -1.73
20.35 19.41 0.49
5.7 5.43 -1.82
30.49 29.09 2.21
6.97 6.65 -1.87
30.59 29.19 3.7
9.04 8.62 -1.98
27.17 25.92 4.61
11.69 11.15 -1.98
30.73 29.31 6.73
18.5 17.65 -2.24
21.52 20.53 -1.56
12.12 11.56 4.49
4.69 4.44 -1.73
20.48 19.41 0.49
5.7 5.4 -1.81
30.71 29.1 2.22
6.99 6.62 -1.87
29.48 27.94 3.55
9.05 8.57 -1.97
30.95 29.33 5.24
11.74 11.13 -1.99
30.98 29.35 6.76
18.48 17.51 -2.23
20.21 19.15 -1.46
12.12 11.48 3.85
20.06 19.01 -0.48
12.09 11.46 4.46
4.7 4.42 -1.73
20.56 19.35 0.49
5.71 5.38 -1.81
30.92 29.1 2.23
7 6.59 -1.87
28.85 27.15 3.47
9.07 8.54 -1.97
12.14 11.42 2.05
11.75 11.06 -1.98
12.13 11.41 2.64
18.61 17.51 -2.24
12.12 11.4 3.23
20.26 19.07 -1.46
12.14 11.42 3.85
20.19 19 -0.48
4.71 4.4 -1.73
20.82 19.47 0.5
5.72 5.35 -1.81
7 6.55 -1.86
12.17 11.37 1.46
9.09 8.5 -1.97
12.14 11.35 2.04
11.82 11.05 -1.99
12.14 11.35 2.63
16.85 15.75 -2.02
12.17 11.38 3.24
20.41 19.08 -1.46
12.29 11.49 3.88
20.32 19 -0.49
4.72 4.38 -1.73
12.16 11.28 0.29
5.74 5.32 -1.81
12.16 11.28 0.87
7.02 6.51 -1.86
12.17 11.29 1.45
9.11 8.45 -1.97
12.2 11.32 2.04
11.88 11.02 -1.99
12.23 11.35 2.64
16.93 15.71 -2.02
12.2 11.32 -0.29
4.74 4.36 -1.73
12.18 11.22 0.29
5.75 5.3 -1.8
12.2 11.25 0.87
7.04 6.48 -1.86
9.11 8.39 -1.96
31.85 29.35 5.32
11.94 11 -1.99
12.2 11.24 -1.45
12.19 11.23 -0.87
12.2 11.24 -0.29
4.75 4.35 -1.73
5.75 5.26 -1.8
32.77 30 2.33
7.06 6.46 -1.86
32.77 30 3.89
9.12 8.34 -1.96
32.07 29.35 5.34
12.02 11 -2
12.21 11.18 -1.45
12.21 11.18 -0.87
12.25 11.21 -0.29
4.77 4.34 -1.73
17.92 16.3 0.42
5.76 5.24 -1.8
7.07 6.43 -1.86
9.09 8.27 -1.95
32.31 29.38 5.36
12.02 10.93 -1.99
12.29 11.17 -1.45
4.78 4.31 -1.72
21.71 19.59 0.51
5.77 5.21 -1.8
7.07 6.38 -1.85
9.1 8.21 -1.94
32.57 29.39 5.39
12.1 10.92 -2
16.38 14.78 -1.93
17.95 16.2 -1.27
18 16.24 -0.42
4.78 4.28 -1.72
21.91 19.63 0.51
5.79 5.19 -1.79
7.09 6.35 -1.85
9.12 8.18 -1.94
32.82 29.41 5.41
12.17 10.91 -2.01
16.42 14.72 -1.93
21.35 19.14 -1.5
21.49 19.26 -0.5
4.8 4.27 -1.72
22 19.58 0.51
5.8 5.16 -1.79
7.11 6.32 -1.85
9.13 8.12 -1.94
33.05 29.41 5.43
12.25 10.91 -2.01
16.46 14.65 -1.93
21.51 19.14 -1.51
21.37 19.02 -0.5
4.81 4.25 -1.72
22.19 19.61 0.52
5.79 5.12 -1.79
7.11 6.29 -1.85
9.14 8.08 -1.93
33.3 29.44 5.46
12.32 10.89 -2.02
16.54 14.62 -1.93
21.66 19.15 -1.52
21.6 19.1 -0.5
4.83 4.24 -1.72
22.27 19.55 0.52
5.8 5.09 -1.78
7.12 6.25 -1.84
34.54 30.31 4.02
9.15 8.03 -1.93
33.56 29.45 5.48
12.37 10.85 -2.02
16.6 14.57 -1.93
22.08 19.38 -1.54
21.7 19.04 -0.5
4.83 4.21 -1.72
22.36 19.49 0.52
5.82 5.07 -1.78
34.57 30.13 2.4
7.13 6.21 -1.84
34.57 30.14 4.01
9.17 7.99 -1.93
33.81 29.47 5.51
12.43 10.84 -2.02
16.64 14.51 -1.93
22.09 19.26 -1.54
21.86 19.05 -0.51
4.84 4.19 -1.72
22.39 19.38 0.52
5.83 5.05 -1.78
7.14 6.18 -1.83
9.19 7.95 -1.92
34.08 29.5 5.54
12.5 10.82 -2.03
16.67 14.43 -1.93
22.21 19.23 -1.54
22.06 19.1 -0.51
4.85 4.17 -1.71
22.47 19.31 0.52
5.83 5.01 -1.78
7.16 6.15 -1.83
9.19 7.9 -1.92
34.34 29.51 5.56
12.56 10.79 -2.03
16.72 14.38 -1.93
22.51 19.35 -1.56
4.86 4.15 -1.71
22.93 19.57 0.53
5.84 4.98 -1.77
7.17 6.12 -1.83
9.21 7.86 -1.92
34.6 29.53 5.59
12.62 10.77 -2.04
16.77 14.32 -1.93
22.73 19.4 -1.57
4.88 4.13 -1.71
23.17 19.63 0.53
5.86 4.96 -1.77
7.18 6.08 -1.83
9.22 7.81 -1.91
34.87 29.55 5.61
12.62 10.7 -2.03
16.82 14.25 -1.93
4.89 4.11 -1.71
23.18 19.51 0.53
5.88 4.95 -1.77
7.18 6.04 -1.82
36.31 30.55 4.15
9.24 7.77 -1.91
35.12 29.56 5.64
12.71 10.69 -2.04
16.86 14.19 -1.93
23.1 19.44 -1.58
23.13 19.46 -0.53
4.89 4.09 -1.71
23.29 19.46 0.53
5.89 4.92 -1.77
36.32 30.34 2.48
7.2 6.02 -1.82
36.28 30.31 4.14
9.25 7.73 -1.91
35.41 29.59 5.67
12.75 10.65 -2.04
16.9 14.12 -1.93
23.15 19.34 -1.58
23.04 19.25 -0.52
4.9 4.07 -1.71
23.5 19.5 0.53
5.89 4.89 -1.77
36.36 30.17 2.48
7.22 5.99 -1.82
36.53 30.31 4.15
9.24 7.67 -1.9
35.69 29.61 5.69
12.79 10.61 -2.04
16.93 14.05 -1.92
23.26 19.3 -0.53
4.92 4.05 -1.71
23.8 19.61 0.54
5.89 4.86 -1.76
36.63 30.17 2.49
7.23 5.96 -1.82
36.66 30.2 4.16
9.26 7.63 -1.9
35.94 29.61 5.72
12.86 10.59 -2.05
17 14.01 -1.93
24.44 20.13 -1.66
23.36 19.25 -0.53
4.93 4.04 -1.71
23.92 19.58 0.54
5.9 4.83 -1.76
36.73 30.06 2.49
7.24 5.93 -1.82
36.78 30.1 4.16
9.27 7.58 -1.9
36.24 29.66 5.75
12.91 10.57 -2.05
17.01 13.92 -1.92
23.91 19.57 -1.62
23.56 19.29 -0.53
4.94 4.02 -1.71
20.21 16.42 0.45
5.91 4.8 -1.76
36.87 29.96 2.49
7.24 5.89 -1.81
36.91 30 4.16
9.28 7.54 -1.89
36.52 29.68 5.78
12.92 10.5 -2.04
17.04 13.85 -1.92
24.03 19.53 -1.62
20.22 16.43 -0.45
4.94 3.98 -1.7
5.92 4.78 -1.76
37.01 29.84 2.49
7.26 5.85 -1.81
37.04 29.87 4.16
9.29 7.49 -1.89
36.81 29.68 5.81
12.93 10.42 -2.04
17.03 13.74 -1.91
20.28 16.35 -1.37
4.96 3.97 -1.7
24.52 19.63 0.55
5.93 4.75 -1.76
37.15 29.74 2.49
7.27 5.82 -1.81
37.18 29.76 4.17
9.29 7.44 -1.89
37.09 29.69 5.83
12.1 9.68 -1.9
17.09 13.69 -1.92
25.12 20.11 -1.69
25.49 20.4 -0.57
4.96 3.95 -1.7
24.55 19.52 0.55
5.93 4.71 -1.75
37.28 29.64 2.5
7.28 5.79 -1.81
37.33 29.68 4.17
9.3 7.4 -1.88
37.39 29.73 5.87
11.99 9.54 -1.88
17.17 13.65 -1.92
4.98 3.93 -1.7
24.72 19.51 0.55
5.94 4.69 -1.75
37.44 29.56 2.5
7.29 5.76 -1.81
37.59 29.68 4.19
9.32 7.36 -1.88
37.69 29.76 5.9
11.87 9.37 -1.86
17.16 13.54 -1.91
25.49 20.12 -1.7
4.99 3.91 -1.7
24.78 19.42 0.55
5.95 4.67 -1.75
37.73 29.58 2.51
7.29 5.72 -1.8
37.87 29.69 4.21
9.33 7.32 -1.88
37.99 29.78 5.93
11.87 9.3 -1.85
17.2 13.48 -1.91
24.69 19.35 -0.55
4.99 3.88 -1.69
25.11 19.54 0.56
5.96 4.64 -1.74
38.02 29.59 2.52
7.3 5.68 -1.8
38.24 29.76 4.24
9.34 7.27 -1.87
38.3 29.8 5.96
11.9 9.26 -1.85
17.24 13.42 -1.91
25.12 19.55 -1.67
5 3.86 -1.69
25.28 19.54 0.56
5.97 4.61 -1.74
7.32 5.66 -1.8
9.33 7.21 -1.87
38.58 29.82 5.99
12 9.27 -1.86
17.28 13.35 -1.91
25.2 19.48 -1.67
25.1 19.4 -0.55
5.02 3.85 -1.69
25.51 19.57 0.56
5.98 4.59 -1.74
7.33 5.62 -1.79
39.91 30.62 4.4
9.35 7.17 -1.87
38.88 29.83 6.02
12.05 9.25 -1.87
17.31 13.28 -1.91
25.49 19.56 -1.68
5.02 3.82 -1.69
25.68 19.57 0.56
5.98 4.56 -1.74
39.96 30.45 2.63
7.33 5.59 -1.79
9.36 7.13 -1.86
39.19 29.86 6.05
12.02 9.16 -1.86
17.33 13.2 -1.91
25.68 19.57 -1.69
5.02 3.8 -1.69
25.89 19.59 0.57
6 4.54 -1.74
7.33 5.55 -1.79
9.37 7.09 -1.86
39.5 29.88 6.08
11.92 9.02 -1.84
17.39 13.16 -1.91
26.03 19.7 -1.71
25.59 19.36 -0.56
5.02 3.77 -1.68
26.27 19.73 0.57
6.01 4.51 -1.74
7.35 5.52 -1.79
9.38 7.05 -1.86
39.83 29.91 6.12
11.94 8.97 -1.83
17.39 13.06 -1.9
26.07 19.58 -1.71
5.04 3.76 -1.68
26.62 19.85 0.58
6.03 4.49 -1.74
7.36 5.49 -1.79
9.38 7 -1.85
40.14 29.93 6.15
12 8.95 -1.84
17.43 12.99 -1.9
26.24 19.56 -1.72
26.01 19.4 -0.57
5.05 3.74 -1.68
22.51 16.66 0.49
6.03 4.47 -1.73
7.37 5.46 -1.78
9.39 6.95 -1.85
40.44 29.93 6.18
12.05 8.92 -1.84
17.43 12.9 -1.9
27.4 20.28 -1.79
5.06 3.72 -1.68
26.92 19.78 0.58
6.05 4.44 -1.73
41.73 30.66 2.71
7.38 5.42 -1.78
41.74 30.67 4.53
9.41 6.91 -1.85
40.79 29.97 6.21
12.13 8.91 -1.85
17.5 12.86 -1.9
22.51 16.54 -1.46
5.07 3.7 -1.68
27.14 19.8 0.59
6.07 4.43 -1.73
41.8 30.49 2.71
7.38 5.38 -1.77
9.42 6.87 -1.85
41.11 29.99 6.25
12.23 8.92 -1.86
17.52 12.78 -1.9
5.06 3.67 -1.68
27.29 19.76 0.59
6.09 4.41 -1.74
7.39 5.35 -1.77
9.43 6.83 -1.84
41.45 30.02 6.28
12.34 8.93 -1.87
17.54 12.7 -1.89
26.85 19.44 -0.58
5.08 3.65 -1.68
27.58 19.83 0.59
6.1 4.39 -1.74
7.4 5.32 -1.77
9.43 6.78 -1.84
41.76 30.02 6.32
5.41 3.89 -0.82
17.57 12.63 -1.89
28.27 20.33 -1.82
5.09 3.63 -1.68
27.73 19.79 0.59
6.11 4.36 -1.73
7.41 5.29 -1.77
43.49 31.03 4.67
9.44 6.74 -1.84
42.13 30.06 6.35
5.41 3.86 -0.82
17.59 12.55 -1.89
5.11 3.62 -1.68
27.96 19.81 0.6
6.12 4.33 -1.73
7.41 5.25 -1.77
43.46 30.8 4.66
9.45 6.7 -1.83
42.52 30.13 6.4
5.4 3.82 -0.81
5.41 3.83 -0.58
5.11 3.6 -1.68
28.3 19.91 0.6
6.13 4.31 -1.73
7.39 5.2 -1.76
43.74 30.76 4.68
9.46 6.65 -1.83
42.82 30.11 6.43
5.4 3.8 -0.81
5.41 3.81 -0.58
17.44 12.26 4.14
28.4 19.98 -1.82
28.83 20.28 -0.62
5.12 3.57 -1.67
28.86 20.15 0.61
6.13 4.28 -1.73
43.85 30.61 2.8
7.4 5.17 -1.76
43.86 30.62 4.68
9.47 6.61 -1.83
43.15 30.13 6.46
5.41 3.78 -0.81
5.41 3.77 -0.58
17.26 12.05 4.09
27.96 19.52 -0.6
5.13 3.55 -1.67
28.8 19.96 0.61
6.14 4.25 -1.72
7.42 5.14 -1.75
44.02 30.5 4.69
9.47 6.56 -1.83
43.57 30.19 6.51
5.42 3.76 -0.81
5.41 3.75 -0.58
28.18 19.53 -0.6
5.14 3.54 -1.67
6.1 4.2 -1.71
37.19 25.6 2.37
7.43 5.11 -1.75
44.16 30.4 4.69
9.47 6.52 -1.82
5.42 3.73 -0.81
5.42 3.73 -0.58
29.1 20.03 -1.85
28.59 19.68 -0.61
5.15 3.52 -1.67
6.13 4.19 -1.71
44.25 30.23 2.81
7.45 5.09 -1.75
44.31 30.27 4.7
9.48 6.48 -1.82
16.25 11.1 2.42
5.42 3.7 -0.81
5.42 3.7 -0.57
28.74 19.63 -0.61
5.16 3.5 -1.67
24.73 16.77 0.52
6.13 4.15 -1.71
44.48 30.15 2.82
7.45 5.05 -1.75
9.5 6.44 -1.82
16.33 11.07 2.42
5.42 3.68 -0.8
5.41 3.67 -0.57
29.01 19.66 -0.61
5.17 3.48 -1.67
6.12 4.12 -1.7
7.46 5.02 -1.75
5.38 3.62 -1.03
5.38 3.62 -0.8
17.1 11.51 3.26
5.35 3.6 -0.56
24.74 16.64 -1.56
5.18 3.46 -1.67
30.34 20.25 0.64
5.37 3.59 -1.49
5.36 3.58 -1.25
5.35 3.57 -1.02
17.52 11.7 2.59
5.37 3.59 -0.79
17.33 11.57 3.3
5.36 3.58 -0.56
5.19 3.44 -1.67
30.67 20.33 0.64
5.36 3.55 -1.48
5.36 3.55 -1.25
17.29 11.46 1.81
5.36 3.55 -1.02
5.38 3.56 -0.79
17.35 11.5 3.3
5.38 3.56 -0.56
5.21 3.42 -1.67
5.38 3.54 -1.49
5.39 3.54 -1.25
5.39 3.54 -1.02
5.43 3.57 -0.8
5.44 3.58 -0.57
5.22 3.4 -1.67
6.01 3.92 -1.66
44.66 29.15 2.8
7.49 4.89 -1.74
17.66 11.52 1.84
5.4 3.53 -1.02
17.88 11.67 2.62
5.43 3.55 -0.8
16.89 11.02 3.19
5.44 3.55 -0.57
16.99 11.09 3.94
17.44 11.38 4.81
5.21 3.38 -1.66
6 3.89 -1.65
7.49 4.85 -1.73
16.96 10.99 1.77
5.44 3.52 -1.03
17.77 11.52 2.6
5.43 3.52 -0.8
16.91 10.96 3.19
5.42 3.52 -0.57
17.18 11.13 3.98
17.71 11.48 4.87
5.23 3.36 -1.67
31.45 20.23 0.65
6 3.86 -1.65
17.54 11.28 1.09
7.51 4.83 -1.74
17 10.94 1.77
5.44 3.5 -1.02
17.75 11.41 2.59
5.44 3.5 -0.79
17.53 11.28 3.3
5.43 3.49 -0.57
5.25 3.35 -1.67
31.55 20.14 0.65
6.03 3.85 -1.65
7.51 4.8 -1.73
16.98 10.84 1.76
9.54 6.09 -1.79
17.28 11.03 2.52
5.44 3.47 -0.79
17.27 11.02 3.24
5.44 3.47 -0.56
5.26 3.33 -1.67
31.67 20.06 0.65
6.16 3.9 -1.68
7.52 4.76 -1.73
17.39 11.02 1.8
9.57 6.06 -1.79
17.47 11.07 2.54
5.44 3.44 -0.79
17.56 11.12 3.29
5.45 3.45 -0.56
31.29 19.82 -0.65
5.27 3.31 -1.67
17.47 10.98 0.36
6.19 3.89 -1.69
17.47 10.98 1.08
7.52 4.72 -1.73
17.46 10.97 1.8
9.58 6.02 -1.79
17.53 11.01 2.54
5.44 3.42 -0.79
17.07 10.73 3.19
5.45 3.42 -0.56
5.28 3.29 -1.67
17.49 10.9 0.36
6.21 3.87 -1.69
17.66 11.01 1.09
7.53 4.7 -1.73
9.58 5.97 -1.79
17.62 10.98 2.55
5.45 3.4 -0.79
5.44 3.39 -0.56
17.55 10.94 4.02
17.47 10.89 -1.08
17.47 10.89 -0.36
5.28 3.27 -1.66
6.22 3.85 -1.69
7.53 4.66 -1.72
17.59 10.89 1.81
9.58 5.93 -1.78
5.45 3.37 -0.79
17.78 11 3.31
5.44 3.37 -0.56
17.47 10.81 -1.08
17.54 10.86 -0.36
5.31 3.26 -1.67
6.24 3.83 -1.69
7.55 4.63 -1.72
9.59 5.89 -1.78
5.45 3.35 -0.79
17.52 10.76 -1.8
5.31 3.23 -1.67
6.28 3.83 -1.7
17.6 10.72 1.08
7.55 4.6 -1.72
9.59 5.84 -1.78
17.07 10.4 2.45
5.45 3.32 -0.78
17.57 10.7 3.26
17.69 10.77 -1.81
5.32 3.21 -1.66
6.27 3.79 -1.69
17.68 10.69 1.08
7.56 4.57 -1.72
9.61 5.81 -1.78
17.01 10.28 2.44
5.47 3.3 -0.78
17.69 10.69 -1.81
5.32 3.19 -1.66
6.25 3.75 -1.68
7.57 4.54 -1.71
9.61 5.76 -1.77
12.98 7.79 -1.86
17.55 10.53 -1.79
5.33 3.17 -1.66
6.3 3.75 -1.69
7.58 4.51 -1.71
9.61 5.72 -1.77
12.97 7.72 -1.85
17.6 10.48 -1.79
5.35 3.15 -1.66
6.33 3.74 -1.7
7.59 4.48 -1.71
30.24 17.85 3.07
9.6 5.67 -1.77
17.46 10.3 2.49
12.98 7.66 -1.85
17.63 10.41 -1.79
5.35 3.14 -1.66
30.2 17.69 0.61
6.34 3.71 -1.7
7.59 4.45 -1.71
18.04 10.57 1.83
9.62 5.63 -1.76
17.65 10.34 2.51
12.97 7.6 -1.85
17.21 10.08 -1.74
5.36 3.12 -1.66
6.36 3.69 -1.7
44.79 26.03 2.72
7.6 4.41 -1.71
9.62 5.59 -1.76
12.97 7.54 -1.84
17.65 10.26 3.23
17.3 10.05 -1.75
5.36 3.09 -1.66
6.37 3.67 -1.7
7.6 4.38 -1.71
9.62 5.55 -1.76
17.73 10.22 2.51
12.97 7.48 -1.84
17.77 10.25 3.25
17.28 9.97 -1.75
5.38 3.08 -1.66
6.4 3.66 -1.7
7.62 4.36 -1.71
9.62 5.5 -1.75
12.97 7.42 -1.83
17.34 9.92 3.16
17.34 9.92 -1.75
5.39 3.06 -1.66
6.4 3.63 -1.7
7.62 4.33 -1.7
9.61 5.45 -1.75
12.96 7.36 -1.83
17.44 9.9 -1.75
5.4 3.04 -1.66
6.41 3.61 -1.7
7.6 4.27 -1.69
18.2 10.24 1.83
9.62 5.41 -1.75
12.95 7.28 -1.82
17.4 9.79 -1.75
30.26 17.02 -1.82
5.41 3.02 -1.66
6.42 3.58 -1.7
7.62 4.26 -1.7
9.6 5.36 -1.74
30.06 16.78 4.23
12.96 7.23 -1.82
17.49 9.76 -1.75
5.41 3 -1.66
6.43 3.56 -1.7
7.64 4.23 -1.7
9.61 5.32 -1.74
18.04 9.98 2.53
12.95 7.17 -1.82
17.54 9.71 -1.75
5.42 2.98 -1.66
6.44 3.54 -1.7
37.82 20.78 2.26
7.65 4.2 -1.7
9.61 5.28 -1.74
12.95 7.11 -1.81
17.63 9.68 -1.76
30.89 16.97 -1.85
5.43 2.96 -1.66
6.44 3.51 -1.69
7.66 4.17 -1.69
9.64 5.25 -1.74
12.95 7.05 -1.81
17.75 9.67 -1.77
31.05 16.91 -1.85
5.45 2.94 -1.66
44.94 24.28 0.89
6.46 3.49 -1.69
7.66 4.14 -1.69
9.63 5.2 -1.73
12.92 6.98 -1.8
17.78 9.61 -1.77
31.03 16.76 -1.85
5.46 2.93 -1.66
44.94 24.08 0.89
6.46 3.46 -1.69
7.66 4.1 -1.69
9.64 5.17 -1.73
12.93 6.93 -1.8
17.8 9.54 -1.77
31.04 16.64 -1.85
44.98 24.11 -0.89
5.46 2.9 -1.66
6.48 3.44 -1.69
44.98 23.91 2.67
7.67 4.08 -1.69
37.16 19.76 3.68
9.64 5.13 -1.73
12.92 6.87 -1.8
17.76 9.44 -1.76
5.47 2.88 -1.66
6.49 3.42 -1.69
44.93 23.68 2.66
7.67 4.04 -1.68
9.63 5.07 -1.72
12.93 6.81 -1.79
17.78 9.37 -1.76
5.48 2.87 -1.66
45 23.53 0.89
6.48 3.39 -1.69
7.68 4.01 -1.68
9.63 5.03 -1.72
12.92 6.76 -1.79
17.82 9.32 -1.76
30.12 15.75 -1.78
5.5 2.85 -1.66
6.49 3.36 -1.69
40.44 20.95 2.39
7.69 3.98 -1.68
9.63 4.99 -1.72
12.91 6.69 -1.79
17.98 9.31 -1.77
30.3 15.7 -1.79
5.51 2.83 -1.66
6.5 3.34 -1.69
44.94 23.1 2.65
7.69 3.95 -1.68
9.64 4.95 -1.72
12.9 6.63 -1.78
18.14 9.32 -1.78
5.51 2.81 -1.66
45.07 22.96 0.88
6.51 3.31 -1.69
44.96 22.9 2.64
7.69 3.92 -1.68
9.64 4.91 -1.71
12.9 6.57 -1.78
18.29 9.32 -1.8
5.52 2.79 -1.66
6.51 3.29 -1.68
7.71 3.9 -1.68
9.64 4.87 -1.71
12.91 6.52 -1.78
18.49 9.34 -1.81
5.53 2.77 -1.66
6.52 3.26 -1.68
7.72 3.87 -1.68
9.64 4.83 -1.71
12.92 6.47 -1.77
18.66 9.35 -1.83
5.54 2.75 -1.66
6.52 3.24 -1.68
7.73 3.84 -1.68
9.64 4.79 -1.7
12.89 6.4 -1.77
18.85 9.36 -1.84
5.55 2.73 -1.66
6.54 3.22 -1.68
7.73 3.8 -1.67
9.65 4.75 -1.7
12.89 6.34 -1.76
19.05 9.37 -1.86
5.56 2.71 -1.66
6.55 3.19 -1.68
45.71 22.29 2.67
7.74 3.78 -1.67
9.64 4.7 -1.7
12.88 6.28 -1.76
19.17 9.35 -1.87
5.57 2.69 -1.66
6.55 3.17 -1.68
45.66 22.07 2.66
7.75 3.75 -1.67
9.63 4.66 -1.69
12.89 6.23 -1.76
19.15 9.26 -1.86
5.58 2.67 -1.66
45.71 21.9 0.88
6.56 3.14 -1.68
45.67 21.88 2.65
7.77 3.72 -1.67
9.63 4.61 -1.69
12.88 6.17 -1.75
19.07 9.14 -1.85
5.59 2.65 -1.66
45.76 21.73 0.88
6.57 3.12 -1.68
47 22.32 2.73
7.78 3.69 -1.67
66.06 31.37 6.4
9.64 4.58 -1.69
12.87 6.11 -1.75
19.05 9.05 -1.85
45.8 21.75 -0.88
5.59 2.63 -1.66
45.86 21.58 0.88
6.58 3.1 -1.68
47.05 22.14 2.73
7.78 3.66 -1.67
66.05 31.08 6.39
9.64 4.54 -1.69
12.87 6.06 -1.75
18.88 8.88 -1.83
5.66 2.64 -1.67
46.02 21.47 0.89
6.6 3.08 -1.68
47.24 22.04 2.73
7.8 3.64 -1.67
66.05 30.81 6.38
9.65 4.5 -1.69
12.88 6.01 -1.74
18.86 8.8 -1.82
5.67 2.62 -1.68
6.6 3.05 -1.68
48.8 22.56 2.82
7.81 3.61 -1.67
66.07 30.54 6.37
9.64 4.46 -1.68
12.87 5.95 -1.74
18.86 8.72 -1.82
5.69 2.61 -1.68
6.6 3.03 -1.68
7.83 3.59 -1.67
66.08 30.27 6.36
9.65 4.42 -1.68
12.86 5.89 -1.74
18.82 8.62 -1.81
5.71 2.59 -1.68
47.74 21.67 0.92
6.62 3 -1.68
48.93 22.2 2.82
7.83 3.56 -1.67
66.08 29.99 6.35
9.65 4.38 -1.68
12.82 5.82 -1.73
18.79 8.53 -1.8
5.7 2.56 -1.68
47.86 21.52 0.92
6.63 2.98 -1.68
7.84 3.52 -1.67
66.16 29.75 6.35
9.66 4.34 -1.68
12.82 5.76 -1.73
18.73 8.42 -1.8
5.7 2.54 -1.67
6.64 2.96 -1.68
7.84 3.49 -1.67
66.11 29.45 6.33
9.65 4.3 -1.67
12.81 5.71 -1.72
18.7 8.33 -1.79
5.71 2.52 -1.67
6.65 2.93 -1.68
7.86 3.47 -1.67
66.18 29.2 6.33
9.65 4.26 -1.67
12.74 5.62 -1.71
18.68 8.24 -1.79
5.72 2.5 -1.67
6.65 2.91 -1.68
7.87 3.44 -1.67
66.16 28.92 6.32
9.65 4.22 -1.67
12.76 5.58 -1.71
18.64 8.15 -1.78
5.73 2.48 -1.67
6.66 2.88 -1.68
7.9 3.42 -1.67
66.2 28.66 6.31
9.65 4.18 -1.67
12.75 5.52 -1.71
18.64 8.07 -1.78
5.73 2.46 -1.67
6.67 2.86 -1.68
7.89 3.38 -1.67
66.3 28.43 6.31
9.66 4.14 -1.66
12.79 5.48 -1.71
18.61 7.98 -1.77
5.72 2.43 -1.67
6.68 2.84 -1.68
7.91 3.36 -1.67
66.21 28.13 6.29
9.65 4.1 -1.66
18.54 7.88 -1.76
5.74 2.42 -1.67
6.69 2.82 -1.68
7.91 3.33 -1.67
66.26 27.88 6.29
9.65 4.06 -1.66
12.75 5.37 -1.7
18.53 7.8 -1.76
30.84 12.98 -1.75
5.75 2.4 -1.67
6.7 2.79 -1.67
7.93 3.3 -1.67
66.27 27.61 6.28
9.65 4.02 -1.66
12.75 5.31 -1.7
18.5 7.71 -1.75
30.92 12.88 -1.76
5.76 2.38 -1.67
6.71 2.77 -1.68
7.94 3.28 -1.67
66.27 27.34 6.27
9.66 3.99 -1.66
12.73 5.25 -1.69
18.48 7.62 -1.75
30.95 12.77 -1.75
5.77 2.36 -1.67
6.71 2.74 -1.67
56.51 23.08 3.2
7.93 3.24 -1.67
66.23 27.05 6.26
9.67 3.95 -1.65
12.72 5.2 -1.69
18.43 7.53 -1.74
30.99 12.66 -1.75
5.77 2.34 -1.67
6.73 2.72 -1.68
57.58 23.29 3.26
7.94 3.21 -1.67
66.32 26.82 6.26
9.67 3.91 -1.65
31.22 12.63 4.13
12.71 5.14 -1.68
18.44 7.46 -1.74
30.79 12.45 -1.74
5.78 2.31 -1.67
6.74 2.7 -1.68
57.66 23.09 3.26
7.96 3.19 -1.67
66.3 26.55 6.25
9.68 3.88 -1.65
12.7 5.08 -1.68
18.38 7.36 -1.73
30.83 12.34 -1.74
5.8 2.3 -1.67
6.73 2.67 -1.67
7.98 3.16 -1.67
31.11 12.33 2.93
9.69 3.84 -1.65
31.3 12.41 4.13
12.68 5.03 -1.68
18.36 7.28 -1.73
30.74 12.18 -1.73
5.81 2.28 -1.67
6.76 2.65 -1.68
7.98 3.13 -1.67
31.3 12.28 2.94
9.71 3.81 -1.65
30.91 12.13 4.08
12.68 4.97 -1.67
18.35 7.2 -1.72
30.85 12.1 -1.74
5.81 2.26 -1.67
6.76 2.63 -1.67
7.98 3.1 -1.66
31.3 12.15 2.94
9.72 3.77 -1.65
12.67 4.92 -1.67
18.31 7.11 -1.72
30.79 11.95 -1.73
5.8 2.23 -1.67
6.78 2.61 -1.68
7.99 3.07 -1.66
66.38 25.52 6.22
9.72 3.74 -1.65
12.66 4.87 -1.67
18.25 7.02 -1.71
30.92 11.89 -1.74
5.83 2.22 -1.67
6.78 2.58 -1.68
31.45 11.97 1.76
8.01 3.05 -1.67
9.73 3.7 -1.65
12.65 4.81 -1.66
18.24 6.94 -1.71
30.78 11.71 -1.73
5.84 2.2 -1.67
31.45 11.85 0.59
6.79 2.56 -1.67
8.02 3.02 -1.67
66.39 25.01 6.21
9.74 3.67 -1.65
12.64 4.76 -1.66
18.21 6.86 -1.7
30.61 11.53 -1.71
31.48 11.86 -0.59
5.84 2.18 -1.67
6.8 2.53 -1.68
8.03 2.99 -1.67
9.75 3.63 -1.65
12.62 4.71 -1.65
18.19 6.78 -1.7
30.56 11.39 -1.71
5.85 2.15 -1.67
6.81 2.51 -1.68
8.03 2.96 -1.66
66.5 24.51 6.2
9.77 3.6 -1.65
12.62 4.65 -1.65
18.16 6.69 -1.69
30.52 11.25 -1.7
5.84 2.13 -1.67
6.83 2.49 -1.68
8.05 2.93 -1.66
31.87 11.62 2.97
9.77 3.56 -1.65
12.61 4.6 -1.65
18.13 6.61 -1.69
30.48 11.11 -1.7
5.85 2.11 -1.67
6.83 2.46 -1.68
8.06 2.91 -1.67
9.77 3.52 -1.65
12.61 4.55 -1.65
18.12 6.53 -1.69
30.38 10.95 -1.69
5.87 2.09 -1.67
6.83 2.44 -1.67
70.91 25.29 3.95
8.07 2.88 -1.67
9.79 3.49 -1.65
12.6 4.5 -1.64
18.07 6.45 -1.68
30.36 10.83 -1.69
5.88 2.07 -1.67
6.83 2.41 -1.67
8.08 2.85 -1.67
9.8 3.46 -1.65
12.58 4.44 -1.64
18.05 6.37 -1.67
30.33 10.7 -1.69
5.9 2.06 -1.67
6.85 2.39 -1.67
31.94 11.14 1.77
8.08 2.82 -1.66
9.81 3.42 -1.65
12.57 4.39 -1.63
18.04 6.29 -1.67
30.24 10.55 -1.68
5.89 2.03 -1.67
6.87 2.37 -1.68
8.09 2.79 -1.66
9.82 3.39 -1.65
12.57 4.33 -1.63
17.99 6.2 -1.66
29.43 10.15 -1.63
5.91 2.02 -1.67
6.88 2.34 -1.68
8.1 2.76 -1.66
9.82 3.35 -1.64
12.56 4.28 -1.63
17.96 6.12 -1.66
29.56 10.08 -1.64
5.91 1.99 -1.67
6.87 2.32 -1.67
8.11 2.73 -1.66
9.83 3.31 -1.64
12.56 4.24 -1.63
17.83 6.02 -1.65
5.92 1.98 -1.67
6.88 2.29 -1.67
8.11 2.7 -1.66
9.84 3.28 -1.64
12.54 4.18 -1.62
17.79 5.93 -1.64
5.93 1.96 -1.67
6.89 2.27 -1.67
8.12 2.68 -1.66
9.85 3.25 -1.64
12.54 4.13 -1.62
17.81 5.87 -1.64
5.93 1.93 -1.67
6.9 2.25 -1.68
8.13 2.65 -1.66
9.86 3.21 -1.64
12.53 4.08 -1.62
5.93 1.91 -1.67
6.91 2.23 -1.67
8.13 2.62 -1.66
9.85 3.18 -1.64
12.53 4.04 -1.62
17.75 5.72 -1.63
5.95 1.89 -1.67
6.91 2.2 -1.67
8.13 2.59 -1.66
9.86 3.14 -1.64
12.54 3.99 -1.62
17.73 5.64 -1.63
5.96 1.88 -1.67
6.91 2.17 -1.67
8.15 2.56 -1.66
9.87 3.1 -1.64
12.56 3.95 -1.62
17.7 5.57 -1.62
5.97 1.85 -1.67
6.92 2.15 -1.67
8.14 2.53 -1.66
9.88 3.07 -1.64
12.55 3.9 -1.61
17.67 5.49 -1.62
5.98 1.83 -1.68
6.93 2.12 -1.67
8.16 2.5 -1.66
9.88 3.03 -1.64
12.57 3.85 -1.61
17.63 5.41 -1.61
5.97 1.81 -1.67
6.94 2.1 -1.67
8.18 2.48 -1.66
9.88 2.99 -1.64
12.58 3.81 -1.61
17.58 5.33 -1.61
5.99 1.79 -1.68
6.94 2.07 -1.67
8.18 2.45 -1.66
9.89 2.96 -1.64
12.59 3.76 -1.61
17.57 5.25 -1.6
6 1.77 -1.68
6.95 2.05 -1.67
8.18 2.42 -1.66
9.9 2.92 -1.63
12.58 3.71 -1.61
17.54 5.18 -1.6
6 1.75 -1.68
6.96 2.03 -1.67
8.18 2.39 -1.66
9.91 2.89 -1.64
12.59 3.67 -1.61
17.51 5.11 -1.6
6 1.73 -1.67
6.96 2.01 -1.67
8.19 2.36 -1.66
9.91 2.86 -1.63
12.6 3.63 -1.61
17.47 5.03 -1.59
6.01 1.71 -1.67
6.98 1.98 -1.67
8.21 2.33 -1.66
9.91 2.82 -1.63
12.6 3.58 -1.61
17.45 4.96 -1.59
6.01 1.69 -1.67
6.97 1.95 -1.67
8.21 2.3 -1.66
9.92 2.78 -1.63
12.61 3.54 -1.61
17.42 4.88 -1.58
6.03 1.67 -1.68
6.98 1.93 -1.67
8.21 2.27 -1.66
9.93 2.75 -1.63
12.61 3.49 -1.61
17.4 4.81 -1.58
6.03 1.65 -1.67
6.99 1.91 -1.67
8.21 2.24 -1.65
9.94 2.71 -1.63
12.62 3.44 -1.61
17.36 4.74 -1.57
6.03 1.62 -1.67
6.99 1.88 -1.67
8.21 2.21 -1.65
9.94 2.68 -1.63
12.63 3.4 -1.61
17.32 4.66 -1.57
6.03 1.6 -1.67
7 1.86 -1.67
8.22 2.18 -1.65
9.95 2.64 -1.63
12.65 3.36 -1.61
17.3 4.59 -1.57
6.05 1.58 -1.68
50.09 13.11 0.9
6.99 1.83 -1.67
50.05 13.1 2.71
8.23 2.15 -1.65
9.95 2.6 -1.63
12.65 3.31 -1.61
17.29 4.53 -1.56
6.06 1.56 -1.68
7.01 1.81 -1.67
8.24 2.13 -1.65
9.96 2.57 -1.63
12.65 3.26 -1.6
17.26 4.45 -1.56
6.07 1.54 -1.68
7.02 1.78 -1.67
8.23 2.09 -1.65
9.96 2.53 -1.63
12.65 3.22 -1.6
17.23 4.38 -1.56
6.06 1.52 -1.67
7.02 1.76 -1.67
8.23 2.06 -1.65
9.96 2.5 -1.63
12.66 3.17 -1.6
17.21 4.31 -1.55
6.07 1.5 -1.68
7.02 1.74 -1.67
8.25 2.04 -1.65
9.95 2.46 -1.62
12.68 3.13 -1.6
17.21 4.25 -1.55
6.07 1.48 -1.67
7.02 1.71 -1.67
8.26 2.01 -1.65
9.94 2.42 -1.62
12.69 3.09 -1.6
17.21 4.19 -1.55
6.08 1.46 -1.68
7.03 1.69 -1.67
8.26 1.98 -1.65
9.96 2.39 -1.62
12.67 3.04 -1.6
17.21 4.13 -1.55
6.09 1.44 -1.68
7.04 1.66 -1.67
8.26 1.95 -1.65
9.97 2.35 -1.62
12.69 3 -1.6
17.23 4.07 -1.55
28.43 6.71 -1.53
6.08 1.41 -1.67
7.04 1.64 -1.67
8.27 1.92 -1.65
12.69 2.95 -1.6
17.22 4 -1.55
28.51 6.62 -1.53
6.1 1.39 -1.68
7.05 1.61 -1.67
8.28 1.89 -1.65
9.98 2.28 -1.62
12.7 2.9 -1.6
17.22 3.94 -1.55
6.1 1.37 -1.67
7.04 1.58 -1.67
8.29 1.87 -1.65
9.99 2.25 -1.62
12.71 2.86 -1.6
17.22 3.87 -1.54
6.11 1.35 -1.68
7.05 1.56 -1.67
8.28 1.83 -1.65
10 2.21 -1.62
12.69 2.81 -1.6
17.23 3.81 -1.54
6.1 1.33 -1.67
7.06 1.54 -1.67
8.28 1.81 -1.65
10.01 2.18 -1.62
12.7 2.77 -1.6
17.22 3.76 -1.54
6.11 1.31 -1.67
7.07 1.51 -1.67
8.29 1.78 -1.65
10.01 2.14 -1.62
12.72 2.72 -1.6
17.22 3.69 -1.54
6.11 1.29 -1.67
7.07 1.49 -1.67
8.29 1.75 -1.65
10 2.11 -1.62
12.72 2.68 -1.6
17.23 3.63 -1.54
27.93 5.88 -1.5
6.11 1.26 -1.67
7.06 1.46 -1.67
8.3 1.72 -1.65
10.02 2.07 -1.62
12.72 2.63 -1.59
17.25 3.57 -1.54
27.82 5.75 -1.49
6.13 1.25 -1.68
7.06 1.44 -1.66
8.31 1.69 -1.65
10.03 2.04 -1.62
12.72 2.59 -1.59
17.24 3.51 -1.54
27.77 5.65 -1.49
6.13 1.22 -1.67
7.06 1.41 -1.66
8.3 1.66 -1.65
10.04 2 -1.62
12.71 2.54 -1.59
17.24 3.44 -1.54
6.12 1.2 -1.67
7.07 1.39 -1.66
8.3 1.63 -1.64
10.04 1.97 -1.62
12.73 2.5 -1.59
17.22 3.38 -1.54
27.61 5.42 -1.47
6.13 1.18 -1.67
7.08 1.36 -1.66
8.31 1.6 -1.64
10.04 1.93 -1.62
12.73 2.45 -1.59
17.23 3.32 -1.54
27.44 5.29 -1.46
6.13 1.16 -1.67
7.07 1.34 -1.66
8.32 1.57 -1.65
10.04 1.9 -1.62
12.74 2.41 -1.59
17.24 3.26 -1.53
6.14 1.14 -1.67
7.07 1.31 -1.66
8.32 1.54 -1.64
10.05 1.86 -1.62
12.73 2.36 -1.59
17.25 3.2 -1.54
27.28 5.05 -1.45
6.14 1.12 -1.67
7.08 1.29 -1.66
8.31 1.51 -1.64
10.05 1.83 -1.62
12.73 2.31 -1.59
17.25 3.13 -1.53
6.13 1.09 -1.67
7.08 1.26 -1.66
8.32 1.48 -1.64
10.06 1.79 -1.62
12.74 2.27 -1.59
17.24 3.07 -1.53
6.14 1.07 -1.67
7.08 1.24 -1.66
8.32 1.45 -1.64
10.05 1.75 -1.62
12.74 2.22 -1.59
17.25 3.01 -1.53
6.14 1.05 -1.67
7.08 1.21 -1.66
8.33 1.42 -1.64
10.05 1.72 -1.61
12.76 2.18 -1.59
17.2 2.94 -1.53
6.15 1.03 -1.67
7.07 1.18 -1.66
8.32 1.39 -1.64
10.06 1.68 -1.61
12.74 2.13 -1.59
17.21 2.88 -1.53
6.14 1.01 -1.67
7.08 1.16 -1.66
8.32 1.36 -1.64
10.06 1.65 -1.61
12.75 2.09 -1.59
17.22 2.82 -1.53
6.14 0.98 -1.67
7.09 1.14 -1.66
8.33 1.34 -1.64
10.05 1.61 -1.61
12.76 2.05 -1.59
6.14 0.96 -1.67
7.09 1.11 -1.66
8.33 1.31 -1.64
10.05 1.58 -1.61
12.75 2 -1.59
17.24 2.7 -1.53
6.15 0.94 -1.67
7.09 1.09 -1.66
8.33 1.28 -1.64
10.06 1.54 -1.61
12.75 1.95 -1.58
17.25 2.64 -1.53
6.15 0.92 -1.67
7.09 1.06 -1.65
8.33 1.25 -1.64
10.06 1.5 -1.61
12.74 1.91 -1.58
17.25 2.58 -1.53
6.15 0.9 -1.67
7.09 1.04 -1.65
8.33 1.22 -1.64
10.06 1.47 -1.61
12.74 1.86 -1.58
17.26 2.52 -1.53
21.29 3.11 -1.13
6.15 0.88 -1.67
7.1 1.01 -1.66
8.33 1.19 -1.64
10.06 1.43 -1.61
12.76 1.82 -1.58
17.25 2.46 -1.52
21.05 3 -1.11
21.12 3.01 -0.37
6.16 0.86 -1.67
7.1 0.99 -1.65
8.34 1.16 -1.64
10.05 1.4 -1.61
12.75 1.77 -1.58
17.25 2.4 -1.52
20.99 2.92 -1.11
6.16 0.83 -1.67
7.08 0.96 -1.65
8.34 1.13 -1.64
10.05 1.36 -1.61
12.76 1.73 -1.58
17.25 2.34 -1.52
21.01 2.85 -1.11
6.17 0.81 -1.67
7.09 0.94 -1.65
8.34 1.1 -1.63
10.06 1.33 -1.61
12.74 1.68 -1.58
17.24 2.28 -1.52
20.97 2.77 -1.11
6.17 0.79 -1.67
7.1 0.91 -1.65
8.33 1.07 -1.63
10.06 1.29 -1.61
12.74 1.64 -1.58
17.24 2.21 -1.52
20.98 2.7 -1.11
6.16 0.77 -1.66
7.11 0.89 -1.65
8.33 1.04 -1.63
10.06 1.26 -1.61
12.75 1.59 -1.58
17.22 2.15 -1.52
6.16 0.75 -1.66
7.1 0.86 -1.65
8.34 1.01 -1.63
10.04 1.22 -1.6
12.75 1.55 -1.58
17.23 2.09 -1.52
6.17 0.73 -1.66
7.09 0.84 -1.65
8.34 0.98 -1.63
10.05 1.19 -1.6
12.75 1.5 -1.58
17.22 2.03 -1.52
21.01 2.48 -1.11
21.11 2.49 -0.37
6.17 0.71 -1.66
7.09 0.81 -1.65
8.34 0.95 -1.63
10.05 1.15 -1.6
12.73 1.46 -1.57
17.22 1.97 -1.52
20.99 2.4 -0.37
6.18 0.69 -1.67
7.09 0.79 -1.65
8.34 0.93 -1.63
10.06 1.12 -1.6
12.74 1.42 -1.57
17.21 1.91 -1.51
20.97 2.33 -0.37
6.16 0.66 -1.66
7.1 0.76 -1.65
8.34 0.9 -1.63
10.06 1.08 -1.6
12.75 1.37 -1.57
17.2 1.85 -1.51
20.98 2.26 -0.37
6.17 0.64 -1.66
116.95 12.17 2.05
7.1 0.74 -1.65
8.34 0.87 -1.63
10.05 1.05 -1.6
12.74 1.33 -1.57
17.19 1.79 -1.51
20.97 2.18 -0.37
6.17 0.62 -1.66
117 11.76 2.05
7.08 0.71 -1.64
8.34 0.84 -1.63
10.05 1.01 -1.6
12.74 1.28 -1.57
17.19 1.73 -1.51
20.99 2.11 -0.37
6.18 0.6 -1.66
7.1 0.69 -1.65
8.35 0.81 -1.63
10.05 0.97 -1.6
12.73 1.23 -1.57
17.17 1.67 -1.51
21.16 2.05 -1.11
21.02 2.04 -0.37
6.18 0.58 -1.66
7.1 0.66 -1.65
8.35 0.78 -1.63
10.05 0.94 -1.6
12.73 1.19 -1.57
17.17 1.61 -1.51
21.19 1.98 -1.12
21.02 1.96 -0.37
6.17 0.55 -1.66
117.16 10.52 2.05
7.1 0.64 -1.65
8.34 0.75 -1.63
10.06 0.9 -1.6
12.74 1.14 -1.57
17.16 1.54 -1.51
21.18 1.9 -1.11
21.03 1.89 -0.37
6.17 0.53 -1.66
117.17 10.11 2.05
7.11 0.61 -1.65
8.35 0.72 -1.63
10.04 0.87 -1.6
12.75 1.1 -1.57
17.16 1.48 -1.51
21.18 1.83 -1.11
21.05 1.82 -0.37
6.18 0.51 -1.66
117.13 9.69 2.05
7.1 0.59 -1.64
8.35 0.69 -1.63
10.04 0.83 -1.6
12.74 1.05 -1.57
17.16 1.42 -1.51
21.15 1.75 -1.11
21.09 1.74 -0.37
6.18 0.49 -1.66
117.18 9.28 2.05
7.11 0.56 -1.65
8.35 0.66 -1.63
10.04 0.8 -1.6
12.73 1.01 -1.57
17.14 1.36 -1.5
21.17 1.68 -1.11
6.18 0.47 -1.66
7.1 0.54 -1.64
8.34 0.63 -1.63
10.05 0.76 -1.6
12.72 0.97 -1.57
17.14 1.3 -1.5
21.14 1.61 -1.11
6.17 0.45 -1.66
7.11 0.52 -1.65
8.35 0.61 -1.63
10.04 0.73 -1.6
12.73 0.92 -1.57
17.12 1.24 -1.5
21.15 1.53 -1.11
6.18 0.43 -1.66
7.11 0.49 -1.65
8.35 0.58 -1.63
10.03 0.69 -1.59
12.73 0.88 -1.57
17.12 1.18 -1.5
21.4 1.48 -1.12
6.18 0.41 -1.66
7.09 0.46 -1.64
8.35 0.55 -1.63
10.03 0.66 -1.59
12.72 0.83 -1.57
17.12 1.12 -1.5
21.33 1.4 -1.12
6.18 0.38 -1.66
7.1 0.44 -1.64
8.35 0.52 -1.63
10.04 0.62 -1.59
12.71 0.79 -1.56
17.12 1.07 -1.5
21.59 1.34 -1.13
6.18 0.36 -1.66
7.11 0.42 -1.64
8.34 0.49 -1.62
10.04 0.59 -1.59
12.71 0.75 -1.56
17.11 1 -1.5
6.18 0.34 -1.66
7.11 0.39 -1.64
8.34 0.46 -1.62
10.04 0.55 -1.59
12.71 0.7 -1.56
17.09 0.94 -1.5
6.18 0.32 -1.66
7.11 0.37 -1.64
8.34 0.43 -1.62
10.03 0.52 -1.59
12.72 0.66 -1.56
17.09 0.88 -1.5
26.71 1.38 -1.4
6.18 0.3 -1.66
7.1 0.34 -1.64
8.34 0.4 -1.62
10.03 0.48 -1.59
12.71 0.61 -1.56
17.1 0.82 -1.5
6.18 0.28 -1.66
7.1 0.32 -1.64
8.34 0.37 -1.62
10.03 0.45 -1.59
12.7 0.57 -1.56
17.1 0.76 -1.5
6.18 0.25 -1.66
7.1 0.29 -1.64
8.33 0.34 -1.62
10.04 0.41 -1.59
12.7 0.52 -1.56
17.1 0.7 -1.5
6.17 0.23 -1.66
7.1 0.27 -1.64
8.33 0.31 -1.62
10.03 0.38 -1.59
12.69 0.48 -1.56
17.09 0.64 -1.5
6.18 0.21 -1.66
7.1 0.24 -1.64
8.34 0.29 -1.62
10.03 0.34 -1.59
12.71 0.43 -1.56
17.08 0.58 -1.5
6.18 0.19 -1.66
7.09 0.22 -1.64
8.33 0.26 -1.62
10.03 0.31 -1.59
12.7 0.39 -1.56
17.07 0.52 -1.49
6.18 0.17 -1.66
7.09 0.19 -1.64
8.33 0.23 -1.62
10.03 0.27 -1.59
12.68 0.35 -1.56
17.07 0.47 -1.49
6.18 0.15 -1.66
7.1 0.17 -1.64
8.32 0.2 -1.62
10.04 0.24 -1.59
12.69 0.3 -1.56
17.05 0.41 -1.49
6.17 0.13 -1.65
7.1 0.14 -1.64
8.33 0.17 -1.62
10.03 0.2 -1.59
12.69 0.26 -1.56
17.05 0.35 -1.49
6.17 0.1 -1.65
7.1 0.12 -1.64
8.33 0.14 -1.62
10.03 0.17 -1.59
12.69 0.21 -1.56
17.03 0.29 -1.49
6.18 0.08 -1.65
7.08 0.1 -1.64
8.33 0.11 -1.62
10.02 0.13 -1.59
12.69 0.17 -1.56
17.04 0.23 -1.49
6.18 0.06 -1.66
7.09 0.07 -1.64
8.33 0.08 -1.62
10.02 0.1 -1.59
12.67 0.13 -1.56
17.03 0.17 -1.49
6.18 0.04 -1.66
7.09 0.05 -1.64
8.31 0.05 -1.62
10.02 0.06 -1.59
12.67 0.08 -1.56
17.02 0.11 -1.49
26.39 0.17 -1.38
6.16 0.02 -1.65
7.09 0.02 -1.64
8.31 0.02 -1.62
10.02 0.03 -1.59
12.67 0.04 -1.56
16.99 0.05 -1.49
26.39 0.08 -1.38
6.17 -0 -1.65
7.09 -0 -1.64
8.32 -0 -1.62
10.01 -0.01 -1.59
12.67 -0.01 -1.56
16.99 -0.01 -1.49
26.66 -0.01 -1.4
6.18 -0.02 -1.66
7.09 -0.03 -1.64
8.32 -0.03 -1.62
10.01 -0.04 -1.59
12.66 -0.05 -1.55
17 -0.07 -1.49
26.66 -0.11 -1.4
6.17 -0.04 -1.65
7.09 -0.05 -1.64
8.31 -0.06 -1.62
10.01 -0.07 -1.58
12.65 -0.09 -1.55
16.96 -0.12 -1.48
26.58 -0.19 -1.39
6.17 -0.07 -1.65
7.09 -0.08 -1.64
8.3 -0.09 -1.61
10.01 -0.11 -1.59
12.65 -0.13 -1.55
16.94 -0.18 -1.48
26.66 -0.28 -1.4
6.17 -0.09 -1.65
7.09 -0.1 -1.64
8.3 -0.12 -1.61
10.01 -0.14 -1.59
12.65 -0.18 -1.55
16.93 -0.24 -1.48
26.69 -0.38 -1.4
6.17 -0.11 -1.65
7.09 -0.12 -1.64
8.3 -0.15 -1.61
9.99 -0.18 -1.58
12.65 -0.22 -1.55
16.93 -0.3 -1.48
26.59 -0.47 -1.39
6.17 -0.13 -1.65
7.08 -0.15 -1.63
8.3 -0.18 -1.61
9.99 -0.21 -1.58
12.65 -0.27 -1.55
16.92 -0.36 -1.48
26.52 -0.56 -1.39
6.16 -0.15 -1.65
7.08 -0.17 -1.63
8.3 -0.2 -1.61
9.98 -0.25 -1.58
12.63 -0.31 -1.55
16.92 -0.42 -1.48
26.36 -0.65 -1.38
6.17 -0.17 -1.65
7.08 -0.2 -1.63
8.29 -0.23 -1.61
9.98 -0.28 -1.58
12.63 -0.35 -1.55
16.89 -0.47 -1.48
26.46 -0.74 -1.39
6.15 -0.19 -1.65
7.08 -0.22 -1.63
8.28 -0.26 -1.61
9.97 -0.32 -1.58
12.62 -0.4 -1.55
16.86 -0.53 -1.48
26.41 -0.83 -1.38
6.15 -0.21 -1.65
7.07 -0.25 -1.63
8.29 -0.29 -1.61
9.96 -0.35 -1.58
12.61 -0.44 -1.55
16.89 -0.59 -1.48
26.26 -0.92 -1.38
6.16 -0.24 -1.65
7.07 -0.27 -1.63
8.29 -0.32 -1.61
9.95 -0.38 -1.58
12.61 -0.48 -1.55
16.94 -0.65 -1.48
26.43 -1.02 -1.39
6.15 -0.26 -1.65
7.07 -0.3 -1.63
8.28 -0.35 -1.61
9.95 -0.42 -1.58
12.59 -0.53 -1.55
16.93 -0.71 -1.48
26.42 -1.11 -1.39
6.15 -0.28 -1.65
7.07 -0.32 -1.63
8.27 -0.38 -1.61
9.95 -0.45 -1.58
12.59 -0.57 -1.55
16.89 -0.77 -1.48
26.41 -1.2 -1.39
6.14 -0.3 -1.65
7.08 -0.35 -1.64
8.27 -0.4 -1.61
9.95 -0.49 -1.58
12.59 -0.62 -1.55
17.11 -0.84 -1.5
25.8 -1.26 -1.35
6.15 -0.32 -1.65
7.07 -0.37 -1.63
8.26 -0.43 -1.61
9.93 -0.52 -1.57
12.57 -0.66 -1.55
17.12 -0.9 -1.5
25.75 -1.35 -1.35
49.66 -2.6 11.48
6.15 -0.34 -1.65
7.06 -0.39 -1.63
8.26 -0.46 -1.61
9.93 -0.55 -1.57
12.57 -0.7 -1.55
17.15 -0.96 -1.5
25.57 -1.43 -1.34
6.15 -0.37 -1.65
7.06 -0.42 -1.63
8.26 -0.49 -1.61
9.93 -0.59 -1.58
12.54 -0.74 -1.54
17.04 -1.01 -1.49
25.08 -1.49 -1.32
49.44 -2.94 11.43
6.14 -0.39 -1.65
7.06 -0.44 -1.63
8.25 -0.52 -1.61
9.92 -0.62 -1.57
12.53 -0.79 -1.54
16.83 -1.06 -1.48
6.13 -0.41 -1.65
7.06 -0.47 -1.63
8.25 -0.55 -1.61
9.92 -0.66 -1.57
23.65 -1.57 2.91
12.53 -0.83 -1.54
49.8 -3.31 7.91
16.83 -1.12 -1.48
23.67 -1.57 -1.24
6.13 -0.43 -1.65
7.06 -0.49 -1.63
23.74 -1.66 1.25
8.25 -0.58 -1.61
9.9 -0.69 -1.57
12.56 -0.88 -1.55
16.91 -1.18 -1.48
23.05 -1.61 -1.21
6.13 -0.45 -1.65
49.85 -3.65 0.87
7.05 -0.52 -1.63
8.24 -0.6 -1.61
9.9 -0.73 -1.57
12.57 -0.92 -1.55
16.89 -1.24 -1.48
22.88 -1.68 -1.2
6.13 -0.47 -1.65
7.05 -0.54 -1.63
8.24 -0.63 -1.61
9.9 -0.76 -1.57
12.53 -0.96 -1.54
16.83 -1.29 -1.48
22.92 -1.76 -1.2
46.76 -3.59 10.83
6.13 -0.49 -1.65
7.04 -0.57 -1.63
8.23 -0.66 -1.6
9.89 -0.79 -1.57
12.51 -1 -1.54
48.18 -3.87 7.65
16.68 -1.34 -1.46
22.67 -1.82 -1.19
30.83 -2.47 -0.54
6.11 -0.51 -1.64
7.05 -0.59 -1.63
8.22 -0.69 -1.6
23.61 -1.98 2.07
9.89 -0.83 -1.57
23.59 -1.98 2.91
12.48 -1.05 -1.54
16.66 -1.4 -1.46
20.69 -1.73 -1.09
46.54 -3.9 10.78
6.11 -0.53 -1.64
36.26 -3.17 0.64
7.04 -0.61 -1.63
23.64 -2.06 1.24
8.22 -0.72 -1.6
23.62 -2.06 2.07
9.87 -0.86 -1.57
23.6 -2.06 2.91
12.48 -1.09 -1.54
16.72 -1.46 -1.47
21.12 -1.84 -1.11
46.33 -4.05 10.74
6.12 -0.56 -1.65
7.02 -0.64 -1.63
23.65 -2.15 1.24
8.22 -0.75 -1.6
23.63 -2.15 2.08
9.86 -0.9 -1.57
23.58 -2.14 2.91
12.41 -1.13 -1.53
16.82 -1.53 -1.48
21.16 -1.92 -1.11
46.08 -4.19 10.68
32.35 -2.94 -0.57
46.08 -4.19 12.4
6.12 -0.58 -1.65
7.03 -0.66 -1.63
23.64 -2.23 1.24
8.21 -0.77 -1.6
23.62 -2.23 2.08
9.86 -0.93 -1.57
23.58 -2.23 2.91
12.29 -1.16 -1.52
16.87 -1.59 -1.48
21.06 -1.99 -1.11
32.5 -3.07 -0.57
6.12 -0.6 -1.65
7.02 -0.69 -1.63
23.64 -2.31 1.24
8.2 -0.8 -1.6
23.62 -2.31 2.08
9.86 -0.97 -1.57
23.59 -2.31 2.91
12.34 -1.21 -1.52
15.96 -1.56 -1.4
6.1 -0.62 -1.64
7.02 -0.71 -1.63
23.64 -2.4 1.25
8.19 -0.83 -1.6
23.61 -2.39 2.08
9.85 -1 -1.57
23.58 -2.39 2.91
12.31 -1.25 -1.52
