# .PCD v0.7 - Point Cloud Data file format
VERSION 0.7
FIELDS x y z
SIZE 4 4 4
TYPE F F F
COUNT 1 1 1
WIDTH 2786
HEIGHT 1
VIEWPOINT 0 0 0 1 0 0 0
POINTS 2786
DATA ascii
-45.72 38.5 3.13
-45.63 38.43 5.22
-3.66 3.08 -0.76
-45.59 38.4 7.32
-3.79 3.19 -0.61
-18.99 15.99 3.93
-45.59 38.4 11.59
-14.15 11.92 -0.97
-7.47 6.29 2.25
-14.43 12.16 -0.33
-45.48 38.3 15.93
-3.53 2.99 -1.24
-38.44 32.61 0.88
-45.41 38.52 3.12
-45.36 38.48 5.2
-3.64 3.09 -0.76
-45.27 38.41 7.29
-3.8 3.22 -0.61
-18.98 16.1 3.94
-45.26 38.4 11.54
-14.16 12.01 -0.97
-7.15 6.06 2.16
-14.03 11.9 -0.32
-45.16 38.31 15.87
-3.52 3.01 -1.24
-38.43 32.83 0.88
-18.36 15.68 1.27
-19.31 16.5 2.22
-3.66 3.13 -0.76
-18.62 15.91 3.01
-3.79 3.24 -0.61
-18.88 16.13 3.93
-44.97 38.41 11.5
-17.34 14.82 -1.2
-13.75 11.74 -0.32
-44.87 38.33 15.81
-3.54 3.04 -1.25
-18.43 15.86 0.42
-18.24 15.7 1.26
-18.58 15.99 2.14
-3.66 3.15 -0.76
-18.5 15.92 3
-3.79 3.26 -0.61
-19.17 16.49 4.01
-4.01 3.45 -0.46
-44.62 38.39 11.44
-14.28 12.29 -0.99
-18.73 16.11 5.7
-14.28 12.29 -0.33
-44.56 38.34 15.75
-3.53 3.06 -1.25
-18.37 15.92 0.42
-18.17 15.74 1.26
-18.4 15.94 2.13
-3.66 3.17 -0.77
-18.7 16.21 3.04
-3.79 3.29 -0.62
-19.05 16.5 3.99
-4.06 3.51 -0.47
-44.35 38.42 11.41
-14.19 12.29 -0.98
-18.64 16.15 5.69
-13.83 11.98 -0.32
-7.14 6.19 2.53
-3.53 3.08 -1.25
-18.28 15.95 0.42
-18.16 15.85 1.26
-18.37 16.03 2.13
-3.67 3.2 -0.77
-18.59 16.22 3.03
-3.81 3.33 -0.62
-18.87 16.46 3.97
-13.49 11.77 -1.57
-44.03 38.41 11.36
-13.8 12.03 -0.96
-18.57 16.2 5.69
-13.58 11.85 -0.31
-18.86 16.45 6.71
-3.53 3.1 -1.26
-18.23 16.02 0.42
-18.2 15.99 1.27
-18.38 16.15 2.14
-3.65 3.21 -0.77
-18.52 16.27 3.03
-3.81 3.35 -0.62
-18.8 16.52 3.96
-13.47 11.83 -1.57
-18.35 16.12 4.75
-14.21 12.48 -0.99
-18.45 16.2 5.67
-13.52 11.88 -0.31
-18.91 16.61 6.74
-3.53 3.13 -1.26
-18.26 16.15 0.43
-18.78 16.61 1.31
-18.35 16.23 2.14
-3.65 3.23 -0.77
-18.55 16.41 3.04
-3.81 3.37 -0.63
-18.57 16.43 3.93
-13.21 11.69 -1.54
-18.23 16.13 4.73
-13.82 12.23 -0.97
-18.26 16.15 5.63
-13.49 11.93 -0.31
-18.68 16.53 6.68
-3.54 3.15 -1.27
-18.11 16.13 0.42
-18.59 16.56 1.3
-18.25 16.26 2.14
-3.67 3.27 -0.78
-18.46 16.45 3.04
-3.81 3.4 -0.63
-18.47 16.45 3.92
-13.26 11.81 -1.55
-18.18 16.19 4.73
-14.42 12.85 -1.01
-18.13 16.15 5.61
-14.19 12.64 -0.33
-18.37 16.36 6.59
-3.52 3.16 -1.27
-18.11 16.25 0.42
-18.2 16.32 1.28
-18.19 16.32 2.14
-3.67 3.29 -0.78
-18.4 16.5 3.03
-3.82 3.43 -0.63
-18.11 16.25 3.85
-13.37 11.99 -1.57
-18.13 16.26 4.73
-13.07 11.72 -0.92
-17.81 15.98 5.52
-14.14 12.68 -0.33
-18.27 16.39 6.58
-18.01 16.27 0.42
-17.92 16.19 1.27
-18.01 16.26 2.12
-3.66 3.31 -0.78
-18.24 16.47 3.02
-3.84 3.47 -0.64
-17.84 16.11 3.81
-13.21 11.93 -1.56
-17.93 16.2 4.7
-16.28 14.7 -1.15
-17.76 16.04 5.52
-14.09 12.73 -0.33
-18.16 16.4 6.56
-3.53 3.21 -1.28
-17.67 16.07 0.42
-17.96 16.34 1.27
-17.97 16.34 2.12
-3.67 3.34 -0.79
-18.11 16.47 3.01
-10.15 9.24 -1.69
-17.78 16.17 3.81
-13.11 11.92 -1.55
-17.79 16.18 4.67
-13.33 12.12 -0.94
-17.83 16.22 5.57
-14.04 12.77 -0.33
-18.08 16.45 6.55
-3.52 3.22 -1.28
-17.54 16.07 0.42
-17.9 16.39 1.27
-17.84 16.33 2.12
-3.67 3.36 -0.79
-17.95 16.44 2.99
-10.1 9.25 -1.68
-17.69 16.2 3.8
-13.08 11.98 -1.55
-17.73 16.24 4.67
-12.98 11.89 -0.92
-17.83 16.33 5.58
-14.07 12.89 -0.33
-18.05 16.53 6.56
-3.51 3.24 -1.28
-17.47 16.12 0.41
-17.81 16.43 1.27
-17.82 16.44 2.12
-3.7 3.41 -0.8
-17.91 16.52 2.99
-10.06 9.28 -1.68
-17.67 16.3 3.81
-13.06 12.05 -1.55
-17.68 16.31 4.67
-14.38 13.27 -1.03
-17.89 16.51 5.62
-13.93 12.85 -0.33
-17.95 16.56 6.54
-3.51 3.26 -1.28
-17.32 16.09 0.41
-17.79 16.52 1.27
-17.69 16.43 2.11
-3.7 3.44 -0.8
-17.81 16.54 2.99
-10.03 9.32 -1.68
-17.83 16.56 3.85
-12.81 11.89 -1.53
-18.12 16.82 4.81
-13.24 12.29 -0.95
-17.98 16.7 5.66
-17.53 16.28 -0.42
-18.02 16.73 6.59
-3.52 3.29 -1.29
-17.28 16.16 0.41
-17.68 16.54 1.27
-17.71 16.56 2.12
-3.75 3.51 -0.81
-17.75 16.6 2.98
-10.02 9.37 -1.69
-17.82 16.67 3.86
-12.66 11.84 -1.52
-17.9 16.74 4.76
-12.97 12.13 -0.93
-17.97 16.8 5.68
-13.9 13 -0.33
-17.95 16.79 6.59
-3.53 3.32 -1.3
-17.25 16.24 0.41
-17.63 16.6 1.27
-17.69 16.66 2.13
-3.74 3.52 -0.81
-17.33 16.32 2.92
-9.99 9.4 -1.68
-17.77 16.73 3.86
-12.69 11.94 -1.52
-17.83 16.79 4.76
-12.95 12.19 -0.93
-17.73 16.69 5.62
-14.14 13.32 -0.34
-17.9 16.85 6.59
-3.57 3.38 -1.32
-17.26 16.37 0.42
-17.49 16.59 1.26
-17.05 16.17 2.06
-3.73 3.54 -0.81
-17.21 16.32 2.91
-9.92 9.41 -1.68
-17.73 16.82 3.87
-12.67 12.02 -1.53
-17.72 16.81 4.75
-17.58 16.67 -1.27
-17.62 16.71 5.61
-17.24 16.35 -0.41
-18.04 17.11 6.66
-3.57 3.41 -1.32
-17.24 16.46 0.42
-17.38 16.59 1.26
-16.98 16.22 2.05
-3.77 3.6 -0.83
-17.26 16.48 2.93
-9.82 9.38 -1.67
-17.74 16.94 3.89
-12.78 12.2 -1.55
-17.68 16.88 4.75
-12.54 11.97 -0.91
-17.54 16.74 5.6
-17.22 16.44 -0.42
-17.97 17.16 6.66
-17.18 16.52 0.42
-17.13 16.47 1.25
-16.91 16.26 2.05
-7.71 7.42 -1.7
-17.16 16.5 2.92
-9.77 9.4 -1.66
-17.65 16.97 3.88
-12.59 12.11 -1.53
-17.49 16.82 4.72
-12.33 11.85 -0.9
-17.79 17.11 5.7
-13.73 13.2 -0.33
-17.9 17.21 6.65
-17.16 16.62 0.42
-17.15 16.6 1.25
-16.84 16.3 2.05
-7.68 7.44 -1.69
-17.14 16.6 2.93
-9.75 9.44 -1.67
-17.53 16.97 3.86
-12.55 12.15 -1.53
-17.42 16.86 4.71
-13 12.58 -0.95
-18.05 17.48 5.8
-17.37 16.82 -0.42
-17.79 17.22 6.63
-17.02 16.6 0.42
-17.02 16.6 1.25
-16.86 16.44 2.06
-7.64 7.45 -1.69
-17.18 16.75 2.95
-9.68 9.44 -1.66
-17.48 17.05 3.87
-12.3 11.99 -1.5
-17.38 16.95 4.72
-13.08 12.76 -0.96
-18.01 17.57 5.81
-13.11 12.79 -0.32
-17.4 16.96 6.51
-16.48 16.18 0.4
-17.23 16.91 1.27
-17.04 16.73 2.09
-7.61 7.47 -1.69
-17.15 16.84 2.95
-9.63 9.46 -1.66
-17.42 17.11 3.87
-12.41 12.18 -1.52
-17.62 17.3 4.8
-13.21 12.97 -0.97
-18 17.67 5.82
-11.83 11.62 -0.29
-17.54 17.22 6.59
-16.5 16.31 0.4
-17.19 16.99 1.27
-17.16 16.97 2.11
-7.58 7.5 -1.69
-17.09 16.9 2.95
-9.57 9.46 -1.65
-17.33 17.13 3.86
-12.22 12.08 -1.5
-17.64 17.44 4.82
-11.78 11.65 -0.87
-17.9 17.69 5.81
-16.94 16.75 -0.42
-17.49 17.29 6.59
-5.32 5.3 -2.01
-16.71 16.63 0.41
-17.08 17 1.26
-17.2 17.12 2.12
-7.55 7.52 -1.69
-17.1 17.02 2.96
-9.51 9.46 -1.65
-17.23 17.15 3.85
-11.81 11.75 -1.46
-17.78 17.69 4.88
-11.76 11.7 -0.87
-17.78 17.7 5.79
-38.65 38.47 -0.95
-17.44 17.36 6.59
-5.3 5.31 -2.01
-16.7 16.73 0.41
-16.73 16.77 1.24
-17.14 17.18 2.12
-7.53 7.54 -1.69
-16.94 16.97 2.94
-9.46 9.48 -1.65
-17.21 17.24 3.86
-11.79 11.82 -1.46
-17.7 17.73 4.87
-12.61 12.64 -0.94
-17.82 17.86 5.83
-17.22 17.25 -0.43
-38.96 39.04 14.78
-5.28 5.33 -2.01
-16.61 16.76 0.41
-16.93 17.08 1.26
-17.11 17.27 2.13
-7.49 7.56 -1.68
-17.58 17.74 3.07
-9.43 9.51 -1.64
-17.18 17.33 3.86
-11.76 11.87 -1.46
-17.63 17.79 4.87
-12.59 12.7 -0.94
-39 39.35 12.79
-17.12 17.27 -0.42
-5.27 5.36 -2.01
-16.65 16.91 0.41
-16.89 17.16 1.26
-17.12 17.4 2.14
-7.46 7.58 -1.68
-17.51 17.79 3.07
-9.36 9.5 -1.64
-38.85 39.46 8.77
-11.7 11.89 -1.46
-17.64 17.92 4.89
-12.6 12.8 -0.94
-39.01 39.63 12.84
-13 13.21 -0.32
-5.25 5.37 -2.01
-17.74 18.15 0.44
-16.72 17.1 1.25
-17.09 17.48 2.14
-7.43 7.6 -1.68
-17.45 17.85 3.07
-9.3 9.51 -1.63
-38.86 39.75 8.8
-11.71 11.97 -1.47
-17.53 17.93 4.88
-12.5 12.79 -0.94
-39 39.89 12.88
-17.05 17.44 -0.43
-39.16 40.05 15.01
-5.23 5.39 -2.01
-16.23 16.72 0.41
-16.63 17.13 1.25
-17.06 17.58 2.14
-7.4 7.63 -1.68
-17.37 17.9 3.06
-9.27 9.55 -1.63
-38.93 40.1 8.85
-11.32 11.66 -1.42
-17.5 18.03 4.88
-12.39 12.77 -0.93
-39.02 40.2 12.93
-13.05 13.44 -0.33
-39.1 40.28 15.04
-5.21 5.4 -2.01
-17.73 18.39 0.45
-16.63 17.24 1.26
-17.65 18.31 2.23
-7.37 7.65 -1.68
-17.35 17.99 3.07
-9.21 9.55 -1.63
-38.92 40.37 8.88
-11.57 12 -1.46
-17.45 18.09 4.89
-39.04 40.49 12.99
-13 13.48 -0.33
-39.12 40.57 15.1
-5.22 5.46 -2.02
-17.34 18.13 0.44
-16.56 17.31 1.26
-17.56 18.36 2.22
-7.33 7.67 -1.68
-17.28 18.07 3.07
-9.16 9.57 -1.63
-17.26 18.05 3.96
-11.72 12.25 -1.48
-38.95 40.71 10.95
-12.16 12.71 -0.92
-39.02 40.79 13.03
-17.89 18.7 -0.45
-5.25 5.52 -2.04
-17.43 18.34 0.44
-16.99 17.88 1.29
-38.83 40.87 4.93
-7.31 7.69 -1.68
-17.27 18.17 3.08
-9.08 9.56 -1.62
-17.21 18.11 3.96
-11.15 11.74 -1.42
-11.63 12.24 -0.88
-39.03 41.08 13.08
-12.31 12.96 -0.31
-5.28 5.59 -2.06
-16.56 17.54 0.42
-16.97 17.98 1.3
-7.28 7.71 -1.68
-9.1 9.64 -1.63
-17.17 18.19 3.96
-11.52 12.2 -1.47
-12.76 13.51 -0.97
-39.05 41.36 13.13
-13.78 14.59 -0.35
-5.21 5.56 -2.04
-17.25 18.4 0.44
-16.94 18.07 1.3
-7.25 7.73 -1.68
-9.1 9.71 -1.63
-17.18 18.33 3.98
-11.44 12.2 -1.46
-11.38 12.14 -0.87
-39.05 41.64 13.18
-12.13 12.94 -0.31
-39.22 41.83 15.37
-5.16 5.54 -2.03
-17.2 18.47 0.44
-16.38 17.59 1.26
-39.12 42.01 5.02
-7.22 7.75 -1.68
-39.04 41.92 7.03
-9.02 9.68 -1.62
-38.94 41.82 9.05
-11.25 12.08 -1.44
-39.03 41.92 11.13
-12.45 13.37 -0.96
-39.07 41.96 13.24
-12.45 13.37 -0.32
-39.15 42.04 15.39
-5.13 5.55 -2.02
-16.88 18.25 0.43
-17 18.38 1.31
-38.88 42.04 5.01
-7.18 7.76 -1.67
-38.93 42.09 7.04
-8.96 9.69 -1.62
-38.96 42.12 9.09
-11.34 12.26 -1.46
-39.01 42.18 11.17
-11 11.89 -0.85
-39.08 42.26 13.29
-12.02 12.99 -0.31
-39.17 42.35 15.46
-5.14 5.6 -2.04
-17.18 18.71 0.44
-16.93 18.44 1.31
-38.73 42.18 5.01
-7.15 7.79 -1.68
-38.92 42.39 7.07
-8.93 9.73 -1.62
-38.98 42.45 9.13
-11.48 12.5 -1.48
-39 42.48 11.21
-11.42 12.44 -0.89
-39.08 42.56 13.34
-11.95 13.01 -0.31
-5.13 5.62 -2.04
-38.6 42.33 1
-16.91 18.55 1.32
-38.76 42.5 5.03
-7.12 7.81 -1.67
-38.94 42.69 7.09
-8.91 9.77 -1.62
-38.99 42.75 9.16
-10.78 11.82 -1.4
-10.96 12.02 -0.85
-39.07 42.84 13.39
-13.33 14.61 -0.35
-5.1 5.63 -2.04
-17.09 18.87 0.44
-16.77 18.52 1.31
-38.85 42.9 5.06
-7.09 7.83 -1.67
-8.84 9.76 -1.62
-38.98 43.05 9.2
-10.88 12.01 -1.42
-11.89 13.13 -0.93
-39.08 43.15 13.44
-12.57 13.88 -0.33
-5.08 5.65 -2.04
-38.71 43.05 1.01
-16.72 18.6 1.31
-38.85 43.2 5.08
-7.06 7.85 -1.67
-8.85 9.85 -1.63
-38.99 43.35 9.23
-10.56 11.74 -1.38
-11.48 12.77 -0.9
-39.09 43.47 13.5
-12.52 13.92 -0.33
-39.16 43.55 15.69
-5.11 5.73 -2.06
-38.7 43.35 1.01
-16.71 18.72 1.31
-38.83 43.5 5.1
-7.02 7.86 -1.67
-39.05 43.73 7.2
-8.71 9.76 -1.61
-38.98 43.66 9.27
-10.63 11.91 -1.4
-39.06 43.75 11.4
-40.48 45.34 14.03
-12.43 13.92 -0.33
-39.36 44.09 15.84
-5.1 5.75 -2.06
-38.71 43.66 1.02
-38.86 43.82 3.07
-38.88 43.85 5.13
-6.99 7.89 -1.67
-8.68 9.79 -1.61
-40.35 45.51 9.63
-10.63 11.98 -1.4
-40.38 45.54 11.83
-13.29 14.99 -1.05
-40.44 45.61 14.07
-11.71 13.21 -0.31
-39.32 44.34 15.88
-5.08 5.77 -2.06
-40.15 45.62 3.18
-40.23 45.71 5.33
-6.95 7.9 -1.67
-8.67 9.85 -1.61
-41.97 47.69 10.06
-10.79 12.26 -1.43
-11.41 12.97 -0.91
-11.64 13.23 -0.31
-39.27 44.62 15.93
-5.06 5.78 -2.06
-24.27 27.77 0.64
-6.93 7.93 -1.67
-8.58 9.82 -1.6
-40.41 46.23 9.72
-10.78 12.33 -1.43
-11.86 13.57 -0.94
-40.41 46.23 14.18
-11.64 13.31 -0.31
-39.25 44.91 15.98
-5.03 5.8 -2.06
-24.09 27.76 0.64
-40.24 46.36 5.37
-6.9 7.94 -1.67
-8.66 9.97 -1.62
-41.38 47.67 10
-10.4 11.98 -1.39
-10.89 12.54 -0.87
-39.27 45.24 16.05
-5 5.8 -2.05
-23.96 27.79 0.64
-6.86 7.95 -1.66
-8.42 9.77 -1.58
-10.38 12.03 -1.39
-40.45 46.91 12.04
-10.82 12.55 -0.87
-40.49 46.97 14.32
-12.42 14.41 -0.33
-39.78 46.15 16.33
-4.98 5.81 -2.05
-23.8 27.8 0.64
-40.28 47.04 5.42
-6.82 7.97 -1.66
-40.26 47.02 7.6
-8.42 9.83 -1.59
-40.28 47.04 9.81
-11 12.85 -1.48
-40.27 47.03 12.04
-11.31 13.21 -0.91
-40.26 47.02 14.29
-12.19 14.24 -0.33
-39.54 46.18 16.29
-4.95 5.82 -2.05
-23.64 27.8 0.64
-40.09 47.14 3.24
-40.07 47.13 5.41
-6.79 7.99 -1.66
-40.01 47.06 7.58
-8.46 9.95 -1.6
-40.05 47.1 9.79
-10.8 12.7 -1.46
-40.05 47.1 12.02
-11.81 13.89 -0.96
-40.07 47.12 14.28
-14.28 16.79 -0.38
-39.3 46.22 16.26
-4.95 5.87 -2.06
-23.48 27.81 0.64
-39.85 47.2 3.24
-39.87 47.24 5.41
-6.77 8.02 -1.66
-39.86 47.22 7.59
-8.45 10.01 -1.61
-39.88 47.25 9.79
-10.34 12.25 -1.4
-39.89 47.26 12.02
-11.06 13.11 -0.9
-39.91 47.28 14.29
-11.1 13.15 -0.3
-39.28 46.53 16.31
-4.92 5.87 -2.05
-23.29 27.78 0.63
-39.71 47.37 3.24
-39.73 47.39 5.41
-6.74 8.03 -1.66
-39.72 47.37 7.59
-8.43 10.06 -1.61
-39.74 47.4 9.8
-10.78 12.86 -1.47
-39.74 47.4 12.02
-10.76 12.84 -0.88
-39.77 47.44 14.29
-11.05 13.18 -0.3
-39.27 46.85 16.38
-4.9 5.89 -2.05
-23.12 27.78 0.63
-39.54 47.51 3.24
-19.07 22.91 2.61
-6.69 8.04 -1.66
-39.57 47.54 7.59
-8.35 10.03 -1.6
-39.58 47.56 9.8
-10.75 12.92 -1.47
-19.02 22.85 5.78
-11.15 13.39 -0.91
-39.62 47.6 14.3
-11.31 13.58 -0.31
-39.28 47.2 16.45
-4.88 5.9 -2.05
-22.97 27.79 0.63
-18.95 22.92 1.56
-18.94 22.91 2.6
-6.66 8.06 -1.66
-39.41 47.68 7.6
-8.36 10.11 -1.61
-39.43 47.71 9.8
-10.83 13.1 -1.49
-18.89 22.85 5.76
-11.07 13.39 -0.91
-19.02 23.01 6.89
-11.25 13.62 -0.31
-18.99 22.98 7.99
-4.84 5.9 -2.04
-22.85 27.83 0.63
-18.81 22.91 1.55
-18.81 22.91 2.59
-6.64 8.08 -1.66
-18.9 23.02 3.66
-8.25 10.05 -1.6
-18.92 23.04 4.72
-10.75 13.09 -1.48
-18.78 22.87 5.75
-10.96 13.34 -0.9
-18.9 23.02 6.88
-11.55 14.07 -0.32
-18.87 22.98 7.97
-4.81 5.89 -2.04
-18.81 23.07 0.52
-18.68 22.91 1.55
-18.69 22.92 2.59
-6.61 8.11 -1.66
-18.77 23.02 3.65
-8.2 10.06 -1.59
-18.78 23.03 4.71
-18.64 22.85 5.73
-10.6 13.01 -0.88
-18.78 23.03 6.86
-18.83 23.09 -0.52
-18.78 23.03 7.96
-4.76 5.88 -2.03
-18.68 23.08 0.52
-18.55 22.91 1.54
-18.54 22.9 2.58
-6.58 8.13 -1.66
-18.66 23.05 3.64
-8.17 10.1 -1.59
-18.67 23.07 4.7
-9.93 12.27 -1.38
-18.52 22.87 5.72
-10.7 13.22 -0.89
-18.64 23.02 6.84
-18.69 23.09 -0.52
-4.74 5.9 -2.03
-9.36 11.64 0.26
-18.43 22.93 1.54
-5.49 6.83 -1.7
-18.42 22.92 2.57
-6.54 8.14 -1.65
-18.57 23.1 3.64
-8.35 10.39 -1.64
-18.58 23.11 4.7
-9.82 12.21 -1.37
-18.38 22.86 5.7
-10.97 13.64 -0.92
-18.51 23.03 6.82
-16.45 20.46 -0.46
-18.59 23.13 7.95
-4.73 5.93 -2.03
-9.24 11.58 0.26
-9.26 11.6 0.78
-5.47 6.85 -1.7
-18.3 22.93 2.57
-6.51 8.16 -1.65
-18.43 23.1 3.63
-8.22 10.3 -1.62
-18.46 23.13 4.69
-9.78 12.26 -1.37
-18.25 22.88 5.69
-11.12 13.93 -0.93
-18.38 23.04 6.8
-4.69 5.92 -2.03
-8.97 11.32 0.25
-18.17 22.93 1.53
-5.45 6.87 -1.71
-18.17 22.92 2.56
-6.48 8.18 -1.65
-18.31 23.11 3.62
-8.08 10.2 -1.6
-18.31 23.1 4.67
-10.29 12.99 -1.45
-18.13 22.88 5.67
-9.2 11.61 -0.78
-18.25 23.03 6.78
-9.02 11.38 -0.25
-18.31 23.1 7.9
-4.66 5.93 -2.02
-8.86 11.26 0.25
-9.09 11.56 0.77
-5.38 6.83 -1.69
-18.04 22.93 2.55
-6.45 8.2 -1.65
-18.18 23.11 3.61
-8.1 10.3 -1.61
-18.19 23.12 4.66
-10.42 13.24 -1.47
-17.99 22.87 5.66
-8.97 11.41 -0.76
-18.12 23.04 6.77
-8.93 11.35 -0.25
-4.62 5.91 -2.01
-8.83 11.3 0.25
-8.9 11.4 0.76
-5.35 6.85 -1.69
-17.91 22.92 2.54
-6.42 8.22 -1.65
-18.07 23.13 3.6
-8.22 10.52 -1.64
-18.06 23.12 4.65
-10.53 13.48 -1.5
-17.88 22.88 5.64
-8.92 11.41 -0.76
-18 23.04 6.75
-8.82 11.29 -0.25
-18.03 23.08 7.85
-4.6 5.93 -2.01
-8.72 11.24 0.25
-8.81 11.36 0.75
-5.33 6.87 -1.69
-17.79 22.93 2.54
-6.38 8.23 -1.65
-17.96 23.16 3.6
-8.15 10.51 -1.63
-17.93 23.11 4.63
-10.32 13.31 -1.47
-17.74 22.87 5.63
-8.81 11.35 -0.75
-17.86 23.02 6.73
-8.75 11.28 -0.25
-4.58 5.94 -2.01
-8.62 11.2 0.25
-8.74 11.35 0.75
-5.28 6.86 -1.68
-17.66 22.93 2.53
-6.35 8.25 -1.65
-17.81 23.12 3.58
-8.03 10.42 -1.61
-17.81 23.13 4.62
-10.37 13.47 -1.49
-17.63 22.88 5.61
-8.7 11.29 -0.75
-17.62 22.87 6.67
-8.66 11.24 -0.25
-17.8 23.11 7.81
-4.55 5.96 -2.01
-8.51 11.13 0.24
-8.76 11.46 0.76
-5.27 6.89 -1.69
-17.54 22.94 2.53
-6.32 8.27 -1.65
-17.67 23.12 3.57
-7.89 10.31 -1.59
-17.68 23.13 4.61
-8.78 11.49 -1.27
-17.5 22.88 5.6
-8.62 11.28 -0.74
-17.48 22.87 6.65
-8.59 11.23 -0.25
-17.67 23.11 7.8
-4.52 5.96 -2
-8.46 11.14 0.24
-8.59 11.32 0.74
-5.25 6.91 -1.69
-17.42 22.95 2.52
-6.29 8.29 -1.65
-17.56 23.13 3.57
-7.85 10.34 -1.59
-17.55 23.11 4.6
-8.66 11.4 -1.25
-17.37 22.88 5.58
-8.55 11.27 -0.74
-17.38 22.89 6.64
-8.52 11.22 -0.25
-17.59 23.17 7.8
-4.49 5.95 -2
-8.4 11.15 0.24
-8.48 11.26 0.74
-5.24 6.95 -1.69
-17.28 22.93 2.51
-6.26 8.31 -1.65
-17.43 23.13 3.56
-7.73 10.26 -1.58
-17.42 23.12 4.58
-8.61 11.42 -1.25
-17.25 22.89 5.57
-8.47 11.24 -0.74
-17.25 22.9 6.62
-8.41 11.17 -0.24
-17.42 23.11 7.75
-4.45 5.95 -1.99
-8.31 11.11 0.24
-8.39 11.21 0.73
-5.2 6.95 -1.69
-17.17 22.94 2.51
-6.22 8.32 -1.65
-17.3 23.11 3.54
-7.69 10.28 -1.58
-17.31 23.13 4.58
-8.55 11.42 -1.25
-17.12 22.88 5.55
-8.41 11.23 -0.74
-17.14 22.9 6.6
-8.39 11.21 -0.24
-17.26 23.07 7.72
-4.43 5.96 -1.99
-8.27 11.13 0.24
-8.3 11.17 0.73
-5.18 6.98 -1.69
-17.04 22.95 2.5
-6.18 8.32 -1.64
-17.16 23.11 3.53
-7.7 10.36 -1.58
-17.17 23.12 4.56
-8.54 11.5 -1.25
-17 22.89 5.54
-8.32 11.2 -0.73
-17.01 22.91 6.59
-8.29 11.17 -0.24
-7.9 10.63 3.55
-4.42 5.99 -1.99
-8.21 11.13 0.24
-8.3 11.25 0.73
-5.14 6.97 -1.68
-16.92 22.94 2.49
-6.15 8.33 -1.64
-17 23.06 3.52
-7.94 10.76 -1.64
-17.01 23.07 4.54
-8.44 11.45 -1.24
-16.89 22.9 5.53
-8.26 11.2 -0.73
-16.89 22.9 6.57
-8.24 11.18 -0.24
-7.83 10.61 3.53
-4.39 6 -1.99
-8.18 11.17 0.24
-8.19 11.19 0.73
-5.11 6.98 -1.68
-16.81 22.96 2.49
-6.12 8.36 -1.64
-16.88 23.06 3.51
-7.83 10.7 -1.63
-16.89 23.06 4.53
-8.27 11.29 -1.22
-16.76 22.89 5.52
-8.22 11.22 -0.73
-16.78 22.91 6.56
-8.16 11.14 -0.24
-7.63 10.42 3.46
-8.11 11.16 0.24
-8.12 11.18 0.72
-5.08 6.99 -1.68
-8.96 12.32 1.33
-6.09 8.38 -1.64
-16.78 23.09 3.5
-7.85 10.8 -1.64
-16.78 23.09 4.52
-8.2 11.28 -1.22
-16.64 22.89 5.5
-8.14 11.2 -0.73
-7.85 10.8 3.08
-8.08 11.11 -0.24
-7.52 10.34 3.43
-8.05 11.16 0.24
-8.08 11.2 0.72
-5.07 7.02 -1.68
-8.89 12.32 1.33
-6.05 8.38 -1.64
-16.7 23.14 3.5
-7.82 10.84 -1.64
-16.69 23.14 4.52
-8.16 11.31 -1.22
-16.51 22.89 5.49
-8.08 11.2 -0.72
-7.56 10.48 2.98
-8.06 11.17 -0.24
-6.67 9.24 3.05
-8.01 11.19 0.24
-8.12 11.34 0.73
-5.02 7.01 -1.68
-8.82 12.31 1.32
-6.01 8.4 -1.64
-16.58 23.15 3.5
-7.74 10.8 -1.63
-16.58 23.16 4.51
-8.25 11.52 -1.24
-16.4 22.89 5.47
-8 11.18 -0.72
-7.5 10.48 2.97
-7.98 11.14 -0.24
-6.61 9.23 3.04
-7.92 11.14 0.24
-7.99 11.23 0.72
-4.99 7.02 -1.68
-8.4 11.82 1.27
-5.99 8.42 -1.64
-16.45 23.14 3.49
-7.68 10.8 -1.63
-16.47 23.16 4.5
-8.12 11.42 -1.23
-16.28 22.9 5.46
-8 11.25 -0.72
-7.46 10.5 2.97
-7.92 11.13 -0.24
-6.58 9.26 3.04
-7.88 11.16 0.24
-7.99 11.32 0.73
-4.97 7.04 -1.67
-5.96 8.44 -1.64
-16.32 23.13 3.48
-7.55 10.7 -1.61
-16.33 23.14 4.49
-7.99 11.32 -1.21
-16.17 22.91 5.45
-7.91 11.21 -0.72
-7.28 10.31 2.91
-7.87 11.16 -0.24
-6.6 9.35 3.07
-7.84 11.19 0.24
-7.94 11.33 0.73
-4.94 7.06 -1.67
-5.92 8.46 -1.64
-16.21 23.14 3.47
-7.56 10.79 -1.62
-16.21 23.14 4.48
-7.88 11.26 -1.2
-16.04 22.9 5.43
-7.87 11.24 -0.72
-7.25 10.36 2.92
-7.83 11.18 -0.24
-6.46 9.22 3.02
-7.79 11.21 0.24
-7.88 11.33 0.72
-4.93 7.09 -1.68
-8.34 12 1.28
-5.89 8.47 -1.63
-16.11 23.17 3.46
-7.66 11.02 -1.65
-16.1 23.16 4.47
-7.81 11.23 -1.2
-15.93 22.91 5.42
-7.82 11.25 -0.72
-7.21 10.37 2.92
-7.78 11.19 -0.24
-6.4 9.21 3
-7.75 11.22 0.24
-7.8 11.31 0.72
-8.43 12.21 1.3
-5.85 8.48 -1.63
-15.98 23.15 3.45
-7.54 10.92 -1.63
-15.98 23.16 4.46
-7.8 11.3 -1.2
-15.81 22.91 5.41
-7.75 11.23 -0.71
-7.14 10.35 2.9
-7.73 11.21 -0.24
-6.4 9.27 3.02
-7.7 11.24 0.24
-7.76 11.33 0.72
-8.45 12.33 1.31
-5.82 8.5 -1.63
-15.85 23.14 3.44
-7.35 10.74 -1.6
-15.87 23.17 4.45
-7.76 11.33 -1.2
-15.69 22.91 5.4
-7.69 11.23 -0.71
-7.15 10.45 2.92
-7.68 11.21 -0.24
-6.12 8.93 2.9
-7.67 11.28 0.24
-7.65 11.25 0.71
-8.36 12.29 1.3
-5.79 8.52 -1.63
-15.75 23.17 3.44
-7.28 10.71 -1.59
-15.75 23.16 4.44
-7.76 11.41 -1.21
-15.58 22.92 5.39
-7.64 11.24 -0.71
-7.21 10.61 2.96
-7.63 11.22 -0.24
-6.06 8.91 2.89
-7.59 11.25 0.24
-7.63 11.3 0.71
-8.45 12.52 1.32
-5.75 8.53 -1.63
-15.64 23.18 3.43
-7.35 10.9 -1.61
-15.63 23.16 4.42
-7.65 11.34 -1.2
-7.42 11 2.58
-7.62 11.29 -0.71
-7.31 10.83 3.02
-7.61 11.28 -0.24
-5.89 8.74 2.82
-7.52 11.22 0.24
-7.58 11.32 0.71
-7.91 11.8 1.24
-5.72 8.54 -1.63
-15.52 23.17 3.42
-7.29 10.88 -1.61
-15.52 23.16 4.42
-7.67 11.45 -1.21
-15.34 22.9 5.36
-7.58 11.31 -0.71
-7.27 10.85 3.02
-7.53 11.24 -0.24
-5.86 8.75 2.82
-7.48 11.25 0.24
-7.58 11.39 0.72
-7.96 11.97 1.26
-5.69 8.55 -1.63
-15.4 23.15 3.41
-7.33 11.03 -1.63
-15.4 23.16 4.41
-7.58 11.4 -1.2
-15.24 22.92 5.35
-7.53 11.32 -0.71
-7.25 10.9 3.02
-7.54 11.34 -0.24
-5.77 8.67 2.79
-7.44 11.28 0.24
-7.47 11.32 0.71
-8.36 12.68 1.33
-5.66 8.57 -1.63
-15.25 23.11 3.4
-7.25 10.99 -1.62
-15.26 23.12 4.39
-7.57 11.47 -1.2
-15.13 22.92 5.34
-7.46 11.3 -0.71
-7.25 10.99 3.04
-7.48 11.33 -0.24
-5.7 8.64 2.77
-7.39 11.28 0.24
-7.49 11.43 0.72
-8.36 12.77 1.34
-5.63 8.59 -1.63
-15.12 23.09 3.39
-7.2 11 -1.61
-15.12 23.09 4.37
-7.44 11.36 -1.19
-15.01 22.92 5.33
-7.45 11.37 -0.71
-7.19 10.97 3.03
-7.41 11.32 -0.24
-5.64 8.62 2.76
-7.33 11.27 0.23
-7.38 11.36 0.71
-7.7 11.85 1.24
-5.6 8.61 -1.63
-15.01 23.1 3.38
-7.22 11.11 -1.63
-7.75 11.92 2.25
-7.39 11.37 -1.19
-14.9 22.93 5.31
-7.4 11.38 -0.71
-7.16 11.02 3.03
-7.36 11.32 -0.24
-5.6 8.62 2.75
-7.29 11.31 0.23
-7.33 11.37 0.71
-4.66 7.22 -1.67
-7.82 12.13 1.26
-5.56 8.62 -1.63
-14.91 23.12 3.38
-7.23 11.2 -1.64
-7.69 11.93 2.25
-7.36 11.41 -1.19
-7.89 12.24 2.83
-7.35 11.4 -0.71
-5.9 9.15 2.51
-7.31 11.34 -0.24
-5.52 8.56 2.73
-7.29 11.38 0.24
-7.28 11.37 0.71
-4.64 7.25 -1.67
-7.67 11.98 1.24
-5.53 8.63 -1.62
-15.03 23.48 3.42
-7.18 11.21 -1.63
-7.63 11.91 2.24
-7.36 11.49 -1.19
-7.82 12.22 2.82
-7.33 11.45 -0.71
-5.86 9.15 2.51
-7.28 11.37 -0.24
-5.48 8.56 2.72
-7.23 11.37 0.24
-7.2 11.34 0.7
-4.61 7.25 -1.67
-7.5 11.81 1.22
-5.5 8.65 -1.62
-14.94 23.52 3.42
-7.08 11.14 -1.62
-7.58 11.92 2.24
-7.4 11.64 -1.21
-7.71 12.13 2.79
-7.27 11.45 -0.71
-7.45 11.73 3.21
-7.24 11.4 -0.24
-5.47 8.6 2.73
-7.15 11.34 0.23
-7.23 11.47 0.71
-4.58 7.26 -1.67
-7.46 11.83 1.22
-5.47 8.67 -1.62
-14.92 23.67 3.44
-6.92 10.97 -1.59
-7.63 12.09 2.26
-7.36 11.67 -1.21
-7.82 12.4 2.85
-7.24 11.49 -0.71
-5.95 9.43 2.57
-7.23 11.47 -0.24
-5.44 8.63 2.73
-7.12 11.39 0.23
-7.18 11.48 0.71
-7.47 11.94 1.23
-5.43 8.68 -1.62
-7.8 12.46 1.8
-6.93 11.08 -1.6
-7.64 12.22 2.28
-7.31 11.68 -1.21
-14.35 22.94 5.26
-7.21 11.52 -0.71
-5.82 9.31 2.54
-7.17 11.45 -0.24
-5.32 8.5 2.69
-7.12 11.47 0.24
-7.14 11.51 0.71
-7.45 12.01 1.24
-5.4 8.7 -1.62
-7.72 12.43 1.8
-6.95 11.2 -1.62
-7.68 12.38 2.31
-7.29 11.74 -1.21
-14.23 22.92 5.24
-7.17 11.55 -0.71
-7.5 12.08 3.28
-7.18 11.57 -0.24
-5.28 8.5 2.68
-7.03 11.41 0.23
-7.13 11.57 0.71
-7.46 12.11 1.24
-5.36 8.71 -1.62
-6.94 11.26 -1.62
-7.56 12.27 2.28
-7.19 11.67 -1.2
-14.13 22.94 5.24
-7.13 11.58 -0.71
-8.18 13.28 -0.27
-5.31 8.62 2.71
-7 11.45 0.23
-7.06 11.55 0.71
-7.4 12.1 1.24
-5.34 8.73 -1.62
-7.23 11.84 1.7
-6.85 11.21 -1.61
-7.3 11.95 2.22
-7.16 11.72 -1.2
-14.02 22.95 5.23
-7.08 11.58 -0.71
-7.38 12.08 3.27
-7.07 11.56 -0.24
-5.37 8.78 2.76
-7.03 11.59 0.24
-7.08 11.67 0.72
-4.45 7.34 -1.67
-7.18 11.85 1.21
-5.3 8.75 -1.62
-7.18 11.84 1.7
-6.82 11.24 -1.61
-7.23 11.92 2.21
-7.15 11.79 -1.21
-13.93 22.97 5.22
-7.02 11.58 -0.71
-7.33 12.09 3.26
-7.03 11.59 -0.24
-5.33 8.79 2.76
-6.99 11.62 0.24
-6.99 11.63 0.71
-4.4 7.31 -1.66
-7.31 12.16 1.24
-5.27 8.76 -1.62
-7.04 11.69 1.68
-6.78 11.27 -1.61
-7.16 11.91 2.2
-7.25 12.05 -1.23
-9.53 15.84 3.59
-7 11.63 -0.71
-5.41 9 2.42
-6.98 11.61 -0.24
-5.35 8.89 2.78
-6.97 11.67 0.24
-6.98 11.7 0.71
-4.38 7.34 -1.66
-7.4 12.41 1.26
-5.23 8.77 -1.62
-6.83 11.45 1.64
-6.71 11.25 -1.61
-6.95 11.64 2.15
-7.06 11.82 -1.2
-9.44 15.82 3.58
-6.97 11.68 -0.71
-5.38 9.01 2.42
-6.95 11.64 -0.24
-5.3 8.88 2.77
-6.93 11.69 0.24
-6.95 11.72 0.71
-4.36 7.36 -1.66
-7.32 12.34 1.26
-5.21 8.79 -1.62
-6.74 11.38 1.62
-6.73 11.36 -1.62
-6.94 11.71 2.16
-7.01 11.83 -1.2
-9.4 15.87 3.59
-6.91 11.65 -0.71
-5.36 9.05 2.43
-6.92 11.68 -0.24
-5.25 8.86 2.76
-6.94 11.81 0.24
-6.91 11.75 0.71
-4.33 7.37 -1.66
-7.3 12.42 1.26
-5.17 8.8 -1.62
-6.72 11.43 1.63
-6.7 11.39 -1.62
-6.87 11.69 2.15
-6.99 11.89 -1.21
-9.29 15.8 3.56
-6.88 11.7 -0.71
-5.39 9.16 2.45
-6.89 11.73 -0.24
-5.18 8.8 2.74
-6.92 11.87 0.24
-6.87 11.79 0.71
-4.3 7.38 -1.66
-6.88 11.8 1.19
-5.14 8.82 -1.62
-6.67 11.45 1.63
-6.62 11.36 -1.62
-6.8 11.67 2.14
-6.96 11.94 -1.21
-8.79 15.08 3.39
-6.91 11.86 -0.72
-5.43 9.31 2.49
-6.86 11.77 -0.24
-5.22 8.95 2.78
-6.87 11.88 0.24
-6.85 11.84 0.72
-4.27 7.38 -1.66
-6.82 11.79 1.19
-5.11 8.83 -1.62
-6.63 11.46 1.63
-6.56 11.35 -1.61
-6.8 11.75 2.15
-6.86 11.86 -1.2
-8.71 15.06 3.38
-6.83 11.81 -0.71
-5.42 9.37 2.5
-6.81 11.78 -0.24
-5.08 8.78 2.72
-6.79 11.83 0.24
-6.87 11.96 0.72
-4.24 7.39 -1.66
-6.84 11.92 1.2
-5.07 8.84 -1.61
-6.57 11.45 1.62
-6.52 11.37 -1.61
-6.86 11.96 2.18
-6.85 11.94 -1.2
-8.09 14.1 3.16
-6.78 11.81 -0.71
-5.41 9.42 2.51
-6.73 11.73 -0.24
-5.04 8.79 2.72
-6.75 11.87 0.24
-6.84 12.02 0.72
-4.22 7.41 -1.66
-7.06 12.4 1.25
-5.04 8.85 -1.61
-6.57 11.54 1.63
-6.46 11.35 -1.6
-6.78 11.91 2.17
-6.83 11.99 -1.21
-8.04 14.12 3.16
-6.81 11.96 -0.72
-8.56 15.04 4
-6.72 11.8 -0.24
-5.03 8.83 2.72
-6.74 11.94 0.24
-6.75 11.96 0.72
-4.18 7.41 -1.65
-7.12 12.61 1.27
-5.01 8.87 -1.61
-6.5 11.51 1.62
-6.41 11.35 -1.6
-6.77 11.99 2.18
-6.66 11.79 -1.18
-7.94 14.06 3.14
-6.76 11.98 -0.72
-5.23 9.26 2.45
-6.69 11.85 -0.24
-4.98 8.83 2.72
-6.66 11.9 0.24
-6.99 12.49 0.75
-4.15 7.41 -1.65
-6.94 12.39 1.24
-4.97 8.88 -1.61
-6.46 11.54 1.62
-6.37 11.38 -1.6
-6.68 11.92 2.16
-6.86 12.24 -1.23
-7.87 14.05 3.13
-6.73 12.02 -0.72
-5.19 9.27 2.45
-6.64 11.86 -0.24
-6.47 11.55 3.55
-6.64 11.96 0.24
-6.97 12.54 0.75
-4.13 7.42 -1.65
-6.81 12.26 1.23
-4.94 8.9 -1.61
-6.36 11.45 1.61
-6.36 11.44 -1.61
-6.7 12.06 2.19
-6.81 12.25 -1.23
-7.84 14.11 3.14
-6.65 11.97 -0.72
-7.26 13.07 3.45
-6.63 11.92 -0.24
-6.43 11.58 3.55
-6.64 12.06 0.24
-6.9 12.52 0.75
-4.1 7.44 -1.65
-6.89 12.5 1.25
-4.9 8.9 -1.61
-6.25 11.34 1.59
-6.36 11.53 -1.62
-6.66 12.08 2.18
-6.75 12.25 -1.22
-7.92 14.36 3.19
-6.64 12.05 -0.72
-7.16 13 3.43
-6.62 12.02 -0.24
-4.79 8.68 2.66
-6.65 12.17 0.24
-6.82 12.47 0.75
-4.08 7.46 -1.65
-7.45 13.63 1.36
-4.87 8.9 -1.61
-6.22 11.38 1.59
-6.27 11.48 -1.61
-6.58 12.04 2.17
-6.74 12.33 -1.23
-7.89 14.43 3.2
-6.62 12.11 -0.72
-7.12 13.02 3.43
-6.57 12.02 -0.24
-4.77 8.72 2.66
-6.64 12.24 0.24
-6.9 12.74 0.76
-4.04 7.46 -1.65
-7.39 13.64 1.36
-4.84 8.92 -1.61
-6.18 11.41 1.59
-6.25 11.53 -1.61
-6.61 12.19 2.2
-6.7 12.37 -1.23
-7.86 14.51 3.21
-6.58 12.14 -0.72
-7.11 13.12 3.45
-6.68 12.33 -0.24
-4.77 8.79 2.68
-6.57 12.23 0.24
-6.75 12.56 0.75
-4.01 7.47 -1.65
-7.66 14.25 1.42
-4.8 8.94 -1.61
-6.11 11.37 1.58
-6.21 11.56 -1.61
-6.63 12.33 2.22
-6.63 12.34 -1.23
-7.58 14.11 3.11
-6.61 12.29 -0.73
-6.97 12.97 3.4
-6.68 12.44 -0.25
-4.76 8.86 2.69
-6.54 12.28 0.24
-6.67 12.51 0.74
-3.98 7.48 -1.65
-7.62 14.3 1.42
-4.77 8.96 -1.61
-6.05 11.35 1.58
-6.17 11.58 -1.61
-6.52 12.24 2.2
-6.62 12.43 -1.23
-7.51 14.1 3.11
-6.66 12.51 -0.74
-6.97 13.09 3.42
-6.57 12.34 -0.24
-4.71 8.83 2.68
-6.69 12.65 0.25
-6.61 12.51 0.74
-3.96 7.49 -1.65
-7.37 13.93 1.38
-4.73 8.96 -1.6
-6.03 11.41 1.58
-6.07 11.47 -1.59
-6.54 12.37 2.22
-6.84 12.94 -1.28
-7.47 14.14 3.11
-6.61 12.5 -0.74
-6.99 13.23 3.46
-6.48 12.26 -0.24
-4.78 9.05 2.74
-6.67 12.72 0.25
-6.6 12.59 0.74
-3.94 7.51 -1.65
-7.5 14.31 1.41
-4.7 8.97 -1.6
-6.09 11.61 1.61
-6.01 11.47 -1.59
-6.54 12.47 2.23
-7.46 14.24 3.12
-6.58 12.55 -0.74
-6.9 13.17 3.43
-6.45 12.31 -0.24
-6.66 12.82 0.25
-6.58 12.66 0.75
-3.9 7.51 -1.65
-5.93 11.41 1.13
-4.67 8.99 -1.6
-5.97 11.49 1.59
-5.97 11.48 -1.59
-6.48 12.46 2.22
-6.54 12.57 -1.24
-7.39 14.21 3.11
-6.61 12.71 -0.75
-7.97 15.32 3.99
-6.44 12.38 -0.24
-4.71 9.06 2.74
-6.61 12.83 0.25
-6.66 12.92 0.76
-3.87 7.51 -1.64
-5.88 11.4 1.12
-4.64 9 -1.6
-5.98 11.6 1.6
-5.92 11.48 -1.59
-6.43 12.47 2.22
-6.58 12.77 -1.26
-7.27 14.11 3.09
-6.56 12.73 -0.75
-6.74 13.08 3.4
-6.46 12.53 -0.25
-4.74 9.2 2.77
-6.54 12.79 0.25
-6.68 13.07 0.77
-3.85 7.53 -1.64
-5.83 11.4 1.12
-4.6 9 -1.6
-5.9 11.54 1.59
-5.9 11.54 -1.59
-6.27 12.28 2.18
-8.07 15.8 -1.55
-7.22 14.13 3.08
-6.49 12.69 -0.75
-8.41 16.46 4.27
-6.52 12.76 -0.25
-6.52 12.87 0.25
-6.6 13.03 0.77
-3.82 7.54 -1.64
-7.32 14.45 1.42
-4.56 9.01 -1.6
-5.92 11.68 1.61
-5.82 11.49 -1.58
-6.13 12.1 2.15
-6.37 12.58 -1.23
-7.2 14.21 3.1
-6.48 12.79 -0.75
-7.38 14.56 3.77
-6.47 12.77 -0.25
-4.56 8.99 2.7
-6.48 12.89 0.25
-6.53 12.99 0.76
-3.79 7.55 -1.64
-5.79 11.52 1.13
-4.53 9.02 -1.6
-5.87 11.68 1.6
-6.28 12.51 2.22
-6.49 12.92 -1.26
-7.6 15.14 3.29
-6.63 13.2 3.41
-6.51 12.96 -0.25
-4.66 9.27 2.78
-6.54 13.13 0.26
-6.73 13.52 0.79
-3.76 7.56 -1.64
-5.74 11.53 1.13
-4.5 9.04 -1.6
-5.77 11.58 1.59
-5.73 11.51 -1.58
-6.21 12.47 2.21
-6.29 12.64 -1.24
-4.66 9.35 2.03
-6.78 13.62 -0.8
-6.62 13.3 -0.26
-4.65 9.34 2.8
-6.71 13.59 0.26
-11.37 23.04 1.35
-3.73 7.56 -1.64
-7.16 14.51 1.42
-4.47 9.05 -1.6
-5.71 11.58 1.59
-11.45 23.19 4.1
-5.71 11.57 -1.13
-4.63 9.38 2.03
-6.79 13.75 -0.8
-6.54 13.25 3.41
-6.58 13.32 -0.26
-4.47 9.05 2.7
-6.59 13.48 0.26
-11.27 23.04 1.34
-3.7 7.57 -1.64
-6.98 14.27 1.39
-4.43 9.06 -1.6
-5.68 11.62 1.59
-5.65 11.55 -1.58
-6.32 12.91 2.28
-5.76 11.76 -1.15
-8.46 17.29 3.74
-7.2 14.72 3.78
-6.66 13.62 -0.26
-4.4 9 2.68
-11.22 23.12 0.45
-11.19 23.06 1.34
-3.68 7.59 -1.64
-7.9 16.28 1.58
-4.4 9.06 -1.6
-5.67 11.69 1.59
-5.63 11.6 -1.58
-6.72 13.85 2.44
-5.89 12.14 -1.18
-8.45 17.42 3.76
-11.21 23.1 -1.35
-6.45 13.29 3.41
-11.23 23.15 -0.45
-4.35 8.97 2.67
-11.11 23.1 0.45
-11.09 23.05 1.34
-3.66 7.6 -1.64
-7.8 16.23 1.58
-4.36 9.07 -1.59
-5.64 11.73 1.6
-5.55 11.55 -1.57
-6.67 13.87 2.44
-5.74 11.95 -1.16
-11.12 23.12 -1.34
-4.39 9.13 2.34
-11.12 23.13 -0.45
-4.32 8.98 2.67
-11.02 23.12 0.45
-7.94 16.66 0.97
-3.62 7.6 -1.64
-7.55 15.84 1.53
-4.33 9.09 -1.6
-5.61 11.77 1.6
-5.63 11.81 -1.61
-5.92 12.42 -1.2
-4.49 9.42 2.03
-10.95 22.97 -1.33
-4.33 9.09 2.33
-11.03 23.14 -0.45
-4.36 9.16 2.72
-10.92 23.13 0.45
-7.89 16.71 0.97
-3.6 7.62 -1.64
-7.48 15.84 1.53
-4.3 9.11 -1.6
-5.56 11.77 1.6
-5.52 11.69 -1.59
-6.08 12.88 2.26
-5.61 11.89 -1.15
-4.48 9.48 2.04
-10.92 23.12 -1.34
-4.29 9.08 2.32
-10.92 23.13 -0.45
-4.21 8.92 2.64
-10.83 23.12 0.45
-7.81 16.69 0.97
-3.57 7.63 -1.64
-7.47 15.94 1.54
-4.27 9.11 -1.59
-5.48 11.7 1.59
-5.44 11.62 -1.58
-6.06 12.93 2.26
-6.11 13.06 -1.26
-4.38 9.35 2.01
-7.04 15.03 -0.87
-4.23 9.02 2.3
-10.83 23.14 -0.45
-4.33 9.25 2.74
-10.73 23.12 0.44
-7.77 16.74 0.97
-3.54 7.64 -1.64
-7.37 15.89 1.53
-4.23 9.12 -1.59
-5.45 11.74 1.59
-5.42 11.68 -1.58
-5.45 11.74 -1.13
-4.34 9.35 2
-10.64 22.93 -1.32
-4.19 9.04 2.3
-10.74 23.14 -0.45
-4.38 9.45 2.79
-10.63 23.13 0.44
-7.74 16.84 0.97
-3.52 7.65 -1.64
-7.36 16.03 1.54
-4.2 9.13 -1.59
-5.38 11.72 1.58
-5.39 11.74 -1.59
-5.8 12.63 2.2
-5.94 12.93 -1.25
-4.31 9.38 2.01
-5.64 12.27 -0.71
-4.17 9.08 2.31
-10.64 23.15 -0.44
-4.28 9.31 2.74
-10.54 23.14 0.44
-7.71 16.94 0.98
-3.49 7.66 -1.64
-7.3 16.03 1.54
-4.16 9.15 -1.59
-5.35 11.75 1.59
-5.28 11.59 -1.56
-6.44 14.14 2.46
-8.14 17.88 -1.72
-4.28 9.39 2.01
-10.55 23.17 -1.33
-4.26 9.35 2.37
-10.54 23.16 -0.44
-4.11 9.02 2.66
-10.44 23.15 0.44
-10.4 23.06 1.33
-3.46 7.66 -1.63
-7.68 17.03 1.63
-4.13 9.16 -1.59
-5.34 11.84 1.59
-5.29 11.72 -1.58
-6.45 14.3 2.48
-5.46 12.1 -1.16
-4.23 9.38 2
-5.57 12.35 -0.71
-4.19 9.28 2.35
-10.44 23.15 -0.44
-4.02 8.91 2.62
-10.35 23.16 0.44
-10.31 23.06 1.32
-3.43 7.67 -1.63
-7.67 17.16 1.64
-4.1 9.17 -1.59
-6.87 15.37 2.07
-5.23 11.7 -1.57
-6.42 14.37 2.49
-5.19 11.61 -1.11
-4.19 9.38 2
-10.36 23.19 -1.33
-4.11 9.2 2.33
-10.35 23.16 -0.44
-3.96 8.87 2.6
-10.26 23.15 0.44
-10.22 23.06 1.32
-3.41 7.69 -1.64
-7.67 17.31 1.66
-4.07 9.17 -1.59
-6.88 15.54 2.09
-5.21 11.76 -1.58
-6.37 14.38 2.49
-5.34 12.06 -1.15
-4.92 11.09 2.36
-5.08 11.46 -0.66
-4.09 9.23 2.33
-10.27 23.17 -0.44
-4.01 9.06 2.65
-10.16 23.15 0.44
-10.13 23.07 1.32
-3.38 7.7 -1.63
-10.13 23.08 2.21
-4.03 9.19 -1.59
-6.83 15.56 2.09
-5.11 11.64 -1.56
-5.73 13.06 2.26
-5.13 11.69 -1.12
-6.25 14.24 3.02
-4 9.11 2.3
-10.17 23.17 -0.44
-3.91 8.9 2.6
-10.07 23.16 0.44
-10.02 23.06 1.32
-3.35 7.71 -1.63
-7.57 17.42 1.66
-4 9.2 -1.59
-6.77 15.57 2.08
-4.99 11.49 -1.54
-5.05 11.62 -1.11
-6.23 14.32 3.04
-10.07 23.18 -1.32
-3.91 9 2.27
-10.07 23.18 -0.44
-3.84 8.83 2.58
-9.98 23.17 0.44
-9.93 23.06 1.32
-3.32 7.7 -1.63
-7.5 17.42 1.66
-3.96 9.21 -1.59
-7.37 17.12 2.29
-4.95 11.51 -1.54
-6.41 14.89 2.57
-5.21 12.11 -1.15
-6.31 14.66 3.1
-9.98 23.18 -1.32
-3.75 8.72 2.19
-9.97 23.17 -0.44
-3.82 8.88 2.59
-9.88 23.17 0.44
-9.84 23.07 1.31
-3.29 7.72 -1.63
-7.44 17.45 1.66
-3.93 9.21 -1.59
-7.34 17.22 2.3
-4.91 11.52 -1.54
-6.69 15.69 2.7
-5.38 12.63 -1.2
-6.27 14.72 3.11
-9.89 23.2 -1.32
-3.72 8.73 2.19
-9.88 23.18 -0.44
-3.81 8.94 2.61
-9.78 23.17 0.44
-9.74 23.06 1.31
-3.26 7.73 -1.63
-9.74 23.06 2.19
-3.89 9.21 -1.58
-9.77 23.14 3.08
-4.96 11.75 -1.57
-9.77 23.14 3.98
-5.38 12.73 -1.21
-6.29 14.9 3.14
-9.8 23.2 -1.32
-3.68 8.72 2.19
-9.79 23.19 -0.44
-3.79 8.98 2.61
-9.69 23.17 0.44
-9.64 23.07 1.31
-3.24 7.74 -1.63
-9.64 23.06 2.19
-3.85 9.22 -1.58
-9.66 23.11 3.08
-4.92 11.76 -1.57
-9.68 23.15 3.97
-6.48 15.51 -1.47
-6.32 15.12 3.19
-5.33 12.74 -0.72
-3.64 8.7 2.18
-9.7 23.2 -0.44
-5.25 12.55 3.65
-9.59 23.17 0.44
-9.55 23.07 1.31
-3.21 7.74 -1.63
-9.55 23.07 2.18
-3.82 9.22 -1.58
-9.57 23.1 3.07
-4.86 11.75 -1.56
-9.59 23.17 3.97
-4.72 11.41 2.4
-5 12.09 -0.69
-3.57 8.63 2.16
-9.6 23.19 -0.44
-3.78 9.14 2.65
-9.5 23.17 0.44
-9.46 23.07 1.31
-3.18 7.75 -1.63
-9.46 23.07 2.18
-3.79 9.25 -1.58
-9.48 23.11 3.07
-4.82 11.75 -1.56
-9.49 23.14 3.96
-6.07 14.81 -1.4
-9.48 23.13 4.86
-7.86 19.17 -1.09
-3.52 8.57 2.14
-9.51 23.18 -0.44
-4.25 10.37 3
-9.41 23.17 0.44
-2.78 6.85 -1.71
-9.37 23.08 1.31
-3.15 7.76 -1.63
-9.37 23.07 2.18
-3.76 9.25 -1.58
-9.38 23.11 3.06
-4.75 11.7 -1.55
-9.39 23.14 3.95
-6.04 14.88 -1.41
-9.4 23.14 4.85
-4.95 12.2 -0.69
-3.49 8.59 2.14
-9.42 23.19 -0.44
-9.34 23.01 6.65
-9.31 23.15 0.44
-2.76 6.87 -1.71
-9.28 23.07 1.3
-3.12 7.77 -1.63
-9.28 23.07 2.18
-3.72 9.25 -1.58
-9.29 23.12 3.06
-4.75 11.83 -1.57
-9.3 23.13 3.95
-5.99 14.91 -1.41
-9.3 23.14 4.85
-7.71 19.17 -1.08
-3.46 8.61 2.14
-9.33 23.2 -0.44
-9.25 23.01 6.64
-9.22 23.15 0.43
-2.74 6.89 -1.71
-9.18 23.07 1.3
-3.1 7.78 -1.63
-9.19 23.08 2.17
-3.69 9.26 -1.58
-9.2 23.11 3.05
-4.7 11.81 -1.56
-9.2 23.11 3.94
-7.29 18.33 -1.73
-4.89 12.27 2.57
-7.63 19.16 -1.08
-3.43 8.61 2.14
-9.24 23.21 -0.44
-5.94 14.92 4.3
-9.12 23.15 0.43
-2.72 6.89 -1.71
-9.09 23.06 1.3
-3.07 7.79 -1.63
-9.09 23.07 2.17
-3.65 9.27 -1.58
-9.11 23.12 3.05
-4.62 11.73 -1.55
-9.11 23.12 3.94
-7.23 18.34 -1.72
-4.82 12.23 2.56
-7.55 19.16 -1.08
-3.38 8.58 2.13
-9.14 23.2 -0.44
-5.91 15 4.32
-9.03 23.15 0.43
-2.69 6.9 -1.71
-9 23.08 1.3
-3.04 7.78 -1.62
-9 23.08 2.17
-3.62 9.29 -1.58
-9.02 23.13 3.05
-4.63 11.85 -1.56
-9.02 23.12 3.93
-4.93 12.62 -1.19
-9.02 23.11 4.82
-7.48 19.16 -1.08
-3.33 8.52 2.11
-9.04 23.18 -0.43
-7.46 19.12 5.5
-8.94 23.15 0.43
-2.68 6.95 -1.72
-8.91 23.09 1.3
-3.01 7.79 -1.62
-8.91 23.07 2.16
-3.59 9.3 -1.58
-8.94 23.15 3.05
-4.64 12.03 -1.58
-8.93 23.13 3.93
-4.55 11.78 -1.1
-6.33 16.38 3.41
-7.4 19.17 -1.08
-3.29 8.52 2.11
-8.96 23.21 -0.43
-7.4 19.18 5.51
-8.84 23.14 0.43
-8.83 23.1 1.3
-2.98 7.81 -1.62
-8.82 23.08 2.16
-3.55 9.3 -1.58
-8.85 23.16 3.04
-4.45 11.64 -1.53
-8.84 23.14 3.92
-6.87 17.98 -1.68
-6.13 16.05 3.34
-7.33 19.17 -1.08
-3.26 8.53 2.11
-8.87 23.21 -0.43
-5.86 15.35 4.4
-8.75 23.15 0.43
-8.74 23.11 1.29
-2.95 7.82 -1.62
-8.73 23.09 2.16
-3.52 9.31 -1.58
-8.75 23.15 3.04
-4.5 11.91 -1.56
-8.76 23.16 3.92
-5.88 15.55 -1.45
-8.73 23.1 4.8
-3.25 8.59 2.12
-8.78 23.21 -0.43
-8.67 23.16 0.43
-8.65 23.11 1.29
-2.93 7.82 -1.62
-8.64 23.09 2.16
-3.49 9.32 -1.58
-8.66 23.15 3.03
-4.49 11.99 -1.57
-8.67 23.17 3.92
-4.48 11.98 -1.12
-8.65 23.12 4.8
-4.94 13.21 -0.74
-3.21 8.59 2.12
-8.68 23.2 -0.43
-3.74 10 2.86
-8.58 23.16 0.43
-8.57 23.13 1.29
-2.89 7.81 -1.62
-8.55 23.08 2.15
-3.46 9.33 -1.58
-8.57 23.15 3.03
-4.3 11.61 -1.52
-8.58 23.16 3.91
-4.42 11.93 -1.11
-4.58 12.36 2.56
-3.21 8.66 2.13
-8.59 23.2 -0.43
-3.65 9.84 2.81
-8.49 23.16 0.43
-8.48 23.15 1.29
-2.86 7.82 -1.62
-8.45 23.07 2.15
-3.43 9.35 -1.58
-8.48 23.14 3.03
-4.43 12.09 -1.58
-8.49 23.17 3.91
-4.16 11.36 -1.06
-4.52 12.35 2.56
-6.76 18.46 -1.03
-3.18 8.68 2.14
-8.5 23.21 -0.43
-3.59 9.81 2.8
-8.39 23.15 0.43
-8.4 23.17 1.29
-2.84 7.83 -1.62
-8.36 23.08 2.15
-3.39 9.34 -1.57
-8.38 23.13 3.02
-4.28 11.81 -1.54
-8.39 23.16 3.9
-4.3 11.87 -1.1
-8.39 23.14 4.78
-6.7 18.48 -1.03
-3.16 8.71 2.14
-8.41 23.22 -0.43
-3.54 9.77 2.78
-8.3 23.16 0.43
-8.31 23.18 1.29
-2.81 7.84 -1.62
-8.28 23.09 2.15
-3.35 9.33 -1.57
-8.29 23.11 3.02
-4.26 11.88 -1.55
-8.3 23.14 3.89
-6.51 18.16 -1.69
-3.31 9.24 1.91
-6.6 18.41 -1.03
-3.13 8.74 2.14
-8.33 23.22 -0.43
-3.51 9.79 2.79
-8.21 23.17 0.43
-8.22 23.18 1.29
-2.78 7.85 -1.62
-8.19 23.1 2.14
-3.32 9.35 -1.57
-8.2 23.12 3.01
-4.21 11.87 -1.55
-8.21 23.15 3.89
-6.49 18.3 -1.7
-7.16 20.21 -1.12
-3.13 8.83 2.16
-8.23 23.23 -0.43
-3.47 9.79 2.78
-8.13 23.17 0.43
-8.13 23.19 1.29
-2.75 7.84 -1.61
-8.1 23.1 2.14
-3.29 9.37 -1.57
-8.11 23.14 3.01
-4.12 11.76 -1.53
-8.11 23.13 3.88
-4.14 11.81 -1.1
-3.16 9.01 1.86
-7.14 20.36 -1.13
-3.11 8.87 2.17
-8.14 23.2 -0.43
-3.4 9.7 2.75
-8.04 23.17 0.43
-8.05 23.19 1.29
-2.72 7.85 -1.62
-8.01 23.09 2.14
-3.25 9.38 -1.57
-8.03 23.14 3.01
-4.08 11.76 -1.53
-8.03 23.14 3.88
-3.13 9.03 1.86
-7.32 21.1 -1.17
-3.11 8.98 2.19
-8.05 23.2 -0.43
-3.35 9.66 2.74
-7.94 23.16 0.43
-7.96 23.2 1.29
-2.7 7.86 -1.62
-7.92 23.08 2.14
-3.22 9.38 -1.57
-7.94 23.14 3
-4.08 11.88 -1.54
-7.94 23.14 3.87
-5 14.59 -1.35
-3.11 9.06 1.86
-7.24 21.1 -1.17
-3.1 9.02 2.2
-7.96 23.2 -0.43
-3.32 9.69 2.74
-7.86 23.17 0.43
-7.86 23.19 1.28
-2.67 7.87 -1.62
-7.83 23.09 2.13
-3.18 9.39 -1.57
-7.84 23.13 3
-4.12 12.14 -1.57
-7.85 23.15 3.87
-4.07 12.01 -1.11
-3.08 9.08 1.86
-7.22 21.28 -1.18
-3.15 9.3 2.27
-7.87 23.22 -0.43
-3.24 9.55 2.7
-7.77 23.17 0.43
-7.77 23.19 1.28
-2.64 7.88 -1.62
-7.75 23.11 2.13
-3.15 9.41 -1.57
-7.76 23.13 3
-4 11.92 -1.54
-7.77 23.16 3.87
-4.01 11.97 -1.1
-3.08 9.2 1.89
-4.86 14.48 -0.8
-3.24 9.67 2.36
-7.78 23.21 -0.43
-3.21 9.57 2.7
-7.68 23.17 0.43
-7.68 23.18 1.28
-2.61 7.87 -1.61
-7.66 23.11 2.13
-3.12 9.41 -1.57
-7.67 23.14 2.99
-3.98 12.02 -1.55
-7.67 23.17 3.87
-3.95 11.93 -1.1
-3.05 9.21 1.89
-7.2 21.75 -1.2
-5.47 16.52 4.02
-7.7 23.23 -0.43
-3.2 9.67 2.73
-7.59 23.18 0.43
-7.59 23.19 1.28
-2.58 7.88 -1.61
-7.57 23.1 2.13
-3.08 9.42 -1.57
-7.59 23.17 2.99
-3.85 11.75 -1.52
-5.44 16.61 2.77
-5.5 16.79 -1.55
-5.41 16.52 3.38
-4.28 13.07 -0.72
-7.6 23.19 -0.43
-3.25 9.91 2.79
-7.51 23.19 0.43
-7.51 23.18 1.28
-2.56 7.9 -1.61
-5.42 16.73 1.54
-3.05 9.41 -1.57
-5.39 16.62 2.15
-3.95 12.19 -1.57
-5.37 16.58 2.76
-3.77 11.62 -1.07
-5.36 16.54 3.38
-6.71 20.71 -1.14
-2.94 9.08 2.2
-7.52 23.2 -0.43
-3.14 9.69 2.73
-7.43 23.19 0.43
-7.42 23.18 1.28
-2.53 7.91 -1.61
-5.34 16.67 1.53
-3.01 9.4 -1.56
-5.32 16.62 2.14
-3.76 11.74 -1.51
-5.31 16.58 2.76
-5.06 15.79 -1.45
-2.93 9.17 1.87
-3.88 12.11 -0.67
-7.39 23.07 5.59
-7.43 23.21 -0.43
-3.11 9.72 2.73
-7.34 23.21 0.42
-5.29 16.74 0.92
-2.5 7.91 -1.61
-5.27 16.67 1.53
-2.97 9.4 -1.56
-5.25 16.62 2.14
-3.86 12.2 -1.57
-5.25 16.6 2.76
-4.8 15.16 -1.39
-2.91 9.19 1.87
-6.95 21.99 -1.21
-7.29 23.06 5.58
-7.34 23.2 -0.42
-3.09 9.78 2.75
-5.23 16.75 0.31
-5.22 16.69 0.92
-2.47 7.91 -1.61
-5.22 16.69 1.53
-2.94 9.41 -1.56
-5.2 16.64 2.14
-3.87 12.38 -1.59
-5.2 16.63 2.76
-4.38 14.03 -1.29
-2.89 9.23 1.88
-6.89 22.04 -1.21
-4.15 13.29 3.21
-6.92 22.14 -0.4
-3.06 9.8 2.75
-5.16 16.71 0.31
-5.15 16.7 0.92
-2.44 7.91 -1.61
-5.16 16.71 1.53
-2.9 9.41 -1.56
-5.15 16.68 2.14
-3.76 12.18 -1.57
-5.15 16.69 2.77
-4.69 15.19 -1.39
-2.86 9.27 1.89
-5.22 16.9 -0.93
-4.1 13.28 3.21
-5.18 16.77 -0.31
-3.01 9.74 2.73
-5.09 16.68 0.3
-5.1 16.72 0.92
-2.42 7.92 -1.61
-5.11 16.75 1.53
-2.87 9.4 -1.56
-5.1 16.74 2.15
-3.73 12.25 -1.57
-7.06 23.15 3.83
-5.15 16.9 -1.55
-3.95 12.95 2.63
-5.13 16.82 -0.92
-4.05 13.29 3.21
-5.1 16.73 -0.31
-2.95 9.68 2.71
-5.03 16.7 0.3
-5.04 16.74 0.92
-2.39 7.93 -1.61
-5.08 16.86 1.54
-2.83 9.4 -1.55
-3.52 11.67 1.5
-3.54 11.74 -1.51
-6.98 23.17 3.83
-5.08 16.87 -1.54
-3.92 13 2.64
-5.06 16.79 -0.92
-2.92 9.7 2.34
-5.04 16.73 -0.3
-2.94 9.76 2.73
-4.98 16.73 0.3
-4.99 16.79 0.92
-2.36 7.94 -1.61
-6.88 23.11 2.11
-2.8 9.41 -1.55
-6.86 23.06 2.95
-3.53 11.88 -1.52
-6.89 23.16 3.83
-5.02 16.86 -1.54
-3.96 13.31 2.7
-5 16.8 -0.92
-2.87 9.65 2.32
-4.98 16.73 -0.3
-2.95 9.92 2.77
-4.93 16.8 0.31
-6.8 23.17 1.27
-2.33 7.93 -1.61
-6.79 23.11 2.11
-2.76 9.41 -1.55
-6.77 23.06 2.95
-3.51 11.96 -1.53
-3.94 13.43 2.22
-4.95 16.86 -1.54
-3.91 13.31 2.7
-4.94 16.83 -0.92
-2.86 9.74 2.34
-4.92 16.75 -0.3
-2.91 9.9 2.77
-6.72 23.18 1.26
-2.3 7.94 -1.61
-6.7 23.11 2.1
-2.73 9.43 -1.55
-3.91 13.5 1.73
-3.46 11.94 -1.53
-3.88 13.4 2.21
-4.89 16.89 -1.54
-3.86 13.32 2.7
-4.88 16.83 -0.92
-2.8 9.65 2.32
-4.87 16.82 -0.31
-2.87 9.92 2.77
-6.64 23.23 0.42
-6.63 23.2 1.26
-2.27 7.95 -1.61
-6.61 23.12 2.1
-2.69 9.42 -1.55
-3.85 13.48 1.72
-3.38 11.82 -1.51
-4.83 16.91 -1.54
-3.81 13.34 2.7
-4.83 16.9 -0.92
-2.73 9.54 2.29
-4.84 16.93 -0.31
-2.83 9.92 2.76
-6.55 23.23 0.42
-6.54 23.18 1.26
-2.25 7.97 -1.61
-3.83 13.57 1.23
-2.66 9.43 -1.55
-3.8 13.47 1.72
-3.31 11.74 -1.5
-3.78 13.41 2.21
-4.78 16.96 -1.54
-3.78 13.38 2.7
-4.8 17.03 -0.93
-2.69 9.53 2.29
-6.55 23.21 -0.42
-3.51 12.43 3.46
-6.47 23.23 0.42
-3.8 13.66 0.74
-2.22 7.97 -1.61
-3.77 13.55 1.23
-2.63 9.45 -1.55
-3.75 13.48 1.72
-3.27 11.76 -1.5
-3.75 13.46 2.21
-3.53 12.66 -1.15
-3.54 12.7 2.56
-5.21 18.69 -1.02
-3.74 13.45 3.22
-6.46 23.21 -0.42
-6.43 23.08 6.42
-6.38 23.23 0.42
-3.74 13.61 0.74
-2.19 7.96 -1.61
-3.72 13.55 1.23
-2.6 9.46 -1.55
-3.71 13.51 1.72
-3.21 11.67 -1.49
-3.72 13.55 2.23
-4.67 17 -1.54
-6.39 23.26 -1.26
-3.7 13.46 3.22
-6.38 23.2 -0.42
-6.34 23.07 6.41
-3.73 13.76 0.25
-3.69 13.61 0.74
-2.16 7.97 -1.61
-3.68 13.57 1.23
-2.56 9.46 -1.55
-3.68 13.57 1.73
-3.22 11.87 -1.51
-3.23 11.91 1.95
-3.52 13.01 -1.18
-3.02 11.14 2.24
-6.31 23.3 -1.27
-2.61 9.63 2.3
-6.29 23.21 -0.42
-6.25 23.07 6.41
-3.67 13.71 0.25
-3.64 13.63 0.74
-2.13 7.98 -1.61
-3.64 13.61 1.23
-2.52 9.44 -1.55
-6.18 23.11 2.94
-3.14 11.76 -1.49
-3.17 11.86 1.94
-3.72 13.93 -1.26
-5.09 19.05 3.83
-3.98 14.91 -0.81
-2.57 9.63 2.3
-6.21 23.22 -0.42
-2.64 9.89 2.74
-3.61 13.71 0.25
-3.6 13.65 0.74
-2.1 7.98 -1.6
-3.6 13.68 1.24
-2.49 9.44 -1.55
-5.09 19.3 2.45
-3.07 11.65 1.91
-4.86 18.44 -1.67
-5.03 19.09 3.84
-3.3 12.52 -0.68
-2.55 9.67 2.31
-3.64 13.83 -0.25
-2.6 9.88 2.74
-3.57 13.72 0.25
-3.56 13.69 0.74
-2.08 7.99 -1.61
-6.01 23.13 2.09
-2.46 9.47 -1.55
-5.01 19.29 2.45
-3.07 11.81 -1.5
-3 11.53 1.89
-4.87 18.72 3.76
-3.24 12.48 -0.68
-2.51 9.65 2.3
-3.59 13.8 -0.25
-6 23.11 6.4
-3.52 13.75 0.25
-3.52 13.72 0.74
-2.04 7.97 -1.6
-5.93 23.13 2.09
-2.43 9.49 -1.55
-5 19.51 2.47
-3.07 11.99 -1.52
-3.02 11.79 1.93
-3.24 12.64 -1.14
-4.87 19.02 3.82
-3.57 13.92 -0.75
-5.91 23.09 5.5
-4.28 16.72 4.62
-3.48 13.78 0.25
-3.49 13.82 0.75
-2.02 7.99 -1.6
-5.84 23.13 2.09
-2.39 9.48 -1.55
-4.93 19.51 2.47
-3.18 12.59 -1.59
-2.93 11.61 1.9
-3.19 12.64 -1.14
-3.37 13.35 2.68
-3.17 12.54 -0.68
-5.83 23.09 5.5
-3.49 13.82 -0.25
-4.19 16.6 4.59
-3.44 13.84 0.25
-4.51 18.13 0.98
-1.99 8 -1.6
-5.76 23.14 2.09
-2.35 9.44 -1.54
-4.86 19.53 2.47
-2.94 11.81 -1.49
-4.75 19.08 3.11
-3.31 13.32 2.67
-3.47 13.96 -0.75
-5.75 23.11 5.5
-3.45 13.88 -0.25
-4.18 16.8 4.64
-5.69 23.21 0.42
-4.4 17.94 0.97
-1.96 8.01 -1.6
-4.23 17.26 1.55
-2.32 9.48 -1.55
-4.42 18.03 2.28
-2.9 11.81 -1.49
-4.64 18.94 3.09
-3.44 14.02 -1.26
-3.25 13.27 2.65
-3.42 13.96 -0.75
-2.37 9.65 2.29
-3.41 13.91 -0.25
-4.35 17.74 4.89
-5.6 23.21 0.42
-4.37 18.12 0.98
-1.93 8.01 -1.6
-4.16 17.23 1.55
-2.29 9.49 -1.55
-4.38 18.16 2.29
-2.86 11.86 -1.5
-5.6 23.2 3.78
-3.4 14.07 -1.27
-3.2 13.26 2.65
-3.39 14.03 -0.76
-2.32 9.6 2.28
-3.38 13.99 -0.25
-4.26 17.65 4.86
-5.52 23.21 0.42
-4.33 18.22 0.98
-1.9 8 -1.6
-4.09 17.19 1.55
-2.25 9.48 -1.54
-4.2 17.65 2.23
-5.51 23.18 3.77
-3.37 14.16 -1.27
-3.15 13.24 2.64
-3.36 14.11 -0.76
-2.29 9.64 2.29
-5.52 23.22 -0.42
-5.49 23.11 6.36
-5.44 23.25 0.42
-4.25 18.14 0.98
-1.87 8.01 -1.6
-4.06 17.35 1.56
-2.21 9.44 -1.54
-5.41 23.12 2.92
-2.95 12.59 -1.59
-4.55 19.46 3.17
-2.78 11.87 2.37
-5.44 23.25 -1.25
-2.26 9.66 2.29
-5.43 23.22 -0.42
-3.97 16.98 4.67
-5.35 23.21 0.42
-4.17 18.08 0.97
-1.85 8.02 -1.6
-4.01 17.41 1.56
-2.18 9.46 -1.54
-4.47 19.41 2.45
-2.97 12.87 -1.62
-5.34 23.2 3.77
-3.48 15.09 -1.35
-3.04 13.19 2.63
-5.36 23.24 -1.25
-2.23 9.68 2.29
-5.35 23.23 -0.42
-5.32 23.1 6.35
-4.03 17.74 0.32
-3.91 17.21 0.92
-1.82 8.03 -1.6
-3.99 17.6 1.58
-2.15 9.45 -1.54
-5.25 23.12 2.91
-2.78 12.25 -1.54
-5.26 23.19 3.77
-3.38 14.88 -1.33
-2.99 13.17 2.62
-5.27 23.24 -1.25
-3.66 16.14 3.82
-5.27 23.24 -0.42
-3.85 16.96 4.66
-4.02 17.98 0.32
-3.83 17.14 0.92
-1.79 8.03 -1.6
-3.91 17.49 1.57
-2.12 9.5 -1.54
-5.17 23.12 2.91
-2.72 12.16 -1.53
-5.18 23.2 3.76
-3.31 14.8 -1.33
-2.94 13.18 2.63
-3.4 15.21 -0.82
-3.61 16.15 3.82
-5.19 23.24 -0.42
-2.4 10.73 2.95
-3.92 17.85 0.32
-3.78 17.22 0.92
-1.76 8.03 -1.6
-5.09 23.16 2.07
-2.09 9.5 -1.54
-5.08 23.13 2.91
-2.66 12.12 -1.52
-5.09 23.19 3.76
-2.85 12.97 -1.16
-5.1 23.22 4.62
-5.11 23.25 -1.25
-3.55 16.16 3.82
-5.11 23.24 -0.42
-2.36 10.75 2.95
-3.84 17.8 0.32
-0.72 3.35 -0.79
-3.71 17.17 0.92
-1.73 8.03 -1.6
-3.77 17.47 1.56
-2.05 9.49 -1.54
-5 23.15 2.91
-2.61 12.07 -1.52
-5.01 23.2 3.76
-5.02 23.23 4.62
-3.15 14.59 -0.78
-3.5 16.21 3.83
-5.02 23.25 -0.42
-2.31 10.7 2.93
-3.78 17.8 0.32
-0.71 3.37 -0.79
-3.63 17.1 0.92
-1.71 8.04 -1.6
-4.91 23.13 2.07
-2.02 9.5 -1.54
-4.91 23.12 2.9
-2.6 12.22 -1.53
-4.93 23.21 3.76
-3.17 14.92 -1.33
-3.78 17.81 3.54
-4.94 23.28 -1.25
-4.91 23.14 5.46
-4.94 23.25 -0.41
-2.27 10.7 2.93
-4.84 23.21 0.41
-0.7 3.33 -0.79
-3.65 17.48 0.94
-1.68 8.04 -1.6
-3.63 17.39 1.55
-1.98 9.47 -1.53
-4.83 23.13 2.9
-4.85 23.23 3.76
-3.17 15.17 -1.36
-3.7 17.72 3.52
-3.62 17.37 -0.93
-3.39 16.22 3.83
-4.86 23.26 -0.41
-2.24 10.75 2.94
-4.76 23.22 0.41
-0.68 3.31 -0.78
-3.54 17.24 0.92
-1.65 8.04 -1.6
-4.75 23.16 2.07
-1.95 9.49 -1.53
-4.74 23.13 2.9
-2.47 12.05 -1.51
-4.77 23.25 3.76
-3.29 16.05 3.18
-3.09 15.05 -0.8
-3.36 16.38 3.86
-4.77 23.26 -0.41
-2.23 10.86 2.97
-4.68 23.24 0.41
-0.66 3.29 -0.77
-3.47 17.21 0.92
-1.62 8.03 -1.59
-4.66 23.16 2.07
-1.92 9.52 -1.54
-2.45 12.15 1.52
-2.38 11.84 -1.48
-4.68 23.23 3.75
-2.79 13.85 -1.24
-3.22 16 3.17
-4.68 23.25 -1.24
-3.32 16.47 3.88
-4.69 23.26 -0.41
-2.2 10.94 2.99
-4.6 23.23 0.41
-0.65 3.31 -0.78
-3.41 17.24 0.92
-1.59 8.05 -1.6
-4.58 23.14 2.06
-1.88 9.49 -1.53
-2.39 12.07 1.51
-2.39 12.08 -1.51
-4.6 23.24 3.75
-2.56 12.95 -1.16
-3.17 16.01 3.17
-4.61 23.27 -1.24
-2.32 11.7 2.75
-4.61 23.26 -0.41
-2.17 10.94 2.99
-4.51 23.22 0.41
-0.64 3.3 -0.78
-3.36 17.28 0.92
-1.57 8.05 -1.59
-4.5 23.15 2.06
-1.84 9.48 -1.53
-2.3 11.86 1.48
-2.39 12.32 -1.54
-2.34 12.03 1.94
-3.94 20.28 -1.81
-3.11 15.99 3.17
-4.52 23.26 -1.24
-2.29 11.78 2.77
-4.53 23.29 -0.41
-2.12 10.92 2.98
-4.43 23.22 0.41
-0.63 3.28 -0.77
-3.28 17.17 0.92
-1.54 8.06 -1.59
-2.25 11.81 1.05
-1.8 9.46 -1.53
-2.24 11.76 1.47
-2.27 11.91 -1.49
-2.31 12.13 1.96
-2.43 12.75 -1.14
-3.05 15.98 3.16
-4.44 23.27 -1.24
-3.15 16.52 3.88
-4.44 23.27 -0.41
-2.1 11.02 3.01
-4.35 23.23 0.41
-0.61 3.27 -0.77
-3.22 17.21 0.92
-1.51 8.06 -1.59
-2.2 11.75 1.05
-1.78 9.5 -1.53
-2.2 11.75 1.47
-2.23 11.9 -1.49
-2.26 12.06 1.94
-3.67 19.63 -1.75
-3 16.01 3.17
-3.67 19.59 -1.04
-2.24 11.95 2.81
-4.36 23.28 -0.41
-2.06 11.02 3
-4.27 23.24 0.41
-0.6 3.26 -0.77
-3.19 17.36 0.93
-1.48 8.06 -1.59
-2.15 11.73 1.04
-1.74 9.5 -1.53
-2.17 11.81 1.47
-2.19 11.95 -1.49
-2.21 12.06 1.94
-3.99 21.76 -1.94
-3.23 17.62 3.48
-4.13 22.49 -1.2
-2.05 11.16 2.62
-4.27 23.28 -0.41
-2.03 11.06 3.01
-4.18 23.25 0.41
-0.59 3.26 -0.77
-4.18 23.21 1.24
-1.45 8.05 -1.59
-4.17 23.15 2.06
-1.71 9.48 -1.53
-2.1 11.7 1.46
-2.14 11.92 -1.49
-2.17 12.03 1.94
-3.75 20.82 -1.85
-2.92 16.22 3.2
-2.6 14.46 -0.77
-2 11.1 2.6
-4.19 23.28 -0.41
-2.01 11.16 3.04
-4.1 23.24 0.41
-0.59 3.34 -0.78
-4.1 23.23 1.24
-1.42 8.06 -1.59
-4.09 23.15 2.06
-1.67 9.48 -1.52
-2.05 11.6 1.45
-2.09 11.82 -1.47
-2.13 12.07 1.94
-3.71 21.03 -1.87
-3.1 17.54 3.46
-3.98 22.52 -1.2
-1.95 11.07 2.6
-4.11 23.3 -0.41
-2.42 13.72 3.73
-4.02 23.26 0.41
-4.02 23.23 1.24
-1.39 8.06 -1.59
-4.01 23.16 2.06
-1.64 9.48 -1.52
-1.99 11.52 1.44
-2.05 11.85 -1.48
-2.09 12.1 1.94
-3.63 20.98 -1.86
-2.83 16.34 3.22
-3.69 21.34 -1.14
-1.9 10.97 2.57
-4.03 23.3 -0.41
-2.35 13.59 3.7
-3.94 23.26 0.41
-3.93 23.23 1.23
-1.37 8.07 -1.59
-3.92 23.17 2.06
-1.61 9.49 -1.53
-1.95 11.49 1.43
-2.03 11.97 -1.49
-2.04 12.07 1.94
-3.6 21.29 -1.89
-2.76 16.3 3.21
-2.57 15.19 -0.81
-1.84 10.89 2.55
-3.94 23.29 -0.41
-2.2 12.99 3.53
-3.86 23.28 0.41
-0.6 3.64 -0.85
-3.85 23.24 1.23
-1.34 8.06 -1.59
-3.84 23.18 2.06
-1.58 9.51 -1.53
