# .PCD v0.7 - Point Cloud Data file format
VERSION 0.7
FIELDS x y z
SIZE 4 4 4
TYPE F F F
COUNT 1 1 1
WIDTH 2933
HEIGHT 1
VIEWPOINT 0 0 0 1 0 0 0
POINTS 2933
DATA ascii
3.62 17.98 -0.32
5.86 29.14 7.96
1.38 6.73 -1.84
3.75 18.28 0.33
1.64 8.02 -1.89
3.75 18.29 0.98
2.02 9.83 -1.95
3.87 18.91 1.69
2.32 11.32 -1.83
3.76 18.37 2.3
3.08 15.03 -1.88
4.32 21.08 3.41
4.58 22.36 4.44
3.7 18.08 -0.97
4.43 21.6 5.09
3.72 18.15 -0.32
1.4 6.73 -1.84
5.25 25.19 0.45
1.67 8.01 -1.89
3.78 18.15 0.97
2.05 9.83 -1.95
4.31 20.66 1.85
2.36 11.3 -1.83
3.78 18.13 2.27
3.13 15 -1.88
4.4 21.1 3.41
3.73 17.87 -1.6
4.38 20.99 4.17
3.78 18.14 -0.97
4.66 22.35 5.27
3.71 17.78 -0.32
1.43 6.72 -1.84
3.83 18.07 0.32
1.7 8 -1.89
3.91 18.44 0.99
2.08 9.81 -1.95
3.87 18.26 1.63
2.4 11.29 -1.83
3.91 18.41 2.31
3.18 14.98 -1.88
4.47 21.09 3.41
3.79 17.85 -1.6
4.46 21 4.17
3.75 17.66 -0.95
4.75 22.36 5.28
3.83 18.03 -0.32
5 23.57 6.46
1.45 6.72 -1.84
3.9 18.09 0.32
1.73 8 -1.89
3.86 17.89 0.96
2.11 9.79 -1.95
3.93 18.2 1.63
2.44 11.29 -1.83
4.06 18.82 2.36
3.23 14.97 -1.88
4.55 21.06 3.41
3.91 18.1 -1.62
4.55 21.07 4.19
3.93 18.22 -0.98
4.88 22.62 5.34
3.81 17.66 -0.32
1.47 6.7 -1.84
3.86 17.6 0.31
1.75 7.99 -1.89
4.02 18.32 0.98
2.15 9.78 -1.95
4.04 18.42 1.65
2.48 11.29 -1.83
4.53 20.65 2.6
3.28 14.95 -1.88
5.52 25.17 4.08
4.04 18.42 -1.65
4.61 21.01 4.18
3.91 17.83 -0.96
4.95 22.57 5.33
4.06 18.52 -0.33
5.17 23.56 6.46
1.49 6.69 -1.84
3.92 17.55 0.31
1.78 7.99 -1.89
4.09 18.34 0.98
2.18 9.77 -1.95
4.2 18.84 1.69
2.51 11.26 -1.83
5.08 22.75 2.86
3.34 14.95 -1.88
4.79 21.48 3.49
3.97 17.78 -1.59
4.68 20.98 4.18
4.05 18.13 -0.97
4.11 18.43 -0.33
5.16 23.11 6.34
1.52 6.69 -1.84
4.15 18.3 0.33
1.8 7.96 -1.88
4.18 18.42 0.99
2.21 9.76 -1.95
4.27 18.82 1.69
2.55 11.26 -1.83
5.03 22.18 2.79
3.39 14.93 -1.88
5.69 25.09 4.08
4.14 18.24 -1.64
4.76 21 4.19
4.13 18.2 -0.98
4.05 17.84 -0.32
5.22 23 6.32
1.54 6.69 -1.84
4.24 18.4 0.33
1.83 7.95 -1.88
4.39 19.07 1.03
2.25 9.74 -1.94
4.54 19.7 1.77
2.59 11.25 -1.83
4.27 18.54 2.34
3.44 14.92 -1.88
7.63 33.1 5.38
4.1 17.78 -1.6
4.86 21.08 4.21
4.15 18.02 -0.97
5.05 21.92 5.19
4.13 17.9 -0.32
5.47 23.73 6.53
1.56 6.68 -1.84
4.25 18.14 0.33
1.86 7.95 -1.88
4.29 18.31 0.99
2.28 9.72 -1.94
4.52 19.28 1.73
2.63 11.24 -1.83
4.59 19.59 2.47
3.49 14.9 -1.88
4.91 20.96 3.41
4.17 17.8 -1.6
5.71 24.4 4.87
4.2 17.93 -0.97
5.12 21.86 5.18
4.33 18.47 -0.33
6.43 27.47 7.56
1.59 6.66 -1.84
4.38 18.42 0.33
1.89 7.95 -1.89
4.35 18.28 0.98
2.31 9.71 -1.94
4.51 18.96 1.71
2.67 11.22 -1.83
5.09 21.41 2.7
3.54 14.88 -1.88
4.98 20.95 3.41
4.23 17.8 -1.6
5.79 24.35 4.87
4.24 17.84 -0.96
4.93 20.74 4.92
4.27 17.94 -0.32
5.19 21.8 6.01
1.61 6.66 -1.83
4.33 17.91 0.32
1.92 7.94 -1.88
4.91 20.32 1.1
2.34 9.69 -1.94
4.44 18.37 1.65
2.71 11.2 -1.82
7.3 30.21 3.82
3.59 14.87 -1.88
5.69 23.56 3.84
4.28 17.71 -1.59
6.55 27.11 5.42
4.49 18.57 -1
6.56 27.15 6.45
5.07 20.97 -0.38
5.25 21.73 5.99
1.63 6.66 -1.84
4.39 17.9 0.32
1.94 7.91 -1.88
4.49 18.33 0.99
2.38 9.69 -1.94
4.54 18.52 1.67
2.74 11.19 -1.82
5.61 22.86 2.89
3.64 14.86 -1.88
5.77 23.55 3.84
4.43 18.08 -1.63
6.01 24.52 4.91
4.47 18.22 -0.98
6.32 25.78 6.13
4.44 18.12 -0.33
5.21 21.22 5.86
1.65 6.64 -1.83
4.53 18.18 0.33
1.97 7.9 -1.88
4.5 18.08 0.98
2.41 9.66 -1.94
4.65 18.67 1.68
2.78 11.18 -1.82
6.09 24.46 3.1
3.69 14.82 -1.88
6.08 24.41 3.98
4.45 17.89 -1.61
6.07 24.36 4.88
4.94 19.83 -1.07
6.02 24.2 5.76
6.21 24.95 -0.45
5.29 21.24 5.86
1.67 6.64 -1.83
4.53 17.97 0.32
1.99 7.9 -1.88
4.66 18.46 1
2.43 9.65 -1.93
4.68 18.56 1.67
2.82 11.18 -1.83
5.5 21.8 2.76
3.74 14.83 -1.88
4.94 19.57 3.2
4.57 18.11 -1.63
6.15 24.37 4.89
4.57 18.1 -0.98
6.14 24.35 5.8
4.49 17.8 -0.32
5.36 21.23 5.87
1.69 6.62 -1.83
4.62 18.06 0.33
2.02 7.89 -1.88
6.3 24.6 1.33
2.47 9.63 -1.93
4.73 18.48 1.67
2.86 11.17 -1.83
6.25 24.4 3.09
3.79 14.81 -1.88
5.16 20.17 3.3
4.76 18.6 -1.68
6.53 25.49 5.12
4.64 18.13 -0.98
4.55 17.76 -0.32
5.37 20.96 5.8
1.72 6.62 -1.83
4.67 17.96 0.32
2.04 7.87 -1.88
4.7 18.08 0.98
2.5 9.62 -1.93
4.87 18.76 1.7
2.9 11.15 -1.82
4.91 18.89 2.4
3.85 14.8 -1.88
5.49 21.12 3.46
4.86 18.72 -1.69
7.34 28.26 5.68
4.63 17.82 -0.96
5.19 19.98 4.77
4.85 18.68 -0.34
5.44 20.94 5.8
1.74 6.62 -1.83
4.85 18.39 0.33
2.07 7.84 -1.87
5.02 19.07 1.03
2.53 9.61 -1.93
4.8 18.22 1.65
2.93 11.14 -1.82
4.92 18.67 2.37
3.9 14.79 -1.88
5.15 19.56 3.2
4.8 18.23 -1.65
5.26 19.97 4.01
4.72 17.93 -0.97
4.93 18.7 4.46
4.78 18.14 -0.33
5.76 21.88 6.06
1.77 6.61 -1.83
5.05 18.87 0.34
2.1 7.84 -1.87
6.13 22.89 1.24
2.57 9.6 -1.93
4.88 18.23 1.65
2.98 11.13 -1.82
5.09 19.04 2.42
3.95 14.76 -1.88
5.37 20.08 3.29
4.91 18.35 -1.66
5.34 19.97 4.02
4.78 17.85 -0.97
5.08 18.97 4.53
4.69 17.54 -0.32
5.61 20.96 5.81
1.79 6.61 -1.84
5 18.45 0.33
2.12 7.83 -1.87
5.06 18.66 1.01
2.6 9.57 -1.93
5.19 19.12 1.73
3.02 11.11 -1.82
4.98 18.36 2.34
4 14.75 -1.88
5.44 20.03 3.29
5.02 18.5 -1.68
5.36 19.77 3.98
4.84 17.84 -0.97
5.08 18.74 4.48
4.79 17.64 -0.32
5.7 21.01 5.83
1.81 6.58 -1.83
5.05 18.39 0.33
2.15 7.82 -1.87
5.11 18.59 1.01
2.62 9.55 -1.93
5.16 18.78 1.7
3.05 11.09 -1.82
5.2 18.92 2.41
4.05 14.73 -1.88
5.34 19.45 3.19
5.04 18.35 -1.66
5.82 21.19 4.27
4.89 17.79 -0.97
5.14 18.73 4.48
4.89 17.8 -0.32
5.92 21.57 5.99
1.83 6.58 -1.83
5 17.97 0.33
2.17 7.8 -1.87
5.5 19.76 1.07
2.66 9.54 -1.93
6.46 23.2 2.11
3.08 11.07 -1.82
5.35 19.22 2.45
4.1 14.72 -1.88
5.46 19.6 3.22
5.07 18.2 -1.65
4.98 17.88 -0.97
5.25 18.84 4.51
4.95 17.79 -0.32
5.78 20.77 5.78
1.86 6.58 -1.83
5.09 18.02 0.33
2.2 7.77 -1.87
5.27 18.65 1.02
2.69 9.53 -1.92
5.22 18.48 1.68
3.12 11.06 -1.82
5.33 18.86 2.41
4.15 14.7 -1.88
5.43 19.21 3.16
5.21 18.43 -1.68
7.28 25.75 5.2
5.27 18.66 -1.02
5.35 18.94 4.54
5.06 17.92 -0.33
5.86 20.75 5.78
1.88 6.57 -1.83
5.17 18.04 0.33
2.22 7.77 -1.86
5.19 18.11 0.99
2.72 9.51 -1.92
6.02 21.03 1.91
3.17 11.05 -1.82
5.29 18.46 2.36
4.2 14.66 -1.87
6 20.95 3.45
5.11 17.84 -1.62
5.2 18.15 3.67
5.25 18.34 -1
5.38 18.79 4.51
5.07 17.7 -0.32
5.25 18.34 5.11
1.9 6.56 -1.83
5.21 17.97 0.33
2.25 7.76 -1.86
5.37 18.51 1.01
2.75 9.48 -1.92
5.29 18.23 1.66
3.2 11.04 -1.82
6.53 22.52 2.88
4.25 14.64 -1.87
6.02 20.77 3.42
5.12 17.67 -1.61
6.58 22.69 4.59
5.3 18.26 -1
5.45 18.8 4.52
5.28 18.21 -0.33
5.47 18.88 5.27
1.92 6.54 -1.83
5.29 18.02 0.33
2.28 7.75 -1.87
5.39 18.36 1
2.78 9.47 -1.92
5.31 18.09 1.65
3.24 11.02 -1.82
6.6 22.48 2.88
4.3 14.62 -1.87
5.38 18.31 3.02
5.31 18.08 -1.65
5.72 19.46 3.94
5.29 18 -0.98
5.3 18.04 4.34
6.29 21.41 -0.39
5.61 19.09 5.33
1.94 6.53 -1.83
6.24 20.99 0.38
2.3 7.74 -1.86
2.81 9.46 -1.92
5.71 19.21 1.75
3.27 11 -1.82
5.7 19.15 2.45
4.34 14.61 -1.87
5.47 18.39 3.04
5.7 19.18 -1.75
5.76 19.36 3.93
5.32 17.9 -0.98
5.41 18.18 4.38
5.32 17.9 -0.33
6.2 20.86 5.83
1.97 6.53 -1.83
5.47 18.16 0.33
2.32 7.72 -1.86
5.65 18.78 1.03
2.85 9.45 -1.92
7.02 23.32 2.13
3.31 10.99 -1.82
5.48 18.19 2.33
4.4 14.61 -1.87
5.64 18.71 3.1
5.52 18.33 -1.67
5.79 19.23 3.9
5.49 18.23 -1
5.51 18.31 4.41
5.39 17.9 -0.33
6.33 21.02 5.88
1.99 6.53 -1.83
5.51 18.07 0.33
2.35 7.71 -1.86
5.62 18.42 1.01
2.88 9.42 -1.91
8.52 27.9 2.55
3.35 10.98 -1.82
7.08 23.19 2.98
4.45 14.58 -1.87
5.83 19.11 3.16
5.48 17.96 -1.64
5.6 18.35 3.73
5.41 17.72 -0.97
5.8 19.01 4.59
5.54 18.14 -0.33
5.9 19.34 5.42
2.01 6.51 -1.83
5.54 17.92 0.33
2.38 7.7 -1.86
5.68 18.39 1.01
2.9 9.4 -1.91
7.13 23.09 2.11
3.39 10.99 -1.82
5.95 19.25 2.47
4.49 14.54 -1.87
7.19 23.27 3.86
5.77 18.67 -1.71
6.95 22.49 4.58
6.16 19.93 -1.09
5.74 18.56 4.49
5.61 18.17 -0.33
7.2 23.31 6.54
2.03 6.5 -1.83
6.21 19.86 0.36
2.4 7.68 -1.86
7.38 23.6 1.3
2.93 9.37 -1.91
6.53 20.88 1.91
3.43 10.97 -1.82
5.43 17.37 2.23
4.55 14.53 -1.87
6.1 19.51 3.24
5.74 18.34 -1.68
5.8 18.56 3.78
5.85 18.71 -1.03
7.15 22.87 5.53
5.65 18.07 -0.33
5.95 19.03 5.34
2.05 6.48 -1.82
5.77 18.22 0.33
2.43 7.67 -1.86
5.84 18.44 1.01
2.96 9.36 -1.91
5.85 18.48 1.7
3.47 10.96 -1.82
5.67 17.9 2.31
4.6 14.52 -1.87
7.33 23.15 3.85
5.8 18.33 -1.68
5.75 18.17 3.71
5.9 18.64 -1.02
7.27 22.96 5.56
5.93 18.73 -0.34
6.71 21.18 5.95
2.08 6.48 -1.82
5.89 18.38 0.34
2.45 7.65 -1.86
6.42 20.03 1.1
2.99 9.34 -1.91
5.87 18.32 1.68
3.51 10.94 -1.82
5.83 18.18 2.34
4.65 14.49 -1.87
7.41 23.13 3.85
5.92 18.46 -1.7
9.13 28.48 5.81
5.86 18.29 -1.01
7.33 22.87 5.55
5.94 18.55 -0.34
6.8 21.21 5.97
2.1 6.48 -1.82
5.79 17.85 0.33
2.48 7.65 -1.86
5.94 18.31 1.01
3.02 9.31 -1.9
5.95 18.35 1.69
3.55 10.93 -1.82
7.43 22.92 2.96
4.69 14.46 -1.87
6.59 20.33 3.39
5.9 18.19 -1.67
7.61 23.47 4.8
5.96 18.36 -1.01
4.26 13.12 3.19
6.04 18.63 -0.34
4.25 13.11 3.69
2.12 6.46 -1.82
5.9 17.97 0.33
2.51 7.64 -1.86
6.07 18.5 1.02
3.05 9.29 -1.9
7.7 23.45 2.16
3.59 10.93 -1.82
4.29 13.08 1.69
4.74 14.44 -1.87
4.3 13.09 2.18
6.2 18.88 -1.74
4.29 13.08 2.68
6.88 20.98 -1.16
4.3 13.09 3.18
6.28 19.14 -0.35
4.3 13.09 3.69
2.14 6.45 -1.82
4.33 13.03 0.24
2.53 7.63 -1.86
4.33 13.03 0.72
3.08 9.27 -1.9
4.33 13.03 1.2
3.63 10.93 -1.82
4.33 13.03 1.69
4.8 14.44 -1.87
4.33 13.05 2.18
4.33 13.04 -1.2
4.34 13.07 2.68
4.33 13.03 -0.72
4.35 13.1 3.19
4.33 13.03 -0.24
6.88 20.72 5.85
2.16 6.44 -1.82
4.36 12.98 0.24
2.56 7.62 -1.86
4.37 12.99 0.72
3.11 9.26 -1.9
4.38 13.03 1.2
3.67 10.92 -1.83
4.38 13.03 1.69
4.37 13 -1.68
4.39 13.07 2.18
4.36 12.98 -1.2
4.36 12.99 -0.72
6.97 20.76 5.06
4.37 12.99 -0.24
7 20.85 5.89
2.19 6.44 -1.82
4.41 12.98 0.24
2.58 7.59 -1.85
4.42 13.01 0.72
3.14 9.25 -1.9
3.71 10.93 -1.83
6.33 18.63 2.42
4.41 12.98 -1.68
6.62 19.48 3.26
4.41 12.97 -1.2
6.2 18.25 3.75
4.4 12.96 -0.72
7 20.6 5.02
4.42 13 -0.24
7.02 20.65 5.84
2.21 6.43 -1.82
6.22 18.12 0.33
2.61 7.6 -1.85
8.19 23.85 1.32
3.17 9.23 -1.9
7.89 22.98 2.13
3.76 10.94 -1.83
7.74 22.53 2.93
7.93 23.11 3.87
4.47 13.01 -1.2
7.22 21.04 4.32
7.1 20.68 5.05
6.27 18.26 -0.34
7.03 20.49 5.8
2.23 6.41 -1.82
6.25 17.99 0.33
2.63 7.58 -1.85
7.88 22.7 1.26
3.2 9.21 -1.9
7.99 23.02 2.13
3.81 10.96 -1.84
7.17 20.63 2.68
4.97 14.31 -1.86
8.05 23.17 3.88
6.67 19.22 -1.78
7.18 20.68 4.25
6.49 18.7 -1.04
7.15 20.6 5.03
6.25 18 -0.33
7.11 20.49 5.81
2.25 6.4 -1.82
6.41 18.24 0.34
2.66 7.58 -1.85
8.01 22.79 1.27
3.23 9.19 -1.89
6.51 18.53 1.72
3.85 10.96 -1.84
7.97 22.67 2.95
5.03 14.31 -1.86
6.13 17.44 2.93
6.89 19.59 -1.82
7.17 20.4 4.2
6.49 18.47 -1.03
7.22 20.54 5.03
6.29 17.89 -0.33
7.23 20.57 5.84
2.27 6.38 -1.81
7.29 20.52 0.38
2.69 7.55 -1.85
6.87 19.34 1.08
3.26 9.18 -1.89
6.58 18.5 1.72
3.89 10.95 -1.84
7.07 19.89 2.59
5.07 14.27 -1.86
8.13 22.88 3.85
6.85 19.27 -1.79
6.98 19.63 4.05
6.41 18.02 -1
7.01 19.72 4.83
6.49 18.25 -0.34
7.27 20.46 5.82
2.29 6.38 -1.82
9.51 26.45 0.49
2.71 7.54 -1.85
7.31 20.33 1.13
3.3 9.17 -1.89
6.68 18.57 1.73
3.94 10.96 -1.84
7.48 20.81 2.72
5.13 14.26 -1.86
8.24 22.91 3.86
6.88 19.15 -1.78
7.32 20.36 4.21
6.57 18.27 -1.02
7.73 21.49 5.27
6.61 18.4 -0.34
7.34 20.43 5.82
2.32 6.37 -1.82
9.61 26.45 0.49
2.73 7.51 -1.85
7.06 19.44 1.08
3.33 9.15 -1.89
6.68 18.38 1.71
3.98 10.96 -1.85
7.46 20.54 2.68
5.17 14.22 -1.86
8.24 22.69 3.82
7.17 19.73 -1.84
8.22 22.63 4.68
6.61 18.19 -1.01
7.78 21.41 5.26
6.57 18.09 -0.34
7.63 20.98 5.98
2.34 6.36 -1.82
8.26 22.49 0.42
2.76 7.51 -1.85
7.2 19.59 1.09
3.35 9.12 -1.89
7.41 20.17 1.88
4.03 10.98 -1.85
8.3 22.6 2.96
5.2 14.17 -1.85
8.31 22.63 3.82
7.43 20.24 -1.89
7.32 19.91 4.12
7.01 19.09 -1.07
7.88 21.45 5.28
6.61 18 -0.33
7.59 20.66 5.9
2.35 6.34 -1.81
7.06 19.01 0.35
2.78 7.49 -1.85
8.48 22.85 1.28
3.38 9.1 -1.89
8.21 22.12 2.06
4.08 10.99 -1.86
7.44 20.05 2.63
5.25 14.15 -1.85
8.39 22.59 3.82
6.92 18.63 -1.74
8.68 23.38 4.85
7 18.87 -1.05
8.06 21.72 5.35
6.78 18.26 -0.34
7.78 20.95 5.99
2.37 6.33 -1.81
7.1 18.95 0.35
2.8 7.48 -1.84
8.56 22.84 1.28
3.41 9.1 -1.89
7.32 19.52 1.82
4.12 10.99 -1.86
8.41 22.44 2.94
5.3 14.12 -1.85
8.43 22.49 3.8
7.47 19.91 -1.86
9.89 26.37 5.47
7.03 18.75 -1.05
8.47 22.58 5.57
6.91 18.42 -0.34
7.93 21.16 6.05
2.4 6.32 -1.81
8.55 22.57 0.42
2.82 7.46 -1.84
7.37 19.47 1.09
3.44 9.08 -1.89
10.76 28.4 2.66
4.17 11 -1.86
8.88 23.45 3.08
5.34 14.1 -1.85
7.52 19.85 3.36
7.11 18.76 -1.75
9.11 24.04 5
7.15 18.86 -1.06
8.55 22.56 5.57
7.16 18.89 -0.35
9.01 23.79 6.82
2.42 6.32 -1.81
8.84 23.07 0.43
2.85 7.44 -1.84
7.16 18.68 1.05
3.48 9.07 -1.89
7.31 19.08 1.79
4.22 11.01 -1.87
7.91 20.65 2.71
5.39 14.07 -1.85
10.11 26.39 4.48
7.5 19.58 -1.83
9.16 23.91 4.98
7.3 19.05 -1.07
8.59 22.43 5.55
7.14 18.64 -0.35
7.85 20.5 5.88
2.44 6.3 -1.81
7.64 19.74 0.37
2.88 7.43 -1.84
8.81 22.77 1.28
3.5 9.04 -1.89
10.57 27.3 2.56
4.26 11.01 -1.87
7.96 20.57 2.71
5.43 14.03 -1.85
7.22 18.65 -1.75
10.12 26.16 5.45
7.18 18.54 -1.04
8.38 21.65 5.36
7.12 18.41 -0.34
7.9 20.41 5.86
2.46 6.28 -1.81
8.99 23.01 0.43
2.9 7.42 -1.84
7.52 19.24 1.08
3.53 9.03 -1.88
7.57 19.36 1.82
4.31 11.02 -1.87
8.52 21.8 2.87
5.48 14.02 -1.85
7.54 19.29 -1.81
7.66 19.59 4.09
7.19 18.4 -1.04
8.4 21.49 5.33
7.09 18.13 -0.34
8.06 20.63 5.93
2.48 6.28 -1.81
7.81 19.78 0.37
2.92 7.39 -1.84
7.69 19.47 1.1
3.56 9.01 -1.88
8.99 22.75 2.14
4.35 11.01 -1.88
8.63 21.86 2.89
5.53 14 -1.85
7.67 19.43 -1.83
9.24 23.4 4.89
7.36 18.63 -1.05
10.11 25.59 6.35
7.64 19.34 -0.36
8.17 20.69 5.96
2.5 6.27 -1.81
7.68 19.24 0.36
2.94 7.38 -1.83
10.77 26.97 1.52
3.59 9 -1.88
7.49 18.75 1.77
4.4 11.02 -1.88
8.19 20.51 2.71
5.58 13.97 -1.85
11.11 27.84 4.75
7.79 19.53 -1.84
9.25 23.18 4.85
8.11 20.33 -1.15
10.36 25.94 6.45
7.73 19.38 -0.36
8.22 20.59 5.94
2.52 6.26 -1.81
9.32 23.11 0.43
2.97 7.35 -1.83
7.83 19.41 1.1
3.62 8.98 -1.88
9.14 22.68 2.14
4.45 11.03 -1.88
9.66 23.95 3.17
5.61 13.92 -1.84
11.12 27.57 4.71
7.98 19.8 -1.87
9.26 22.95 4.81
8.13 20.16 -1.14
10.44 25.89 6.44
7.53 18.67 -0.35
8.25 20.46 5.91
2.54 6.25 -1.81
9.42 23.13 0.44
3 7.35 -1.83
3.64 8.95 -1.88
8.71 21.38 2.02
4.5 11.05 -1.89
9.68 23.76 3.15
5.66 13.9 -1.84
9.32 22.89 3.91
8.22 20.18 -1.91
9.27 22.75 4.77
8.31 20.41 -1.15
10.55 25.9 6.46
7.54 18.52 -0.35
8.38 20.57 5.95
2.56 6.23 -1.8
9.44 22.94 0.43
3.02 7.34 -1.83
3.67 8.93 -1.88
8.77 21.31 2.02
4.55 11.06 -1.89
11.17 27.15 3.61
5.71 13.87 -1.84
11.93 29 4.97
8.18 19.89 -1.88
8.99 21.85 4.59
10.62 25.81 6.44
7.72 18.76 -0.35
9.49 23.06 6.68
2.58 6.22 -1.8
15.48 37.27 0.7
3.05 7.34 -1.83
10.73 25.84 1.47
3.7 8.91 -1.87
8.84 21.29 2.02
4.59 11.06 -1.9
11.23 27.04 3.59
5.75 13.85 -1.84
10.83 26.07 4.47
9.04 21.76 -2.06
9.32 22.45 4.72
7.94 19.12 -1.09
10.71 25.79 6.45
7.95 19.15 -0.36
9.55 23 6.67
2.6 6.21 -1.8
9.44 22.52 0.43
3.06 7.31 -1.83
9.38 22.36 1.27
3.73 8.89 -1.87
8.46 20.18 1.91
4.64 11.06 -1.9
11.31 26.96 3.59
5.8 13.83 -1.84
11.19 26.68 4.58
9.14 21.8 -2.07
9.12 21.74 4.58
8.52 20.32 -1.15
11.4 27.18 6.8
8.01 19.11 -0.36
9.88 23.57 6.85
2.63 6.21 -1.81
15.76 37.23 0.71
3.08 7.28 -1.83
8.59 20.29 1.15
3.76 8.87 -1.87
8.54 20.18 1.92
4.69 11.07 -1.9
10.84 25.62 3.42
5.84 13.79 -1.84
11.33 26.78 4.61
9.26 21.88 -2.08
10.56 24.94 5.26
8.25 19.48 -1.11
11.51 27.19 6.82
8.48 20.02 -0.38
2.64 6.19 -1.8
15.9 37.2 0.71
3.11 7.28 -1.83
8.69 20.33 1.16
3.78 8.85 -1.87
8.76 20.5 1.95
4.74 11.08 -1.91
11.55 27.04 3.61
5.88 13.76 -1.84
11.5 26.92 4.64
8.95 20.95 -1.99
8.33 19.48 -1.11
12.61 29.5 7.41
15.87 37.14 -0.7
9.56 22.36 6.52
2.66 6.17 -1.8
16.03 37.15 0.71
3.14 7.27 -1.83
8.79 20.36 1.16
3.82 8.84 -1.87
8.78 20.34 1.94
4.78 11.08 -1.91
11.61 26.9 3.6
5.93 13.74 -1.84
11.59 26.85 4.63
9.02 20.91 -1.99
9.29 21.54 4.56
16.01 37.11 -0.71
9.67 22.4 6.54
2.69 6.16 -1.8
3.16 7.26 -1.83
8.9 20.42 1.17
3.84 8.82 -1.87
8.92 20.47 1.95
4.83 11.08 -1.91
11.72 26.91 3.6
5.97 13.71 -1.84
11.76 26.99 4.66
9.39 21.56 -2.06
9.65 22.15 4.7
16.16 37.09 -0.71
10.39 23.84 6.97
2.71 6.16 -1.8
3.18 7.23 -1.82
3.88 8.82 -1.87
8.87 20.15 1.93
4.88 11.09 -1.92
8.87 20.16 2.7
6.02 13.67 -1.83
8.28 18.82 3.26
9.43 21.43 -2.05
11.36 25.8 5.48
8.81 20.01 -0.38
10.65 24.19 7.08
2.73 6.14 -1.8
21.01 47.28 0.9
3.21 7.22 -1.82
9.18 20.65 1.18
3.91 8.8 -1.87
11.67 26.27 2.51
4.94 11.11 -1.93
10.64 23.93 3.22
6.06 13.64 -1.83
9.45 21.27 -2.04
9.49 21.36 4.54
10.33 23.24 6.81
2.75 6.13 -1.8
21.12 47.09 0.9
3.23 7.21 -1.82
9.54 21.28 1.22
3.94 8.78 -1.87
11.75 26.19 2.51
4.99 11.12 -1.93
10.7 23.85 3.21
6.11 13.62 -1.83
13.1 29.21 5.07
9.52 21.22 -2.03
12 26.74 5.7
10.41 23.2 6.81
2.76 6.11 -1.8
21.24 46.91 0.9
3.26 7.2 -1.82
9.37 20.71 1.19
3.97 8.76 -1.87
11.87 26.21 2.52
5.04 11.12 -1.93
6.15 13.59 -1.83
13.26 29.29 5.09
9.6 21.19 -2.04
9.89 21.85 4.66
10.65 23.52 5.96
10.17 22.46 6.61
2.79 6.1 -1.8
21.34 46.71 0.9
3.28 7.18 -1.82
9.3 20.35 1.17
4 8.75 -1.87
9.46 20.7 1.99
5.08 11.12 -1.94
6.2 13.57 -1.83
10.81 23.67 4.12
9.63 21.08 -2.03
10.71 23.45 5.95
10.48 22.94 6.76
2.81 6.09 -1.8
9.56 20.74 0.4
3.3 7.17 -1.82
9.37 20.32 1.17
4.03 8.73 -1.87
9.52 20.65 1.99
5.13 11.13 -1.94
6.24 13.54 -1.83
10.71 23.23 4.05
9.82 21.3 -2.05
9.96 21.59 4.62
11.22 24.33 6.19
10.24 22.21 6.55
2.83 6.08 -1.8
9.95 21.39 0.41
3.32 7.14 -1.82
9.63 20.7 1.2
4.05 8.72 -1.87
9.59 20.6 1.99
5.18 11.13 -1.94
6.28 13.5 -1.83
10.77 23.15 4.04
9.76 20.98 -2.02
10.02 21.53 4.62
11.79 25.34 6.45
10.39 22.33 6.6
2.85 6.07 -1.8
9.99 21.29 0.41
3.35 7.14 -1.82
10.11 21.54 1.25
4.07 8.68 -1.86
12.27 26.14 2.53
5.23 11.15 -1.95
6.32 13.47 -1.83
10.8 23.01 4.03
9.94 21.17 -2.05
12.36 26.32 6.71
12.62 26.88 7.96
2.87 6.05 -1.79
10.03 21.19 0.41
3.38 7.13 -1.82
10.23 21.59 1.25
4.11 8.67 -1.86
10.08 21.29 2.06
5.28 11.16 -1.96
12.47 26.33 3.58
6.37 13.45 -1.83
10.9 23.01 4.03
10.07 21.26 -2.06
12.16 25.67 5.52
12.44 26.27 6.71
21.5 45.4 -0.88
2.89 6.04 -1.79
21.99 46.01 0.89
3.4 7.12 -1.82
10.21 21.36 1.24
4.14 8.66 -1.86
10.17 21.28 2.06
5.33 11.16 -1.96
12.54 26.24 3.57
6.42 13.44 -1.83
10.16 21.27 -2.06
11.43 23.93 5.15
12.59 26.34 6.74
21.71 45.44 -0.88
10.98 22.97 6.82
2.91 6.03 -1.79
22.14 45.9 0.89
3.42 7.09 -1.82
13.23 27.42 1.6
4.17 8.64 -1.87
12.35 25.6 2.49
5.38 11.16 -1.96
12.63 26.19 3.57
6.46 13.4 -1.83
12.77 26.47 4.66
10.18 21.11 -2.05
22.01 45.62 -0.88
13.17 27.31 8.12
2.93 6.02 -1.79
22.29 45.8 0.89
3.45 7.08 -1.82
10.51 21.59 1.26
4.19 8.62 -1.86
12.36 25.39 2.47
5.43 11.15 -1.96
6.51 13.37 -1.83
11.46 23.54 4.15
10.21 20.98 -2.04
11.53 23.68 5.12
22.3 45.82 -0.89
13.17 27.07 8.07
2.95 6.01 -1.79
22.47 45.77 0.89
3.47 7.07 -1.82
10.47 21.33 1.25
4.22 8.59 -1.86
10.49 21.37 2.08
5.46 11.12 -1.96
14.29 29.11 3.98
6.56 13.35 -1.83
11.61 23.64 4.17
10.22 20.81 -2.03
22.54 45.91 -0.89
13.35 27.18 8.11
2.97 5.99 -1.79
3.49 7.05 -1.82
10.63 21.45 1.25
4.25 8.58 -1.86
10.57 21.33 2.08
5.51 11.13 -1.97
14.59 29.46 4.04
6.6 13.32 -1.82
10.27 20.74 -2.02
11.73 23.69 5.14
11.61 23.44 6.04
12.24 24.71 7.39
2.98 5.97 -1.79
3.51 7.03 -1.82
4.28 8.56 -1.86
11.1 22.22 2.17
5.53 11.07 -1.96
6.64 13.29 -1.82
11.7 23.42 4.15
10.23 20.47 -2
12.19 24.4 7.31
3.01 5.97 -1.79
3.53 7.01 -1.81
12.73 25.26 1.48
4.31 8.55 -1.86
10.8 21.42 2.1
5.55 11.02 -1.95
6.68 13.26 -1.82
10.34 20.52 -2.01
14.25 28.27 7.31
12.61 25.01 7.51
3.03 5.96 -1.79
3.56 7.01 -1.81
12.13 23.87 1.4
4.33 8.52 -1.86
10.89 21.42 2.1
5.57 10.95 -1.95
6.73 13.24 -1.82
13.45 26.46 4.7
10.42 20.49 -2.01
11.51 22.65 5.87
13.04 25.65 7.71
3.05 5.94 -1.79
3.59 6.99 -1.81
12.24 23.86 1.41
4.36 8.5 -1.86
5.61 10.94 -1.95
6.78 13.22 -1.82
13.64 26.59 4.73
10.56 20.59 -2.02
18.94 36.93 -2.18
11.59 22.6 5.86
3.06 5.92 -1.79
3.61 6.97 -1.81
12.76 24.69 1.46
4.38 8.47 -1.85
5.64 10.9 -1.94
6.82 13.19 -1.82
13.73 26.56 4.74
10.64 20.58 -2.03
18.97 36.69 -2.16
11.67 22.58 5.87
3.08 5.91 -1.79
3.63 6.97 -1.81
12.93 24.79 1.47
4.41 8.46 -1.85
14.33 27.48 2.71
5.65 10.83 -1.93
6.86 13.16 -1.82
13.73 26.34 4.7
10.57 20.26 -2
23.59 45.25 -0.89
13.39 25.67 7.76
3.1 5.9 -1.79
3.65 6.94 -1.81
13.14 24.98 1.48
4.44 8.44 -1.85
5.68 10.8 -1.93
6.9 13.13 -1.82
12 22.82 4.08
10.67 20.29 -2.01
13.37 25.42 6.63
3.13 5.89 -1.79
3.68 6.93 -1.81
13.12 24.74 1.47
4.47 8.43 -1.85
5.71 10.76 -1.93
6.94 13.09 -1.82
14.92 28.14 5.05
10.75 20.27 -2.01
3.14 5.88 -1.79
3.7 6.92 -1.81
13.17 24.64 1.46
4.49 8.4 -1.85
14.38 26.89 2.67
5.74 10.74 -1.93
6.98 13.06 -1.82
14.72 27.53 4.94
10.77 20.14 -2
3.16 5.86 -1.78
3.72 6.9 -1.81
15.2 28.2 1.68
4.52 8.38 -1.85
16 29.68 2.95
5.77 10.7 -1.93
7.03 13.05 -1.82
14.51 26.91 4.84
10.82 20.06 -1.99
3.18 5.85 -1.78
25.09 46.15 0.92
3.75 6.89 -1.81
4.54 8.36 -1.85
14.44 26.57 2.65
5.8 10.66 -1.92
7.08 13.02 -1.82
14.63 26.92 4.85
10.84 19.93 -1.98
3.2 5.84 -1.78
25.2 45.96 0.91
3.77 6.87 -1.81
4.57 8.33 -1.85
14.43 26.33 2.63
5.83 10.63 -1.92
7.13 13 -1.82
14.8 27 4.88
10.98 20.04 -2
15.63 28.52 6.32
12.85 23.44 6.17
3.22 5.82 -1.78
25.34 45.84 0.91
3.79 6.85 -1.81
4.59 8.3 -1.84
14.39 26.03 2.6
5.87 10.61 -1.92
7.17 12.96 -1.82
10.86 19.65 -1.96
3.24 5.81 -1.78
25.45 45.65 0.91
3.81 6.83 -1.81
4.61 8.26 -1.84
5.9 10.57 -1.92
7.21 12.93 -1.82
17.05 30.58 5.54
10.83 19.42 -1.95
3.25 5.79 -1.78
25.58 45.52 0.91
3.84 6.83 -1.81
4.63 8.25 -1.84
5.92 10.54 -1.92
15.62 27.81 3.92
7.25 12.91 -1.82
10.87 19.35 -1.94
19.6 34.88 -2.1
3.28 5.78 -1.78
25.72 45.4 0.91
3.86 6.81 -1.81
4.66 8.23 -1.84
5.95 10.51 -1.91
14.38 25.38 3.58
7.3 12.88 -1.82
14.75 26.04 4.74
10.95 19.33 -1.94
15.58 27.51 6.15
19.72 34.81 -2.1
3.29 5.77 -1.78
25.85 45.24 0.91
3.88 6.78 -1.8
4.68 8.2 -1.83
5.98 10.47 -1.91
14.32 25.07 3.54
7.34 12.85 -1.82
10.76 18.84 -1.9
13.35 23.37 6.21
3.31 5.76 -1.78
25.99 45.13 0.91
3.9 6.76 -1.8
4.71 8.17 -1.83
6.01 10.44 -1.91
14.42 25.04 3.55
7.38 12.82 -1.82
10.76 18.68 -1.89
13.47 23.39 6.23
3.33 5.74 -1.78
26.12 45.01 0.91
3.92 6.75 -1.8
4.73 8.14 -1.83
15.43 26.58 2.69
6.04 10.41 -1.91
14.47 24.93 3.54
7.42 12.78 -1.81
10.75 18.51 -1.87
13.54 23.32 6.23
15.28 26.33 8.16
3.35 5.72 -1.78
26.3 44.95 0.91
3.95 6.74 -1.8
4.75 8.12 -1.83
6.07 10.38 -1.9
14.64 25.02 3.56
7.47 12.76 -1.82
10.87 18.57 -1.88
16.26 27.79 7.43
3.37 5.71 -1.78
3.97 6.73 -1.8
15.87 26.91 1.64
4.78 8.1 -1.83
6.1 10.34 -1.9
17.3 29.32 4.18
7.52 12.75 -1.82
17.64 29.9 5.5
11 18.64 -1.89
16.09 27.26 7.31
3.38 5.69 -1.77
3.98 6.7 -1.8
4.81 8.08 -1.83
6.13 10.31 -1.9
16.07 27.02 3.86
7.55 12.7 -1.81
16.23 27.29 5.03
11.06 18.6 -1.89
16.48 27.71 7.44
20.53 34.52 -0.7
3.41 5.68 -1.78
4.01 6.68 -1.8
16.44 27.43 1.68
4.83 8.06 -1.83
16.15 26.96 2.75
6.16 10.28 -1.9
7.59 12.66 -1.81
18.07 30.16 5.57
11.11 18.55 -1.89
21.13 35.26 -2.15
16.59 27.69 7.45
20.7 34.54 -0.7
3.42 5.67 -1.77
4.03 6.67 -1.8
4.86 8.04 -1.83
6.18 10.24 -1.89
17.74 29.38 4.21
7.63 12.64 -1.81
16.97 28.09 5.2
10.97 18.16 -1.86
16.58 27.45 6.23
21.2 35.1 -2.15
16.35 27.06 7.3
20.85 34.53 -0.7
3.43 5.64 -1.77
24.93 40.95 0.84
4.06 6.66 -1.8
4.88 8.01 -1.82
8.45 13.88 1.42
6.2 10.19 -1.89
17.91 29.41 4.23
7.67 12.6 -1.81
11.24 18.46 -1.89
16.64 27.33 6.22
8.32 13.66 3.69
21.08 34.62 -0.71
3.46 5.63 -1.77
17.74 28.9 0.59
4.07 6.63 -1.8
4.91 8 -1.82
16.83 27.43 2.82
6.23 10.15 -1.89
8.6 14.02 2.02
7.71 12.57 -1.81
8.84 14.4 2.68
11.31 18.43 -1.89
16.38 26.7 7.23
3.47 5.62 -1.77
4.09 6.61 -1.8
4.93 7.98 -1.82
17.68 28.6 2.94
6.26 10.12 -1.88
7.75 12.54 -1.81
16.86 27.27 5.08
11.41 18.45 -1.9
16.64 26.91 6.15
21.37 34.56 -2.13
3.49 5.61 -1.77
17.71 28.42 0.58
4.11 6.6 -1.79
4.95 7.95 -1.82
6.29 10.09 -1.88
16.99 27.27 3.94
7.79 12.5 -1.81
11.49 18.44 -1.9
21.53 34.55 -2.13
16.52 26.52 7.21
3.51 5.59 -1.77
17.17 27.34 0.56
4.13 6.58 -1.79
16.73 26.64 1.65
4.97 7.92 -1.82
9.11 14.51 1.5
6.31 10.05 -1.88
8.58 13.66 1.98
7.83 12.47 -1.81
9.01 14.34 2.68
11.51 18.33 -1.89
21.65 34.47 -2.13
8.48 13.51 3.68
9.25 14.73 4.66
3.52 5.57 -1.77
17.25 27.26 0.56
4.16 6.57 -1.79
17.25 27.26 1.69
5 7.91 -1.82
17.23 27.23 2.82
6.35 10.03 -1.88
8.62 13.62 1.98
7.88 12.45 -1.81
11.58 18.3 -1.89
17.29 27.32 -1.69
17.29 27.32 -0.56
3.54 5.56 -1.77
17.3 27.12 0.56
4.18 6.55 -1.79
17.32 27.15 1.69
5.03 7.88 -1.82
9.31 14.6 1.51
6.37 9.99 -1.88
17.42 27.32 3.98
7.93 12.43 -1.81
16.65 26.11 4.9
11.62 18.22 -1.89
17.34 27.19 -1.69
8.62 13.51 3.7
17.35 27.2 -0.56
3.56 5.54 -1.77
17.28 26.89 0.56
4.19 6.52 -1.79
17.06 26.55 1.65
5.04 7.85 -1.81
17.91 27.87 2.9
6.4 9.96 -1.87
17.49 27.22 3.97
7.97 12.4 -1.81
17.01 26.46 4.98
11.64 18.11 -1.88
17.53 27.28 6.3
17.42 27.1 -1.69
17.52 27.26 7.48
3.58 5.53 -1.77
4.22 6.51 -1.79
5.07 7.83 -1.81
8.82 13.61 1.42
6.43 9.93 -1.87
8.83 13.64 2
8 12.35 -1.81
11.69 18.05 -1.88
21.79 33.64 -2.1
17.2 26.56 7.31
21.57 33.3 -0.69
8.64 13.34 4.26
3.6 5.52 -1.77
17.42 26.69 0.56
4.25 6.51 -1.79
5.09 7.81 -1.81
6.46 9.9 -1.87
9.31 14.26 2.09
8.04 12.32 -1.81
8.96 13.74 2.6
11.76 18.02 -1.88
22.02 33.75 -2.11
21.36 32.74 -0.68
3.61 5.49 -1.76
4.27 6.49 -1.79
5.12 7.79 -1.81
8.56 13.01 1.36
6.49 9.87 -1.87
9.24 14.04 2.06
8.09 12.3 -1.81
9.04 13.75 2.61
11.75 17.87 -1.87
8.74 13.3 4.26
3.63 5.48 -1.76
4.29 6.47 -1.79
18.07 27.28 1.71
5.15 7.77 -1.81
8.91 13.46 1.41
6.52 9.83 -1.87
9.61 14.5 2.14
8.12 12.26 -1.81
9.09 13.73 2.61
11.82 17.84 -1.87
8.99 13.57 3.16
8.77 13.24 3.67
9.09 13.72 4.41
3.65 5.47 -1.76
17.21 25.78 0.54
4.3 6.44 -1.79
18.25 27.33 1.72
5.17 7.75 -1.81
8.78 13.15 1.38
6.55 9.81 -1.87
9.42 14.11 2.08
8.17 12.23 -1.81
9.03 13.52 2.57
11.9 17.83 -1.88
9.01 13.49 3.75
3.67 5.46 -1.76
18.08 26.88 0.57
4.32 6.43 -1.79
16.92 25.16 1.59
5.2 7.73 -1.81
17.49 26 2.74
6.57 9.77 -1.87
9.36 13.91 2.06
8.19 12.17 -1.8
18.44 27.41 5.23
11.99 17.83 -1.88
22.12 32.89 -2.08
9.18 13.64 4.41
3.69 5.44 -1.76
4.34 6.41 -1.79
5.21 7.69 -1.81
18.28 26.99 2.85
6.6 9.74 -1.86
9.29 13.72 2.03
8.23 12.14 -1.8
9.3 13.73 2.63
12.07 17.82 -1.88
22.16 32.71 -2.07
3.7 5.42 -1.76
4.37 6.4 -1.79
5.24 7.68 -1.81
9.1 13.34 1.41
6.63 9.72 -1.86
18.04 26.44 3.93
8.27 12.12 -1.8
9.34 13.69 2.62
12.14 17.79 -1.88
22.4 32.83 -2.08
9.94 14.56 4.72
3.71 5.4 -1.76
4.39 6.38 -1.79
9.49 13.8 0.88
5.26 7.65 -1.81
9.26 13.46 1.43
6.66 9.68 -1.86
9.78 14.21 2.12
8.32 12.1 -1.8
9.38 13.64 2.62
12.2 17.73 -1.88
22.55 32.79 -2.09
9.16 13.32 3.73
9.84 14.3 4.65
3.74 5.4 -1.76
4.4 6.35 -1.78
9.58 13.83 0.88
5.3 7.64 -1.81
6.69 9.66 -1.86
9.57 13.81 2.06
8.36 12.06 -1.8
9.38 13.54 2.61
12.25 17.69 -1.88
22.73 32.81 -2.09
9.14 13.19 3.7
23.26 33.57 -0.71
10.25 14.8 4.82
3.75 5.38 -1.76
4.42 6.33 -1.78
9.38 13.44 0.86
5.32 7.63 -1.81
6.72 9.63 -1.86
18.07 25.89 3.88
8.39 12.02 -1.8
9.8 14.04 2.71
12.32 17.65 -1.88
22.95 32.89 -2.1
9.81 14.06 4.59
3.77 5.36 -1.76
4.44 6.32 -1.78
9.43 13.42 0.86
5.33 7.59 -1.8
8.91 12.67 1.36
6.75 9.61 -1.86
9.67 13.76 2.06
8.43 11.99 -1.8
9.59 13.64 2.64
12.37 17.6 -1.88
23.07 32.81 -2.1
8.93 12.7 3.58
3.78 5.34 -1.75
4.46 6.3 -1.78
9.52 13.44 0.86
5.36 7.57 -1.8
6.78 9.56 -1.86
10.22 14.43 2.17
8.48 11.97 -1.8
9.03 12.75 2.48
12.42 17.53 -1.88
9.11 12.86 3.06
23.24 32.79 -2.11
9.79 13.82 4.54
3.8 5.32 -1.75
4.48 6.27 -1.78
5.38 7.54 -1.8
6.8 9.52 -1.85
10.35 14.5 2.19
8.52 11.94 -1.8
12.49 17.5 -1.88
9.52 13.34 3.19
23.34 32.7 -2.11
9.75 13.67 3.88
3.82 5.31 -1.75
4.49 6.24 -1.78
9.41 13.09 0.84
5.41 7.53 -1.8
6.83 9.49 -1.85
10.77 14.97 2.26
8.55 11.9 -1.8
9.18 12.77 2.49
12.55 17.45 -1.88
23.53 32.73 -2.11
23.73 32.99 -0.71
3.84 5.3 -1.75
4.51 6.23 -1.78
9.42 13.01 0.84
5.44 7.51 -1.8
6.85 9.46 -1.85
8.59 11.86 -1.8
12.6 17.4 -1.88
23.79 32.85 -2.13
10.47 14.46 4.12
23.3 32.17 10.64
3.86 5.28 -1.75
4.53 6.21 -1.78
9.48 13 0.84
5.45 7.47 -1.8
6.87 9.42 -1.85
10.26 14.06 2.14
8.63 11.83 -1.8
10.54 14.45 2.83
12.67 17.36 -1.88
10.28 14.09 3.39
10.48 14.36 4.1
10.76 14.74 4.89
3.86 5.25 -1.75
4.56 6.21 -1.78
9.3 12.65 0.82
5.48 7.45 -1.8
6.91 9.4 -1.85
10.24 13.93 2.12
8.69 11.82 -1.8
10.81 14.7 2.89
12.71 17.29 -1.88
9.41 12.81 3.09
23.69 32.22 -2.1
9.44 12.84 4.27
3.88 5.24 -1.75
4.57 6.18 -1.77
9.41 12.71 0.83
5.51 7.44 -1.8
10.16 13.72 1.49
6.93 9.36 -1.85
10.34 13.96 2.13
8.76 11.83 -1.81
10.91 14.73 2.9
12.77 17.24 -1.88
9.43 12.74 3.08
24.05 32.47 -2.12
9.52 12.86 4.29
3.9 5.23 -1.75
10.21 13.69 0.3
4.58 6.14 -1.77
10.22 13.7 0.9
5.53 7.41 -1.8
10.17 13.64 1.49
6.96 9.34 -1.84
10.2 13.67 2.09
8.84 11.84 -1.81
10.22 13.7 2.71
12.83 17.2 -1.88
9.86 13.21 3.2
24.16 32.39 -2.12
9.94 13.33 3.84
10.26 13.75 -0.3
10.21 13.69 4.58
3.92 5.22 -1.75
10.25 13.64 0.3
4.61 6.14 -1.77
10.25 13.64 0.89
5.55 7.38 -1.79
10.27 13.66 1.5
7 9.32 -1.85
10.25 13.64 2.09
8.89 11.84 -1.82
9.98 13.28 2.63
10.26 13.66 -1.49
10.06 13.39 3.26
10.27 13.67 -0.9
10.22 13.61 3.93
10.25 13.64 -0.3
10.06 13.39 4.49
3.94 5.2 -1.75
10.32 13.63 0.3
4.63 6.12 -1.77
5.56 7.35 -1.79
7.03 9.29 -1.85
8.97 11.85 -1.83
10.15 13.41 2.66
10.3 13.61 -1.49
10.32 13.64 -0.9
10.16 13.42 3.89
10.31 13.63 -0.3
10.23 13.52 4.54
3.95 5.18 -1.75
25.72 33.74 0.74
4.65 6.1 -1.77
10.24 13.44 0.89
5.59 7.33 -1.79
7.06 9.26 -1.84
9.53 12.5 1.93
9.04 11.86 -1.83
10.03 13.16 2.62
10.37 13.6 -1.5
10.78 14.15 3.46
9.61 12.6 3.66
9.43 12.37 4.17
3.97 5.16 -1.74
4.67 6.08 -1.77
10.23 13.32 0.88
5.6 7.3 -1.79
10.25 13.35 1.47
7.09 9.23 -1.84
10.66 13.89 2.15
9.12 11.88 -1.84
10.26 13.36 2.67
13.03 16.97 -1.87
9.8 12.76 3.13
24.85 32.37 -2.14
10.38 13.52 3.94
9.91 12.9 4.36
3.99 5.15 -1.75
4.68 6.05 -1.77
10.26 13.26 0.88
5.64 7.29 -1.79
25.75 33.3 3.68
7.11 9.2 -1.84
25.64 33.15 5.15
9.19 11.89 -1.84
10.24 13.24 2.65
13.08 16.92 -1.87
10.91 14.1 3.47
25.06 32.4 -2.15
9.73 12.57 3.67
4.01 5.14 -1.75
4.7 6.03 -1.76
10.29 13.21 0.88
5.65 7.25 -1.79
10.14 13.01 1.44
7.14 9.17 -1.84
9.56 12.28 1.91
9.25 11.88 -1.85
25.66 32.94 6.61
13.13 16.85 -1.87
9.92 12.74 3.14
24.99 32.08 -2.13
10.81 13.87 4.06
10.04 12.89 4.38
4.02 5.12 -1.74
4.73 6.02 -1.77
10.29 13.11 0.87
5.68 7.23 -1.79
10.22 13.03 1.45
7.17 9.14 -1.84
10.07 12.84 2
9.33 11.89 -1.86
25.21 32.12 6.47
13.18 16.8 -1.87
10.64 13.56 3.35
25.15 32.06 -2.14
10.9 13.89 4.08
10.34 13.17 4.49
4.03 5.1 -1.74
4.74 6 -1.76
10.34 13.08 0.87
5.69 7.2 -1.78
10.65 13.48 1.5
7.2 9.11 -1.84
10.63 13.46 2.11
9.41 11.91 -1.86
25.98 32.87 6.64
13.23 16.74 -1.87
10.49 13.27 3.29
25.08 31.74 -2.12
10.36 13.11 3.86
9.72 12.3 4.2
4.05 5.08 -1.74
4.77 5.99 -1.77
10.34 12.99 0.87
5.71 7.18 -1.78
7.22 9.07 -1.84
10.65 13.38 2.1
9.49 11.92 -1.87
10.17 12.78 2.59
13.28 16.69 -1.87
10.52 13.22 3.28
25.23 31.69 -2.12
11.33 14.24 4.2
9.63 12.1 4.14
4.07 5.07 -1.74
4.77 5.95 -1.76
10.89 13.58 0.91
5.74 7.16 -1.78
27.34 34.1 3.82
7.24 9.04 -1.83
11.24 14.02 2.21
9.56 11.92 -1.88
10.15 12.66 2.57
13.35 16.65 -1.87
24.27 30.27 7.54
25.39 31.67 -2.13
24.89 31.05 9.19
4.08 5.06 -1.74
4.79 5.93 -1.76
24.54 30.39 2.05
5.75 7.12 -1.78
11.76 14.56 1.64
7.28 9.01 -1.83
10.74 13.3 2.1
9.63 11.93 -1.88
11.46 14.19 2.89
13.4 16.6 -1.87
10.2 12.64 3.16
25.59 31.7 -2.14
9.94 12.32 3.65
27.54 34.1 -0.77
4.1 5.04 -1.74
4.81 5.92 -1.76
11.02 13.55 0.92
5.76 7.08 -1.77
7.3 8.98 -1.83
10.79 13.26 2.1
9.72 11.95 -1.89
11.49 14.13 2.88
13.46 16.55 -1.87
10.41 12.8 3.21
25.63 31.51 -2.13
10.03 12.34 3.67
4.11 5.02 -1.74
4.83 5.9 -1.76
5.79 7.07 -1.78
7.33 8.95 -1.83
9.79 11.96 -1.9
11.48 14.01 2.87
13.51 16.49 -1.87
9.88 12.07 3.03
25.75 31.44 -2.13
11.08 13.52 4.68
4.13 5.01 -1.74
4.84 5.87 -1.76
5.82 7.06 -1.78
11.91 14.44 1.64
7.35 8.91 -1.83
10.83 13.13 2.09
9.87 11.97 -1.9
11.53 13.97 2.87
13.56 16.44 -1.86
24.67 29.9 7.53
25.87 31.36 -2.13
10.9 13.22 3.96
4.15 4.99 -1.74
26.64 32.09 0.73
4.86 5.85 -1.76
11 13.25 0.9
5.84 7.03 -1.78
11.32 13.63 1.55
7.37 8.88 -1.83
10.75 12.95 2.07
9.95 11.99 -1.91
26.56 31.99 6.59
13.61 16.39 -1.86
25.89 31.18 -2.12
10.95 13.19 3.96
26.67 32.12 -0.73
10.45 12.59 4.38
4.17 4.98 -1.74
26.72 31.96 0.73
4.88 5.84 -1.76
11.9 14.23 0.97
5.86 7.01 -1.77
11.27 13.47 1.54
7.4 8.85 -1.83
26.71 31.95 5.11
10.02 11.99 -1.92
25.86 30.93 6.39
13.67 16.35 -1.86
25.01 29.91 7.58
26.15 31.28 -2.14
10.54 12.61 3.79
10.56 12.63 4.41
4.18 4.96 -1.74
26.86 31.88 0.73
4.9 5.82 -1.76
26.88 31.9 2.19
5.88 6.97 -1.77
10.52 12.48 1.43
7.42 8.81 -1.82
10.58 12.55 2.02
10.11 12 -1.93
12.09 14.35 2.97
13.74 16.3 -1.87
26.39 31.31 -2.15
11.03 13.09 3.95
26.41 31.34 -0.72
10.62 12.6 4.41
4.19 4.93 -1.73
4.92 5.79 -1.75
11.93 14.06 0.97
5.9 6.95 -1.77
10.25 12.08 1.39
7.44 8.77 -1.82
24.62 29.01 4.67
10.21 12.02 -1.94
12.17 14.34 2.98
13.79 16.24 -1.86
26.52 31.25 -2.15
11.07 13.04 3.95
26.55 31.29 -0.72
4.21 4.92 -1.74
4.94 5.78 -1.76
26.83 31.4 2.16
5.91 6.92 -1.77
10.59 12.4 1.43
7.46 8.73 -1.82
10.73 12.56 2.03
10.28 12.04 -1.94
26.91 31.5 6.56
13.83 16.18 -1.86
26.63 31.17 -2.15
11.18 13.08 3.97
10.75 12.58 4.43
4.22 4.91 -1.74
24.21 28.13 0.65
4.95 5.76 -1.75
24.37 28.33 1.96
5.94 6.9 -1.77
10.58 12.3 1.42
7.48 8.7 -1.82
25.1 29.18 4.73
10.35 12.03 -1.95
10.44 12.13 2.54
13.89 16.15 -1.86
26.07 30.3 7.77
26.72 31.05 -2.15
4.24 4.89 -1.74
4.96 5.73 -1.75
24.3 28.04 1.94
5.96 6.88 -1.77
10.73 12.38 1.43
7.51 8.66 -1.82
24.94 28.79 4.68
10.4 12 -1.95
25.57 29.51 6.18
13.94 16.09 -1.86
10.89 12.57 3.23
26.85 30.99 -2.15
10.78 12.44 3.8
4.26 4.88 -1.73
4.99 5.71 -1.75
24.27 27.81 1.93
5.98 6.85 -1.77
10.85 12.43 1.44
7.53 8.63 -1.81
11.94 13.68 2.23
10.41 11.93 -1.94
10.57 12.12 2.55
13.97 16 -1.86
10.93 12.53 3.23
27.12 31.08 -2.16
4.26 4.85 -1.73
5.01 5.7 -1.75
5.99 6.82 -1.76
24.86 28.29 3.3
7.55 8.6 -1.81
25.01 28.45 4.65
10.36 11.79 -1.93
10.63 12.1 2.55
14 15.93 -1.86
27.33 31.1 -2.17
4.28 4.83 -1.73
5.02 5.67 -1.75
24.5 27.68 1.94
6.03 6.81 -1.77
10.92 12.33 1.44
7.57 8.55 -1.81
12.04 13.61 2.23
10.38 11.73 -1.92
10.93 12.34 2.61
14.05 15.87 -1.85
27.55 31.13 -2.18
4.29 4.82 -1.73
5.03 5.65 -1.75
6.05 6.79 -1.77
25.14 28.21 3.31
7.6 8.53 -1.81
25.43 28.54 4.69
10.38 11.65 -1.92
11.59 13.01 2.76
14.04 15.76 -1.85
27.7 31.09 -2.18
10.7 12.01 4.31
4.31 4.81 -1.73
25.51 28.43 0.67
5.05 5.63 -1.75
6.06 6.76 -1.76
25.13 28.01 3.29
7.62 8.5 -1.81
10.39 11.58 -1.91
11.14 12.41 2.64
14.13 15.74 -1.85
27.88 31.07 -2.19
4.33 4.79 -1.73
25.39 28.09 0.66
5.07 5.61 -1.75
6.06 6.71 -1.76
25.31 28 3.3
7.65 8.46 -1.81
11.08 12.26 2.03
10.41 11.52 -1.91
25.26 27.94 5.97
14.22 15.73 -1.86
26.78 29.62 7.76
28.03 31.01 -2.19
25.24 27.92 10.09
4.34 4.76 -1.73
25.59 28.11 0.66
5.09 5.59 -1.75
25.98 28.54 2.02
6.1 6.7 -1.76
26.36 28.96 3.43
7.66 8.41 -1.8
10.44 11.47 -1.9
25.26 27.75 5.94
14.25 15.66 -1.85
28.07 30.84 -2.19
29.04 31.9 9.96
11.06 12.15 4.4
4.35 4.74 -1.72
25.62 27.95 0.66
5.11 5.57 -1.74
26.15 28.52 2.03
6.11 6.66 -1.76
12.24 13.35 1.58
7.64 8.33 -1.79
11.9 12.99 2.16
10.45 11.4 -1.9
10.95 11.95 2.57
14.38 15.69 -1.86
28.18 30.74 -2.19
11.2 12.22 4.44
4.37 4.73 -1.73
25.82 27.97 0.66
5.11 5.54 -1.74
6.12 6.63 -1.76
7.67 8.3 -1.79
10.47 11.34 -1.9
14.45 15.65 -1.86
28.29 30.65 -2.19
29.09 31.51 9.9
4.38 4.71 -1.72
25.94 27.9 0.66
5.14 5.53 -1.74
6.15 6.61 -1.76
7.68 8.27 -1.79
10.49 11.29 -1.89
14.61 15.72 -1.88
29.19 31.4 9.9
28.09 30.22 11.05
4.39 4.69 -1.72
5.16 5.51 -1.74
6.16 6.58 -1.75
7.71 8.24 -1.79
29.86 31.89 5.36
10.54 11.26 -1.89
14.69 15.69 -1.88
4.4 4.67 -1.72
5.18 5.49 -1.74
6.17 6.55 -1.75
7.74 8.21 -1.79
11.56 12.27 2.07
10.56 11.2 -1.89
11.42 12.11 2.64
14.77 15.67 -1.88
4.42 4.66 -1.72
26.7 28.14 0.68
5.19 5.47 -1.74
6.19 6.53 -1.75
7.74 8.16 -1.78
28.29 29.81 5.05
10.59 11.16 -1.89
11.42 12.03 2.63
14.8 15.6 -1.88
28.8 30.35 -2.19
4.43 4.64 -1.72
26.05 27.26 0.66
5.19 5.43 -1.73
6.22 6.5 -1.75
60.98 63.81 7.72
7.78 8.14 -1.78
27.92 29.22 4.96
10.61 11.1 -1.88
29.13 30.48 6.68
14.94 15.63 -1.89
28.81 30.15 -2.19
4.45 4.62 -1.72
26.35 27.38 0.66
5.21 5.41 -1.73
6.24 6.48 -1.75
7.79 8.09 -1.78
28.02 29.12 4.96
10.62 11.04 -1.88
11.7 12.16 2.67
15.02 15.61 -1.9
28.87 30 -2.18
28.13 29.23 9.37
4.46 4.6 -1.72
5.23 5.4 -1.74
28.16 29.06 2.12
6.23 6.43 -1.74
7.81 8.06 -1.78
28.12 29.02 4.96
10.65 10.99 -1.88
29.24 30.17 6.66
15.12 15.6 -1.9
4.47 4.58 -1.71
5.24 5.37 -1.73
28.28 28.98 2.12
6.26 6.41 -1.74
30.5 31.26 3.82
7.81 8.01 -1.77
28.23 28.92 4.96
10.67 10.94 -1.88
15.31 15.69 -1.92
28.92 29.63 -2.17
4.48 4.56 -1.71
5.26 5.36 -1.73
28.28 28.79 2.12
6.27 6.39 -1.74
7.85 7.99 -1.77
28.32 28.83 4.96
10.71 10.9 -1.88
15.37 15.65 -1.92
4.5 4.55 -1.71
5.27 5.32 -1.73
28.35 28.66 2.11
6.28 6.35 -1.74
7.86 7.95 -1.77
28.43 28.74 4.96
10.73 10.85 -1.87
15.47 15.64 -1.92
4.52 4.53 -1.71
5.28 5.3 -1.73
28.47 28.57 2.11
6.3 6.33 -1.74
7.87 7.9 -1.77
28.7 28.8 4.99
10.76 10.79 -1.87
15.57 15.62 -1.93
4.53 4.52 -1.71
5.3 5.29 -1.73
28.73 28.63 2.13
6.33 6.31 -1.74
7.9 7.87 -1.77
28.82 28.72 5
10.78 10.74 -1.87
15.71 15.66 -1.94
4.53 4.48 -1.71
35.18 34.82 0.86
5.32 5.27 -1.73
29.02 28.72 2.14
6.33 6.26 -1.73
7.93 7.85 -1.77
10.82 10.7 -1.87
15.73 15.56 -1.94
4.55 4.47 -1.71
5.34 5.24 -1.73
29.29 28.78 2.15
6.35 6.24 -1.73
7.93 7.79 -1.76
10.83 10.65 -1.86
15.81 15.54 -1.94
4.57 4.46 -1.71
5.34 5.21 -1.72
29.46 28.75 2.16
6.38 6.23 -1.73
7.97 7.77 -1.76
10.87 10.6 -1.86
15.96 15.58 -1.95
28.85 28.15 -2.11
4.58 4.44 -1.71
28.74 27.85 0.7
5.36 5.2 -1.72
6.38 6.19 -1.73
7.98 7.73 -1.76
10.88 10.55 -1.86
16.07 15.57 -1.96
28.87 27.98 -2.11
4.59 4.42 -1.71
28.92 27.84 0.7
5.38 5.18 -1.72
29.8 28.68 2.17
6.41 6.17 -1.73
29.17 28.08 3.54
7.99 7.69 -1.76
10.9 10.49 -1.86
16.23 15.62 -1.97
28.92 27.84 -2.1
4.6 4.4 -1.71
5.39 5.16 -1.72
6.43 6.15 -1.73
29.32 28.03 3.55
8.02 7.67 -1.76
61.39 58.7 10.43
10.93 10.45 -1.86
61.36 58.67 13.45
16.33 15.61 -1.98
28.99 27.72 -2.1
4.62 4.38 -1.71
61.46 58.34 1.48
5.41 5.13 -1.72
6.45 6.12 -1.73
8.03 7.62 -1.75
10.95 10.4 -1.85
61.44 58.33 13.42
16.44 15.61 -1.98
28.87 27.41 -2.09
4.62 4.36 -1.7
5.41 5.1 -1.72
6.46 6.09 -1.73
8.03 7.57 -1.75
10.98 10.35 -1.85
16.53 15.58 -1.99
28.97 27.31 -2.09
4.64 4.34 -1.7
5.43 5.09 -1.72
6.48 6.07 -1.73
8.06 7.54 -1.75
10.99 10.29 -1.85
16.59 15.53 -1.99
29.14 27.27 -2.09
61.31 57.4 19.39
4.66 4.33 -1.7
61.91 57.56 1.48
5.45 5.06 -1.72
6.49 6.03 -1.72
8.09 7.53 -1.75
11.02 10.25 -1.85
16.68 15.51 -1.99
29.23 27.17 -2.09
4.66 4.3 -1.7
5.47 5.05 -1.72
6.51 6.01 -1.72
8.09 7.47 -1.74
61.71 56.95 10.31
11.05 10.19 -1.85
61.71 56.95 13.3
16.7 15.41 -1.99
29.18 26.93 -2.08
4.67 4.28 -1.7
5.48 5.03 -1.72
6.53 5.98 -1.72
8.11 7.44 -1.74
61.78 56.62 10.29
11.08 10.15 -1.85
61.73 56.58 13.26
16.75 15.35 -1.99
4.69 4.27 -1.7
5.49 5 -1.71
6.56 5.97 -1.72
62.03 56.46 7.34
8.14 7.41 -1.74
11.1 10.1 -1.84
61.95 56.39 13.27
16.86 15.34 -1.99
61.68 56.14 19.25
4.71 4.25 -1.7
5.5 4.98 -1.71
6.57 5.94 -1.72
8.15 7.36 -1.74
11.11 10.04 -1.84
62.02 56.07 13.24
17.04 15.41 -2.01
4.72 4.24 -1.7
62.32 55.94 1.46
5.52 4.96 -1.71
6.57 5.9 -1.72
8.18 7.34 -1.74
11.15 10 -1.84
61.96 55.61 13.19
17.13 15.38 -2.01
61.78 55.45 19.16
4.72 4.21 -1.69
5.54 4.94 -1.71
6.58 5.87 -1.71
8.18 7.29 -1.73
61.85 55.13 10.17
11.16 9.95 -1.84
61.86 55.14 13.13
17.2 15.33 -2.02
28.75 25.63 -2.02
61.82 55.11 19.12
4.74 4.19 -1.69
5.55 4.92 -1.71
6.6 5.84 -1.71
8.17 7.23 -1.73
61.93 54.83 10.16
11.18 9.89 -1.83
61.9 54.8 13.09
17.24 15.27 -2.02
28.94 25.63 -2.03
61.9 54.8 19.09
4.76 4.18 -1.7
5.56 4.89 -1.71
6.62 5.82 -1.71
8.19 7.2 -1.73
11.2 9.85 -1.83
62.1 54.61 13.1
17.36 15.26 -2.02
4.77 4.16 -1.7
5.58 4.87 -1.71
6.64 5.79 -1.71
8.23 7.18 -1.73
11.23 9.8 -1.83
62.17 54.25 13.07
17.5 15.27 -2.03
29.02 25.32 -2.02
4.78 4.14 -1.69
5.6 4.85 -1.71
6.64 5.76 -1.71
8.25 7.15 -1.73
11.25 9.75 -1.83
62.21 53.92 13.04
17.57 15.23 -2.03
4.8 4.13 -1.7
5.61 4.82 -1.71
6.66 5.73 -1.71
8.27 7.11 -1.73
11.27 9.7 -1.83
62.29 53.6 13.02
17.61 15.15 -2.03
4.8 4.1 -1.69
5.63 4.81 -1.71
6.68 5.71 -1.71
8.3 7.09 -1.73
62.39 53.31 10.08
11.29 9.65 -1.82
62.35 53.28 12.99
15.43 13.18 -1.78
4.8 4.08 -1.69
5.63 4.78 -1.7
6.68 5.67 -1.7
62.49 53.03 7.17
8.29 7.03 -1.72
62.42 52.97 10.05
11.3 9.59 -1.82
62.43 52.98 12.97
15.54 13.18 -1.78
27.95 23.72 -1.92
4.82 4.06 -1.69
5.64 4.76 -1.7
6.7 5.64 -1.7
8.3 7 -1.72
11.29 9.52 -1.81
62.46 52.64 12.94
15.59 13.14 -1.78
28.02 23.61 -1.92
4.83 4.04 -1.69
5.66 4.73 -1.7
6.71 5.61 -1.7
8.33 6.96 -1.72
11.3 9.45 -1.81
62.5 52.28 12.91
15.63 13.08 -1.78
27.96 23.38 -1.91
4.83 4.02 -1.68
5.67 4.71 -1.7
6.72 5.58 -1.7
8.34 6.93 -1.72
11.34 9.42 -1.81
62.57 51.97 12.88
15.69 13.03 -1.78
28.03 23.29 -1.91
4.84 3.99 -1.68
5.69 4.69 -1.7
6.74 5.55 -1.7
8.37 6.9 -1.72
62.63 51.65 9.97
11.36 9.36 -1.81
62.65 51.67 12.86
15.8 13.03 -1.79
28.08 23.15 -1.91
4.87 3.98 -1.68
5.68 4.65 -1.7
6.76 5.54 -1.7
8.36 6.85 -1.71
62.73 51.36 9.95
11.37 9.31 -1.8
62.7 51.34 12.83
15.93 13.04 -1.8
4.88 3.97 -1.69
35.27 28.68 0.79
5.71 4.64 -1.7
35.34 28.73 2.39
6.77 5.5 -1.7
8.41 6.83 -1.72
62.81 51.06 9.94
11.38 9.25 -1.8
62.77 51.03 12.81
16.08 13.07 -1.81
35.37 28.75 -0.8
4.89 3.95 -1.68
35.47 28.63 0.8
5.72 4.61 -1.7
6.78 5.47 -1.69
8.41 6.79 -1.71
62.93 50.79 9.93
11.44 9.24 -1.81
62.81 50.7 12.78
16.22 13.09 -1.82
4.89 3.92 -1.68
30.54 24.48 0.68
5.73 4.59 -1.7
6.8 5.45 -1.69
21.81 17.48 2.45
8.42 6.75 -1.71
63 50.49 9.91
11.47 9.19 -1.8
62.86 50.38 12.76
16.35 13.1 -1.83
4.91 3.91 -1.68
29.24 23.26 0.65
5.74 4.57 -1.69
6.82 5.43 -1.69
8.42 6.7 -1.7
63.04 50.16 9.89
11.47 9.12 -1.8
62.91 50.06 12.73
16.51 13.13 -1.85
26.49 21.07 -0.59
4.92 3.89 -1.68
29.47 23.29 0.66
5.76 4.55 -1.69
6.83 5.4 -1.69
21.46 16.96 2.39
8.44 6.67 -1.7
62.98 49.77 9.86
62.98 49.77 12.71
16.72 13.21 -1.86
27.79 21.96 -1.86
4.93 3.87 -1.68
29.89 23.45 0.66
5.77 4.53 -1.69
6.84 5.37 -1.69
8.46 6.63 -1.7
63.06 49.48 9.84
63.02 49.45 12.69
16.83 13.21 -1.87
26.93 21.13 -1.79
4.95 3.85 -1.68
30.25 23.56 0.67
5.79 4.51 -1.69
6.85 5.34 -1.69
8.51 6.63 -1.71
63.18 49.2 9.83
63.08 49.13 12.66
16.95 13.2 -1.88
26.96 21 -1.79
4.95 3.82 -1.68
5.81 4.49 -1.69
6.86 5.3 -1.69
8.49 6.57 -1.7
63.19 48.86 9.81
63.16 48.83 12.64
17 13.14 -1.88
27.86 21.54 -1.85
4.96 3.81 -1.68
5.8 4.46 -1.69
6.89 5.29 -1.69
23.28 17.87 2.57
8.5 6.52 -1.7
63.21 48.52 9.78
11.54 8.86 -1.79
63.23 48.53 12.62
16.96 13.02 -1.87
27.86 21.38 -1.84
4.97 3.79 -1.68
5.81 4.43 -1.69
6.9 5.26 -1.69
8.52 6.49 -1.7
63.12 48.1 9.74
63.15 48.12 12.57
16.89 12.87 -1.86
28.03 21.36 -1.85
63.08 48.07 18.31
4.99 3.78 -1.68
57.07 43.17 1.25
5.82 4.41 -1.69
21.13 15.98 1.39
6.91 5.23 -1.68
63.24 47.85 6.94
8.53 6.45 -1.69
63.18 47.8 9.73
63.17 47.79 12.55
16.85 12.75 -1.85
28.49 21.55 -1.87
63.1 47.74 18.27
5 3.75 -1.68
5.85 4.39 -1.69
6.91 5.19 -1.68
63.33 47.57 6.93
8.57 6.43 -1.7
63.26 47.51 9.71
63.32 47.56 12.54
16.83 12.64 -1.84
28.58 21.47 -1.87
5.01 3.73 -1.67
5.86 4.37 -1.69
22.91 17.09 1.5
6.93 5.17 -1.68
23.04 17.19 2.51
8.56 6.39 -1.69
63.41 47.3 9.71
63.39 47.29 12.53
16.86 12.57 -1.84
28.88 21.55 -1.89
5.02 3.72 -1.67
5.87 4.34 -1.69
22.51 16.67 1.47
6.94 5.14 -1.68
8.56 6.34 -1.69
63.56 47.06 9.71
63.45 46.99 12.51
16.87 12.49 -1.84
29.11 21.55 -1.9
5.04 3.7 -1.68
5.87 4.32 -1.68
6.96 5.12 -1.68
8.59 6.31 -1.69
21.41 15.74 3.26
22.28 16.38 4.38
16.89 12.41 -1.83
5.05 3.69 -1.68
5.88 4.29 -1.68
6.97 5.09 -1.68
22.9 16.71 2.48
8.62 6.29 -1.69
21.82 15.92 3.32
11.6 8.46 -1.76
63.57 46.39 12.46
16.89 12.33 -1.83
22.94 16.74 5.52
63.52 46.35 18.15
5.06 3.67 -1.68
5.91 4.28 -1.68
21.65 15.69 1.4
6.98 5.05 -1.67
22.56 16.34 2.44
8.63 6.25 -1.69
22.54 16.33 3.42
63.64 46.1 12.45
16.9 12.25 -1.83
63.6 46.07 18.13
5.06 3.64 -1.67
5.92 4.26 -1.68
6.99 5.03 -1.67
8.66 6.23 -1.69
21.64 15.56 3.27
11.65 8.38 -1.76
63.7 45.81 12.43
16.93 12.18 -1.82
5.08 3.62 -1.67
5.93 4.23 -1.68
21.64 15.45 1.39
7 5 -1.67
8.64 6.17 -1.68
63.72 45.49 9.61
63.75 45.51 12.41
16.93 12.09 -1.82
5.09 3.61 -1.67
5.92 4.2 -1.68
7.01 4.97 -1.67
8.66 6.13 -1.68
22.54 15.97 4.38
16.93 11.99 -1.82
5.11 3.59 -1.67
5.93 4.17 -1.67
7.03 4.95 -1.67
22.68 15.95 2.43
8.68 6.1 -1.68
21.8 15.34 3.27
63.84 44.9 12.36
16.95 11.92 -1.81
5.12 3.57 -1.67
22.81 15.93 0.49
5.95 4.15 -1.67
22.73 15.87 1.45
7.03 4.91 -1.67
22.79 15.91 2.43
8.7 6.07 -1.68
21.86 15.26 3.27
11.61 8.1 -1.74
22.48 15.69 4.34
16.97 11.85 -1.81
22.68 15.83 5.38
22.84 15.94 -1.46
22.84 15.94 -0.49
5.13 3.55 -1.67
22.86 15.84 0.49
5.97 4.14 -1.68
22.85 15.84 1.46
7.05 4.89 -1.67
8.7 6.03 -1.68
21.7 15.04 4.18
16.97 11.76 -1.81
22.8 15.8 5.39
22.85 15.83 -1.46
63.91 44.29 17.95
22.87 15.85 -0.49
5.14 3.53 -1.67
5.98 4.11 -1.67
22.81 15.69 1.45
7.07 4.86 -1.67
22.79 15.68 2.42
8.71 5.99 -1.67
64.01 44.04 9.54
11.66 8.02 -1.74
22.47 15.46 4.32
16.99 11.69 -1.8
23.23 15.98 6.51
5.15 3.52 -1.67
5.98 4.09 -1.67
23.89 16.31 1.52
7.09 4.84 -1.67
22.41 15.3 2.37
8.72 5.95 -1.67
64.04 43.73 9.52
64.03 43.73 12.28
17 11.61 -1.8
22.2 15.16 5.23
5.17 3.5 -1.67
5.99 4.06 -1.67
7.1 4.81 -1.67
21.58 14.63 2.28
8.73 5.92 -1.67
22.82 15.47 3.39
23.12 15.68 4.42
16.99 11.52 -1.8
5.18 3.48 -1.67
6.01 4.04 -1.67
23.94 16.1 1.51
7.1 4.78 -1.66
23.22 15.62 2.45
8.75 5.89 -1.67
23.37 15.72 3.46
64.18 43.16 12.25
17 11.44 -1.79
5.18 3.46 -1.67
6.02 4.02 -1.67
7.11 4.75 -1.66
8.76 5.85 -1.67
64.19 42.85 9.48
64.2 42.86 12.23
17.01 11.36 -1.79
64.18 42.85 17.82
5.19 3.44 -1.67
6.03 4 -1.67
7.13 4.73 -1.66
8.79 5.82 -1.67
22.51 14.91 3.31
64.25 42.56 12.21
17.03 11.28 -1.79
22.97 15.22 5.36
64.18 42.51 17.77
5.21 3.43 -1.67
6.04 3.97 -1.67
7.15 4.7 -1.66
64.43 42.36 6.75
8.8 5.78 -1.67
22.53 14.82 3.31
23.63 15.54 4.48
17.03 11.2 -1.78
5.23 3.41 -1.67
6.05 3.95 -1.67
7.15 4.67 -1.66
8.82 5.75 -1.67
23.22 15.15 3.4
11.69 7.63 -1.71
17.06 11.13 -1.78
5.23 3.39 -1.67
6.07 3.93 -1.67
63.36 41.03 3.96
7.15 4.63 -1.66
8.84 5.72 -1.67
24.06 15.58 3.52
11.72 7.59 -1.71
22.9 14.83 4.32
17.08 11.06 -1.78
5.24 3.37 -1.67
6.08 3.91 -1.67
7.18 4.61 -1.66
8.84 5.69 -1.67
23.39 15.04 3.41
11.74 7.55 -1.71
17.08 10.98 -1.78
5.25 3.35 -1.67
6.09 3.89 -1.67
7.19 4.59 -1.66
8.85 5.65 -1.66
64.41 41.1 9.38
11.77 7.51 -1.71
22.94 14.64 4.31
17.1 10.91 -1.78
5.27 3.34 -1.67
6.09 3.86 -1.66
63.61 40.26 3.95
7.2 4.56 -1.66
64.48 40.81 6.68
8.87 5.61 -1.66
64.43 40.78 9.36
11.8 7.47 -1.71
64.52 40.83 12.09
17.13 10.84 -1.77
64.39 40.75 17.59
5.29 3.32 -1.67
6.11 3.84 -1.67
63.53 39.91 3.93
7.21 4.53 -1.66
22.82 14.34 2.36
8.89 5.58 -1.66
23.39 14.69 3.39
11.82 7.43 -1.71
23.61 14.83 4.42
17.13 10.76 -1.77
5.3 3.3 -1.67
6.13 3.82 -1.67
7.22 4.5 -1.65
8.89 5.54 -1.66
24.08 15 4.49
17.15 10.69 -1.77
29.02 18.09 -1.79
5.3 3.28 -1.67
6.14 3.8 -1.67
7.24 4.48 -1.65
8.91 5.51 -1.66
24.05 14.88 4.48
17.07 10.56 -1.76
29.14 18.02 -1.8
5.32 3.26 -1.67
6.16 3.78 -1.67
63.72 39.09 3.92
7.27 4.46 -1.66
8.9 5.46 -1.65
11.84 7.26 -1.71
23.7 14.54 4.4
17.1 10.49 -1.76
29.38 18.02 -1.81
5.33 3.24 -1.67
6.16 3.75 -1.66
7.3 4.44 -1.66
8.93 5.44 -1.66
17.12 10.42 -1.75
29.37 17.88 -1.8
5.34 3.23 -1.67
6.17 3.73 -1.67
63.75 38.52 3.9
7.29 4.41 -1.66
8.94 5.4 -1.65
11.86 7.17 -1.7
17.13 10.35 -1.75
29.46 17.8 -1.8
5.35 3.21 -1.67
6.19 3.71 -1.67
63.88 38.3 3.9
7.29 4.37 -1.65
8.96 5.37 -1.66
11.86 7.11 -1.7
17.2 10.31 -1.75
29.56 17.72 -1.81
5.35 3.18 -1.67
6.21 3.69 -1.67
63.95 38.03 3.9
7.31 4.35 -1.65
8.95 5.32 -1.65
11.87 7.06 -1.7
17.2 10.23 -1.75
29.61 17.61 -1.81
5.37 3.17 -1.67
6.21 3.66 -1.66
63.97 37.75 3.89
7.32 4.32 -1.65
8.96 5.29 -1.65
11.85 6.99 -1.69
29.65 17.5 -1.8
5.38 3.15 -1.67
6.22 3.64 -1.66
64.06 37.48 3.89
7.34 4.3 -1.65
8.98 5.25 -1.65
71.52 41.84 10.17
11.88 6.95 -1.69
71.53 41.85 13.13
29.72 17.39 -1.8
5.39 3.13 -1.67
6.24 3.62 -1.66
64.07 37.19 3.88
7.35 4.27 -1.65
8.98 5.22 -1.65
11.9 6.91 -1.69
29.79 17.29 -1.81
5.41 3.12 -1.67
6.25 3.6 -1.66
64.09 36.91 3.88
7.35 4.23 -1.65
9.01 5.19 -1.65
11.93 6.87 -1.69
5.41 3.09 -1.67
6.26 3.58 -1.67
64.15 36.64 3.87
7.38 4.21 -1.65
9.01 5.15 -1.64
11.95 6.83 -1.69
17.21 9.83 -1.73
5.42 3.07 -1.67
6.28 3.56 -1.67
64.2 36.37 3.87
7.39 4.19 -1.65
9.02 5.11 -1.64
11.97 6.78 -1.69
17.18 9.73 -1.73
5.44 3.05 -1.67
6.28 3.53 -1.66
64.24 36.09 3.86
7.41 4.16 -1.65
9.03 5.07 -1.64
11.94 6.71 -1.68
17.15 9.63 -1.72
5.45 3.04 -1.67
6.29 3.51 -1.66
64.27 35.83 3.86
7.41 4.13 -1.65
9.05 5.04 -1.64
12.02 6.7 -1.69
17.17 9.57 -1.72
5.46 3.02 -1.67
6.31 3.49 -1.66
64.36 35.58 3.85
7.42 4.1 -1.65
9.06 5.01 -1.64
17.17 9.49 -1.72
5.46 2.99 -1.67
6.33 3.47 -1.67
64.37 35.29 3.85
7.43 4.07 -1.65
9.08 4.98 -1.64
12.01 6.58 -1.68
17.15 9.4 -1.71
28.48 15.61 -1.7
5.47 2.98 -1.67
6.33 3.44 -1.66
64.42 35.02 3.84
7.45 4.05 -1.65
9.09 4.94 -1.64
12.03 6.54 -1.68
17.15 9.32 -1.71
5.49 2.96 -1.67
56.15 30.3 1.11
6.34 3.42 -1.66
64.49 34.8 3.84
7.46 4.02 -1.65
9.09 4.91 -1.64
17.15 9.25 -1.7
5.5 2.94 -1.67
56.59 30.27 1.12
6.35 3.4 -1.66
64.51 34.51 3.83
7.47 4 -1.65
9.11 4.87 -1.64
11.96 6.4 -1.67
17.21 9.21 -1.71
5.51 2.92 -1.67
6.37 3.38 -1.66
64.56 34.25 3.83
7.47 3.97 -1.64
9.13 4.85 -1.64
11.98 6.36 -1.67
5.51 2.9 -1.67
6.38 3.35 -1.66
64.68 34.02 3.83
7.49 3.94 -1.64
9.14 4.81 -1.64
12 6.31 -1.67
5.52 2.88 -1.67
6.4 3.33 -1.67
64.68 33.71 3.82
7.51 3.91 -1.65
9.15 4.77 -1.63
12.03 6.27 -1.67
5.54 2.86 -1.67
6.39 3.3 -1.66
64.75 33.46 3.82
7.52 3.89 -1.65
9.16 4.73 -1.63
12.03 6.21 -1.66
5.55 2.85 -1.67
6.41 3.28 -1.66
64.76 33.21 3.81
7.53 3.86 -1.65
9.16 4.7 -1.63
12.02 6.16 -1.66
5.56 2.83 -1.67
