# .PCD v0.7 - Point Cloud Data file format
VERSION 0.7
FIELDS x y z
SIZE 4 4 4
TYPE F F F
COUNT 1 1 1
WIDTH 2801
HEIGHT 1
VIEWPOINT 0 0 0 1 0 0 0
POINTS 2801
DATA ascii
8.99 -6.39 -1.35
11.51 -8.19 -1.24
17.47 -12.43 -1.12
5.04 -3.61 -1.66
38.31 -27.45 0.82
5.81 -4.16 -1.65
6.5 -4.66 -1.56
7.32 -5.24 -1.43
8.96 -6.42 -1.35
11.47 -8.22 -1.23
17.43 -12.49 -1.12
5.03 -3.63 -1.66
37.93 -27.39 0.82
5.81 -4.19 -1.65
37.8 -27.29 2.44
6.47 -4.67 -1.55
7.3 -5.27 -1.43
8.92 -6.44 -1.35
11.45 -8.26 -1.24
17.39 -12.56 -1.12
5.02 -3.65 -1.66
37.8 -27.49 0.82
5.79 -4.21 -1.65
37.52 -27.29 2.43
6.41 -4.66 -1.54
37.73 -27.45 4.08
7.28 -5.3 -1.43
8.89 -6.47 -1.35
11.4 -8.29 -1.23
17.39 -12.65 -1.13
5 -3.66 -1.66
37.78 -27.66 0.82
5.78 -4.23 -1.65
37.29 -27.3 2.42
6.37 -4.67 -1.54
37.49 -27.45 4.06
7.26 -5.32 -1.43
8.87 -6.49 -1.35
11.38 -8.33 -1.23
17.37 -12.72 -1.13
28.39 -20.79 -0.61
4.99 -3.68 -1.66
5.77 -4.25 -1.65
37.06 -27.33 2.41
6.33 -4.67 -1.53
37.23 -27.46 4.05
7.24 -5.34 -1.42
8.85 -6.53 -1.35
11.33 -8.36 -1.23
17.33 -12.78 -1.13
28.21 -20.81 -0.61
4.99 -3.71 -1.66
5.75 -4.27 -1.65
6.3 -4.68 -1.53
7.22 -5.36 -1.42
8.82 -6.55 -1.35
11.31 -8.4 -1.23
17.32 -12.87 -1.13
28.03 -20.82 -0.61
4.98 -3.73 -1.67
5.74 -4.29 -1.65
6.26 -4.68 -1.52
7.19 -5.38 -1.42
8.78 -6.57 -1.35
11.27 -8.44 -1.23
17.32 -12.96 -1.13
27.84 -20.84 -0.61
4.96 -3.74 -1.67
5.73 -4.32 -1.66
6.22 -4.69 -1.51
7.17 -5.41 -1.42
8.76 -6.61 -1.35
11.24 -8.48 -1.23
17.26 -13.02 -1.13
27.66 -20.87 -0.6
4.94 -3.76 -1.66
32.32 -24.56 0.71
5.74 -4.36 -1.66
6.18 -4.7 -1.51
7.15 -5.43 -1.42
8.75 -6.65 -1.35
11.21 -8.52 -1.23
17.25 -13.11 -1.14
27.49 -20.89 -0.6
4.93 -3.77 -1.66
5.73 -4.38 -1.67
6.15 -4.7 -1.5
7.12 -5.45 -1.42
8.73 -6.68 -1.35
11.18 -8.56 -1.23
17.22 -13.18 -1.14
20.75 -15.88 -0.46
4.92 -3.8 -1.67
5.7 -4.39 -1.66
6.11 -4.71 -1.5
7.1 -5.47 -1.42
8.7 -6.71 -1.35
11.15 -8.59 -1.23
17.2 -13.26 -1.14
27.13 -20.92 -0.6
4.92 -3.82 -1.67
5.68 -4.41 -1.66
35.35 -27.45 2.35
6.07 -4.71 -1.49
7.09 -5.5 -1.42
8.67 -6.73 -1.35
11.12 -8.64 -1.23
17.19 -13.35 -1.14
26.96 -20.93 -0.6
4.9 -3.84 -1.67
5.68 -4.44 -1.66
35.16 -27.5 2.34
6.03 -4.71 -1.49
7.07 -5.53 -1.42
8.64 -6.76 -1.35
11.1 -8.68 -1.23
17.14 -13.4 -1.14
26.75 -20.92 -0.59
4.88 -3.85 -1.67
5.67 -4.46 -1.67
34.92 -27.51 2.33
6.01 -4.73 -1.49
7.04 -5.55 -1.42
8.61 -6.78 -1.35
11.06 -8.71 -1.23
17.12 -13.48 -1.14
26.58 -20.94 -0.59
4.87 -3.87 -1.67
5.64 -4.48 -1.66
34.74 -27.57 2.32
5.99 -4.75 -1.49
7.02 -5.57 -1.42
8.59 -6.82 -1.35
11.02 -8.74 -1.23
17.06 -13.54 -1.14
26.53 -21.05 -0.59
4.86 -3.88 -1.67
5.63 -4.5 -1.66
34.49 -27.56 2.31
5.98 -4.78 -1.49
6.99 -5.59 -1.42
8.56 -6.84 -1.35
10.99 -8.79 -1.23
17.03 -13.61 -1.14
26.56 -21.22 -0.59
4.85 -3.91 -1.67
5.62 -4.52 -1.67
34.24 -27.56 2.3
5.96 -4.8 -1.49
6.97 -5.61 -1.42
8.53 -6.87 -1.35
10.97 -8.83 -1.23
16.98 -13.67 -1.14
4.84 -3.92 -1.67
5.61 -4.55 -1.67
34.05 -27.58 2.3
5.93 -4.81 -1.48
6.96 -5.64 -1.42
8.51 -6.89 -1.34
10.94 -8.86 -1.23
16.97 -13.75 -1.14
4.83 -3.94 -1.67
5.6 -4.57 -1.67
33.82 -27.6 2.29
5.91 -4.82 -1.48
6.94 -5.66 -1.42
8.48 -6.92 -1.34
10.9 -8.89 -1.23
16.92 -13.8 -1.14
4.81 -3.95 -1.67
30.03 -24.69 0.68
5.59 -4.6 -1.67
33.58 -27.61 2.28
5.89 -4.84 -1.48
6.91 -5.68 -1.42
8.46 -6.96 -1.35
10.86 -8.93 -1.23
16.87 -13.87 -1.14
4.8 -3.98 -1.67
29.85 -24.72 0.68
5.57 -4.61 -1.67
33.37 -27.63 2.27
5.87 -4.86 -1.48
6.89 -5.71 -1.42
8.43 -6.98 -1.34
10.82 -8.96 -1.23
16.83 -13.94 -1.15
4.79 -3.99 -1.67
5.55 -4.63 -1.67
33.18 -27.67 2.26
5.85 -4.88 -1.48
6.87 -5.73 -1.42
8.4 -7.01 -1.34
10.8 -9.01 -1.23
16.82 -14.03 -1.15
4.78 -4.01 -1.67
5.54 -4.65 -1.67
5.83 -4.9 -1.48
6.85 -5.76 -1.42
8.37 -7.03 -1.34
10.76 -9.04 -1.23
16.8 -14.11 -1.15
4.75 -4.02 -1.67
5.52 -4.67 -1.67
5.81 -4.91 -1.48
6.83 -5.78 -1.42
45.28 -38.3 7.28
8.35 -7.06 -1.34
10.72 -9.07 -1.23
16.75 -14.17 -1.15
4.75 -4.04 -1.67
5.5 -4.69 -1.67
5.79 -4.93 -1.48
6.8 -5.79 -1.41
44.99 -38.33 7.26
8.32 -7.09 -1.34
10.7 -9.12 -1.23
16.74 -14.26 -1.15
4.73 -4.06 -1.67
28.95 -24.84 0.67
5.46 -4.69 -1.66
5.77 -4.95 -1.48
6.77 -5.81 -1.41
44.69 -38.35 7.23
8.29 -7.11 -1.34
10.67 -9.16 -1.23
16.69 -14.32 -1.15
4.72 -4.08 -1.67
28.87 -24.95 0.67
5.43 -4.7 -1.66
5.76 -4.97 -1.48
6.76 -5.84 -1.41
44.42 -38.38 7.21
8.26 -7.14 -1.34
10.64 -9.19 -1.23
16.67 -14.4 -1.15
4.71 -4.09 -1.67
5.4 -4.7 -1.65
5.73 -4.98 -1.48
6.74 -5.86 -1.42
44.14 -38.39 7.18
8.24 -7.17 -1.34
10.6 -9.22 -1.23
16.63 -14.46 -1.15
4.69 -4.11 -1.67
5.38 -4.71 -1.65
31.72 -27.77 2.21
5.72 -5.01 -1.48
6.72 -5.89 -1.42
43.88 -38.43 7.16
8.22 -7.2 -1.34
10.57 -9.25 -1.23
16.57 -14.51 -1.15
23.53 -20.61 -0.55
4.68 -4.13 -1.67
5.33 -4.71 -1.64
31.5 -27.8 2.2
5.7 -5.03 -1.48
6.69 -5.9 -1.41
43.56 -38.45 7.13
8.19 -7.23 -1.34
10.53 -9.29 -1.23
16.54 -14.6 -1.16
23.54 -20.77 -0.55
4.66 -4.14 -1.67
5.29 -4.71 -1.64
31.29 -27.81 2.19
5.68 -5.05 -1.48
6.67 -5.93 -1.41
43.29 -38.48 7.11
8.16 -7.25 -1.34
10.5 -9.33 -1.23
16.47 -14.64 -1.15
23.43 -20.82 -0.55
4.65 -4.17 -1.67
5.27 -4.72 -1.63
31.09 -27.82 2.19
5.66 -5.07 -1.48
6.65 -5.95 -1.41
43.01 -38.5 7.09
8.13 -7.27 -1.34
10.47 -9.37 -1.23
16.42 -14.7 -1.15
4.64 -4.18 -1.67
5.24 -4.72 -1.63
30.89 -27.84 2.18
5.64 -5.08 -1.48
6.63 -5.98 -1.41
42.73 -38.51 7.06
8.11 -7.31 -1.34
10.44 -9.41 -1.23
16.39 -14.77 -1.16
4.62 -4.19 -1.67
5.21 -4.73 -1.62
30.7 -27.87 2.17
5.63 -5.11 -1.48
6.61 -6 -1.41
42.47 -38.55 7.04
8.08 -7.34 -1.34
10.39 -9.43 -1.23
16.38 -14.87 -1.16
4.61 -4.21 -1.67
28.93 -26.44 0.68
5.18 -4.73 -1.62
30.5 -27.88 2.17
5.62 -5.13 -1.48
6.58 -6.02 -1.41
42.2 -38.57 7.02
8.06 -7.37 -1.34
10.38 -9.48 -1.23
16.35 -14.95 -1.16
4.6 -4.23 -1.67
30.52 -28.08 0.72
5.13 -4.72 -1.61
30.3 -27.88 2.16
5.6 -5.15 -1.48
6.56 -6.03 -1.41
41.89 -38.53 6.99
8.04 -7.39 -1.34
10.33 -9.5 -1.23
16.31 -15.01 -1.16
4.59 -4.25 -1.68
30.43 -28.19 0.72
5.1 -4.72 -1.6
30.12 -27.9 2.15
5.57 -5.16 -1.48
6.54 -6.05 -1.41
41.55 -38.49 6.95
8 -7.41 -1.34
10.31 -9.55 -1.23
16.29 -15.09 -1.16
4.57 -4.27 -1.68
5.07 -4.73 -1.6
29.92 -27.91 2.14
5.55 -5.18 -1.48
6.52 -6.08 -1.41
41.28 -38.5 6.93
7.97 -7.44 -1.34
10.26 -9.57 -1.23
16.25 -15.16 -1.16
4.55 -4.27 -1.67
5.05 -4.74 -1.6
29.73 -27.93 2.14
5.54 -5.2 -1.48
6.49 -6.1 -1.41
41.02 -38.53 6.91
7.95 -7.47 -1.34
10.23 -9.61 -1.23
16.19 -15.21 -1.16
4.54 -4.3 -1.68
5.01 -4.74 -1.59
29.54 -27.94 2.13
5.52 -5.22 -1.48
6.46 -6.12 -1.41
40.74 -38.54 6.89
7.93 -7.5 -1.34
10.22 -9.67 -1.23
16.14 -15.27 -1.16
22.49 -21.27 -0.54
4.53 -4.31 -1.68
29.42 -28.02 0.71
4.98 -4.74 -1.59
29.37 -27.98 2.13
5.5 -5.24 -1.48
6.44 -6.14 -1.41
40.49 -38.57 6.87
7.9 -7.53 -1.34
10.22 -9.73 -1.23
16.1 -15.33 -1.16
22.36 -21.3 -0.54
4.52 -4.33 -1.68
4.95 -4.75 -1.58
5.48 -5.26 -1.48
6.42 -6.16 -1.41
40.24 -38.63 6.85
7.86 -7.55 -1.34
10.2 -9.8 -1.24
16.07 -15.42 -1.17
22.2 -21.31 -0.54
4.5 -4.35 -1.68
4.92 -4.76 -1.58
5.45 -5.27 -1.47
6.4 -6.19 -1.41
40.05 -38.72 6.84
7.83 -7.57 -1.34
10.38 -10.04 -1.26
16.07 -15.53 -1.17
22.07 -21.33 -0.54
4.49 -4.37 -1.68
4.89 -4.76 -1.58
5.43 -5.28 -1.47
6.37 -6.2 -1.41
39.7 -38.65 6.8
7.81 -7.6 -1.34
10.42 -10.15 -1.27
14.71 -14.32 -1.08
18.8 -18.3 -0.46
4.48 -4.4 -1.68
4.86 -4.77 -1.57
5.41 -5.3 -1.47
6.35 -6.22 -1.41
39.48 -38.7 6.79
7.79 -7.63 -1.34
10.38 -10.18 -1.27
14.68 -14.39 -1.08
21.8 -21.37 -0.53
4.47 -4.41 -1.68
14.9 -14.71 0.37
4.82 -4.76 -1.56
5.39 -5.33 -1.47
6.32 -6.24 -1.41
39.2 -38.7 6.76
7.76 -7.66 -1.34
10.35 -10.21 -1.27
14.65 -14.46 -1.08
4.46 -4.43 -1.68
14.79 -14.71 0.36
4.79 -4.76 -1.56
5.37 -5.34 -1.47
6.3 -6.26 -1.41
38.93 -38.7 6.74
7.73 -7.68 -1.34
10.33 -10.27 -1.27
14.76 -14.67 -0.36
4.43 -4.44 -1.68
14.71 -14.73 0.36
4.76 -4.76 -1.55
5.35 -5.35 -1.47
6.29 -6.29 -1.41
38.69 -38.73 6.72
7.7 -7.71 -1.34
10.28 -10.29 -1.27
15.91 -15.92 -1.18
14.67 -14.69 -0.36
4.41 -4.45 -1.68
14.65 -14.76 0.36
4.73 -4.77 -1.55
5.33 -5.37 -1.47
27.95 -28.18 3.47
6.26 -6.31 -1.41
38.45 -38.76 6.7
7.68 -7.74 -1.34
38.59 -38.9 8.68
10.23 -10.31 -1.27
14.97 -15.09 -1.11
14.62 -14.74 -0.36
4.4 -4.47 -1.68
14.63 -14.85 0.36
4.71 -4.78 -1.55
5.31 -5.39 -1.47
6.23 -6.33 -1.41
38.22 -38.8 6.69
7.65 -7.77 -1.34
38.33 -38.91 8.65
10.15 -10.3 -1.27
14.91 -15.13 -1.11
21.16 -21.48 -0.53
4.39 -4.49 -1.68
4.67 -4.78 -1.54
5.3 -5.41 -1.47
27.62 -28.23 3.46
6.21 -6.35 -1.41
37.97 -38.81 6.67
7.62 -7.78 -1.34
38.09 -38.93 8.63
10.08 -10.3 -1.26
15.81 -16.16 -1.18
21.04 -21.5 -0.53
4.38 -4.51 -1.68
4.65 -4.78 -1.54
5.28 -5.43 -1.47
27.38 -28.18 3.44
6.19 -6.37 -1.41
37.72 -38.82 6.65
7.59 -7.81 -1.34
37.84 -38.95 8.6
10.04 -10.33 -1.26
15.77 -16.23 -1.19
20.88 -21.49 -0.52
4.37 -4.53 -1.69
27.26 -28.25 0.69
4.62 -4.79 -1.54
27.14 -28.13 2.05
5.25 -5.45 -1.47
27.28 -28.28 3.44
6.17 -6.4 -1.41
37.55 -38.93 6.64
7.56 -7.84 -1.34
37.59 -38.97 8.58
10.03 -10.39 -1.26
15.74 -16.32 -1.19
20.78 -21.54 -0.52
4.35 -4.54 -1.69
27.18 -28.38 0.69
4.59 -4.79 -1.53
26.97 -28.16 2.04
5.23 -5.46 -1.47
6.14 -6.41 -1.41
37.24 -38.88 6.61
7.53 -7.86 -1.34
37.34 -38.98 8.55
9.93 -10.36 -1.26
9.63 -10.05 -0.73
20.72 -21.63 -0.52
4.34 -4.56 -1.69
4.57 -4.8 -1.53
26.8 -28.18 2.04
5.22 -5.49 -1.47
26.94 -28.32 3.42
6.12 -6.43 -1.41
36.99 -38.88 6.59
7.51 -7.89 -1.34
37.1 -39 8.53
9.7 -10.19 -1.23
9.59 -10.09 -0.73
4.33 -4.58 -1.69
4.53 -4.79 -1.52
26.65 -28.19 2.03
5.2 -5.5 -1.47
6.1 -6.45 -1.41
36.78 -38.9 6.57
7.49 -7.92 -1.34
36.88 -39.02 8.5
9.83 -10.4 -1.25
15.63 -16.53 -1.19
4.31 -4.59 -1.69
4.5 -4.79 -1.52
26.46 -28.19 2.03
5.18 -5.52 -1.47
6.07 -6.47 -1.41
36.52 -38.9 6.55
7.45 -7.94 -1.34
36.65 -39.04 8.48
9.77 -10.4 -1.25
15.57 -16.59 -1.19
26.65 -28.39 -0.68
4.29 -4.6 -1.69
4.49 -4.82 -1.52
26.29 -28.2 2.02
5.15 -5.53 -1.47
26.38 -28.3 3.39
6.05 -6.49 -1.41
36.28 -38.92 6.53
7.42 -7.96 -1.34
36.4 -39.04 8.45
9.7 -10.41 -1.24
10.61 -11.39 -0.82
26.48 -28.41 -0.68
4.27 -4.61 -1.68
4.47 -4.83 -1.52
26.11 -28.21 2.01
5.14 -5.55 -1.47
6.03 -6.51 -1.4
36.08 -38.97 6.52
7.4 -7.99 -1.34
36.17 -39.07 8.43
9.64 -10.41 -1.24
26.29 -28.4 -0.68
4.26 -4.63 -1.69
26.15 -28.45 0.67
4.45 -4.85 -1.52
25.96 -28.24 2.01
5.11 -5.56 -1.47
26.05 -28.34 3.37
6 -6.53 -1.4
35.81 -38.95 6.5
7.37 -8.02 -1.34
35.95 -39.1 8.41
9.56 -10.4 -1.24
9.48 -10.32 -0.73
26.14 -28.43 -0.67
4.23 -4.63 -1.68
26.01 -28.49 0.67
4.44 -4.86 -1.52
25.78 -28.24 2
5.09 -5.58 -1.47
5.98 -6.55 -1.4
35.67 -39.08 6.5
7.34 -8.04 -1.34
35.7 -39.11 8.39
9.51 -10.42 -1.23
9.43 -10.33 -0.73
25.96 -28.44 -0.67
4.22 -4.66 -1.68
4.41 -4.87 -1.52
25.61 -28.26 2
5.07 -5.59 -1.47
5.95 -6.57 -1.4
35.49 -39.16 6.49
7.31 -8.06 -1.34
35.47 -39.13 8.37
9.57 -10.55 -1.25
9.36 -10.32 -0.73
25.8 -28.46 -0.67
4.23 -4.7 -1.69
4.4 -4.88 -1.52
25.45 -28.27 1.99
5.05 -5.61 -1.47
25.49 -28.32 3.33
5.93 -6.59 -1.4
35.24 -39.16 6.47
7.27 -8.08 -1.34
35.24 -39.15 8.34
9.54 -10.6 -1.25
9.35 -10.39 -0.73
25.61 -28.46 -0.67
4.2 -4.7 -1.69
4.38 -4.91 -1.52
25.28 -28.3 1.99
5.03 -5.63 -1.47
25.3 -28.32 3.32
5.91 -6.61 -1.4
34.98 -39.16 6.45
7.25 -8.12 -1.34
34.99 -39.18 8.32
9.49 -10.63 -1.25
9.32 -10.43 -0.73
25.46 -28.5 -0.67
4.19 -4.72 -1.69
4.37 -4.92 -1.52
25.13 -28.34 1.99
5.01 -5.65 -1.47
25.13 -28.34 3.31
5.88 -6.63 -1.4
34.8 -39.23 6.44
7.22 -8.15 -1.34
34.75 -39.18 8.3
9.42 -10.62 -1.24
9.28 -10.46 -0.73
18.98 -21.4 -0.5
4.17 -4.73 -1.69
4.34 -4.92 -1.52
24.96 -28.33 1.98
5 -5.67 -1.47
24.99 -28.36 3.31
5.86 -6.65 -1.4
34.61 -39.27 6.43
7.2 -8.16 -1.34
34.55 -39.2 8.28
9.34 -10.6 -1.24
25.13 -28.51 -0.66
4.16 -4.75 -1.69
24.89 -28.44 0.66
4.31 -4.92 -1.51
24.86 -28.41 1.98
4.98 -5.69 -1.47
24.82 -28.37 3.3
5.84 -6.67 -1.4
34.35 -39.26 6.41
7.16 -8.18 -1.33
34.33 -39.23 8.26
9.25 -10.57 -1.23
9.2 -10.51 -0.73
24.95 -28.51 -0.66
4.13 -4.76 -1.69
24.75 -28.5 0.66
4.3 -4.95 -1.51
24.71 -28.45 1.97
4.95 -5.7 -1.47
24.65 -28.38 3.29
5.81 -6.69 -1.4
34.14 -39.31 6.39
7.12 -8.2 -1.33
34.07 -39.24 8.23
9.18 -10.57 -1.22
9.18 -10.57 -0.73
24.82 -28.58 -0.66
4.1 -4.76 -1.68
24.64 -28.57 0.66
4.29 -4.97 -1.52
24.63 -28.56 1.98
4.93 -5.72 -1.47
24.49 -28.4 3.28
5.79 -6.71 -1.4
33.94 -39.36 6.38
7.1 -8.23 -1.33
33.85 -39.26 8.21
9.12 -10.58 -1.22
15.13 -17.55 -1.21
24.68 -28.62 -0.66
4.07 -4.75 -1.68
4.26 -4.98 -1.51
24.48 -28.59 1.97
4.91 -5.74 -1.47
24.33 -28.41 3.27
5.76 -6.72 -1.4
33.7 -39.36 6.36
7.07 -8.26 -1.33
33.64 -39.29 8.19
9.13 -10.66 -1.23
15.09 -17.63 -1.22
24.51 -28.63 -0.66
4.06 -4.77 -1.68
4.24 -4.98 -1.51
24.3 -28.57 1.97
4.89 -5.75 -1.47
24.17 -28.42 3.26
5.73 -6.74 -1.4
33.48 -39.37 6.35
7.04 -8.28 -1.34
33.43 -39.31 8.17
9.16 -10.77 -1.24
24.36 -28.64 -0.66
4.03 -4.77 -1.67
4.23 -5.01 -1.51
24.16 -28.6 1.96
4.87 -5.77 -1.47
24.02 -28.44 3.26
5.71 -6.76 -1.4
33.29 -39.4 6.33
7.01 -8.3 -1.33
33.2 -39.31 8.15
9.2 -10.89 -1.25
4 -4.77 -1.67
4.21 -5.02 -1.51
24 -28.6 1.96
4.84 -5.77 -1.47
23.87 -28.44 3.25
5.69 -6.78 -1.4
6.98 -8.32 -1.33
33.01 -39.34 8.13
9.26 -11.03 -1.26
24.07 -28.68 -0.65
3.97 -4.77 -1.66
4.19 -5.03 -1.51
23.83 -28.63 1.95
4.82 -5.79 -1.47
23.68 -28.45 3.24
5.66 -6.8 -1.4
6.95 -8.35 -1.33
32.75 -39.35 8.11
9.29 -11.16 -1.27
23.88 -28.69 -0.65
3.94 -4.77 -1.66
23.59 -28.54 0.65
4.17 -5.05 -1.51
23.59 -28.53 1.94
4.81 -5.82 -1.47
23.54 -28.47 3.23
5.63 -6.81 -1.4
32.54 -39.36 6.27
6.92 -8.38 -1.33
32.55 -39.38 8.09
9 -10.88 -1.24
8.94 -10.81 -0.74
23.64 -28.6 -0.65
3.92 -4.78 -1.66
23.41 -28.53 0.64
4.15 -5.06 -1.51
23.36 -28.47 1.93
4.79 -5.84 -1.47
23.37 -28.48 3.22
5.61 -6.84 -1.4
32.37 -39.44 6.26
6.89 -8.4 -1.33
32.33 -39.4 8.07
9.22 -11.23 -1.27
8.87 -10.81 -0.73
23.5 -28.64 -0.65
3.9 -4.78 -1.65
23.37 -28.68 0.65
4.13 -5.07 -1.51
23.24 -28.51 1.93
4.77 -5.85 -1.47
23.24 -28.51 3.22
5.59 -6.86 -1.4
6.86 -8.41 -1.33
32.11 -39.4 8.05
9.23 -11.32 -1.28
8.85 -10.86 -0.73
23.34 -28.64 -0.64
3.87 -4.78 -1.65
4.12 -5.09 -1.51
23.05 -28.5 1.92
4.75 -5.87 -1.47
23.07 -28.52 3.21
5.57 -6.88 -1.4
6.83 -8.44 -1.33
31.89 -39.43 8.03
9.22 -11.4 -1.28
10.07 -12.45 -0.84
19.68 -24.33 -0.55
3.84 -4.78 -1.64
4.1 -5.1 -1.51
22.93 -28.55 1.92
4.73 -5.88 -1.47
22.92 -28.53 3.2
5.54 -6.9 -1.4
6.81 -8.47 -1.33
31.69 -39.44 8.01
9.16 -11.4 -1.28
10.58 -13.17 -0.29
3.81 -4.78 -1.64
4.08 -5.12 -1.51
22.77 -28.55 1.91
4.71 -5.91 -1.47
22.76 -28.54 3.19
5.51 -6.91 -1.4
6.78 -8.5 -1.34
31.47 -39.47 7.99
9.11 -11.42 -1.28
9.19 -11.53 -0.77
19.51 -24.46 -0.55
3.79 -4.79 -1.64
4.06 -5.12 -1.51
22.63 -28.57 1.91
4.69 -5.92 -1.47
22.67 -28.62 3.19
5.49 -6.93 -1.4
31.33 -39.56 6.2
6.76 -8.53 -1.34
31.28 -39.49 7.98
9.07 -11.46 -1.28
9.1 -11.48 -0.77
19.52 -24.65 -0.55
3.76 -4.78 -1.63
4.04 -5.14 -1.51
22.48 -28.58 1.91
4.67 -5.94 -1.47
22.57 -28.69 3.19
5.46 -6.95 -1.4
6.72 -8.55 -1.34
31.07 -39.5 7.96
9.07 -11.53 -1.28
3.74 -4.78 -1.63
4.02 -5.15 -1.51
22.32 -28.57 1.9
4.64 -5.94 -1.47
22.4 -28.67 3.18
5.45 -6.97 -1.4
6.68 -8.56 -1.33
30.86 -39.5 7.94
9.05 -11.58 -1.29
8.64 -11.06 -0.74
3.71 -4.78 -1.62
22.28 -28.76 0.63
4.01 -5.17 -1.51
22.2 -28.65 1.9
4.63 -5.97 -1.47
22.21 -28.67 3.17
5.41 -6.99 -1.4
6.65 -8.58 -1.33
30.63 -39.54 7.92
8.67 -11.19 -1.24
8.63 -11.14 -0.74
3.69 -4.79 -1.62
22.17 -28.81 0.63
3.99 -5.18 -1.51
22.06 -28.67 1.9
4.61 -5.99 -1.47
22.06 -28.67 3.17
5.39 -7 -1.4
6.62 -8.61 -1.33
30.43 -39.54 7.9
9.01 -11.71 -1.29
8.58 -11.14 -0.74
9.48 -12.32 -0.27
3.67 -4.8 -1.62
3.97 -5.19 -1.51
21.88 -28.64 1.89
4.58 -6 -1.47
21.92 -28.7 3.16
5.36 -7.02 -1.4
6.59 -8.63 -1.33
30.22 -39.58 7.89
8.98 -11.75 -1.29
3.65 -4.81 -1.62
3.95 -5.21 -1.51
21.7 -28.61 1.88
4.56 -6.02 -1.47
21.75 -28.67 3.15
5.34 -7.04 -1.4
30.01 -39.56 6.1
6.56 -8.65 -1.33
30.01 -39.57 7.87
8.97 -11.82 -1.3
9.47 -12.49 -0.82
3.62 -4.81 -1.61
3.93 -5.23 -1.51
21.58 -28.67 1.88
4.53 -6.02 -1.46
21.6 -28.69 3.14
5.32 -7.06 -1.4
29.86 -39.67 6.1
6.53 -8.67 -1.33
29.81 -39.6 7.85
8.95 -11.89 -1.3
3.59 -4.8 -1.61
3.92 -5.24 -1.51
21.45 -28.7 1.88
4.52 -6.04 -1.47
21.44 -28.68 3.13
5.29 -7.08 -1.4
6.5 -8.69 -1.33
29.6 -39.6 7.83
8.93 -11.94 -1.3
9.85 -13.17 -0.86
9.54 -12.77 -0.28
3.57 -4.8 -1.6
3.9 -5.25 -1.51
21.31 -28.7 1.87
4.5 -6.06 -1.47
21.3 -28.69 3.13
5.26 -7.09 -1.4
6.47 -8.72 -1.33
29.42 -39.63 7.82
8.91 -12 -1.31
9.52 -12.82 -0.28
3.55 -4.81 -1.6
21.15 -28.69 0.62
3.87 -5.25 -1.51
21.15 -28.69 1.87
4.49 -6.08 -1.47
21.17 -28.72 3.12
5.24 -7.11 -1.4
6.44 -8.74 -1.33
29.22 -39.63 7.8
8.86 -12.02 -1.31
9.49 -12.87 -0.28
3.52 -4.82 -1.6
3.86 -5.27 -1.51
21.02 -28.73 1.87
4.46 -6.1 -1.47
21.03 -28.74 3.12
5.22 -7.13 -1.4
6.4 -8.75 -1.33
29.03 -39.68 7.79
8.83 -12.07 -1.31
12.52 -17.11 -1.11
12.45 -17.02 -0.37
3.5 -4.82 -1.6
3.84 -5.28 -1.51
20.91 -28.78 1.86
4.43 -6.1 -1.47
20.87 -28.73 3.11
5.2 -7.15 -1.4
28.88 -39.76 6.03
6.38 -8.78 -1.33
28.82 -39.67 7.77
8.79 -12.11 -1.31
9.57 -13.18 -0.85
9.66 -13.29 -0.29
3.47 -4.81 -1.59
3.82 -5.31 -1.51
4.41 -6.12 -1.47
20.74 -28.77 3.1
5.17 -7.17 -1.4
28.74 -39.86 6.03
6.35 -8.81 -1.33
28.62 -39.7 7.75
8.72 -12.1 -1.31
9.08 -12.59 -0.81
12.31 -17.08 -0.37
3.45 -4.82 -1.59
3.8 -5.32 -1.51
20.64 -28.85 1.86
4.39 -6.13 -1.47
20.57 -28.74 3.09
5.14 -7.19 -1.4
6.31 -8.82 -1.33
28.42 -39.72 7.74
8.71 -12.16 -1.31
12.25 -17.12 -0.37
3.43 -4.82 -1.59
20.41 -28.73 0.62
3.78 -5.32 -1.51
20.48 -28.84 1.85
4.38 -6.16 -1.47
20.43 -28.76 3.09
5.12 -7.2 -1.4
6.29 -8.85 -1.33
28.23 -39.74 7.72
8.67 -12.21 -1.31
8.95 -12.6 -0.81
12.19 -17.17 -0.37
3.41 -4.83 -1.58
20.28 -28.75 0.61
3.76 -5.34 -1.51
4.36 -6.18 -1.47
20.3 -28.79 3.08
5.1 -7.23 -1.4
6.25 -8.86 -1.33
28.02 -39.74 7.7
8.66 -12.27 -1.31
9.32 -13.22 -0.85
12.13 -17.2 -0.37
3.37 -4.82 -1.58
20.13 -28.78 0.61
3.75 -5.36 -1.51
20.16 -28.82 1.84
4.32 -6.18 -1.47
20.15 -28.81 3.08
5.07 -7.25 -1.4
6.22 -8.89 -1.33
27.81 -39.77 7.69
8.63 -12.34 -1.32
10.26 -14.67 -0.94
12.06 -17.24 -0.37
3.35 -4.82 -1.57
20.02 -28.83 0.61
3.73 -5.37 -1.51
20.06 -28.89 1.84
4.31 -6.21 -1.47
20.01 -28.82 3.07
5.04 -7.26 -1.4
27.59 -39.75 5.94
6.19 -8.92 -1.33
27.62 -39.79 7.67
8.58 -12.36 -1.32
13.01 -18.74 -0.4
3.32 -4.82 -1.57
19.89 -28.86 0.61
3.71 -5.39 -1.51
4.29 -6.23 -1.47
19.88 -28.85 3.07
5.02 -7.28 -1.4
27.44 -39.82 5.94
6.16 -8.94 -1.33
27.43 -39.81 7.66
8.55 -12.41 -1.32
9.51 -13.8 -0.88
3.3 -4.83 -1.57
19.73 -28.85 0.61
3.7 -5.4 -1.51
19.74 -28.87 1.83
4.27 -6.25 -1.47
19.74 -28.86 3.06
4.99 -7.3 -1.4
27.29 -39.91 5.94
6.13 -8.97 -1.33
27.23 -39.82 7.64
8.51 -12.45 -1.32
9.48 -13.85 -0.88
19.6 -28.65 -0.61
3.28 -4.83 -1.57
19.59 -28.86 0.61
3.68 -5.42 -1.51
19.57 -28.83 1.83
4.25 -6.27 -1.47
19.59 -28.85 3.05
4.97 -7.32 -1.4
6.1 -8.98 -1.33
27.05 -39.85 7.63
8.48 -12.49 -1.32
9.56 -14.08 -0.89
19.48 -28.69 -0.61
3.26 -4.84 -1.56
19.47 -28.89 0.61
3.66 -5.43 -1.51
19.43 -28.84 1.82
4.22 -6.27 -1.47
19.44 -28.85 3.04
4.94 -7.34 -1.4
6.07 -9.01 -1.33
26.84 -39.84 7.61
8.44 -12.53 -1.32
8.53 -12.66 -0.8
19.32 -28.67 -0.6
3.23 -4.83 -1.56
19.34 -28.93 0.61
3.65 -5.46 -1.52
9.57 -14.31 0.9
4.2 -6.29 -1.47
19.31 -28.87 3.04
4.92 -7.36 -1.4
6.04 -9.03 -1.33
26.65 -39.86 7.59
8.41 -12.58 -1.32
8.45 -12.64 -0.8
19.19 -28.69 -0.6
3.21 -4.84 -1.56
19.19 -28.92 0.61
3.62 -5.46 -1.51
9.53 -14.36 0.9
4.19 -6.31 -1.47
19.16 -28.88 3.03
4.89 -7.37 -1.4
6.01 -9.06 -1.34
26.46 -39.88 7.58
8.37 -12.61 -1.32
19.05 -28.71 -0.6
3.19 -4.84 -1.55
19.04 -28.89 0.6
3.6 -5.47 -1.51
9.49 -14.39 0.9
4.17 -6.32 -1.47
19.04 -28.89 3.03
4.87 -7.39 -1.4
26.33 -39.94 5.87
5.98 -9.07 -1.33
26.31 -39.91 7.57
8.31 -12.61 -1.32
19.07 -28.93 -0.6
3.17 -4.84 -1.55
9.42 -14.4 0.3
3.59 -5.49 -1.51
9.42 -14.4 0.9
4.15 -6.34 -1.47
18.88 -28.86 3.02
4.85 -7.41 -1.4
5.94 -9.08 -1.33
26.11 -39.91 7.55
8.27 -12.64 -1.32
8.36 -12.78 -0.8
9.44 -14.44 -0.3
3.14 -4.84 -1.55
9.41 -14.49 0.3
3.57 -5.5 -1.51
9.36 -14.42 0.9
4.12 -6.35 -1.47
4.83 -7.44 -1.4
5.91 -9.1 -1.33
25.92 -39.92 7.54
8.21 -12.64 -1.32
9.11 -14.04 -0.88
3.11 -4.83 -1.54
3.54 -5.5 -1.51
9.35 -14.52 0.9
4.1 -6.37 -1.47
4.8 -7.45 -1.4
5.88 -9.13 -1.33
25.73 -39.94 7.52
8.16 -12.66 -1.32
9.07 -14.08 -0.88
3.1 -4.85 -1.54
3.52 -5.51 -1.51
9.3 -14.57 0.91
4.08 -6.38 -1.47
4.77 -7.46 -1.4
5.85 -9.16 -1.33
25.53 -39.96 7.51
8.1 -12.67 -1.32
8.99 -14.08 -0.88
3.09 -4.87 -1.54
3.37 -5.32 -1.45
9.26 -14.6 0.91
4.05 -6.39 -1.47
4.74 -7.48 -1.4
25.37 -40.02 5.82
5.82 -9.18 -1.33
25.35 -39.98 7.5
8.08 -12.74 -1.32
8.94 -14.1 -0.88
9.04 -14.26 -0.29
3.07 -4.87 -1.54
3.38 -5.37 -1.46
4.04 -6.41 -1.47
4.73 -7.51 -1.41
25.17 -39.99 5.8
5.79 -9.19 -1.33
25.17 -39.99 7.48
8.02 -12.74 -1.32
12.65 -20.1 -1.24
3.05 -4.88 -1.54
19.07 -30.53 0.63
3.37 -5.39 -1.47
19.04 -30.47 1.88
4.01 -6.42 -1.47
4.7 -7.52 -1.4
24.99 -40.01 5.79
5.75 -9.21 -1.33
24.99 -40 7.47
8.02 -12.85 -1.33
9.22 -14.75 -0.91
9.07 -14.53 -0.3
3.03 -4.89 -1.54
3.4 -5.49 -1.49
19.22 -31.01 1.91
3.99 -6.44 -1.47
4.67 -7.54 -1.4
24.83 -40.06 5.79
5.73 -9.24 -1.34
24.8 -40.01 7.46
7.99 -12.89 -1.33
12.61 -20.34 -1.25
9.04 -14.59 -0.3
3.01 -4.9 -1.54
3.39 -5.51 -1.49
19.25 -31.3 1.93
3.97 -6.46 -1.47
4.65 -7.55 -1.4
5.7 -9.27 -1.34
24.62 -40.04 7.44
7.99 -12.99 -1.33
12.5 -20.32 -1.25
3 -4.92 -1.54
3.37 -5.52 -1.49
19.26 -31.56 1.94
3.95 -6.48 -1.48
4.62 -7.57 -1.4
5.67 -9.3 -1.34
24.44 -40.05 7.43
7.96 -13.04 -1.34
8.98 -14.71 -0.9
3 -4.96 -1.55
19.32 -31.91 0.65
3.32 -5.49 -1.48
3.93 -6.49 -1.47
4.6 -7.59 -1.41
5.64 -9.31 -1.34
24.26 -40.07 7.42
7.91 -13.07 -1.34
8.95 -14.78 -0.91
13.22 -21.83 -0.45
3 -5 -1.56
19.22 -32.01 0.65
3.32 -5.52 -1.49
19.17 -31.93 1.95
3.9 -6.5 -1.47
4.57 -7.61 -1.41
5.61 -9.33 -1.34
24.07 -40.07 7.4
7.84 -13.05 -1.33
8.86 -14.76 -0.9
9.37 -15.59 -0.32
2.98 -5.01 -1.56
3.28 -5.5 -1.48
3.88 -6.52 -1.47
4.55 -7.63 -1.41
5.58 -9.36 -1.34
23.88 -40.07 7.39
7.81 -13.1 -1.33
9.23 -15.49 -0.95
9.31 -15.62 -0.32
2.96 -5 -1.56
3.27 -5.54 -1.49
3.87 -6.54 -1.48
4.52 -7.65 -1.41
23.74 -40.16 5.73
5.55 -9.39 -1.34
23.7 -40.1 7.38
7.69 -13.01 -1.32
9.17 -15.52 -0.94
9.21 -15.58 -0.32
2.93 -5 -1.55
3.23 -5.5 -1.47
3.84 -6.55 -1.48
4.5 -7.67 -1.41
5.52 -9.41 -1.34
23.53 -40.12 7.37
7.73 -13.18 -1.34
8.57 -14.61 -0.89
9.23 -15.74 -0.32
2.91 -5 -1.55
3.2 -5.5 -1.47
3.82 -6.57 -1.48
4.47 -7.69 -1.41
5.48 -9.42 -1.34
23.35 -40.14 7.36
7.7 -13.23 -1.34
8.92 -15.33 -0.93
9.14 -15.72 -0.32
2.89 -5.01 -1.55
3.21 -5.56 -1.48
3.79 -6.57 -1.47
4.45 -7.7 -1.41
5.45 -9.45 -1.34
23.17 -40.14 7.34
7.68 -13.31 -1.34
8.92 -15.46 -0.94
9.14 -15.84 -0.32
2.86 -5 -1.54
3.18 -5.55 -1.48
3.77 -6.59 -1.48
4.42 -7.71 -1.41
5.42 -9.47 -1.34
22.99 -40.15 7.33
7.65 -13.37 -1.35
8.87 -15.5 -0.94
9.14 -15.97 -0.32
2.85 -5.01 -1.54
22.29 -39.25 0.79
3.16 -5.57 -1.48
3.75 -6.61 -1.48
4.39 -7.73 -1.41
5.39 -9.5 -1.34
22.82 -40.19 7.32
7.62 -13.42 -1.35
8.77 -15.45 -0.93
9.13 -16.07 -0.32
2.83 -5.02 -1.54
3.14 -5.58 -1.48
3.73 -6.63 -1.48
4.36 -7.74 -1.41
22.63 -40.17 5.66
5.36 -9.51 -1.34
22.63 -40.18 7.3
7.5 -13.31 -1.34
8.8 -15.62 -0.94
9.09 -16.14 -0.32
2.82 -5.04 -1.55
19.73 -35.31 0.71
3.14 -5.61 -1.48
3.71 -6.63 -1.48
4.34 -7.77 -1.41
22.46 -40.2 5.65
5.32 -9.53 -1.34
22.46 -40.21 7.3
7.45 -13.34 -1.34
8.72 -15.62 -0.94
8.91 -15.96 -0.32
2.8 -5.05 -1.55
19.59 -35.36 0.71
3.12 -5.64 -1.49
3.68 -6.64 -1.48
4.31 -7.78 -1.41
22.32 -40.28 5.65
5.29 -9.55 -1.34
22.27 -40.2 7.28
7.45 -13.44 -1.34
8.55 -15.44 -0.92
2.77 -5.05 -1.54
19.48 -35.45 0.71
3.11 -5.66 -1.49
3.66 -6.67 -1.48
4.29 -7.8 -1.41
5.26 -9.56 -1.34
22.1 -40.22 7.27
7.4 -13.46 -1.34
8.56 -15.57 -0.93
2.76 -5.06 -1.54
3.1 -5.68 -1.49
3.64 -6.69 -1.48
4.26 -7.82 -1.41
5.23 -9.59 -1.34
21.93 -40.24 7.26
7.3 -13.39 -1.33
8.56 -15.71 -0.94
8.77 -16.09 -0.32
2.74 -5.08 -1.55
3.08 -5.7 -1.49
3.62 -6.7 -1.48
19.53 -36.14 3.59
4.23 -7.83 -1.41
2.81 -5.2 0.73
5.2 -9.62 -1.34
21.76 -40.27 7.25
7.3 -13.5 -1.34
8.59 -15.89 -0.95
2.74 -5.11 -1.55
3.07 -5.73 -1.5
3.59 -6.7 -1.48
19.54 -36.45 3.62
4.21 -7.85 -1.41
2.8 -5.23 0.73
5.16 -9.62 -1.34
21.58 -40.27 7.24
7.28 -13.58 -1.35
8.35 -15.58 -0.93
2.72 -5.12 -1.55
3.06 -5.76 -1.51
19.56 -36.81 3.65
4.18 -7.87 -1.41
21.43 -40.33 5.61
5.13 -9.64 -1.34
21.41 -40.28 7.23
7.17 -13.49 -1.34
11.52 -21.68 -1.29
2.7 -5.12 -1.55
3.05 -5.78 -1.51
3.27 -6.21 -1.36
4.16 -7.89 -1.41
2.76 -5.24 0.73
5.09 -9.66 -1.34
21.23 -40.31 7.22
7.16 -13.6 -1.35
11.35 -21.55 -1.28
2.68 -5.14 -1.55
3.03 -5.81 -1.51
3.25 -6.22 -1.36
2.8 -5.36 0.53
4.13 -7.91 -1.41
2.74 -5.24 0.73
5.06 -9.69 -1.34
21.05 -40.32 7.2
7.14 -13.67 -1.35
11.37 -21.78 -1.29
2.67 -5.16 -1.56
3.02 -5.83 -1.51
3.47 -6.71 -1.47
2.73 -5.27 0.52
4.1 -7.92 -1.41
2.71 -5.24 0.72
5.03 -9.72 -1.34
20.89 -40.35 7.2
7.1 -13.72 -1.35
11.28 -21.79 -1.29
19.88 -38.39 -0.75
2.67 -5.2 -1.57
3 -5.85 -1.52
3.45 -6.73 -1.47
2.71 -5.29 0.52
4.07 -7.93 -1.41
2.69 -5.24 0.72
4.99 -9.73 -1.34
20.72 -40.37 7.19
7.06 -13.76 -1.35
11.21 -21.83 -1.29
2.66 -5.22 -1.57
19.98 -39.23 0.77
2.98 -5.86 -1.52
3.43 -6.74 -1.47
2.69 -5.27 0.52
4.05 -7.95 -1.41
2.68 -5.26 0.72
4.96 -9.74 -1.34
20.55 -40.35 7.17
7.07 -13.88 -1.36
11.18 -21.96 -1.29
2.65 -5.24 -1.57
19.82 -39.26 0.77
2.97 -5.88 -1.52
3.4 -6.73 -1.47
2.67 -5.29 0.52
4.02 -7.97 -1.41
2.66 -5.26 0.72
4.93 -9.77 -1.34
20.39 -40.39 7.17
7.01 -13.88 -1.36
11.1 -21.98 -1.29
2.64 -5.28 -1.58
2.96 -5.9 -1.52
3.35 -6.69 -1.45
20.23 -40.42 3.95
3.99 -7.98 -1.41
2.63 -5.25 0.72
4.9 -9.79 -1.34
20.22 -40.39 7.15
6.97 -13.93 -1.36
11.02 -22.03 -1.29
2.62 -5.29 -1.58
2.93 -5.9 -1.52
3.28 -6.61 -1.43
2.63 -5.31 0.52
3.96 -7.99 -1.41
2.61 -5.25 0.72
4.86 -9.8 -1.34
20.05 -40.41 7.14
6.99 -14.08 -1.38
10.95 -22.06 -1.29
14.18 -28.58 -0.56
2.6 -5.29 -1.58
14.38 -29.25 0.57
2.91 -5.92 -1.52
14.38 -29.23 1.71
3.21 -6.53 -1.42
14.38 -29.24 2.85
3.94 -8.01 -1.41
2.59 -5.27 0.72
4.83 -9.81 -1.34
19.89 -40.43 7.14
6.95 -14.12 -1.38
10.86 -22.08 -1.29
14.05 -28.57 -0.56
2.59 -5.31 -1.58
14.29 -29.3 0.57
2.93 -6 -1.54
14.28 -29.29 1.71
3.19 -6.53 -1.41
2.59 -5.32 0.52
3.91 -8.02 -1.41
2.58 -5.3 0.72
4.79 -9.83 -1.34
19.71 -40.43 7.12
6.89 -14.14 -1.38
10.78 -22.11 -1.29
13.92 -28.56 -0.55
2.57 -5.31 -1.58
14.19 -29.37 0.57
2.91 -6.03 -1.54
14.16 -29.31 1.71
3.17 -6.57 -1.42
2.57 -5.32 0.52
3.88 -8.04 -1.41
2.57 -5.31 0.72
4.76 -9.85 -1.34
19.54 -40.45 7.11
6.9 -14.29 -1.39
10.7 -22.14 -1.29
13.8 -28.56 -0.55
2.54 -5.31 -1.58
14.05 -29.33 0.57
2.9 -6.05 -1.55
14.03 -29.3 1.7
3.15 -6.59 -1.42
2.55 -5.33 0.52
3.85 -8.05 -1.41
4.73 -9.87 -1.34
19.38 -40.47 7.11
6.89 -14.38 -1.4
10.62 -22.17 -1.29
13.68 -28.57 -0.55
2.53 -5.34 -1.58
13.93 -29.35 0.57
2.89 -6.1 -1.56
13.92 -29.33 1.7
3.13 -6.6 -1.42
2.53 -5.33 0.52
3.83 -8.07 -1.41
4.69 -9.89 -1.34
19.21 -40.48 7.1
6.87 -14.47 -1.4
10.49 -22.11 -1.28
13.56 -28.56 -0.55
2.52 -5.35 -1.58
13.81 -29.37 0.57
2.86 -6.09 -1.55
13.77 -29.28 1.7
3.1 -6.58 -1.41
2.51 -5.34 0.52
3.8 -8.09 -1.42
4.66 -9.9 -1.34
19.04 -40.49 7.09
6.77 -14.38 -1.39
10.43 -22.17 -1.28
13.44 -28.57 -0.55
2.5 -5.37 -1.59
13.68 -29.36 0.57
2.84 -6.08 -1.55
13.68 -29.34 1.7
3.07 -6.59 -1.41
2.48 -5.33 0.51
3.78 -8.11 -1.42
2.49 -5.34 0.72
4.62 -9.92 -1.34
2.48 -5.32 0.93
6.7 -14.37 -1.39
10.34 -22.19 -1.28
13.34 -28.62 -0.55
2.47 -5.36 -1.58
13.57 -29.37 0.56
2.81 -6.09 -1.55
13.56 -29.36 1.69
3.07 -6.64 -1.42
3.75 -8.12 -1.42
2.47 -5.35 0.72
4.59 -9.93 -1.34
2.46 -5.32 0.93
6.66 -14.41 -1.39
10.27 -22.23 -1.28
13.35 -28.91 -0.56
2.46 -5.36 -1.58
13.44 -29.37 0.56
2.79 -6.09 -1.55
13.44 -29.36 1.69
3.05 -6.67 -1.42
3.72 -8.12 -1.41
2.45 -5.35 0.72
4.55 -9.95 -1.34
2.45 -5.35 0.93
6.74 -14.72 -1.42
10.19 -22.27 -1.28
13.44 -29.37 -0.56
2.44 -5.39 -1.59
13.32 -29.38 0.56
2.77 -6.1 -1.55
13.31 -29.36 1.69
3.04 -6.69 -1.43
2.43 -5.36 0.52
3.69 -8.14 -1.42
2.42 -5.35 0.72
4.52 -9.96 -1.34
2.42 -5.34 0.93
6.68 -14.74 -1.42
10.1 -22.27 -1.28
13.36 -29.46 -0.56
2.45 -5.46 -1.61
13.21 -29.41 0.56
2.74 -6.09 -1.54
13.2 -29.39 1.69
3.01 -6.7 -1.43
2.41 -5.37 0.52
3.66 -8.15 -1.42
2.4 -5.35 0.72
4.48 -9.98 -1.34
2.41 -5.37 0.93
6.65 -14.8 -1.42
10.04 -22.35 -1.28
13.21 -29.42 -0.56
2.41 -5.43 -1.59
13.09 -29.42 0.56
2.41 -5.41 -1.37
13.08 -29.39 1.69
2.41 -5.41 -1.15
2.39 -5.37 0.51
2.42 -5.43 -0.94
2.38 -5.36 0.72
2.42 -5.43 -0.73
2.38 -5.35 0.93
2.43 -5.47 -0.52
9.99 -22.45 -1.29
13.11 -29.46 -0.56
2.39 -5.43 -1.59
2.4 -5.45 0.1
2.39 -5.42 -1.37
2.39 -5.42 0.31
2.39 -5.41 -1.15
2.37 -5.37 0.51
2.39 -5.42 -0.94
2.36 -5.36 0.72
2.39 -5.41 -0.73
2.36 -5.35 0.93
2.38 -5.4 -0.52
2.39 -5.43 -0.31
2.38 -5.39 -0.1
2.39 -5.48 -1.6
2.35 -5.38 0.1
2.38 -5.45 -1.37
2.35 -5.39 0.31
2.37 -5.43 -1.15
2.34 -5.37 0.51
2.37 -5.42 -0.94
2.34 -5.36 0.72
2.37 -5.43 -0.73
2.34 -5.36 0.93
2.36 -5.42 -0.52
2.37 -5.42 -0.31
2.39 -5.53 -1.61
2.72 -6.29 -1.58
2.93 -6.78 -1.44
2.33 -5.38 0.51
3.55 -8.21 -1.42
2.32 -5.35 0.72
2.36 -5.46 -0.73
2.32 -5.37 0.93
2.35 -5.44 -0.52
2.35 -5.43 -0.31
2.34 -5.41 -0.1
2.38 -5.55 -1.62
2.32 -5.42 0.1
2.69 -6.29 -1.58
2.31 -5.4 0.31
2.91 -6.79 -1.44
2.31 -5.38 0.51
3.52 -8.23 -1.42
2.3 -5.36 0.72
4.31 -10.07 -1.34
2.3 -5.36 0.92
6.68 -15.59 -1.48
2.35 -5.55 -1.62
2.66 -6.26 -1.57
2.89 -6.8 -1.44
2.28 -5.38 0.51
3.49 -8.24 -1.42
2.28 -5.37 0.72
4.28 -10.08 -1.34
2.28 -5.37 0.92
6.63 -15.63 -1.49
9.61 -22.64 -1.29
12.56 -29.6 -0.56
2.33 -5.55 -1.61
14.63 -34.83 0.66
2.63 -6.27 -1.57
12.34 -29.37 1.67
2.87 -6.82 -1.44
2.26 -5.38 0.51
3.47 -8.25 -1.42
2.26 -5.37 0.72
4.24 -10.1 -1.34
2.26 -5.37 0.92
6.59 -15.68 -1.49
9.52 -22.66 -1.29
12.44 -29.6 -0.56
2.3 -5.52 -1.6
2.61 -6.26 -1.57
12.22 -29.38 1.67
2.85 -6.85 -1.44
2.24 -5.39 0.51
3.43 -8.25 -1.42
2.24 -5.38 0.71
4.21 -10.12 -1.35
2.23 -5.37 0.92
6.51 -15.65 -1.48
9.42 -22.64 -1.29
12.33 -29.63 -0.56
2.28 -5.53 -1.6
2.58 -6.26 -1.56
12.11 -29.38 1.67
2.83 -6.87 -1.44
2.22 -5.4 0.51
3.41 -8.27 -1.42
2.21 -5.37 0.71
4.18 -10.14 -1.35
2.21 -5.37 0.92
6.42 -15.59 -1.48
9.35 -22.69 -1.29
12.21 -29.64 -0.56
2.27 -5.57 -1.61
2.56 -6.29 -1.57
11.98 -29.38 1.66
2.81 -6.89 -1.45
2.2 -5.41 0.51
3.38 -8.29 -1.42
2.19 -5.37 0.71
4.14 -10.14 -1.34
2.19 -5.38 0.92
6.42 -15.73 -1.49
9.28 -22.75 -1.29
12.08 -29.63 -0.56
2.26 -5.59 -1.61
2.55 -6.31 -1.57
11.87 -29.39 1.66
2.79 -6.9 -1.45
2.19 -5.41 0.51
3.35 -8.3 -1.42
2.17 -5.38 0.71
4.1 -10.15 -1.34
2.18 -5.39 0.92
6.36 -15.74 -1.49
9.21 -22.8 -1.29
11.97 -29.63 -0.56
2.24 -5.6 -1.62
11.84 -29.62 0.56
2.52 -6.32 -1.57
11.76 -29.41 1.66
2.77 -6.93 -1.45
2.17 -5.42 0.51
3.32 -8.31 -1.42
2.15 -5.38 0.71
4.07 -10.18 -1.35
2.16 -5.39 0.92
6.31 -15.79 -1.49
9.13 -22.84 -1.29
11.86 -29.66 -0.56
2.21 -5.58 -1.61
11.72 -29.63 0.56
2.49 -6.28 -1.56
11.64 -29.42 1.66
2.75 -6.96 -1.46
2.15 -5.43 0.51
3.29 -8.32 -1.42
2.13 -5.38 0.71
4.05 -10.22 -1.35
16.12 -40.75 6.94
6.22 -15.71 -1.48
9.06 -22.91 -1.29
11.74 -29.68 -0.56
2.16 -5.52 -1.59
2.47 -6.3 -1.56
11.53 -29.43 1.66
2.74 -6.98 -1.46
2.13 -5.43 0.51
3.27 -8.34 -1.42
2.11 -5.39 0.71
4.02 -10.26 -1.35
15.96 -40.74 6.93
6.15 -15.71 -1.48
8.98 -22.94 -1.29
11.64 -29.72 -0.56
2.14 -5.52 -1.59
2.44 -6.31 -1.56
11.41 -29.42 1.65
2.71 -7 -1.46
3.24 -8.36 -1.42
2.09 -5.4 0.71
4 -10.33 -1.36
15.8 -40.76 6.92
6.13 -15.81 -1.48
8.89 -22.92 -1.29
11.51 -29.69 -0.56
2.12 -5.52 -1.58
2.43 -6.32 -1.56
11.29 -29.43 1.65
2.69 -7.01 -1.46
2.1 -5.47 0.51
3.21 -8.37 -1.42
2.07 -5.4 0.71
3.97 -10.36 -1.36
15.64 -40.78 6.92
6.09 -15.88 -1.49
8.89 -23.17 -1.3
2.1 -5.52 -1.58
2.42 -6.36 -1.57
11.18 -29.43 1.65
2.67 -7.04 -1.46
2.08 -5.49 0.51
3.18 -8.39 -1.42
3.93 -10.35 -1.36
15.49 -40.79 6.91
6.05 -15.94 -1.49
8.86 -23.34 -1.31
2.08 -5.55 -1.59
2.39 -6.37 -1.57
11.07 -29.46 1.65
2.66 -7.08 -1.47
11.1 -29.54 2.76
3.15 -8.39 -1.42
3.92 -10.45 -1.37
15.33 -40.81 6.9
5.99 -15.94 -1.49
8.78 -23.38 -1.31
2.07 -5.57 -1.59
2.38 -6.4 -1.58
10.95 -29.47 1.65
2.64 -7.11 -1.47
10.99 -29.55 2.76
3.12 -8.41 -1.42
15.17 -40.81 5.35
3.93 -10.58 -1.39
15.17 -40.81 6.9
5.98 -16.09 -1.5
8.73 -23.49 -1.31
2.18 -5.88 1.45
2.05 -5.56 -1.59
2.37 -6.44 -1.58
10.84 -29.48 1.65
2.62 -7.12 -1.47
10.87 -29.55 2.75
3.1 -8.42 -1.42
15.01 -40.82 5.34
3.85 -10.47 -1.37
15.01 -40.82 6.89
5.95 -16.18 -1.51
8.65 -23.52 -1.31
2.16 -5.87 1.44
2.01 -5.53 -1.58
2.35 -6.46 -1.59
10.72 -29.47 1.64
2.59 -7.13 -1.47
10.75 -29.55 2.75
3.07 -8.45 -1.42
14.86 -40.85 5.34
3.82 -10.49 -1.37
14.86 -40.84 6.88
5.9 -16.23 -1.51
8.59 -23.62 -1.32
2.14 -5.89 1.45
1.99 -5.53 -1.58
10.66 -29.62 0.55
2.33 -6.48 -1.59
10.61 -29.49 1.64
2.55 -7.08 -1.46
10.64 -29.56 2.75
3.05 -8.46 -1.42
14.74 -40.96 5.34
3.77 -10.47 -1.37
14.7 -40.85 6.88
5.84 -16.24 -1.51
8.52 -23.68 -1.32
2.09 -5.81 1.42
10.66 -29.63 -0.55
1.99 -5.6 -1.59
10.53 -29.6 0.55
2.31 -6.5 -1.59
10.53 -29.58 1.65
2.54 -7.13 -1.47
10.53 -29.58 2.75
3.01 -8.47 -1.42
3.76 -10.57 -1.38
14.54 -40.86 6.87
5.81 -16.31 -1.51
8.45 -23.75 -1.32
2.08 -5.84 1.43
10.55 -29.64 -0.55
2 -5.67 -1.61
10.44 -29.65 0.55
2.27 -6.46 -1.58
10.42 -29.6 1.64
2.52 -7.15 -1.47
10.42 -29.59 2.74
2.98 -8.48 -1.42
3.72 -10.57 -1.38
14.39 -40.88 6.86
5.76 -16.37 -1.52
8.37 -23.78 -1.32
10.47 -29.76 -0.55
1.99 -5.71 -1.62
10.35 -29.74 0.55
2.23 -6.41 -1.57
10.34 -29.72 1.65
2.5 -7.19 -1.48
10.3 -29.6 2.74
2.96 -8.5 -1.43
3.71 -10.66 -1.39
14.23 -40.89 6.86
5.72 -16.44 -1.52
8.29 -23.83 -1.32
2.02 -5.8 1.42
10.37 -29.79 -0.55
1.96 -5.7 -1.62
2.21 -6.42 -1.57
10.23 -29.74 1.65
2.48 -7.2 -1.48
10.18 -29.6 2.74
2.93 -8.52 -1.43
3.66 -10.63 -1.38
14.08 -40.9 6.85
5.68 -16.5 -1.53
8.22 -23.89 -1.32
1.98 -5.75 1.4
1.94 -5.7 -1.61
2.2 -6.46 -1.58
10.12 -29.75 1.65
2.46 -7.23 -1.48
10.07 -29.6 2.74
2.9 -8.53 -1.43
3.64 -10.71 -1.39
13.92 -40.91 6.84
5.63 -16.56 -1.53
8.14 -23.92 -1.32
1.95 -5.72 1.4
1.92 -5.71 -1.62
2.18 -6.48 -1.58
10.01 -29.75 1.65
2.44 -7.25 -1.49
9.96 -29.62 2.73
2.87 -8.53 -1.43
13.79 -41 5.31
3.66 -10.87 -1.41
13.77 -40.93 6.84
5.55 -16.5 -1.52
8.07 -23.98 -1.33
1.93 -5.74 1.4
1.91 -5.75 -1.62
2.15 -6.47 -1.57
9.89 -29.76 1.64
2.42 -7.29 -1.49
9.85 -29.63 2.73
2.84 -8.55 -1.43
13.63 -41 5.3
3.61 -10.87 -1.41
13.61 -40.94 6.83
5.52 -16.61 -1.53
2.03 -6.1 1.25
8 -24.07 -1.33
1.9 -5.78 -1.63
2.13 -6.47 -1.57
9.78 -29.76 1.64
2.4 -7.3 -1.49
9.74 -29.63 2.73
2.82 -8.57 -1.43
3.57 -10.87 -1.4
13.46 -40.95 6.83
5.49 -16.7 -1.54
7.93 -24.12 -1.33
1.89 -5.76 1.4
1.87 -5.77 -1.62
2.11 -6.5 -1.58
9.67 -29.77 1.64
2.38 -7.33 -1.5
9.63 -29.65 2.73
2.79 -8.58 -1.43
3.54 -10.91 -1.41
13.3 -40.96 6.82
5.44 -16.75 -1.54
7.85 -24.19 -1.33
1.86 -5.81 -1.63
2.1 -6.53 -1.58
9.55 -29.78 1.64
2.35 -7.32 -1.49
9.51 -29.64 2.72
2.75 -8.58 -1.43
3.5 -10.92 -1.41
13.15 -40.98 6.82
5.39 -16.79 -1.54
7.79 -24.26 -1.34
1.85 -5.85 -1.64
9.45 -29.8 0.55
2.08 -6.55 -1.59
9.45 -29.8 1.64
2.33 -7.34 -1.5
9.4 -29.66 2.72
2.72 -8.58 -1.43
3.45 -10.88 -1.4
13 -41 6.81
5.33 -16.81 -1.54
7.71 -24.3 -1.34
1.83 -5.77 1.4
9.46 -29.85 -0.55
1.84 -5.86 -1.65
9.31 -29.74 0.54
2.06 -6.58 -1.59
9.32 -29.77 1.63
2.3 -7.34 -1.5
9.29 -29.67 2.72
2.69 -8.6 -1.43
3.44 -10.97 -1.41
12.84 -41.01 6.81
5.27 -16.82 -1.54
7.63 -24.36 -1.34
1.81 -5.79 1.4
9.31 -29.73 -0.54
1.82 -5.9 -1.65
9.19 -29.7 0.54
2.03 -6.56 -1.58
9.18 -29.68 1.63
2.28 -7.35 -1.5
9.18 -29.68 2.72
2.66 -8.61 -1.43
3.4 -10.99 -1.41
12.69 -41.02 6.8
5.23 -16.89 -1.55
7.55 -24.4 -1.34
9.2 -29.74 -0.54
2.03 -6.57 1.84
1.8 -5.9 -1.65
9.1 -29.79 0.54
2 -6.54 -1.58
9.04 -29.59 1.62
2.25 -7.36 -1.5
9.07 -29.69 2.72
2.63 -8.62 -1.43
12.54 -41.03 5.27
3.34 -10.94 -1.41
12.54 -41.03 6.79
5.17 -16.93 -1.55
1.82 -5.96 1.21
7.48 -24.49 -1.34
1.9 -6.22 1.5
9.13 -29.87 -0.55
1.93 -6.31 1.77
1.78 -5.9 -1.65
9.01 -29.87 0.54
1.97 -6.54 -1.58
8.93 -29.61 1.62
2.23 -7.38 -1.5
8.96 -29.69 2.71
2.61 -8.64 -1.43
12.39 -41.05 5.26
3.29 -10.92 -1.4
12.38 -41.05 6.79
5.11 -16.94 -1.55
7.41 -24.54 -1.34
1.87 -6.19 1.49
1.94 -6.43 1.8
1.76 -5.89 -1.65
1.95 -6.54 -1.58
8.83 -29.62 1.62
2.22 -7.44 -1.51
8.85 -29.71 2.71
2.57 -8.64 -1.43
12.25 -41.13 5.27
3.29 -11.03 -1.41
12.23 -41.06 6.79
5.04 -16.92 -1.54
7.34 -24.62 -1.35
1.82 -6.11 1.47
8.92 -29.95 -0.55
1.95 -6.55 1.83
1.72 -5.85 -1.64
11.91 -40.48 0.74
1.93 -6.57 -1.58
8.71 -29.62 1.62
2.19 -7.45 -1.51
8.74 -29.71 2.71
2.55 -8.66 -1.43
3.24 -11.01 -1.41
12.09 -41.09 6.78
5.01 -17.03 -1.55
7.25 -24.66 -1.35
1.79 -6.1 1.47
8.82 -29.99 -0.55
2.02 -6.85 1.91
1.7 -5.86 -1.64
1.91 -6.59 -1.58
8.6 -29.64 1.62
2.16 -7.42 -1.5
8.63 -29.74 2.71
2.52 -8.68 -1.43
3.21 -11.04 -1.41
11.93 -41.09 6.78
4.98 -17.14 -1.56
7.18 -24.73 -1.35
1.8 -6.19 1.49
8.71 -29.99 -0.55
1.67 -5.84 -1.63
1.89 -6.61 -1.59
8.49 -29.64 1.62
2.12 -7.41 -1.5
8.52 -29.74 2.71
2.49 -8.69 -1.43
3.18 -11.08 -1.42
11.77 -41.08 6.77
4.92 -17.16 -1.56
7.1 -24.78 -1.35
8.6 -30.01 -0.54
1.65 -5.82 -1.62
1.85 -6.54 -1.57
8.39 -29.66 1.62
2.1 -7.42 -1.5
8.41 -29.73 2.7
2.46 -8.7 -1.43
3.15 -11.13 -1.42
11.62 -41.1 6.77
4.87 -17.21 -1.56
7.03 -24.85 -1.35
1.85 -6.53 1.82
1.62 -5.81 -1.62
8.35 -29.92 0.54
1.82 -6.53 -1.56
8.28 -29.66 1.61
2.07 -7.43 -1.5
8.3 -29.74 2.7
2.43 -8.69 -1.43
3.11 -11.15 -1.42
11.47 -41.12 6.76
4.81 -17.25 -1.57
6.95 -24.9 -1.35
1.8 -6.44 1.54
8.34 -29.88 -0.54
1.6 -5.8 -1.61
8.2 -29.78 0.54
1.79 -6.51 -1.56
8.17 -29.69 1.61
2.05 -7.44 -1.5
8.19 -29.75 2.7
2.4 -8.71 -1.43
11.34 -41.21 5.25
3.07 -11.15 -1.42
11.33 -41.15 6.76
4.76 -17.29 -1.57
6.87 -24.94 -1.36
8.21 -29.84 -0.54
1.58 -5.81 -1.61
8.09 -29.81 0.54
1.79 -6.57 -1.57
8.08 -29.77 1.62
2.02 -7.45 -1.5
8.08 -29.76 2.7
2.37 -8.73 -1.43
11.18 -41.19 5.24
3.02 -11.12 -1.41
11.17 -41.15 6.75
4.7 -17.31 -1.57
6.14 -22.61 -1.23
8.1 -29.84 -0.54
1.56 -5.81 -1.61
8 -29.89 0.54
1.74 -6.5 -1.55
7.95 -29.68 1.61
2.01 -7.49 -1.51
7.97 -29.78 2.7
2.34 -8.74 -1.43
2.98 -11.13 -1.42
11.02 -41.15 6.75
4.64 -17.32 -1.57
1.58 -5.89 1.19
6.06 -22.62 -1.23
1.73 -6.44 1.54
8.02 -29.96 -0.54
1.53 -5.81 -1.61
7.91 -29.98 0.54
1.72 -6.51 -1.55
7.84 -29.7 1.61
1.98 -7.49 -1.51
7.87 -29.8 2.7
2.31 -8.75 -1.43
2.94 -11.14 -1.42
1.76 -6.66 1.09
4.58 -17.36 -1.57
1.56 -5.91 1.19
5.98 -22.63 -1.23
1.71 -6.47 1.54
1.47 -5.56 1.54
1.51 -5.82 -1.61
10.83 -41.6 0.75
1.7 -6.51 -1.55
7.73 -29.7 1.61
1.95 -7.48 -1.5
7.76 -29.81 2.7
2.28 -8.74 -1.43
2.92 -11.23 -1.43
1.74 -6.67 1.09
4.53 -17.42 -1.57
5.89 -22.64 -1.23
1.7 -6.53 1.56
1.44 -5.55 1.54
1.49 -5.81 -1.61
10.68 -41.64 0.75
1.68 -6.53 -1.56
7.63 -29.72 1.61
1.92 -7.47 -1.5
7.65 -29.8 2.69
2.25 -8.77 -1.43
2.87 -11.2 -1.42
1.77 -6.9 1.13
4.48 -17.45 -1.58
5.81 -22.64 -1.22
1.41 -5.5 1.52
1.47 -5.82 -1.61
1.65 -6.52 -1.55
7.51 -29.72 1.61
1.89 -7.48 -1.5
7.54 -29.82 2.69
2.22 -8.77 -1.43
1.72 -6.82 0.86
2.83 -11.2 -1.42
10.42 -41.22 6.73
4.42 -17.46 -1.58
5.73 -22.65 -1.22
1.38 -5.44 1.5
1.45 -5.82 -1.61
1.62 -6.5 -1.55
7.41 -29.74 1.61
1.86 -7.48 -1.5
7.43 -29.82 2.69
2.19 -8.78 -1.43
2.79 -11.21 -1.42
1.69 -6.76 1.1
4.36 -17.49 -1.58
5.64 -22.66 -1.22
1.43 -5.82 -1.61
10.22 -41.65 0.75
1.6 -6.52 -1.55
7.3 -29.75 1.61
1.84 -7.5 -1.5
7.32 -29.83 2.69
2.16 -8.79 -1.43
10.12 -41.23 5.21
2.75 -11.2 -1.42
1.53 -6.25 1.02
4.29 -17.48 -1.57
1.45 -5.89 1.18
5.56 -22.67 -1.22
1.58 -6.46 1.78
1.41 -5.83 -1.61
10.08 -41.69 0.75
1.58 -6.52 -1.55
7.19 -29.76 1.6
1.82 -7.54 -1.51
7.21 -29.83 2.68
2.13 -8.79 -1.43
1.67 -6.93 0.87
2.71 -11.21 -1.42
1.51 -6.24 1.02
4.24 -17.54 -1.58
1.41 -5.83 1.17
5.48 -22.67 -1.22
1.33 -5.52 1.52
1.4 -5.86 -1.62
1.55 -6.5 -1.54
7.08 -29.76 1.6
1.8 -7.58 -1.51
7.1 -29.84 2.68
2.1 -8.8 -1.43
9.84 -41.34 5.22
2.67 -11.21 -1.42
4.19 -17.6 -1.58
5.39 -22.66 -1.22
1.6 -6.74 1.6
1.32 -5.55 1.53
1.38 -5.89 -1.62
1.53 -6.53 -1.55
6.98 -29.76 1.6
1.78 -7.58 -1.51
7 -29.85 2.68
2.07 -8.82 -1.43
2.63 -11.23 -1.42
9.67 -41.28 6.71
4.13 -17.62 -1.58
1.49 -6.35 1.27
5.32 -22.68 -1.22
1.62 -6.9 1.64
1.53 -6.53 1.8
1.36 -5.89 -1.62
6.92 -30.01 0.54
1.51 -6.56 -1.55
6.87 -29.77 1.6
1.75 -7.57 -1.51
6.89 -29.87 2.68
2.03 -8.82 -1.43
2.6 -11.25 -1.42
9.52 -41.28 6.71
4.07 -17.63 -1.58
1.47 -6.37 1.27
5.23 -22.69 -1.22
1.48 -6.4 1.76
1.34 -5.89 -1.62
6.82 -30.03 0.54
1.49 -6.55 -1.55
6.76 -29.78 1.6
1.72 -7.56 -1.51
6.78 -29.86 2.68
2 -8.82 -1.43
2.57 -11.31 -1.42
9.37 -41.29 6.71
4.01 -17.68 -1.59
5.15 -22.69 -1.22
1.53 -6.73 1.59
1.32 -5.9 -1.62
9.33 -41.76 0.75
1.46 -6.56 -1.55
6.65 -29.8 1.6
1.68 -7.53 -1.5
6.67 -29.87 2.68
1.97 -8.84 -1.43
2.52 -11.29 -1.42
1.49 -6.65 1.08
3.95 -17.7 -1.59
5.07 -22.7 -1.22
1.3 -5.92 -1.62
1.44 -6.57 -1.55
6.55 -29.8 1.6
1.66 -7.58 -1.51
6.57 -29.9 2.68
1.94 -8.84 -1.43
2.48 -11.3 -1.42
1.46 -6.64 1.08
3.9 -17.73 -1.59
4.99 -22.7 -1.22
1.37 -6.23 1.47
1.28 -5.91 -1.62
9 -41.67 0.74
1.42 -6.58 -1.55
6.44 -29.8 1.6
1.64 -7.61 -1.51
6.46 -29.9 2.68
1.91 -8.85 -1.43
1.4 -6.46 0.81
2.44 -11.29 -1.42
3.84 -17.77 -1.59
4.91 -22.71 -1.22
1.49 -6.9 1.63
1.25 -5.9 -1.62
1.4 -6.57 -1.55
6.33 -29.81 1.6
1.62 -7.64 -1.52
6.35 -29.91 2.68
1.88 -8.86 -1.43
8.79 -41.4 5.2
2.4 -11.31 -1.42
1.33 -6.26 1.01
3.78 -17.79 -1.59
4.82 -22.72 -1.22
1.46 -6.88 1.62
1.23 -5.91 -1.62
8.71 -41.74 0.74
1.37 -6.58 -1.55
6.23 -29.83 1.6
1.6 -7.67 -1.52
6.24 -29.91 2.67
1.85 -8.87 -1.43
8.67 -41.56 5.21
2.36 -11.33 -1.42
1.47 -7.06 1.14
3.71 -17.79 -1.59
1.34 -6.42 1.27
4.74 -22.73 -1.22
1.42 -6.81 1.61
1.21 -5.92 -1.62
8.56 -41.75 0.74
1.35 -6.57 -1.55
6.12 -29.84 1.6
1.56 -7.63 -1.51
6.14 -29.92 2.67
1.82 -8.87 -1.43
2.33 -11.37 -1.42
1.45 -7.06 1.14
3.66 -17.82 -1.59
1.29 -6.31 1.25
4.66 -22.73 -1.22
1.4 -6.83 1.61
6.32 -30.81 -0.55
1.19 -5.91 -1.62
8.41 -41.75 0.74
1.31 -6.53 -1.54
6.01 -29.85 1.6
1.53 -7.62 -1.51
6.03 -29.93 2.67
1.79 -8.87 -1.43
2.28 -11.32 -1.42
1.4 -6.93 1.12
3.59 -17.83 -1.59
1.28 -6.35 1.26
4.58 -22.73 -1.22
6.22 -30.85 -0.55
1.43 -7.09 1.94
1.17 -5.91 -1.62
8.27 -41.78 0.74
1.29 -6.5 -1.53
5.9 -29.84 1.59
1.5 -7.61 -1.51
5.92 -29.94 2.67
1.76 -8.89 -1.43
2.24 -11.31 -1.42
1.41 -7.13 1.15
3.53 -17.86 -1.59
4.5 -22.74 -1.21
6.1 -30.85 -0.55
1.26 -6.36 1.74
1.15 -5.91 -1.61
5.85 -30.12 0.54
1.26 -6.5 -1.53
5.8 -29.86 1.59
1.48 -7.6 -1.5
5.82 -29.95 2.67
1.73 -8.9 -1.44
1.26 -6.51 0.81
2.2 -11.32 -1.42
1.4 -7.19 1.16
3.47 -17.89 -1.59
4.42 -22.75 -1.21
5.85 -30.1 -0.54
1.24 -6.36 1.74
1.12 -5.9 -1.61
5.72 -29.99 0.53
1.24 -6.53 -1.54
5.69 -29.87 1.59
1.45 -7.61 -1.51
5.71 -29.94 2.67
1.7 -8.91 -1.44
1.24 -6.52 0.81
2.16 -11.33 -1.42
7.89 -41.41 6.68
3.41 -17.92 -1.6
1.1 -5.78 1.14
4.34 -22.76 -1.21
5.72 -30.02 -0.53
1.2 -6.32 1.72
1.1 -5.91 -1.61
5.6 -29.98 0.53
1.22 -6.52 -1.53
5.6 -29.97 1.6
1.43 -7.66 -1.51
5.6 -29.96 2.67
1.67 -8.91 -1.44
7.76 -41.51 5.19
2.12 -11.35 -1.42
1.15 -6.17 0.99
3.35 -17.91 -1.59
1.07 -5.7 1.13
4.26 -22.77 -1.21
1.09 -5.81 1.37
5.62 -30.03 -0.53
1.17 -6.25 1.7
1.08 -5.92 -1.61
5.5 -29.99 0.53
1.17 -6.38 -1.5
5.5 -29.97 1.6
1.41 -7.69 -1.52
5.49 -29.97 2.67
1.64 -8.92 -1.44
7.6 -41.43 5.17
2.08 -11.36 -1.42
7.6 -41.43 6.67
3.29 -17.95 -1.6
4.17 -22.76 -1.21
1.05 -5.74 1.35
5.51 -30.04 -0.53
1.06 -5.78 1.57
1.07 -5.95 -1.62
5.39 -30.01 0.53
1.15 -6.38 -1.5
5.39 -29.99 1.6
1.38 -7.69 -1.52
5.39 -29.98 2.67
1.61 -8.93 -1.44
1.18 -6.57 0.82
2.04 -11.36 -1.42
7.45 -41.45 6.67
3.23 -17.98 -1.6
4.69 -26.11 -1.39
1.08 -6 1.41
5.4 -30.06 -0.53
1.12 -6.25 1.7
1.04 -5.93 -1.61
5.29 -30.02 0.53
1.12 -6.38 -1.5
5.28 -30 1.6
1.36 -7.7 -1.52
5.28 -29.99 2.66
1.57 -8.94 -1.44
1.15 -6.54 0.82
2.01 -11.4 -1.42
7.3 -41.46 6.67
3.17 -17.98 -1.6
4.61 -26.15 -1.39
1.05 -5.96 1.4
5.29 -30.04 -0.53
1.1 -6.27 1.71
1.02 -5.89 -1.6
5.18 -30.02 0.53
1.1 -6.4 -1.5
5.18 -30.01 1.6
1.33 -7.72 -1.52
5.17 -29.99 2.66
1.54 -8.95 -1.44
1.13 -6.57 0.82
1.97 -11.43 -1.42
7.16 -41.47 6.67
3.1 -17.96 -1.59
4.51 -26.14 -1.39
5.19 -30.06 -0.53
1 -5.91 -1.61
5.07 -29.99 0.53
1.08 -6.38 -1.49
5.07 -30.04 1.6
1.08 -6.4 -1.26
5.07 -30.01 2.66
1.51 -8.95 -1.44
1.11 -6.55 0.82
1.93 -11.42 -1.42
7.01 -41.5 6.67
3.04 -17.99 -1.6
4.43 -26.21 -1.39
1.02 -6.01 1.41
5.08 -30.07 -0.53
0.91 -5.4 1.47
0.98 -5.91 -1.61
4.96 -30.01 0.53
1.06 -6.38 -1.49
4.97 -30.04 1.6
1.06 -6.4 -1.26
1.05 -6.34 0.56
1.06 -6.42 -1.03
1.05 -6.37 0.79
1.06 -6.42 -0.8
6.92 -41.85 6.72
1.06 -6.4 -0.57
4.35 -26.27 -1.4
4.97 -30.08 -0.53
0.9 -5.43 1.47
0.96 -5.93 -1.61
4.86 -30.03 0.53
1.03 -6.39 -1.49
4.86 -30.04 1.59
1.03 -6.39 -1.26
1.03 -6.36 0.56
1.04 -6.41 -1.03
1.03 -6.37 0.79
1.03 -6.39 -0.79
7.05 -43.6 6.99
1.04 -6.4 -0.34
1.04 -6.41 -0.11
0.94 -5.94 -1.61
1.01 -6.41 -1.5
1.01 -6.38 -1.26
1.01 -6.36 0.56
1.01 -6.4 -1.03
1 -6.34 0.79
1.01 -6.39 -0.79
0.94 -5.95 0.95
1.01 -6.41 -0.57
1.01 -6.4 -0.34
1.04 -6.58 1.54
0.92 -5.84 1.59
0.92 -5.92 -1.6
0.98 -6.35 0.11
1.03 -6.63 -1.55
0.99 -6.4 -1.26
0.98 -6.31 0.56
0.99 -6.4 -1.03
0.98 -6.32 0.79
0.99 -6.42 -0.8
0.99 -6.41 -0.57
0.98 -6.31 1.24
0.99 -6.41 -0.34
0.9 -5.83 1.58
0.89 -5.9 -1.6
0.96 -6.36 0.11
1.02 -6.74 -1.57
0.96 -6.35 0.34
1.17 -7.74 -1.52
0.96 -6.33 0.56
0.97 -6.41 -1.03
0.96 -6.32 0.79
0.97 -6.41 -0.8
0.95 -6.31 1.01
0.97 -6.42 -0.57
0.97 -6.42 -0.34
0.97 -6.4 -0.11
0.94 -6.26 1.7
0.87 -5.91 -1.6
0.94 -6.38 0.11
0.98 -6.67 -1.56
0.94 -6.36 0.34
1.14 -7.74 -1.52
0.93 -6.33 0.56
1.32 -8.97 -1.44
0.91 -6.16 0.76
0.93 -6.3 1.01
0.95 -6.42 -0.34
0.92 -6.24 1.46
0.95 -6.41 -0.11
0.92 -6.27 1.7
0.85 -5.91 -1.6
0.98 -6.78 -1.58
1.12 -7.76 -1.52
0.92 -6.38 0.56
1.29 -8.99 -1.44
1.64 -11.42 -1.42
0.91 -6.35 1.02
2.62 -18.19 -1.61
0.85 -5.9 1.16
0.9 -6.22 1.45
0.9 -6.27 1.7
0.83 -5.92 -1.6
4.22 -30.09 0.53
0.95 -6.74 -1.57
1.09 -7.78 -1.53
1.26 -9 -1.44
1.6 -11.43 -1.42
2.55 -18.19 -1.61
0.87 -6.19 1.21
3.73 -26.55 -1.41
0.87 -6.23 1.45
0.88 -6.29 1.7
0.8 -5.88 -1.59
4.12 -30.1 0.53
0.93 -6.77 -1.58
4.12 -30.09 1.59
1.07 -7.81 -1.53
4.11 -30.08 2.66
1.23 -9.01 -1.44
1.58 -11.53 -1.43
2.49 -18.19 -1.61
3.63 -26.56 -1.41
0.85 -6.24 1.45
4.12 -30.12 -0.53
0.78 -5.88 -1.59
4.01 -30.1 0.53
0.91 -6.79 -1.58
4.01 -30.1 1.59
1.03 -7.76 -1.52
4.01 -30.1 2.66
1.2 -9.01 -1.44
8.61 -64.63 8.01
1.55 -11.6 -1.44
2.43 -18.21 -1.61
3.54 -26.57 -1.4
0.83 -6.22 1.45
4.01 -30.13 -0.53
0.77 -5.9 -1.59
3.91 -30.08 0.53
0.88 -6.78 -1.58
3.91 -30.08 1.59
1.01 -7.81 -1.53
3.91 -30.07 2.65
1.17 -9.02 -1.44
1.49 -11.5 -1.42
0.84 -6.44 1.03
2.37 -18.24 -1.61
3.46 -26.64 -1.41
0.82 -6.34 1.48
0.75 -5.91 -1.6
4.21 -33.3 0.59
0.86 -6.81 -1.58
4.01 -31.76 1.68
0.99 -7.83 -1.53
1.14 -9.03 -1.44
1.45 -11.46 -1.42
2.31 -18.27 -1.61
3.36 -26.64 -1.41
0.8 -6.35 1.48
0.86 -6.81 1.84
0.73 -5.92 -1.6
0.83 -6.8 -1.58
0.96 -7.79 -1.53
1.11 -9.04 -1.44
1.41 -11.51 -1.42
0.78 -6.34 1.01
2.24 -18.29 -1.61
0.7 -5.68 1.11
3.27 -26.67 -1.41
0.73 -5.95 1.61
0.71 -5.92 -1.6
4.87 -40.93 0.72
0.81 -6.77 -1.57
0.93 -7.81 -1.53
1.08 -9.06 -1.44
1.37 -11.5 -1.42
0.75 -6.32 1.01
2.18 -18.29 -1.61
0.68 -5.68 1.11
3.19 -26.75 -1.41
0.75 -6.33 1.47
0.69 -5.98 -1.61
4.73 -40.96 0.72
0.78 -6.77 -1.57
0.91 -7.85 -1.54
1.05 -9.05 -1.44
1.33 -11.52 -1.42
2.12 -18.33 -1.61
0.65 -5.65 1.11
3.09 -26.76 -1.41
0.74 -6.4 1.49
4.91 -42.47 -0.75
0.68 -5.9 1.59
0.67 -6 -1.62
0.77 -6.85 -1.59
0.88 -7.86 -1.54
1.02 -9.07 -1.45
1.29 -11.56 -1.43
2.05 -18.34 -1.61
3 -26.79 -1.41
0.62 -5.55 1.29
4.76 -42.5 -0.75
0.65 -5.76 1.55
0.65 -5.99 -1.61
0.74 -6.86 -1.59
0.85 -7.87 -1.54
0.98 -9.07 -1.45
1.26 -11.61 -1.43
0.69 -6.37 1.01
1.99 -18.36 -1.62
2.91 -26.85 -1.42
0.6 -5.52 1.28
5.08 -46.85 -0.82
0.58 -5.36 1.44
0.63 -6 -1.62
0.72 -6.88 -1.6
0.83 -7.86 -1.54
0.95 -9.08 -1.45
0.68 -6.45 0.8
1.22 -11.65 -1.44
0.67 -6.37 1.01
1.93 -18.35 -1.61
2.82 -26.89 -1.42
0.68 -6.51 1.51
0.62 -5.9 1.59
0.61 -6.04 -1.63
0.7 -6.87 -1.59
0.8 -7.87 -1.54
0.92 -9.08 -1.45
0.65 -6.45 0.8
1.18 -11.68 -1.44
1.86 -18.38 -1.62
2.73 -26.89 -1.42
0.64 -6.32 1.47
0.59 -6.04 -1.63
0.67 -6.84 -1.59
0.77 -7.86 -1.54
0.89 -9.08 -1.45
0.63 -6.46 0.8
1.15 -11.71 -1.45
0.68 -6.95 1.11
1.8 -18.4 -1.62
2.64 -26.92 -1.42
0.56 -5.74 1.33
0.69 -7.07 1.9
0.57 -6.04 -1.63
0.64 -6.79 -1.57
0.74 -7.84 -1.53
0.86 -9.09 -1.45
0.61 -6.44 0.79
1.11 -11.73 -1.45
0.63 -6.71 1.07
1.74 -18.46 -1.62
0.64 -6.79 1.33
2.54 -26.92 -1.42
0.54 -5.67 1.32
0.51 -5.38 1.45
0.55 -6.03 -1.62
0.62 -6.79 -1.57
0.71 -7.83 -1.53
0.83 -9.1 -1.45
0.59 -6.45 0.8
1.06 -11.72 -1.44
0.6 -6.6 1.05
1.68 -18.48 -1.62
2.45 -26.92 -1.42
0.6 -6.58 1.53
0.65 -7.11 1.91
0.53 -6.02 -1.62
0.6 -6.82 -1.58
0.68 -7.82 -1.53
0.8 -9.11 -1.45
0.57 -6.48 0.8
1.02 -11.71 -1.44
0.58 -6.67 1.06
1.62 -18.51 -1.63
2.35 -26.89 -1.41
0.55 -6.33 1.47
0.61 -7.02 1.89
0.5 -6.02 -1.62
0.57 -6.84 -1.58
0.65 -7.79 -1.52
0.76 -9.12 -1.45
0.55 -6.52 0.8
0.98 -11.68 -1.44
0.52 -6.16 0.98
1.55 -18.53 -1.63
2.26 -26.92 -1.42
0.53 -6.38 1.48
0.59 -7.02 1.89
0.49 -6.06 -1.63
0.56 -7.02 -1.63
0.63 -7.79 -1.52
0.73 -9.11 -1.45
0.53 -6.56 0.81
0.94 -11.74 -1.45
0.49 -6.16 0.98
1.49 -18.52 -1.63
2.17 -27.07 -1.42
0.51 -6.38 1.48
0.47 -6.12 -1.64
0.7 -9.13 -1.45
0.9 -11.7 -1.44
1.42 -18.56 -1.63
2.08 -27.08 -1.42
0.49 -6.41 1.48
3.74 -48.69 -0.85
0.45 -6.16 -1.66
0.67 -9.14 -1.45
0.49 -6.67 0.82
0.86 -11.79 -1.45
1.36 -18.61 -1.63
1.98 -27.07 -1.42
0.41 -5.63 1.3
0.43 -6.17 -1.66
0.55 -7.82 -1.52
