# .PCD v0.7 - Point Cloud Data file format
VERSION 0.7
FIELDS x y z
SIZE 4 4 4
TYPE F F F
COUNT 1 1 1
WIDTH 2888
HEIGHT 1
VIEWPOINT 0 0 0 1 0 0 0
POINTS 2888
DATA ascii
-17.77 37.56 0.73
-32.05 67.74 3.93
-3.93 8.31 -1.79
-3.91 8.27 -1.45
-17.87 37.76 5.13
-3.91 8.27 -1.12
-3.93 8.3 -0.8
-4.07 8.6 -0.17
-17.65 37.63 0.73
-3.91 8.33 -1.79
-3.98 8.48 -1.48
-17.73 37.81 5.13
-3.89 8.29 -1.12
-3.9 8.32 -0.8
-4.06 8.65 -0.17
-17.52 37.7 0.73
-3.87 8.34 -1.79
-3.97 8.55 -1.49
-17.6 37.88 5.13
-3.86 8.3 -1.12
-3.88 8.35 -0.81
-4.05 8.71 -0.17
-17.4 37.78 0.73
-30.93 67.18 3.88
-3.84 8.35 -1.79
-3.83 8.33 -1.45
-17.48 37.96 5.13
-3.83 8.31 -1.12
-3.85 8.35 -0.8
-4.03 8.76 -0.17
-17.25 37.82 0.73
-30.29 66.4 3.83
-3.81 8.36 -1.79
-22.87 50.13 4.82
-3.8 8.33 -1.45
-17.34 38.02 5.13
-3.8 8.33 -1.12
-3.81 8.36 -0.8
-4.03 8.83 -0.17
-17.12 37.88 0.73
-29.64 65.58 3.77
-3.78 8.37 -1.79
-22.34 49.41 4.74
-3.77 8.34 -1.45
-17.21 38.08 5.13
-3.77 8.33 -1.12
-3.79 8.37 -0.8
-3.83 8.46 -0.49
-3.91 8.64 -0.17
-16.99 37.94 0.73
-29.03 64.84 3.72
-3.75 8.38 -1.78
-3.75 8.37 -1.45
-17.08 38.14 5.13
-3.73 8.33 -1.12
-3.76 8.39 -0.8
-3.8 8.49 -0.49
-3.88 8.66 -0.17
-16.87 38.02 0.73
-28.39 63.98 3.67
-3.72 8.39 -1.79
-21.53 48.53 4.65
-3.72 8.37 -1.45
-16.95 38.2 5.13
-3.7 8.34 -1.12
-3.73 8.4 -0.8
-16.75 38.12 0.73
-3.69 8.4 -1.78
-3.69 8.39 -1.45
-16.82 38.28 5.13
-3.7 8.41 -0.8
-3.92 8.92 -0.17
-16.61 38.16 0.73
-3.66 8.41 -1.78
-20.8 47.77 4.56
-3.66 8.4 -1.45
-16.69 38.34 5.13
-3.66 8.4 -1.12
-3.67 8.42 -0.8
-3.89 8.93 -0.17
-16.46 38.19 0.73
-3.63 8.42 -1.78
-18.65 43.27 4.12
-3.62 8.41 -1.45
-16.56 38.41 5.14
-3.62 8.4 -1.12
-3.64 8.44 -0.8
-3.86 8.95 -0.17
-16.36 38.3 0.73
-3.6 8.44 -1.78
-3.6 8.42 -1.45
-16.42 38.46 5.13
-3.59 8.41 -1.12
-3.61 8.46 -0.8
-3.83 8.97 -0.17
-16.22 38.37 0.73
-26.49 62.65 3.57
-3.57 8.45 -1.78
-3.57 8.44 -1.45
-16.29 38.53 5.14
-3.56 8.41 -1.12
-3.59 8.48 -0.81
-3.79 8.97 -0.17
-16.1 38.44 0.73
-26.31 62.81 3.57
-3.54 8.45 -1.78
-17.04 40.68 3.86
-3.54 8.45 -1.45
-16.16 38.59 5.14
-3.53 8.43 -1.12
-3.55 8.48 -0.8
-3.76 8.98 -0.17
-15.95 38.46 0.73
-26.09 62.9 3.57
-3.51 8.46 -1.78
-3.51 8.47 -1.45
-16.04 38.66 5.14
-3.5 8.45 -1.12
-3.52 8.48 -0.8
-3.73 9 -0.17
-15.82 38.5 0.73
-25.88 62.99 3.57
-3.48 8.48 -1.78
-3.48 8.47 -1.45
-15.91 38.72 5.14
-3.47 8.46 -1.12
-3.49 8.51 -0.8
-3.7 9.02 -0.17
-15.78 38.81 0.73
-25.65 63.08 3.57
-3.45 8.49 -1.78
-3.45 8.49 -1.45
-15.77 38.78 5.14
-3.45 8.47 -1.12
-3.46 8.51 -0.8
-3.68 9.04 -0.17
-15.61 38.75 0.73
-25.43 63.14 3.57
-3.42 8.5 -1.78
-3.43 8.51 -1.45
-15.64 38.84 5.14
-3.41 8.48 -1.12
-3.44 8.53 -0.8
-3.64 9.05 -0.17
-15.48 38.82 0.73
-2.86 7.18 -1.78
-25.23 63.26 3.57
-3.39 8.5 -1.78
-3.4 8.53 -1.45
-15.51 38.91 5.14
-3.39 8.5 -1.12
-3.41 8.55 -0.81
-3.61 9.05 -0.17
-15.37 38.93 0.73
-2.85 7.21 -1.79
-25.02 63.36 3.57
-3.36 8.51 -1.78
-19.5 49.39 4.65
-3.37 8.55 -1.46
-15.39 38.97 5.14
-3.36 8.51 -1.12
-3.38 8.55 -0.8
-3.56 9.01 -0.17
-15.2 38.92 0.73
-2.8 7.18 -1.78
-22.59 57.86 3.26
-3.33 8.53 -1.78
-20.1 51.48 4.84
-3.34 8.54 -1.45
-15.24 39.03 5.15
-3.33 8.53 -1.12
-3.35 8.57 -0.8
-3.52 9.02 -0.17
-15.06 38.97 0.73
-22.41 57.97 3.26
-3.3 8.54 -1.78
-19.93 51.55 4.84
-3.31 8.56 -1.45
-15.11 39.1 5.15
-3.3 8.54 -1.12
-3.32 8.59 -0.81
-3.47 8.98 -0.17
-14.87 38.87 0.73
-3.27 8.55 -1.78
-19.39 50.69 4.75
-3.28 8.58 -1.46
-14.97 39.15 5.15
-3.27 8.55 -1.12
-3.29 8.6 -0.81
-3.42 8.95 -0.17
-14.72 38.89 0.73
-3.24 8.55 -1.78
-19.22 50.77 4.75
-3.26 8.6 -1.46
-14.85 39.22 5.15
-3.24 8.57 -1.13
-3.26 8.62 -0.81
-3.39 8.96 -0.5
-3.38 8.92 -0.17
-14.62 39.03 0.73
-3.21 8.56 -1.78
-16.58 44.25 4.13
-3.22 8.6 -1.46
-14.72 39.29 5.15
-3.22 8.59 -1.13
-3.23 8.62 -0.81
-3.34 8.91 -0.5
-3.34 8.9 -0.17
-14.49 39.09 0.73
-20.76 55.98 3.13
-3.18 8.57 -1.78
-18.53 49.98 4.66
-3.2 8.62 -1.46
-14.59 39.35 5.15
-3.19 8.6 -1.13
-3.2 8.64 -0.81
-3.24 8.74 -0.49
-3.3 8.91 -0.17
-14.35 39.14 0.73
-23.48 64.06 3.58
-3.15 8.58 -1.78
-18.01 49.13 4.58
-3.16 8.63 -1.46
-14.45 39.41 5.15
-3.16 8.62 -1.13
-3.17 8.65 -0.81
-3.2 8.73 -0.49
-3.27 8.92 -0.17
-14.21 39.18 0.73
-16.09 44.36 2.47
-3.12 8.59 -1.78
-17.87 49.26 4.58
-3.14 8.65 -1.46
-14.32 39.47 5.16
-3.13 8.62 -1.13
-3.15 8.68 -0.81
-3.17 8.75 -0.49
-3.24 8.93 -0.17
-14.08 39.27 0.73
-21.04 58.65 3.27
-3.08 8.59 -1.77
-3.11 8.67 -1.46
-14.18 39.55 5.16
-3.1 8.63 -1.13
-3.12 8.69 -0.81
-3.14 8.76 -0.49
-3.2 8.92 -0.17
-13.95 39.32 0.73
-17.07 48.12 2.68
-3.05 8.59 -1.77
-15.84 44.64 4.14
-3.08 8.68 -1.46
-14.06 39.62 5.16
-3.07 8.65 -1.13
-3.08 8.69 -0.81
-3.11 8.78 -0.49
-3.17 8.94 -0.17
-13.83 39.38 0.73
-16.9 48.13 2.67
-3.02 8.6 -1.77
-3.05 8.68 -1.46
-13.93 39.67 5.16
-3.04 8.66 -1.13
-3.06 8.7 -0.81
-3.42 9.75 -0.54
-3.14 8.95 -0.17
-13.7 39.45 0.73
-2.99 8.61 -1.77
-3.02 8.7 -1.46
-13.8 39.73 5.16
-3.01 8.67 -1.13
-3.03 8.72 -0.81
-3.39 9.75 -0.54
-3.12 8.97 -0.17
-13.56 39.49 0.73
-2.96 8.61 -1.77
-2.99 8.72 -1.46
-13.67 39.8 5.17
-2.98 8.68 -1.13
-3 8.75 -0.81
-3.36 9.8 -0.54
-3.09 8.99 -0.17
-13.44 39.58 0.73
-2.93 8.62 -1.77
-16.22 47.76 4.41
-2.97 8.73 -1.46
-13.54 39.86 5.17
-2.96 8.7 -1.13
-2.97 8.76 -0.81
-3.06 9 -0.17
-12.15 36.21 0.67
-2.89 8.63 -1.77
-2.94 8.75 -1.46
-13.4 39.93 5.17
-2.93 8.72 -1.13
-2.94 8.76 -0.81
-13.17 39.7 0.73
-2.86 8.63 -1.77
-13.27 40 3.69
-2.9 8.75 -1.46
-13.27 39.98 5.17
-2.9 8.74 -1.13
-2.91 8.78 -0.81
-13.17 39.69 -0.73
-13.03 39.8 0.73
-13.08 39.95 2.2
-2.83 8.64 -1.77
-13.11 40.03 3.69
-2.87 8.77 -1.46
-13.11 40.05 5.17
-2.87 8.76 -1.13
-2.88 8.81 -0.81
-13.02 39.77 -0.73
-12.9 39.87 0.73
-2.8 8.66 -1.77
-12.98 40.11 3.69
-2.84 8.79 -1.46
-12.98 40.11 5.18
-2.84 8.76 -1.13
-2.86 8.82 -0.81
-12.9 39.84 -0.73
-12.76 39.86 0.73
-2.77 8.65 -1.76
-12.85 40.16 3.69
-2.82 8.8 -1.46
-12.86 40.18 5.18
-2.81 8.79 -1.13
-2.83 8.84 -0.81
-12.75 39.83 -0.73
-12.63 39.92 0.73
-2.74 8.66 -1.76
-12.72 40.2 3.69
-2.79 8.81 -1.46
-12.74 40.26 5.18
-2.78 8.8 -1.13
-2.8 8.84 -0.81
-12.62 39.88 -0.73
-12.48 39.97 0.73
-12.66 40.56 2.23
-2.7 8.66 -1.76
-12.58 40.28 3.69
-2.75 8.82 -1.46
-12.59 40.32 5.19
-2.75 8.81 -1.13
-2.77 8.86 -0.81
-12.47 39.95 -0.73
-12.34 40.01 0.73
-12.19 39.52 2.17
-2.67 8.67 -1.76
-12.45 40.34 3.69
-2.72 8.83 -1.46
-12.45 40.37 5.19
-2.72 8.83 -1.13
-2.74 8.88 -0.81
-12.34 39.99 -0.73
-12.22 40.1 0.73
-12.03 39.47 2.16
-2.64 8.68 -1.76
-12.32 40.42 3.7
-2.7 8.86 -1.47
-12.33 40.44 5.19
-2.69 8.84 -1.13
-2.71 8.89 -0.81
-12.21 40.07 -0.73
-12.09 40.17 0.73
-11.91 39.56 2.16
-2.61 8.68 -1.76
-12.18 40.47 3.7
-2.67 8.87 -1.47
-12.19 40.5 5.19
-2.67 8.85 -1.14
-2.68 8.91 -0.81
-12.58 41.8 -0.76
-11.96 40.23 0.73
-11.78 39.65 2.17
-2.58 8.69 -1.76
-12.04 40.53 3.7
-2.64 8.88 -1.47
-12.06 40.57 5.2
-2.64 8.87 -1.14
-2.65 8.91 -0.81
-11.94 40.19 -0.73
-11.83 40.3 0.73
-11.66 39.73 2.17
-2.55 8.7 -1.76
-11.92 40.61 3.7
-2.61 8.89 -1.47
-11.92 40.63 5.2
-2.61 8.88 -1.14
-2.62 8.92 -0.81
-11.81 40.26 -0.73
-11.68 40.35 0.73
-11.52 39.79 2.17
-2.52 8.7 -1.76
-11.78 40.68 3.71
-2.58 8.9 -1.47
-11.78 40.69 5.2
-2.58 8.9 -1.14
-2.59 8.95 -0.82
-3.01 10.38 -0.57
-11.68 40.32 -0.73
-11.56 40.43 0.73
-11.38 39.81 2.17
-2.49 8.71 -1.76
-11.64 40.74 3.71
-2.55 8.92 -1.47
-11.65 40.78 5.21
-2.54 8.9 -1.14
-2.56 8.97 -0.82
-2.97 10.39 -0.57
-11.54 40.39 -0.73
-11.42 40.5 0.73
-11.25 39.87 2.17
-2.45 8.7 -1.76
-11.51 40.8 3.71
-2.52 8.94 -1.47
-11.52 40.85 5.21
-2.52 8.92 -1.14
-2.53 8.98 -0.82
-2.94 10.42 -0.57
-11.41 40.44 -0.73
-11.28 40.55 0.73
-11.11 39.93 2.17
-2.42 8.71 -1.76
-11.37 40.86 3.71
-2.49 8.95 -1.47
-11.39 40.92 5.21
-2.49 8.94 -1.14
-2.5 8.99 -0.82
-2.91 10.45 -0.57
-11.28 40.52 -0.73
-11.14 40.6 0.73
-10.98 40.03 2.18
-2.39 8.71 -1.76
-11.23 40.93 3.71
-2.46 8.96 -1.47
-11.24 40.98 5.22
-2.46 8.96 -1.14
-2.47 9.01 -0.82
-2.88 10.48 -0.57
-11.14 40.61 -0.73
-7.15 26.42 0.48
-10.85 40.09 2.18
-2.36 8.72 -1.76
-11.09 41 3.72
-2.43 8.97 -1.47
-11.1 41.03 5.22
-2.43 8.98 -1.14
-2.44 9.03 -0.82
-2.48 9.17 -0.5
-11 40.65 -0.74
-7.06 26.45 0.48
-10.72 40.13 2.18
-2.33 8.73 -1.76
-10.97 41.07 3.72
-2.4 8.99 -1.47
-10.97 41.09 5.22
-2.4 8.98 -1.14
-2.41 9.04 -0.82
-10.87 40.73 -0.74
-6.96 26.45 0.48
-10.59 40.22 2.18
-2.3 8.73 -1.75
-10.83 41.13 3.72
-2.37 9.01 -1.48
-10.84 41.16 5.23
-2.37 9 -1.14
-2.38 9.05 -0.82
-2.4 9.13 -0.49
-6.96 26.44 -0.48
-6.89 26.52 0.48
-10.46 40.28 2.18
-2.27 8.73 -1.75
-10.7 41.19 3.72
-2.35 9.03 -1.48
-10.71 41.23 5.23
-2.34 9.01 -1.14
-2.35 9.05 -0.82
-2.38 9.15 -0.5
-10.61 40.83 -0.74
-10.33 40.34 2.18
-2.24 8.74 -1.75
-10.56 41.25 3.73
-2.31 9.03 -1.48
-10.57 41.31 5.24
-2.31 9.03 -1.14
-2.32 9.07 -0.82
-2.35 9.16 -0.5
-10.47 40.89 -0.74
-10.35 41.01 0.74
-10.2 40.41 2.18
-2.21 8.75 -1.75
-10.42 41.31 3.73
-2.28 9.05 -1.48
-10.44 41.37 5.24
-2.28 9.05 -1.15
-2.29 9.09 -0.82
-2.34 9.29 -0.5
-10.34 40.99 -0.74
-10.21 41.07 0.74
-10.05 40.45 2.18
-2.17 8.75 -1.75
-10.29 41.39 3.73
-2.26 9.07 -1.48
-10.3 41.43 5.24
-2.25 9.06 -1.15
-2.26 9.09 -0.82
-2.31 9.29 -0.5
-10.2 41.04 -0.74
-10.08 41.14 0.74
-9.9 40.42 2.18
-2.14 8.75 -1.75
-10.15 41.46 3.73
-2.23 9.09 -1.48
-10.16 41.5 5.25
-2.22 9.07 -1.15
-2.23 9.11 -0.82
-10.04 41 -2.21
-10.06 41.08 -0.74
-9.93 41.19 0.74
-9.79 40.6 2.19
-2.11 8.75 -1.75
-10.02 41.53 3.74
-2.2 9.11 -1.48
-10.02 41.56 5.25
-2.19 9.09 -1.15
-2.21 9.16 -0.82
-9.9 41.05 -2.21
-9.92 41.15 -0.74
-9.8 41.27 0.74
-9.66 40.68 2.19
-2.08 8.77 -1.75
-9.88 41.6 3.74
-2.16 9.1 -1.48
-9.89 41.63 5.25
-2.17 9.12 -1.15
-2.18 9.16 -0.82
-9.76 41.11 -2.21
-9.8 41.25 -0.74
-9.67 41.34 0.74
-9.52 40.71 2.19
-2.05 8.77 -1.75
-9.74 41.66 3.74
-2.13 9.13 -1.48
-9.75 41.69 5.26
-2.13 9.12 -1.15
-2.15 9.19 -0.83
-9.63 41.18 -2.22
-9.66 41.32 -0.74
-9.53 41.4 0.74
-9.39 40.81 2.19
-2.02 8.77 -1.75
-9.6 41.72 3.75
-2.16 9.39 -1.53
-9.61 41.76 5.26
-2.1 9.12 -1.15
-2.12 9.2 -0.83
-9.49 41.25 -2.22
-9.52 41.38 -0.74
-9.39 41.46 0.74
-9.25 40.83 2.19
-1.99 8.77 -1.75
-9.46 41.79 3.75
-2.1 9.28 -1.51
-9.47 41.82 5.27
-2.07 9.13 -1.15
-2.09 9.23 -0.83
-9.36 41.32 -2.22
-9.38 41.44 -0.74
-9.25 41.53 0.74
-9.12 40.96 2.2
-1.95 8.77 -1.75
-9.32 41.85 3.75
-2.04 9.18 -1.49
-9.33 41.9 5.27
-2.04 9.14 -1.15
-2.06 9.23 -0.83
-9.22 41.39 -2.22
-9.25 41.5 -0.74
-9.12 41.6 0.74
-1.63 7.42 -1.75
-8.99 41.03 2.2
-1.92 8.77 -1.75
-9.19 41.93 3.76
-2.01 9.16 -1.48
-9.2 41.97 5.28
-2.01 9.16 -1.15
-2.03 9.25 -0.83
-9.08 41.45 -2.22
-9.11 41.57 -0.74
-8.98 41.67 0.74
-1.59 7.38 -1.74
-8.85 41.06 2.2
-1.89 8.78 -1.75
-9.05 41.99 3.76
-1.98 9.18 -1.49
-9.06 42.03 5.28
-1.99 9.23 -1.16
-2 9.28 -0.83
-8.94 41.5 -2.22
-8.97 41.63 -0.74
-8.84 41.73 0.74
-1.56 7.38 -1.74
-8.71 41.11 2.2
-1.86 8.78 -1.74
-8.91 42.06 3.76
-1.95 9.19 -1.49
-8.92 42.1 5.28
-2.02 9.54 -1.2
-1.97 9.3 -0.83
-8.81 41.59 -2.23
-8.83 41.7 -0.74
-8.7 41.8 0.75
-1.54 7.39 -1.74
-8.58 41.2 2.21
-1.83 8.77 -1.74
-8.77 42.12 3.76
-1.92 9.24 -1.49
-8.78 42.17 5.29
-1.95 9.35 -1.17
-1.94 9.32 -0.83
-8.67 41.66 -2.23
-8.69 41.76 -0.74
-8.57 41.88 0.75
-1.51 7.38 -1.74
-8.45 41.3 2.21
-1.79 8.77 -1.74
-8.63 42.18 3.77
-1.89 9.24 -1.49
-8.64 42.23 5.29
-1.9 9.29 -1.16
-1.91 9.34 -0.83
-8.53 41.73 -2.23
-8.56 41.84 -0.75
-8.42 41.93 0.75
-1.48 7.39 -1.74
-8.3 41.33 2.21
-1.76 8.77 -1.74
-8.49 42.26 3.77
-1.85 9.22 -1.49
-8.5 42.31 5.3
-1.87 9.28 -1.16
-1.88 9.35 -0.83
-8.39 41.78 -2.23
-8.42 41.9 -0.75
-8.29 42 0.75
-1.46 7.38 -1.74
-8.16 41.36 2.21
-1.73 8.79 -1.74
-8.35 42.33 3.77
-1.82 9.25 -1.49
-8.36 42.36 5.3
-1.83 9.28 -1.16
-1.85 9.37 -0.84
-8.25 41.84 -2.23
-8.28 41.96 -0.75
-8.15 42.07 0.75
-1.43 7.37 -1.73
-8.02 41.43 2.21
-1.7 8.77 -1.74
-8.21 42.4 3.78
-1.8 9.27 -1.5
-8.22 42.44 5.31
-1.8 9.3 -1.16
-1.82 9.42 -0.84
-8.12 41.91 -2.24
-8.14 42.03 -0.75
-8 42.11 0.75
-1.4 7.38 -1.74
-1.67 8.77 -1.74
-8.07 42.46 3.78
-1.76 9.28 -1.5
-8.08 42.51 5.31
-1.77 9.3 -1.16
-1.79 9.4 -0.84
-7.98 41.98 -2.24
-8 42.1 -0.75
-7.88 42.21 0.75
-1.38 7.39 -1.74
-1.64 8.77 -1.73
-7.94 42.53 3.78
-1.73 9.3 -1.5
-7.94 42.57 5.32
-1.74 9.32 -1.16
-1.76 9.43 -0.84
-7.85 42.06 -2.24
-7.87 42.16 -0.75
-7.74 42.27 0.75
-1.35 7.39 -1.73
-1.61 8.77 -1.73
-7.79 42.6 3.79
-1.7 9.31 -1.5
-7.8 42.64 5.32
-1.71 9.34 -1.17
-1.73 9.46 -0.84
-7.7 42.1 -2.24
-7.73 42.25 -0.75
-7.59 42.33 0.75
-1.32 7.38 -1.73
-1.58 8.79 -1.74
-7.66 42.68 3.79
-1.67 9.32 -1.5
-7.66 42.69 5.33
-1.68 9.37 -1.17
-1.71 9.52 -0.85
-7.56 42.16 -2.24
-7.58 42.28 -0.75
-7.45 42.39 0.75
-1.3 7.39 -1.73
-7.54 42.9 2.28
-1.54 8.78 -1.73
-7.51 42.74 3.8
-1.64 9.32 -1.5
-7.52 42.77 5.33
-1.69 9.61 -1.2
-7.39 42.05 -2.24
-7.44 42.35 -0.75
-7.31 42.43 0.75
-1.27 7.39 -1.73
-1.51 8.78 -1.73
-7.37 42.8 3.8
-1.61 9.34 -1.5
-7.38 42.84 5.34
-1.66 9.64 -1.2
-1.64 9.53 -0.85
-7.25 42.09 -2.24
-7.29 42.35 -0.75
-7.2 42.72 0.76
-1.25 7.39 -1.73
-1.48 8.79 -1.73
-7.23 42.87 3.8
-1.58 9.36 -1.5
-7.23 42.91 5.34
-1.62 9.63 -1.2
-7.18 42.59 -2.26
-7.2 42.68 -0.76
-7.04 42.73 0.76
-1.22 7.39 -1.73
-1.45 8.79 -1.73
-7.08 42.95 3.81
-1.54 9.36 -1.5
-7.09 42.99 5.35
-1.58 9.59 -1.19
-7.03 42.63 -2.26
-7.04 42.73 -0.76
-6.91 42.86 0.76
-1.19 7.39 -1.73
-1.42 8.79 -1.73
-6.94 43.02 3.81
-1.51 9.39 -1.51
-6.94 43.05 5.35
-1.57 9.74 -0.86
-6.89 42.71 -2.27
-6.91 42.83 -0.76
-6.77 42.92 0.76
-1.17 7.39 -1.73
-1.39 8.8 -1.73
-6.8 43.09 3.82
-1.52 9.63 -1.54
-6.81 43.13 5.36
-1.5 9.48 -1.18
-1.54 9.75 -0.86
-6.75 42.78 -2.27
-6.78 42.92 -0.76
-6.63 42.99 0.76
-1.14 7.39 -1.73
-1.36 8.79 -1.73
-6.66 43.19 3.82
-1.49 9.68 -1.55
-6.66 43.19 5.37
-1.47 9.56 -1.19
-1.5 9.75 -0.86
-6.61 42.86 -2.27
-6.63 42.97 -0.76
-6.49 43.05 0.76
-1.11 7.39 -1.73
-1.32 8.79 -1.73
-6.51 43.21 3.82
-1.43 9.52 -1.52
-6.52 43.26 5.37
-1.44 9.59 -1.19
-1.47 9.76 -0.86
-6.47 42.92 -2.27
-6.48 43.03 -0.76
-6.34 43.12 0.76
-1.09 7.39 -1.73
-1.29 8.79 -1.73
-6.37 43.29 3.83
-6.38 43.34 5.38
-1.42 9.62 -1.19
-1.45 9.88 -0.87
-6.32 42.99 -2.28
-6.34 43.12 -0.76
-6.2 43.19 0.76
-1.06 7.38 -1.72
-1.26 8.81 -1.73
-6.22 43.36 3.83
-1.37 9.57 -1.53
-6.23 43.39 5.38
-1.38 9.62 -1.19
-3.68 25.65 -2.27
-6.18 43.06 -2.28
-6.2 43.19 -0.76
-6.05 43.24 0.76
-1.03 7.39 -1.72
-1.23 8.79 -1.73
-6.08 43.42 3.84
-1.35 9.64 -1.54
-6.09 43.47 5.39
-1.36 9.7 -1.2
-3.56 25.43 -2.25
-6.04 43.12 -2.28
-6.05 43.24 -0.76
-5.91 43.33 0.76
-1.01 7.4 -1.72
-5.8 42.5 2.25
-1.2 8.78 -1.72
-5.94 43.52 3.84
-1.32 9.65 -1.54
-5.94 43.54 5.4
-1.32 9.7 -1.2
-3.49 25.55 -2.26
-5.89 43.17 -2.28
-5.91 43.32 -0.76
-5.77 43.39 0.76
-0.98 7.4 -1.72
-1.17 8.78 -1.72
-5.79 43.57 3.85
-1.29 9.7 -1.55
-5.8 43.62 5.4
-1.29 9.71 -1.2
-3.47 26.14 -2.31
-5.75 43.24 -2.29
-5.77 43.43 -0.76
-5.62 43.48 0.77
-0.96 7.39 -1.72
-1.14 8.79 -1.72
-5.64 43.64 3.85
-5.65 43.7 5.41
-1.26 9.76 -1.21
-3.42 26.42 -2.33
-5.6 43.31 -2.29
-5.62 43.47 -0.77
-5.47 43.52 0.77
-0.93 7.39 -1.72
-7.33 58.26 3.08
-1.11 8.8 -1.72
-5.5 43.71 3.85
-1.37 10.9 -1.74
-5.5 43.75 5.41
-1.23 9.82 -1.21
-3.24 25.79 -2.27
-5.46 43.38 -2.29
-5.47 43.52 -0.77
-5.33 43.62 0.77
-0.9 7.38 -1.72
-1.07 8.79 -1.72
-5.35 43.8 3.86
-1.33 10.89 -1.74
-5.36 43.82 5.42
-1.21 9.89 -1.22
-3.16 25.82 -2.28
-5.31 43.45 -2.29
-5.33 43.61 -0.77
-5.19 43.68 0.77
-0.88 7.39 -1.72
-5.1 42.95 2.27
-1.04 8.79 -1.72
-5.21 43.87 3.86
-1.29 10.89 -1.74
-5.21 43.9 5.43
-1.54 12.98 -1.6
-3.05 25.7 -2.26
-5.17 43.52 -2.3
-5.18 43.61 -0.77
-5.05 43.73 0.77
-0.85 7.38 -1.72
-1.02 8.79 -1.72
-5.07 43.91 3.87
-1.26 10.89 -1.74
-5.08 43.98 5.44
-1.5 12.98 -1.6
-2.96 25.66 -2.26
-5.04 43.6 -2.3
-5.05 43.74 -0.77
-4.91 43.83 0.77
-0.83 7.39 -1.72
-5.54 49.43 2.61
-0.98 8.79 -1.72
-4.93 44 3.87
-1.22 10.87 -1.73
-4.93 44.03 5.44
-1.45 12.98 -1.6
-2.87 25.66 -2.26
-4.89 43.69 -2.3
-4.91 43.86 -0.77
-4.76 43.87 0.77
-0.8 7.38 -1.71
-0.95 8.8 -1.72
-4.78 44.08 3.88
-1.18 10.86 -1.73
-4.78 44.11 5.45
-1.41 13 -1.61
-2.79 25.69 -2.26
-4.75 43.76 -2.31
-4.77 44.01 -0.77
-4.61 43.95 0.77
-0.77 7.37 -1.71
-0.92 8.78 -1.72
-4.63 44.14 3.88
-1.14 10.86 -1.73
-4.64 44.18 5.45
-1.36 12.94 -1.6
-2.7 25.74 -2.26
-4.6 43.82 -2.31
-4.62 44.02 -0.77
-4.46 44.02 0.77
-0.75 7.38 -1.71
-0.89 8.78 -1.71
-4.48 44.2 3.89
-1.1 10.86 -1.73
-4.49 44.25 5.46
-1.32 13.01 -1.61
-2.61 25.76 -2.27
-4.45 43.91 -2.31
-4.46 43.98 -0.77
-4.31 44.07 0.77
-0.72 7.38 -1.71
-5.27 53.87 2.84
-0.86 8.78 -1.71
-4.33 44.28 3.89
-1.06 10.86 -1.73
-4.34 44.33 5.47
-1.27 12.97 -1.6
-2.52 25.76 -2.26
-4.29 43.85 -2.31
-4.31 44.02 -0.77
-4.17 44.17 0.77
-0.7 7.38 -1.71
-0.83 8.78 -1.71
-4.18 44.35 3.9
-1.02 10.84 -1.72
-4.19 44.41 5.48
-1.23 12.99 -1.6
-2.43 25.78 -2.27
-4.07 43.11 -2.27
-4.02 44.24 0.78
-0.67 7.37 -1.71
-4.82 53.01 2.79
-0.8 8.78 -1.71
-4.04 44.43 3.9
-0.98 10.84 -1.72
-4.04 44.47 5.48
-1.18 13.01 -1.6
-2.34 25.76 -2.26
-3.86 42.53 -2.24
-3.88 44.3 0.78
-0.64 7.36 -1.71
-3.8 43.39 2.28
-0.77 8.79 -1.71
-3.89 44.5 3.91
-0.95 10.84 -1.72
-3.9 44.54 5.49
-1.14 13.03 -1.61
-2.26 25.81 -2.27
-3.84 43.93 -2.31
-3.87 44.26 -0.78
-3.73 44.42 0.78
-0.62 7.37 -1.71
-0.74 8.77 -1.71
-3.74 44.58 3.91
-0.91 10.84 -1.72
-3.75 44.62 5.5
-1.09 13.03 -1.61
-2.17 25.86 -2.27
-3.73 44.44 -0.78
-3.57 44.52 0.78
-0.59 7.38 -1.71
-0.7 8.77 -1.71
-3.58 44.63 3.92
-0.87 10.85 -1.72
-3.59 44.7 5.51
-1.04 12.97 -1.6
-2.08 25.88 -2.27
-3.57 44.46 -0.78
-3.44 44.87 0.79
-0.57 7.38 -1.71
-0.67 8.78 -1.71
-3.43 44.72 3.92
-0.83 10.84 -1.72
-3.44 44.77 5.51
-1 13 -1.6
-1.99 25.88 -2.27
-3.42 44.53 -0.78
-3.27 44.64 0.78
-0.54 7.37 -1.71
-0.64 8.78 -1.71
-3.28 44.8 3.93
-0.79 10.84 -1.72
-3.28 44.84 5.52
-0.96 13.04 -1.61
-1.9 25.9 -2.27
-3.17 43.28 -2.27
-3.14 44.95 0.79
-0.51 7.37 -1.7
-0.61 8.79 -1.71
-3.13 44.87 3.93
-0.76 10.83 -1.72
-3.13 44.92 5.53
-0.91 13.03 -1.6
-1.81 25.96 -2.28
-3 43.08 -2.26
-3.05 43.73 -0.77
-2.97 44.77 0.78
-0.49 7.38 -1.71
-0.58 8.79 -1.71
-2.99 44.94 3.94
-0.72 10.83 -1.72
-2.99 44.99 5.54
-0.86 13.01 -1.6
-1.72 25.97 -2.28
-0.4 6.39 -1.71
-3.11 49.48 0.87
-0.46 7.38 -1.71
-0.55 8.8 -1.71
-2.83 45.01 3.95
-0.68 10.83 -1.72
-2.84 45.07 5.54
-0.82 13.04 -1.6
-1.63 25.96 -2.28
-2.83 44.94 -0.79
-0.38 6.39 -1.71
-2.67 44.91 0.79
-0.44 7.38 -1.71
-0.52 8.77 -1.71
-2.68 45.08 3.95
-0.64 10.82 -1.72
-2.68 45.14 5.55
-0.77 13.01 -1.6
-1.54 25.96 -2.28
-2.54 42.83 -2.25
-0.36 6.39 -1.72
-2.72 48.59 0.85
-0.41 7.37 -1.7
-0.49 8.79 -1.71
-2.53 45.16 3.96
-0.61 10.83 -1.72
-2.53 45.21 5.56
-0.73 13.01 -1.6
-1.45 25.98 -2.28
-0.34 6.4 -1.72
-2.36 45.13 0.79
-0.39 7.37 -1.7
-0.46 8.79 -1.71
-2.37 45.25 3.96
-0.57 10.83 -1.72
-2.37 45.29 5.57
-0.68 13.04 -1.6
-1.36 26 -2.28
-0.31 6.39 -1.72
-2.34 47.77 0.83
-0.36 7.37 -1.7
-2.34 47.76 2.51
-0.43 8.78 -1.71
-2.22 45.31 3.97
-0.53 10.83 -1.72
-2.22 45.37 5.58
-0.64 13.02 -1.6
-1.27 25.98 -2.28
-2.08 42.55 -2.23
-0.29 6.39 -1.71
-2.05 45.24 0.79
-0.33 7.38 -1.7
-0.4 8.77 -1.71
-2.06 45.38 3.97
-0.49 10.83 -1.72
-2.06 45.44 5.59
-0.59 13.06 -1.61
-1.17 25.81 -2.26
-2.06 45.26 -0.79
-0.27 6.39 -1.71
-1.89 45.2 0.79
-0.31 7.38 -1.7
-0.37 8.77 -1.71
-1.91 45.47 3.98
-0.45 10.81 -1.71
-1.91 45.52 5.59
-0.55 13.05 -1.6
-1.78 42.37 -2.22
-0.25 6.39 -1.71
-1.74 45.29 0.79
-0.28 7.36 -1.7
-0.34 8.78 -1.71
-1.75 45.53 3.99
-0.42 10.81 -1.71
-1.75 45.59 5.6
-0.5 13.06 -1.61
-0.97 25.18 -2.2
-0.22 6.39 -1.71
-1.58 45.36 0.79
-0.26 7.36 -1.7
-1.59 45.52 2.39
-0.31 8.78 -1.71
-1.59 45.62 3.99
-0.38 10.8 -1.71
-1.59 45.67 5.61
-0.46 13.04 -1.6
-0.86 24.63 -2.16
-0.94 26.92 -1.41
-1.59 45.4 -0.79
-0.2 6.39 -1.71
-1.43 45.48 0.79
-0.23 7.37 -1.7
-0.28 8.77 -1.7
-1.44 45.92 4.02
-0.34 10.79 -1.71
-1.44 45.74 5.62
-0.41 13.06 -1.6
-0.77 24.58 -2.15
-0.85 27.17 -1.42
-1.43 45.48 -0.79
-0.18 6.39 -1.71
-1.28 45.76 0.8
-0.21 7.38 -1.7
-0.24 8.77 -1.71
-1.28 45.96 4.02
-0.3 10.81 -1.71
-1.28 45.83 5.63
-0.37 13.09 -1.61
-0.68 24.35 -2.13
-0.75 27.01 -1.42
-1.28 45.7 -0.8
-0.16 6.39 -1.71
-1.12 45.85 0.8
-0.18 7.38 -1.7
-0.21 8.77 -1.7
-0.26 10.8 -1.71
-1.12 45.89 5.64
-0.32 13.13 -1.61
-0.59 24.07 -2.11
-0.66 27.12 -1.42
-1.12 45.81 -0.8
-0.13 6.39 -1.71
-0.96 45.92 0.8
-0.15 7.36 -1.7
-0.18 8.78 -1.71
-0.23 10.81 -1.71
-0.96 45.97 5.65
-0.28 13.13 -1.61
-0.57 27.18 -1.42
-0.96 45.91 -0.8
-0.11 6.39 -1.71
-0.8 46.02 0.8
-0.13 7.36 -1.7
-0.15 8.77 -1.71
-0.19 10.81 -1.71
-0.8 46.05 5.65
-0.23 13.13 -1.61
-0.47 27.18 -1.42
-0.8 45.99 -0.8
-0.09 6.39 -1.71
-0.64 46.08 0.8
-0.1 7.37 -1.7
-0.12 8.76 -1.7
-0.65 46.33 4.05
-0.15 10.81 -1.71
-0.64 46.12 5.66
-0.18 13.13 -1.61
-0.38 27.18 -1.42
-0.64 46.06 -0.8
-0.07 6.37 -1.71
-0.48 46.16 0.81
-0.08 7.37 -1.7
-0.09 8.76 -1.7
-0.11 10.8 -1.71
-0.48 46.21 5.67
-0.14 13.13 -1.61
-0.22 20.89 -1.83
-0.28 27.11 -1.42
-0.15 14.79 -0.26
-0.04 6.37 -1.71
-0.32 46.23 0.81
-0.05 7.38 -1.7
-0.06 8.76 -1.7
-0.08 10.78 -1.71
-0.32 46.29 5.68
-0.09 13.16 -1.62
-0.15 20.83 -1.82
-0.19 27.18 -1.42
-0.1 14.72 -0.26
-0.02 6.38 -1.71
-0.17 46.32 0.81
-0.03 7.35 -1.7
-0.03 8.76 -1.7
-0.04 10.78 -1.71
-0.17 46.35 5.69
-0.05 13.2 -1.62
-0.05 14.52 -1.27
-0.05 14.5 -0.76
-0.05 14.54 -0.25
-0 6.38 -1.71
-0.01 46.39 0.81
-0 7.35 -1.7
-0 8.76 -1.7
-0 10.78 -1.71
-0.01 46.43 5.7
-0 13.17 -1.62
-0 14.5 -1.27
-0 14.51 -0.76
-0 14.59 -0.25
0.02 6.38 -1.71
0.15 46.49 0.81
0.02 7.35 -1.7
0.03 8.75 -1.7
0.04 10.78 -1.71
0.15 46.5 5.71
0.04 13.18 -1.62
0.05 14.52 -1.27
0.05 14.5 -0.76
0.05 14.53 -0.25
0.04 6.37 -1.71
0.32 46.55 0.81
0.05 7.36 -1.7
0.06 8.75 -1.7
0.32 46.76 4.09
0.07 10.77 -1.71
0.32 46.59 5.72
0.09 13.21 -1.62
0.14 20.7 -1.81
0.19 28.42 -1.49
0.1 14.44 -0.25
0.07 6.37 -1.71
0.48 46.64 0.81
0.08 7.35 -1.7
0.09 8.73 -1.7
0.11 10.75 -1.7
0.48 46.67 5.73
0.14 13.21 -1.62
0.21 20.67 -1.81
0.29 28.25 -1.48
0.15 14.4 -0.25
0.09 6.37 -1.71
0.64 46.7 0.82
0.1 7.34 -1.7
0.12 8.75 -1.7
0.15 10.74 -1.7
0.64 46.75 5.74
0.18 13.21 -1.62
0.28 20.63 -1.8
0.39 28.12 -1.47
0.64 46.68 -0.81
0.11 6.37 -1.71
0.81 46.78 0.82
0.13 7.34 -1.7
0.15 8.75 -1.7
0.19 10.75 -1.7
0.81 46.82 5.75
0.23 13.18 -1.62
0.36 20.6 -1.8
0.48 27.93 -1.46
0.81 46.75 -0.82
0.13 6.36 -1.71
0.97 46.86 0.82
0.15 7.35 -1.7
0.18 8.74 -1.7
0.22 10.75 -1.7
0.97 46.89 5.76
0.27 13.21 -1.62
0.43 20.56 -1.8
0.57 27.33 -1.43
0.97 46.82 -0.82
0.15 6.36 -1.7
1.14 46.93 0.82
0.18 7.35 -1.7
0.21 8.74 -1.7
1.15 47.24 4.13
0.26 10.74 -1.7
1.14 46.98 5.77
0.32 13.21 -1.62
0.5 20.51 -1.8
0.66 27.35 -1.43
1.14 46.92 -0.82
0.18 6.36 -1.7
0.8 28.76 0.5
0.2 7.35 -1.7
1.31 47.1 2.47
0.24 8.74 -1.7
0.3 10.73 -1.7
1.31 47.06 5.78
0.37 13.22 -1.62
0.57 20.48 -1.79
0.76 27.23 -1.43
1.3 46.97 -0.82
0.2 6.35 -1.7
0.9 28.89 0.5
0.23 7.34 -1.69
0.27 8.74 -1.7
0.33 10.73 -1.7
1.46 47.14 5.79
0.41 13.24 -1.63
0.64 20.44 -1.79
0.85 27.29 -1.43
1.46 47.07 -0.82
0.22 6.35 -1.7
1 28.87 0.5
0.25 7.35 -1.7
0.3 8.73 -1.7
0.37 10.72 -1.7
1.63 47.22 5.8
0.46 13.26 -1.63
0.7 20.39 -1.79
0.94 27.22 -1.43
1 28.9 -0.5
0.24 6.35 -1.7
1.11 29.08 0.51
0.28 7.34 -1.7
0.33 8.71 -1.69
0.41 10.73 -1.7
1.81 47.3 5.81
0.51 13.29 -1.63
0.78 20.37 -1.78
1.06 27.61 -1.45
1.81 47.22 -0.82
0.26 6.33 -1.7
1.21 29.09 0.51
0.31 7.35 -1.7
0.36 8.71 -1.7
0.45 10.72 -1.7
1.98 47.38 5.82
0.56 13.31 -1.64
0.85 20.3 -1.78
1.14 27.4 -1.44
1.97 47.3 -0.83
0.29 6.33 -1.7
2.14 47.41 0.83
0.33 7.34 -1.7
0.39 8.72 -1.7
2.15 47.63 4.17
0.48 10.7 -1.7
2.14 47.47 5.83
0.6 13.34 -1.64
0.91 20.28 -1.78
1.22 27.13 -1.42
2.14 47.39 -0.83
0.31 6.34 -1.7
2.31 47.49 0.83
0.36 7.33 -1.69
0.42 8.71 -1.7
0.52 10.7 -1.7
2.31 47.56 5.85
0.65 13.35 -1.64
0.98 20.26 -1.77
1.32 27.12 -1.42
2.3 47.46 -0.83
0.33 6.34 -1.7
2.48 47.59 0.83
0.38 7.33 -1.7
0.45 8.71 -1.7
0.56 10.69 -1.7
2.48 47.62 5.85
0.7 13.36 -1.64
1.05 20.24 -1.77
1.41 27.14 -1.42
2.47 47.54 -0.83
0.35 6.33 -1.7
2.65 47.67 0.83
0.41 7.33 -1.7
0.48 8.7 -1.69
0.59 10.68 -1.69
2.65 47.72 5.87
0.74 13.39 -1.65
1.12 20.21 -1.77
1.51 27.16 -1.43
2.65 47.62 -0.83
0.37 6.32 -1.7
2.82 47.75 0.83
0.43 7.33 -1.7
0.51 8.69 -1.69
0.63 10.68 -1.69
2.82 47.79 5.88
0.79 13.42 -1.65
1.19 20.18 -1.77
1.6 27.17 -1.43
2.82 47.75 -0.83
0.4 6.32 -1.7
2.99 47.83 0.84
0.46 7.33 -1.7
0.54 8.7 -1.69
3.01 48.16 4.22
0.67 10.67 -1.69
3 47.89 5.89
0.84 13.46 -1.66
1.26 20.16 -1.77
1.7 27.19 -1.43
0.42 6.32 -1.7
3.17 47.91 0.84
0.48 7.31 -1.69
3.17 48.04 2.52
0.57 8.69 -1.69
0.7 10.67 -1.69
3.17 47.96 5.9
0.89 13.48 -1.66
1.33 20.13 -1.77
1.8 27.19 -1.43
3.16 47.89 -0.84
0.44 6.32 -1.7
3.34 47.99 0.84
0.51 7.32 -1.69
0.6 8.68 -1.69
0.74 10.66 -1.69
3.34 48.07 5.92
0.94 13.49 -1.66
1.4 20.11 -1.76
1.89 27.21 -1.43
3.34 47.96 -0.84
0.46 6.31 -1.7
3.51 48.09 0.84
0.53 7.32 -1.69
0.63 8.66 -1.69
0.78 10.66 -1.69
3.52 48.15 5.93
0.99 13.5 -1.66
1.47 20.09 -1.76
1.99 27.23 -1.43
3.51 48.04 -0.84
0.48 6.3 -1.69
3.69 48.16 0.84
0.56 7.31 -1.69
0.66 8.66 -1.69
0.82 10.65 -1.69
3.69 48.24 5.94
1.04 13.53 -1.67
1.54 20.05 -1.76
2.09 27.25 -1.43
3.69 48.15 -0.84
0.5 6.3 -1.69
3.87 48.25 0.84
0.59 7.31 -1.69
0.69 8.66 -1.69
3.89 48.53 4.26
0.85 10.64 -1.69
3.87 48.31 5.95
1.09 13.57 -1.67
1.61 20.04 -1.76
2.18 27.25 -1.43
3.86 48.22 -0.84
0.53 6.3 -1.69
4.04 48.33 0.85
0.61 7.3 -1.69
4.05 48.45 2.55
0.72 8.66 -1.69
0.89 10.63 -1.69
4.05 48.41 5.96
1.14 13.59 -1.67
1.67 20.01 -1.76
2.28 27.26 -1.43
4.04 48.3 -0.85
0.55 6.3 -1.69
4.22 48.42 0.85
0.64 7.3 -1.69
0.75 8.65 -1.69
4.24 48.66 4.27
0.93 10.63 -1.69
4.22 48.47 5.97
1.19 13.61 -1.68
1.74 19.98 -1.75
2.38 27.28 -1.44
4.21 48.35 -0.85
0.57 6.29 -1.69
4.4 48.52 0.85
0.66 7.3 -1.69
0.78 8.64 -1.69
4.43 48.85 4.29
0.96 10.63 -1.69
4.4 48.59 5.99
1.24 13.64 -1.68
1.81 19.96 -1.75
2.47 27.28 -1.44
4.39 48.43 -0.85
0.59 6.27 -1.69
4.58 48.6 0.85
0.69 7.3 -1.69
0.81 8.62 -1.68
4.6 48.83 4.29
1 10.61 -1.69
4.58 48.65 6
1.29 13.66 -1.68
1.88 19.92 -1.75
2.57 27.3 -1.44
4.58 48.61 -0.85
0.61 6.28 -1.69
4.76 48.67 0.85
0.71 7.29 -1.69
0.84 8.62 -1.68
4.78 48.94 4.3
1.04 10.6 -1.69
4.76 48.77 6.02
1.34 13.69 -1.69
1.94 19.91 -1.75
2.67 27.3 -1.44
0.64 6.28 -1.69
4.94 48.77 0.86
0.74 7.28 -1.69
4.95 48.89 2.58
0.87 8.61 -1.68
4.96 48.96 4.31
1.07 10.59 -1.69
4.94 48.82 6.02
1.39 13.71 -1.69
2.01 19.89 -1.75
2.76 27.31 -1.44
4.72 46.59 -0.82
0.66 6.27 -1.69
5.12 48.86 0.86
0.76 7.28 -1.69
0.9 8.61 -1.68
5.14 49.03 4.31
1.11 10.59 -1.69
5.12 48.92 6.04
1.44 13.74 -1.7
2.08 19.87 -1.75
2.86 27.32 -1.44
4.86 46.38 -0.81
0.68 6.27 -1.69
5.28 48.95 0.86
0.79 7.29 -1.69
0.93 8.59 -1.68
5.29 49.01 4.31
1.14 10.59 -1.69
5.29 49 6.05
1.49 13.78 -1.7
2.14 19.84 -1.75
2.95 27.35 -1.44
4.97 46.02 -0.81
0.7 6.25 -1.69
5.47 49.03 0.86
0.81 7.29 -1.69
0.96 8.59 -1.68
5.47 49.04 4.32
1.18 10.58 -1.69
5.47 49.1 6.07
1.54 13.81 -1.71
2.21 19.82 -1.74
3.05 27.37 -1.44
5.1 45.79 -0.8
0.72 6.25 -1.68
5.66 49.12 0.86
0.84 7.28 -1.69
0.99 8.58 -1.68
5.66 49.12 4.33
1.22 10.56 -1.68
5.66 49.18 6.08
1.59 13.85 -1.71
2.28 19.78 -1.74
3.16 27.4 -1.45
5.24 45.53 -0.8
0.74 6.24 -1.68
5.84 49.2 0.86
0.86 7.26 -1.69
5.86 49.39 2.61
1.02 8.58 -1.68
5.84 49.2 4.33
1.25 10.55 -1.68
5.85 49.26 6.09
1.65 13.86 -1.71
2.35 19.76 -1.74
3.25 27.41 -1.45
5.38 45.31 -0.8
0.76 6.24 -1.68
6.03 49.31 0.87
0.89 7.24 -1.68
1.05 8.57 -1.68
6.02 49.28 4.34
1.29 10.54 -1.68
6.04 49.37 6.11
1.69 13.84 -1.71
2.41 19.71 -1.74
3.35 27.43 -1.45
0.78 6.23 -1.68
6.21 49.39 0.87
0.91 7.25 -1.69
1.08 8.55 -1.67
6.21 49.36 4.35
1.33 10.54 -1.68
1.74 13.81 -1.71
2.47 19.67 -1.73
3.46 27.47 -1.45
0.8 6.22 -1.68
6.39 49.48 0.87
0.93 7.24 -1.68
1.1 8.55 -1.67
6.39 49.47 4.36
1.36 10.54 -1.68
1.78 13.78 -1.71
2.53 19.62 -1.73
3.55 27.51 -1.45
0.82 6.21 -1.68
6.58 49.56 0.87
0.96 7.24 -1.69
1.13 8.54 -1.67
6.58 49.56 4.37
1.39 10.51 -1.68
1.83 13.76 -1.7
2.6 19.59 -1.73
3.65 27.52 -1.45
0.85 6.21 -1.68
6.77 49.64 0.87
0.99 7.22 -1.68
6.81 49.88 2.64
1.16 8.54 -1.67
6.78 49.65 4.38
1.43 10.51 -1.68
1.87 13.73 -1.7
2.67 19.57 -1.73
3.76 27.52 -1.46
0.87 6.21 -1.68
6.97 49.75 0.88
1.01 7.22 -1.68
1.19 8.53 -1.67
6.96 49.73 4.39
1.47 10.5 -1.68
1.92 13.71 -1.7
2.74 19.54 -1.73
3.86 27.54 -1.46
0.89 6.19 -1.68
7.15 49.84 0.88
1.04 7.22 -1.68
1.22 8.51 -1.67
7.15 49.83 4.4
1.51 10.49 -1.68
1.97 13.69 -1.7
2.8 19.51 -1.72
3.96 27.55 -1.46
7.15 49.79 -0.88
0.91 6.18 -1.67
7.35 49.92 0.88
1.06 7.22 -1.68
1.25 8.5 -1.67
7.35 49.94 4.42
1.54 10.48 -1.68
2.01 13.68 -1.7
2.87 19.47 -1.72
4.05 27.56 -1.46
7.34 49.88 -0.88
4.4 29.93 8.11
0.93 6.18 -1.67
7.52 49.99 0.88
1.09 7.21 -1.68
1.28 8.49 -1.67
4.48 29.74 2.63
1.57 10.45 -1.67
4.47 29.7 3.69
2.06 13.66 -1.7
4.49 29.82 4.78
2.93 19.45 -1.72
4.49 29.85 5.87
4.15 27.57 -1.46
4.49 29.81 6.96
7.52 49.99 -0.88
0.95 6.17 -1.67
4.56 29.61 0.52
1.11 7.2 -1.68
7.74 50.21 2.66
1.31 8.49 -1.67
7.73 50.13 4.44
1.61 10.44 -1.67
2.1 13.65 -1.7
3 19.44 -1.72
4.6 29.88 5.88
4.25 27.58 -1.46
4.58 29.74 -0.53
0.98 6.18 -1.68
7.93 50.23 0.89
1.14 7.19 -1.68
1.34 8.48 -1.67
4.72 29.88 2.65
1.65 10.43 -1.67
2.15 13.6 -1.69
3.06 19.42 -1.72
4.73 29.94 5.89
4.36 27.6 -1.46
4.7 29.77 -0.53
1 6.17 -1.67
8.12 50.3 0.89
1.16 7.2 -1.68
1.37 8.46 -1.67
8.12 50.28 4.46
1.68 10.43 -1.67
2.2 13.61 -1.69
3.13 19.39 -1.72
4.46 27.63 -1.47
8.11 50.26 -0.89
1.01 6.16 -1.67
8.31 50.39 0.89
1.19 7.19 -1.68
1.39 8.45 -1.67
8.31 50.39 4.47
1.72 10.41 -1.67
2.24 13.59 -1.69
4.96 30.09 4.83
3.19 19.34 -1.71
4.81 29.19 5.75
4.56 27.64 -1.47
8.3 50.36 -0.89
4.8 29.11 7.91
1.04 6.15 -1.67
8.5 50.49 0.89
1.21 7.19 -1.68
4.88 28.98 1.54
1.42 8.45 -1.67
4.88 28.95 2.57
1.75 10.39 -1.67
2.29 13.59 -1.69
5.07 30.07 4.83
3.25 19.31 -1.71
4.66 27.64 -1.47
8.5 50.44 -0.89
1.06 6.16 -1.67
8.71 50.56 0.9
1.24 7.17 -1.68
4.97 28.88 1.54
1.45 8.45 -1.67
8.71 50.59 4.49
1.79 10.37 -1.67
2.34 13.57 -1.69
4.96 28.81 4.63
3.32 19.29 -1.71
4.76 27.63 -1.47
4.96 28.8 6.75
8.7 50.55 -0.9
4.97 28.89 7.85
1.08 6.15 -1.67
8.91 50.67 0.9
1.26 7.17 -1.68
1.48 8.44 -1.67
8.91 50.7 4.5
1.82 10.36 -1.67
5.02 28.54 3.56
2.38 13.55 -1.69
5.03 28.64 4.61
3.39 19.27 -1.71
5.04 28.68 5.66
4.86 27.63 -1.47
5.32 30.26 7.09
8.9 50.65 -0.9
1.1 6.15 -1.67
9.09 50.77 0.9
1.28 7.16 -1.68
5.11 28.54 1.52
1.51 8.43 -1.66
5.1 28.5 2.53
1.85 10.35 -1.67
5.11 28.56 3.56
2.43 13.55 -1.69
3.44 19.23 -1.71
4.95 27.64 -1.47
5.17 28.86 6.77
5.12 28.6 -0.51
5.44 30.4 8.27
1.12 6.13 -1.67
5.18 28.34 0.5
1.31 7.17 -1.68
5.19 28.41 1.51
1.54 8.42 -1.66
9.29 50.88 4.52
1.89 10.33 -1.66
5.53 30.29 3.78
2.47 13.53 -1.69
3.51 19.19 -1.71
5.55 30.38 6
5.05 27.66 -1.47
5.56 30.42 7.14
5.17 28.3 -0.5
1.14 6.14 -1.67
5.64 30.24 0.54
1.34 7.16 -1.68
1.57 8.42 -1.66
9.51 50.97 4.54
1.92 10.31 -1.66
5.66 30.33 3.79
2.52 13.52 -1.69
5.67 30.36 4.89
3.58 19.17 -1.71
5.16 27.66 -1.47
9.5 50.94 -0.9
1.17 6.13 -1.67
5.76 30.28 0.54
1.36 7.14 -1.68
5.77 30.35 1.62
1.6 8.41 -1.66
5.78 30.37 2.7
1.96 10.3 -1.66
2.57 13.5 -1.69
3.65 19.16 -1.71
5.26 27.66 -1.48
9.7 51.02 -0.91
5.68 29.85 8.14
1.19 6.13 -1.67
5.87 30.33 0.54
1.38 7.13 -1.68
1.62 8.4 -1.66
5.84 30.18 2.69
1.99 10.29 -1.66
2.61 13.48 -1.69
5.81 30.01 4.84
3.7 19.13 -1.7
5.61 28.98 5.74
5.36 27.68 -1.48
5.88 30.38 -0.54
5.65 29.2 7.97
1.21 6.12 -1.67
10.1 51.26 0.91
1.41 7.13 -1.68
1.65 8.38 -1.66
10.11 51.27 4.57
2.03 10.28 -1.66
2.65 13.46 -1.68
5.89 29.86 4.82
3.77 19.11 -1.7
5.46 27.7 -1.48
5.91 30.01 8.2
1.23 6.1 -1.67
10.32 51.38 0.91
1.43 7.12 -1.68
1.68 8.38 -1.66
10.32 51.37 4.58
2.06 10.26 -1.66
2.7 13.45 -1.68
5.99 29.8 4.81
3.83 19.06 -1.7
5.57 27.72 -1.48
6.02 29.98 7.06
10.32 51.35 -0.91
1.25 6.1 -1.67
10.53 51.46 0.92
1.46 7.13 -1.68
6.1 29.81 1.59
1.71 8.37 -1.66
5.91 28.87 2.58
2.1 10.25 -1.66
2.75 13.45 -1.69
5.95 29.08 4.7
3.89 19.03 -1.7
6.12 29.94 5.94
5.67 27.73 -1.48
6 29.35 6.92
1.27 6.09 -1.67
10.75 51.57 0.92
1.48 7.1 -1.67
6.01 28.85 1.54
1.74 8.37 -1.66
6.23 29.89 2.67
2.13 10.24 -1.66
6.22 29.87 3.75
2.8 13.42 -1.68
3.96 19 -1.7
5.78 27.74 -1.48
10.75 51.57 -0.92
1.29 6.09 -1.67
10.95 51.65 0.92
1.5 7.1 -1.67
6.32 29.83 1.6
1.77 8.35 -1.66
10.95 51.67 4.62
2.17 10.22 -1.66
2.84 13.4 -1.68
6.19 29.19 4.73
4.02 18.97 -1.7
5.89 27.76 -1.49
10.96 51.68 -0.92
1.31 6.09 -1.67
6.41 29.78 0.53
1.53 7.09 -1.67
11.17 51.86 2.78
1.79 8.33 -1.66
11.15 51.8 4.64
2.2 10.22 -1.66
6.27 29.13 3.66
2.88 13.38 -1.68
4.08 18.93 -1.69
5.98 27.78 -1.49
6.22 28.89 -0.52
1.33 6.07 -1.67
11.36 51.86 0.93
1.55 7.09 -1.68
1.82 8.33 -1.66
6.37 29.09 2.61
2.24 10.21 -1.66
2.93 13.37 -1.68
4.13 18.87 -1.69
6.09 27.8 -1.49
6.32 28.86 -0.52
1.35 6.07 -1.67
6.46 28.99 0.52
1.58 7.08 -1.67
6.48 29.1 1.56
1.85 8.32 -1.66
11.58 51.99 4.66
2.27 10.18 -1.65
2.97 13.34 -1.68
4.2 18.83 -1.69
6.2 27.82 -1.49
11.58 51.98 -0.93
1.37 6.07 -1.67
11.79 52.08 0.93
1.6 7.06 -1.67
1.88 8.31 -1.66
11.79 52.08 4.67
2.3 10.17 -1.65
3.02 13.32 -1.68
4.25 18.77 -1.68
6.3 27.82 -1.49
6.56 28.96 -0.52
1.39 6.06 -1.67
12 52.2 0.93
1.62 7.05 -1.67
1.91 8.3 -1.66
12 52.19 4.69
2.34 10.17 -1.65
3.06 13.29 -1.67
4.31 18.75 -1.68
6.4 27.84 -1.5
11.99 52.16 -0.93
1.41 6.06 -1.67
12.21 52.28 0.94
1.65 7.05 -1.67
1.93 8.28 -1.65
12.21 52.3 4.7
2.37 10.15 -1.65
3.1 13.28 -1.67
4.37 18.72 -1.68
6.51 27.87 -1.5
12.2 52.24 -0.94
1.43 6.04 -1.66
12.42 52.39 0.94
1.67 7.05 -1.67
1.96 8.28 -1.65
12.43 52.41 4.71
2.4 10.14 -1.65
3.14 13.26 -1.67
4.42 18.66 -1.68
6.61 27.88 -1.5
12.41 52.32 -0.94
1.45 6.04 -1.67
12.64 52.49 0.94
1.69 7.04 -1.67
1.99 8.27 -1.65
12.64 52.51 4.73
2.44 10.12 -1.65
3.19 13.25 -1.67
4.48 18.62 -1.68
6.72 27.93 -1.51
12.63 52.47 -0.94
1.48 6.03 -1.66
12.88 52.58 0.94
1.72 7.02 -1.67
2.02 8.27 -1.65
12.88 52.6 4.74
2.47 10.11 -1.65
3.24 13.23 -1.67
4.55 18.58 -1.67
6.84 27.94 -1.51
12.88 52.59 -0.95
1.5 6.03 -1.67
13.09 52.7 0.95
1.75 7.02 -1.67
2.05 8.26 -1.65
13.1 52.72 4.75
2.51 10.09 -1.65
3.28 13.18 -1.67
4.61 18.55 -1.67
6.96 28.02 -1.51
13.09 52.66 -0.95
1.52 6.03 -1.67
13.3 52.8 0.95
1.77 7.01 -1.67
2.08 8.24 -1.65
13.31 52.83 4.77
2.54 10.09 -1.65
3.32 13.16 -1.67
4.67 18.52 -1.67
7.76 30.79 -1.66
13.29 52.75 -0.95
1.54 6.01 -1.66
13.53 52.93 0.95
1.79 7.01 -1.67
2.1 8.23 -1.65
13.53 52.94 4.78
2.57 10.07 -1.65
3.36 13.14 -1.66
4.72 18.47 -1.67
7.9 30.9 -1.67
13.52 52.89 -0.95
1.56 6.01 -1.66
13.76 53.01 0.96
1.82 7.01 -1.67
2.13 8.22 -1.65
13.77 53.06 4.8
2.61 10.05 -1.65
3.4 13.11 -1.66
4.79 18.44 -1.67
8 30.83 -1.67
13.75 53 -0.96
1.58 6 -1.66
13.98 53.13 0.96
1.84 6.99 -1.67
2.16 8.22 -1.65
13.99 53.17 4.81
2.64 10.04 -1.64
3.44 13.08 -1.66
4.84 18.4 -1.66
8.19 31.11 -1.69
13.97 53.09 -0.96
1.6 6.01 -1.67
14.21 53.22 0.96
1.86 6.98 -1.67
2.19 8.21 -1.65
14.23 53.27 4.82
2.68 10.03 -1.64
3.49 13.05 -1.66
4.91 18.38 -1.66
8.29 31.03 -1.68
14.21 53.2 -0.96
1.62 6 -1.66
14.44 53.34 0.96
1.89 6.97 -1.67
2.22 8.19 -1.65
14.45 53.39 4.84
2.71 10.02 -1.64
3.53 13.03 -1.66
4.97 18.36 -1.66
8.4 31.02 -1.68
14.43 53.32 -0.96
1.64 5.97 -1.66
14.67 53.47 0.97
1.91 6.97 -1.67
2.24 8.18 -1.65
14.67 53.49 4.85
2.75 10.01 -1.64
3.57 13.02 -1.66
5.03 18.34 -1.66
8.59 31.3 -1.7
14.66 53.45 -0.97
1.66 5.97 -1.66
14.9 53.6 0.97
1.93 6.95 -1.67
2.27 8.18 -1.65
14.9 53.6 4.87
2.78 9.99 -1.64
3.61 13 -1.66
5.1 18.33 -1.66
8.72 31.36 -1.71
14.9 53.59 -0.97
1.68 5.97 -1.66
15.13 53.67 0.97
1.95 6.93 -1.66
2.3 8.17 -1.65
15.14 53.72 4.88
2.81 9.99 -1.64
3.66 12.98 -1.66
5.16 18.32 -1.67
8.86 31.45 -1.71
15.12 53.65 -0.97
1.7 5.96 -1.66
15.36 53.8 0.98
1.98 6.93 -1.66
2.33 8.16 -1.65
15.37 53.84 4.9
2.85 9.97 -1.64
3.7 12.94 -1.65
5.23 18.32 -1.67
8.96 31.39 -1.71
1.72 5.95 -1.66
15.61 53.92 0.98
2 6.92 -1.66
2.36 8.14 -1.65
15.63 53.97 4.92
2.88 9.96 -1.64
3.74 12.93 -1.65
5.29 18.25 -1.66
9.11 31.47 -1.72
1.74 5.94 -1.66
15.85 54.06 0.98
2.03 6.91 -1.66
2.38 8.13 -1.65
15.85 54.06 4.93
2.92 9.95 -1.64
3.79 12.91 -1.65
5.34 18.21 -1.66
9.25 31.55 -1.72
1.76 5.93 -1.66
16.08 54.13 0.99
2.05 6.9 -1.66
2.42 8.13 -1.65
16.1 54.17 4.94
2.95 9.93 -1.64
3.83 12.89 -1.65
5.4 18.18 -1.66
9.39 31.59 -1.73
16.08 54.12 -0.99
1.78 5.93 -1.66
16.32 54.25 0.99
2.07 6.87 -1.66
2.44 8.11 -1.65
16.34 54.32 4.96
2.98 9.91 -1.64
3.87 12.87 -1.65
5.46 18.14 -1.66
8.7 28.93 -1.58
1.8 5.92 -1.66
16.56 54.36 0.99
2.09 6.86 -1.66
2.47 8.1 -1.65
16.59 54.45 4.98
3.02 9.9 -1.64
3.91 12.85 -1.65
5.52 18.12 -1.66
10.35 33.98 -1.86
16.55 54.33 -0.99
1.82 5.91 -1.66
16.8 54.5 1
2.11 6.85 -1.66
2.49 8.08 -1.64
16.82 54.54 4.99
3.05 9.89 -1.64
3.95 12.82 -1.65
5.57 18.08 -1.66
10.47 33.97 -1.86
16.78 54.44 -0.99
1.84 5.89 -1.65
17.05 54.61 1
2.14 6.84 -1.66
2.52 8.07 -1.64
17.07 54.66 5.01
3.08 9.87 -1.64
4 12.81 -1.65
5.63 18.05 -1.65
10.6 33.96 -1.86
17.04 54.57 -1
1.86 5.88 -1.65
2.16 6.83 -1.65
2.55 8.06 -1.64
17.31 54.78 5.03
3.11 9.85 -1.64
4.04 12.8 -1.65
5.69 18 -1.65
10.46 33.1 -1.82
17.29 54.72 -1
1.88 5.88 -1.65
2.18 6.81 -1.65
2.58 8.06 -1.65
17.56 54.91 5.04
3.14 9.83 -1.64
4.08 12.77 -1.65
5.75 17.98 -1.65
10.58 33.09 -1.82
17.52 54.81 -1
1.9 5.88 -1.66
2.2 6.8 -1.65
17.83 55.11 3.04
2.6 8.05 -1.64
17.8 55.04 5.06
3.18 9.82 -1.64
4.12 12.73 -1.64
5.81 17.95 -1.65
10.64 32.88 -1.81
17.77 54.94 -1.01
1.92 5.86 -1.65
2.23 6.8 -1.65
2.63 8.02 -1.64
18.06 55.15 5.08
3.21 9.8 -1.63
4.16 12.72 -1.64
5.87 17.91 -1.65
10.7 32.67 -1.8
18.02 55.03 -1.01
1.94 5.84 -1.65
18.29 55.23 1.02
2.25 6.8 -1.65
2.66 8.02 -1.64
18.31 55.28 5.1
3.24 9.78 -1.63
4.2 12.69 -1.64
5.92 17.86 -1.65
10.82 32.66 -1.8
18.28 55.19 -1.01
1.96 5.85 -1.65
18.55 55.35 1.02
2.27 6.77 -1.65
2.68 8.01 -1.64
18.57 55.41 5.11
3.27 9.75 -1.63
4.25 12.67 -1.64
5.98 17.84 -1.65
9.89 29.52 -1.63
18.53 55.28 -1.02
1.98 5.85 -1.65
18.8 55.45 1.02
2.29 6.75 -1.65
2.71 8 -1.64
18.83 55.55 5.13
3.3 9.72 -1.63
4.29 12.65 -1.64
6.04 17.81 -1.64
11.01 32.49 -1.8
18.79 55.42 -1.02
2 5.84 -1.65
19.08 55.61 1.03
2.31 6.74 -1.65
2.74 7.99 -1.64
19.1 55.65 5.15
3.33 9.71 -1.63
4.33 12.62 -1.64
6.1 17.77 -1.64
11.24 32.76 -1.82
19.03 55.45 -1.02
2.03 5.84 -1.66
19.34 55.74 1.03
2.34 6.73 -1.64
2.76 7.96 -1.64
19.35 55.78 5.17
3.37 9.7 -1.63
4.37 12.59 -1.64
6.15 17.73 -1.64
11.33 32.66 -1.81
19.28 55.57 -1.03
2.04 5.82 -1.65
19.59 55.84 1.03
2.36 6.74 -1.65
2.79 7.96 -1.64
19.61 55.9 5.18
3.39 9.68 -1.62
4.41 12.58 -1.64
6.21 17.69 -1.64
11.48 32.72 -1.82
19.54 55.69 -1.03
2.06 5.81 -1.65
19.85 55.97 1.04
2.38 6.71 -1.64
2.82 7.95 -1.64
19.87 56.05 5.2
3.42 9.65 -1.62
4.46 12.57 -1.64
6.26 17.66 -1.64
11.61 32.75 -1.82
19.82 55.9 -1.04
2.08 5.8 -1.65
20.11 56.08 1.04
2.4 6.7 -1.64
2.85 7.94 -1.64
20.14 56.16 5.22
3.46 9.64 -1.62
4.5 12.54 -1.64
6.32 17.62 -1.64
11.75 32.76 -1.82
2.1 5.8 -1.65
20.38 56.23 1.04
2.42 6.68 -1.64
2.88 7.93 -1.64
3.49 9.62 -1.62
4.53 12.51 -1.63
6.38 17.6 -1.64
11.93 32.9 -1.83
20.38 56.23 -1.04
2.12 5.78 -1.65
11.17 30.48 0.57
2.45 6.68 -1.64
11.17 30.47 1.7
2.9 7.92 -1.64
11.19 30.52 2.84
3.52 9.61 -1.62
4.58 12.49 -1.63
6.43 17.55 -1.64
12.08 32.96 -1.84
2.13 5.76 -1.65
11.26 30.39 0.57
2.47 6.66 -1.64
11.32 30.55 1.71
2.92 7.9 -1.64
20.94 56.54 5.28
3.55 9.59 -1.62
4.62 12.48 -1.63
6.49 17.51 -1.63
11.2 30.23 -1.69
11.25 30.36 -0.57
2.16 5.75 -1.65
11.45 30.58 0.57
2.49 6.66 -1.64
2.96 7.9 -1.64
21.23 56.68 5.3
3.58 9.57 -1.62
4.66 12.46 -1.63
6.55 17.48 -1.63
2.17 5.74 -1.65
21.47 56.74 1.06
2.51 6.64 -1.64
2.98 7.88 -1.64
21.5 56.82 5.32
3.61 9.55 -1.62
4.71 12.44 -1.63
6.6 17.45 -1.63
12.79 33.81 -1.89
21.45 56.69 -1.06
2.2 5.74 -1.65
21.76 56.88 1.06
2.53 6.63 -1.64
3.01 7.87 -1.64
21.79 56.97 5.34
3.65 9.53 -1.62
4.74 12.4 -1.63
6.66 17.41 -1.63
12.84 33.58 -1.88
21.75 56.87 -1.06
2.21 5.73 -1.65
22.03 57.03 1.07
2.56 6.62 -1.64
3.03 7.85 -1.64
22.06 57.1 5.36
3.68 9.53 -1.62
4.78 12.38 -1.63
6.71 17.37 -1.63
13 33.65 -1.89
22.03 57.01 -1.07
2.23 5.71 -1.64
22.31 57.14 1.07
2.58 6.61 -1.64
3.06 7.84 -1.64
22.34 57.21 5.37
3.72 9.52 -1.62
4.83 12.36 -1.63
6.77 17.33 -1.63
13.12 33.59 -1.89
22.31 57.14 -1.07
2.25 5.7 -1.64
22.6 57.29 1.08
2.6 6.6 -1.64
3.09 7.83 -1.64
22.62 57.35 5.39
3.75 9.5 -1.62
11.6 29.42 3.88
4.87 12.34 -1.63
6.82 17.28 -1.63
13.28 33.68 -1.9
22.57 57.22 -1.07
2.27 5.69 -1.64
22.87 57.44 1.08
2.62 6.58 -1.64
3.12 7.82 -1.64
30.9 77.62 7.31
3.77 9.48 -1.62
11.66 29.29 3.87
4.91 12.32 -1.63
6.86 17.24 -1.62
13.45 33.79 -1.91
22.87 57.43 -1.08
2.29 5.69 -1.64
23.15 57.57 1.08
2.65 6.59 -1.64
3.14 7.81 -1.64
3.81 9.47 -1.62
11.73 29.17 3.86
4.94 12.28 -1.63
6.92 17.22 -1.62
13.56 33.71 -1.9
23.14 57.54 -1.08
2.31 5.68 -1.64
23.45 57.7 1.09
2.68 6.59 -1.64
3.17 7.79 -1.64
23.49 57.79 5.46
3.85 9.46 -1.62
11.8 29.04 3.85
4.98 12.26 -1.62
6.98 17.17 -1.62
13.68 33.66 -1.9
23.43 57.64 -1.09
2.32 5.65 -1.64
23.76 57.88 1.09
2.7 6.58 -1.64
3.19 7.78 -1.64
23.78 57.93 5.48
3.87 9.44 -1.62
5.02 12.23 -1.62
7.03 17.13 -1.62
13.81 33.64 -1.91
23.73 57.81 -1.09
2.34 5.64 -1.64
2.72 6.56 -1.64
3.22 7.77 -1.64
24.08 58.09 5.5
3.9 9.41 -1.61
5.06 12.21 -1.62
7.08 17.09 -1.62
14.02 33.81 -1.92
24.03 57.96 -1.1
2.36 5.65 -1.64
24.35 58.15 1.1
2.74 6.54 -1.64
3.25 7.76 -1.64
24.39 58.24 5.52
3.94 9.4 -1.61
5.1 12.19 -1.62
7.14 17.06 -1.62
24.33 58.1 -1.1
2.38 5.64 -1.64
24.68 58.37 1.11
2.76 6.53 -1.64
3.27 7.74 -1.63
24.68 58.37 5.54
3.97 9.39 -1.61
5.14 12.15 -1.62
7.2 17.02 -1.62
12.85 30.38 -1.73
24.62 58.22 -1.1
2.4 5.63 -1.64
24.96 58.46 1.11
2.78 6.52 -1.64
3.3 7.72 -1.63
4 9.37 -1.61
5.18 12.13 -1.62
7.25 16.97 -1.61
12.97 30.37 -1.73
24.9 58.32 -1.11
2.42 5.6 -1.63
25.26 58.6 1.11
2.81 6.52 -1.64
3.32 7.71 -1.63
4.03 9.36 -1.61
5.21 12.1 -1.62
7.29 16.91 -1.61
13.11 30.4 -1.74
25.23 58.53 -1.11
2.43 5.59 -1.63
25.55 58.71 1.12
2.83 6.5 -1.64
3.35 7.7 -1.63
25.52 58.64 5.6
4.06 9.33 -1.61
5.25 12.07 -1.62
7.34 16.86 -1.61
13.26 30.46 -1.74
25.54 58.69 -1.12
2.45 5.59 -1.63
25.87 58.88 1.12
2.85 6.48 -1.63
3.38 7.69 -1.63
4.09 9.32 -1.61
5.29 12.04 -1.61
7.39 16.81 -1.61
13.41 30.52 -1.75
25.83 58.79 -1.12
2.48 5.58 -1.64
26.18 59.02 1.13
2.87 6.47 -1.63
3.41 7.68 -1.63
4.12 9.29 -1.61
5.32 11.99 -1.61
7.45 16.79 -1.61
13.59 30.65 -1.76
19.06 42.97 -0.82
2.49 5.57 -1.64
26.49 59.17 1.13
2.89 6.46 -1.63
3.43 7.66 -1.63
4.15 9.28 -1.61
5.36 11.96 -1.61
7.49 16.72 -1.6
13.69 30.58 -1.76
2.51 5.55 -1.63
26.82 59.34 1.14
2.91 6.45 -1.63
3.45 7.64 -1.63
4.18 9.26 -1.61
5.4 11.94 -1.61
7.53 16.67 -1.6
13.86 30.66 -1.76
19.25 42.6 -0.82
2.53 5.54 -1.63
27.13 59.47 1.14
2.94 6.44 -1.63
3.48 7.63 -1.63
4.21 9.24 -1.61
5.44 11.92 -1.61
7.58 16.62 -1.6
13.95 30.58 -1.76
27.15 59.51 -1.14
2.55 5.53 -1.63
27.45 59.63 1.15
2.95 6.42 -1.63
3.5 7.61 -1.63
27.44 59.61 5.74
4.25 9.22 -1.61
5.47 11.88 -1.61
7.63 16.57 -1.6
14.1 30.64 -1.77
2.57 5.52 -1.63
27.78 59.79 1.15
2.98 6.4 -1.63
3.53 7.59 -1.63
4.28 9.2 -1.61
5.5 11.84 -1.6
7.69 16.54 -1.6
13.99 30.11 -1.74
27.73 59.68 -1.15
2.59 5.52 -1.63
28.11 59.95 1.16
3 6.4 -1.63
3.54 7.56 -1.62
4.31 9.19 -1.61
5.54 11.82 -1.6
7.72 16.47 -1.59
14.11 30.08 -1.74
28.07 59.88 -1.15
2.6 5.5 -1.63
28.43 60.12 1.16
3.02 6.39 -1.63
3.57 7.54 -1.62
4.33 9.17 -1.61
5.59 11.81 -1.6
7.76 16.41 -1.59
2.62 5.49 -1.63
28.75 60.26 1.17
3.04 6.38 -1.63
3.59 7.53 -1.62
4.36 9.14 -1.6
5.63 11.79 -1.6
7.82 16.39 -1.59
2.64 5.48 -1.63
29.12 60.45 1.17
3.06 6.36 -1.63
3.62 7.51 -1.62
4.4 9.13 -1.6
5.68 11.78 -1.61
7.88 16.35 -1.59
29.08 60.37 -1.17
2.67 5.49 -1.64
29.46 60.62 1.18
3.08 6.34 -1.63
3.64 7.49 -1.62
4.43 9.11 -1.6
5.7 11.73 -1.6
7.93 16.32 -1.59
2.69 5.48 -1.64
29.78 60.77 1.18
3.1 6.33 -1.63
3.66 7.47 -1.62
4.46 9.09 -1.6
5.74 11.71 -1.6
7.98 16.29 -1.59
2.7 5.46 -1.63
30.14 60.95 1.19
3.13 6.32 -1.63
3.68 7.45 -1.61
4.48 9.07 -1.6
13.12 26.53 3.63
5.78 11.68 -1.6
13.14 26.58 4.7
8.02 16.23 -1.58
2.72 5.45 -1.63
30.49 61.13 1.19
3.15 6.31 -1.63
3.71 7.43 -1.62
4.52 9.05 -1.6
13.23 26.53 3.64
5.81 11.66 -1.6
13.26 26.58 4.71
8.08 16.2 -1.58
2.74 5.45 -1.64
30.83 61.28 1.2
3.16 6.28 -1.62
3.73 7.41 -1.61
4.55 9.03 -1.6
13.35 26.54 3.65
5.85 11.64 -1.6
8.13 16.17 -1.58
17.73 35.23 -0.69
2.76 5.44 -1.64
31.18 61.44 1.2
3.19 6.28 -1.63
3.74 7.37 -1.61
4.57 9.01 -1.6
5.89 11.61 -1.6
8.19 16.13 -1.58
2.78 5.43 -1.63
31.56 61.65 1.21
3.21 6.26 -1.62
3.77 7.36 -1.61
4.61 9 -1.6
5.93 11.58 -1.6
8.24 16.09 -1.58
2.79 5.41 -1.63
31.93 61.84 1.21
3.23 6.25 -1.62
3.8 7.36 -1.61
4.63 8.97 -1.6
5.97 11.56 -1.6
8.29 16.05 -1.58
2.82 5.41 -1.63
32.29 62 1.22
3.25 6.24 -1.62
3.82 7.34 -1.61
32.2 61.83 6.1
4.66 8.95 -1.6
6.01 11.54 -1.6
8.34 16.01 -1.58
2.83 5.39 -1.63
32.64 62.17 1.23
3.26 6.21 -1.62
3.85 7.33 -1.61
4.69 8.94 -1.6
6.05 11.52 -1.6
8.38 15.97 -1.58
2.86 5.39 -1.64
3.28 6.2 -1.62
3.87 7.31 -1.61
4.72 8.92 -1.6
6.08 11.48 -1.6
8.43 15.92 -1.58
2.87 5.38 -1.63
3.3 6.19 -1.62
3.89 7.28 -1.6
4.75 8.9 -1.6
6.12 11.47 -1.6
8.48 15.88 -1.57
13.96 26.14 -1.55
2.88 5.36 -1.63
3.33 6.18 -1.62
3.91 7.27 -1.61
4.78 8.87 -1.6
6.17 11.45 -1.6
8.52 15.82 -1.57
14.05 26.09 -1.55
2.8 5.15 -1.57
34.13 62.89 1.25
3.34 6.16 -1.62
3.94 7.26 -1.61
4.8 8.85 -1.59
6.2 11.43 -1.6
8.57 15.79 -1.57
2.73 4.99 -1.52
34.5 63.03 1.25
3.36 6.14 -1.61
3.97 7.25 -1.61
4.83 8.83 -1.6
6.24 11.41 -1.6
8.61 15.74 -1.57
2.74 4.97 -1.52
3.38 6.12 -1.62
3.99 7.23 -1.61
34.89 63.21 6.32
4.87 8.82 -1.6
6.27 11.36 -1.59
8.66 15.69 -1.57
2.76 4.96 -1.52
3.4 6.11 -1.61
4.02 7.22 -1.61
4.9 8.8 -1.6
6.31 11.34 -1.59
8.7 15.64 -1.57
2.77 4.93 -1.52
3.42 6.1 -1.62
4.04 7.2 -1.61
4.93 8.78 -1.6
6.35 11.31 -1.59
8.75 15.58 -1.56
2.76 4.88 -1.5
3.44 6.09 -1.61
4.07 7.2 -1.61
4.95 8.75 -1.59
6.39 11.29 -1.59
8.79 15.54 -1.56
2.77 4.85 -1.5
3.46 6.06 -1.61
4.1 7.18 -1.61
4.98 8.74 -1.59
6.41 11.25 -1.59
8.84 15.5 -1.56
2.79 4.85 -1.5
3.48 6.06 -1.61
4.12 7.16 -1.61
5.01 8.72 -1.59
6.44 11.2 -1.59
8.89 15.46 -1.56
2.79 4.82 -1.49
37.39 64.5 1.3
3.5 6.05 -1.61
4.14 7.14 -1.6
5.04 8.7 -1.59
6.48 11.18 -1.59
8.93 15.4 -1.56
2.8 4.79 -1.49
37.77 64.63 1.31
3.53 6.04 -1.62
4.16 7.12 -1.6
5.07 8.68 -1.59
6.51 11.14 -1.58
8.97 15.36 -1.56
2.81 4.77 -1.48
3.55 6.03 -1.62
4.19 7.11 -1.6
5.1 8.66 -1.59
6.55 11.13 -1.59
14.17 24.06 4.42
9.02 15.31 -1.55
14.78 25.11 -1.53
2.83 4.77 -1.49
3.57 6.01 -1.61
4.21 7.1 -1.6
5.13 8.64 -1.59
6.58 11.09 -1.58
14.2 23.93 4.41
9.06 15.27 -1.55
14.83 24.99 -1.52
2.84 4.75 -1.48
3.59 5.99 -1.61
4.24 7.08 -1.6
5.16 8.62 -1.59
6.61 11.05 -1.58
14.26 23.83 4.4
9.11 15.23 -1.55
2.86 4.75 -1.49
3.62 6 -1.62
4.25 7.05 -1.6
5.19 8.6 -1.59
6.65 11.02 -1.58
14.33 23.76 4.4
9.17 15.2 -1.55
15 24.86 -1.52
2.89 4.75 -1.49
3.64 5.99 -1.62
4.28 7.04 -1.6
5.21 8.58 -1.59
6.68 10.99 -1.58
9.2 15.13 -1.55
2.92 4.76 -1.49
3.66 5.97 -1.62
4.3 7.02 -1.6
5.24 8.55 -1.59
6.72 10.97 -1.58
9.25 15.1 -1.55
2.94 4.76 -1.5
3.68 5.95 -1.62
4.33 7.01 -1.6
5.26 8.52 -1.59
6.76 10.94 -1.58
9.3 15.07 -1.55
2.96 4.76 -1.5
25.06 40.28 0.83
3.69 5.93 -1.61
4.35 6.99 -1.6
5.29 8.5 -1.59
6.78 10.89 -1.58
9.35 15.03 -1.55
2.99 4.76 -1.51
3.72 5.93 -1.61
4.37 6.97 -1.6
5.31 8.47 -1.58
6.82 10.88 -1.58
9.4 14.99 -1.55
3 4.74 -1.5
3.73 5.91 -1.61
4.39 6.95 -1.6
5.34 8.44 -1.58
6.86 10.86 -1.58
9.44 14.93 -1.55
3.02 4.74 -1.5
3.75 5.89 -1.61
4.42 6.94 -1.6
5.35 8.4 -1.58
2.9 4.55 -0.66
9.49 14.9 -1.55
3.04 4.73 -1.51
3.77 5.87 -1.61
4.44 6.92 -1.6
5.37 8.37 -1.58
9.54 14.87 -1.55
3.05 4.72 -1.5
2.93 4.52 -1.24
9.59 14.83 -1.54
3.06 4.69 -1.5
9.63 14.78 -1.54
3.05 4.64 -1.49
2.95 4.49 -0.66
9.67 14.74 -1.54
2.85 4.31 -1.39
2.96 4.47 -1.04
2.95 4.46 -0.85
2.96 4.48 -0.66
14.94 22.58 4.29
9.72 14.7 -1.54
3.09 4.63 -1.49
25.79 38.68 0.81
2.96 4.44 -1.23
25.82 38.73 2.44
2.97 4.45 -1.04
2.96 4.44 -0.85
2.97 4.45 -0.66
15.05 22.57 4.3
9.77 14.66 -1.54
3.1 4.61 -1.49
2.97 4.43 -1.23
2.97 4.42 -1.04
2.97 4.42 -0.84
2.97 4.42 -0.65
15.16 22.57 4.31
9.84 14.65 -1.54
3.11 4.59 -1.49
2.99 4.41 -1.23
2.97 4.4 -1.03
2.98 4.4 -0.84
2.98 4.4 -0.65
15.24 22.53 4.31
9.87 14.59 -1.54
15.88 23.47 -1.49
3.13 4.59 -1.49
3 4.4 -1.23
2.98 4.38 -1.03
2.99 4.38 -0.84
2.99 4.38 -0.65
9.9 14.52 -1.54
2.89 4.21 -1.37
3.01 4.38 -1.23
2.99 4.36 -1.03
2.99 4.36 -0.84
3 4.36 -0.65
9.94 14.47 -1.54
16.04 23.36 -1.49
3.02 4.36 -1.42
3.01 4.35 -1.22
3 4.34 -1.03
3 4.34 -0.84
3 4.34 -0.65
9.99 14.43 -1.54
16.07 23.22 -1.48
3.04 4.36 -1.43
3.01 4.32 -1.22
3.01 4.32 -1.02
3.02 4.33 -0.84
3.01 4.31 -0.65
10.03 14.39 -1.54
16.12 23.13 -1.48
3.08 4.38 -1.43
3.03 4.31 -1.22
3.02 4.3 -1.02
3.02 4.3 -0.83
3.02 4.3 -0.64
10.06 14.33 -1.53
16.2 23.07 -1.48
3.2 4.52 -1.48
3.04 4.29 -1.21
3.03 4.28 -1.02
3.03 4.29 -0.83
3.03 4.28 -0.64
10.1 14.28 -1.53
13.43 18.98 -1.22
3.21 4.51 -1.48
3.04 4.26 -1.21
3.04 4.26 -1.02
3.04 4.26 -0.83
3.05 4.28 -0.65
10.14 14.23 -1.53
13.26 18.61 -1.2
3.22 4.49 -1.48
3.05 4.25 -1.21
3.06 4.26 -1.02
3.06 4.26 -0.64
10.17 14.16 -1.53
12.92 18 -1.16
3.24 4.47 -1.48
3.07 4.25 -1.02
3.06 4.24 -0.83
3.07 4.24 -0.64
10.21 14.11 -1.52
3.25 4.47 -1.48
12.43 17.05 0.37
3.1 4.25 -1.21
3.07 4.22 -1.01
3.08 4.23 -0.83
10.25 14.07 -1.52
3.26 4.44 -1.48
3.11 4.24 -1.21
4.83 6.57 -1.59
5.84 7.95 -1.56
7.52 10.24 -1.56
10.29 14.02 -1.52
11.91 16.23 -1.06
3.26 4.41 -1.47
3.18 4.3 -1.23
