# .PCD v0.7 - Point Cloud Data file format
VERSION 0.7
FIELDS x y z
SIZE 4 4 4
TYPE F F F
COUNT 1 1 1
WIDTH 2928
HEIGHT 1
VIEWPOINT 0 0 0 1 0 0 0
POINTS 2928
DATA ascii
-2.3 13.33 -2.14
-2.37 13.71 -1.71
-2.8 16.22 -1.44
-3.16 18.34 -0.98
-2.78 16.12 -0.29
-1.86 11 -2.17
-2.26 13.33 -2.14
-2.32 13.74 -1.71
-2.76 16.29 -1.45
-2.99 17.68 -0.94
-2.86 16.93 -0.3
-2.89 17.48 0.31
-4.6 27.77 1.47
-1.82 11 -2.17
-2.21 13.34 -2.14
-2.28 13.78 -1.71
-3.03 18.31 -1.62
-2.7 16.31 -0.87
-2.8 16.91 -0.3
-7.85 48.41 0.86
-1.42 8.78 -2.05
-4.59 28.3 1.5
-1.78 10.99 -2.16
-4.59 28.33 2.51
-2.17 13.38 -2.15
-2.24 13.84 -1.72
-2.61 16.09 -1.43
-2.65 16.37 -0.87
-2.64 16.27 -0.29
-2.69 16.97 0.3
-1.39 8.76 -2.05
-1.74 11 -2.16
-4.54 28.69 2.54
-2.13 13.45 -2.16
-2.2 13.88 -1.73
-2.72 17.19 -1.52
-2.82 17.81 -0.94
-2.59 16.38 -0.29
-7.53 48.61 0.86
-1.36 8.76 -2.05
-2.81 18.14 0.96
-1.7 11 -2.16
-2.1 13.52 -2.17
-2.16 13.91 -1.73
-2.67 17.24 -1.53
-2.57 16.58 -0.88
-2.53 16.32 -0.29
-1.33 8.77 -2.05
-2.61 17.24 0.91
-1.66 10.99 -2.16
-4.19 27.71 2.45
-2.06 13.62 -2.18
-2.11 13.95 -1.73
-2.49 16.43 -1.45
-2.67 17.65 -0.94
-2.42 16 -0.28
-5.05 34.19 0.6
-1.3 8.76 -2.04
-2.66 17.97 0.95
-1.62 10.99 -2.16
-4.23 28.58 2.53
-2.02 13.65 -2.18
-2.07 13.99 -1.74
-2.56 17.33 -1.53
-2.54 17.19 -0.91
-2.38 16.12 -0.28
-1.26 8.76 -2.04
-2.59 18 0.95
-1.58 10.99 -2.16
-4.09 28.38 2.51
-1.97 13.64 -2.18
-2.02 14.04 -1.74
-2.59 18 -1.59
-2.4 16.66 -0.88
-2.37 16.43 -0.29
-4.08 28.97 0.51
-1.23 8.75 -2.04
-2.42 17.17 0.91
-1.55 10.99 -2.16
-3.97 28.22 2.49
-1.92 13.65 -2.18
-1.98 14.1 -1.75
-2.35 16.68 -1.47
-2.31 16.42 -0.87
-2.36 16.75 -0.3
-2.4 17.5 0.31
-1.2 8.74 -2.04
-2.35 17.19 0.91
-1.51 11 -2.16
-3.9 28.49 2.52
-1.88 13.7 -2.19
-1.94 14.14 -1.75
-2.31 16.88 -1.49
-2.27 16.59 -0.88
-2.22 16.22 -0.29
-2.34 17.5 0.31
-1.17 8.75 -2.04
-2.28 17.09 0.9
-1.47 10.99 -2.16
-3.75 28.09 2.48
-1.83 13.73 -2.19
-1.89 14.17 -1.76
-2.21 16.58 -1.46
-2.2 16.47 -0.87
-2.22 16.59 -0.29
-2.1 16.16 0.28
-1.14 8.76 -2.04
-2.21 17.02 0.9
-1.43 10.99 -2.15
-2.34 17.99 1.59
-1.78 13.74 -2.19
-1.85 14.23 -1.76
-2.15 16.55 -0.87
-2.12 16.28 -0.29
-2.05 16.21 0.29
-1.11 8.76 -2.04
-1.39 10.99 -2.15
-3.44 27.19 2.4
-1.74 13.75 -2.2
-1.81 14.28 -1.77
-2.1 16.65 -1.47
-2.09 16.55 -0.87
-2.1 16.63 -0.29
-1.99 16.17 0.28
-1.08 8.76 -2.04
-3.51 28.56 1.51
-1.35 10.99 -2.15
-2.19 17.77 1.57
-1.69 13.78 -2.2
-1.76 14.33 -1.77
-2.03 16.53 -1.46
-2.05 16.69 -0.88
-1.99 16.15 -0.28
-1.93 16.14 0.28
-1.05 8.75 -2.03
-3.47 29.04 1.53
-1.32 11 -2.15
-3.36 28.09 2.47
-1.65 13.82 -2.21
-1.72 14.37 -1.78
-1.99 16.68 -1.47
-2.04 17.04 -0.9
-1.92 16.1 -0.28
-1.87 16.15 0.28
-1.01 8.76 -2.04
-1.27 10.99 -2.15
-2.07 17.9 1.58
-1.61 13.88 -2.21
-3.23 27.89 3.45
-1.67 14.41 -1.78
-1.94 16.75 -1.48
-1.88 16.21 -0.86
-1.89 16.36 -0.29
-1.83 16.3 0.29
-0.98 8.76 -2.03
-1.23 10.99 -2.15
-2.02 17.99 1.58
-1.56 13.93 -2.22
-1.62 14.46 -1.79
-1.86 16.58 -1.46
-1.85 16.5 -0.87
-3.24 28.82 -0.51
-1.77 16.26 0.29
-0.95 8.76 -2.03
-3.25 29.9 1.58
-1.2 10.99 -2.15
-1.95 17.9 1.58
-3.11 28.55 3.53
-1.58 14.51 -1.79
-1.82 16.68 -1.47
-1.77 16.28 -0.86
-1.79 16.47 -0.29
-1.72 16.28 0.29
-0.92 8.77 -2.03
-2.98 28.28 1.49
-1.16 11 -2.15
-1.92 18.23 1.6
-1.46 13.84 -2.2
-2.91 27.58 3.41
-1.54 14.57 -1.8
-1.77 16.81 -1.48
-1.71 16.25 -0.86
-1.74 16.54 -0.29
-1.66 16.28 0.29
-0.89 8.75 -2.03
-1.85 18.18 0.96
-1.12 11 -2.15
-1.76 17.27 1.52
-1.41 13.86 -2.21
-2.94 28.92 3.57
-1.49 14.61 -1.8
-1.72 16.88 -1.48
-1.67 16.45 -0.87
-1.73 17.03 -0.3
-0.86 8.74 -2.03
-1.76 17.89 0.94
-1.08 11 -2.15
-2.9 29.48 2.59
-1.36 13.88 -2.21
-2.72 27.65 3.41
-1.44 14.66 -1.81
-1.75 17.82 -1.57
-1.63 16.57 -0.29
-1.72 18.12 0.32
-0.83 8.75 -2.03
-1.7 17.91 0.94
-1.04 10.99 -2.15
-1.72 18.12 1.59
-1.32 13.89 -2.21
-1.72 18.15 2.24
-1.39 14.71 -1.81
-1.57 16.63 -1.46
-1.62 17.13 -0.9
-1.58 16.73 -0.29
-1.61 17.66 0.31
-0.8 8.74 -2.03
-2.57 28.13 1.48
-1 11 -2.15
-1.66 18.16 1.6
-1.27 13.91 -2.21
-1.35 14.78 -1.82
-1.55 16.96 -1.49
-1.55 16.93 -0.89
-1.52 16.67 -0.29
-1.62 18.42 0.32
-0.77 8.75 -2.03
-1.62 18.41 0.97
-0.97 11 -2.15
-1.6 18.17 1.6
-1.23 13.95 -2.22
-1.59 18.15 2.24
-1.3 14.84 -1.83
-1.54 17.52 -1.54
-1.48 16.9 -0.89
-1.78 21.09 0.37
-0.74 8.72 -2.02
-2.45 29.06 1.53
-0.93 11 -2.15
-2.31 27.41 2.41
-1.18 14 -2.23
-1.53 18.16 2.24
-1.44 17.02 -0.9
-1.4 16.54 -0.29
-1.45 17.96 0.31
-0.71 8.73 -2.02
-1.45 17.96 0.94
-0.89 11 -2.14
-2.24 27.73 2.43
-1.13 14.04 -2.23
-1.47 18.18 2.24
-1.45 17.9 -1.57
-1.4 17.32 -0.91
-1.3 16.04 -0.28
-1.35 17.46 0.31
-0.68 8.73 -2.02
-1.39 18.02 0.95
-0.85 10.99 -2.14
-1.4 18.14 1.59
-1.09 14.1 -2.24
-2.21 28.54 3.52
-1.32 17.09 -0.9
-1.32 17.04 -0.3
-1.36 18.41 0.32
-0.64 8.73 -2.02
-1.34 18.14 0.95
-0.81 10.99 -2.14
-1.34 18.17 1.59
-1.04 14.14 -2.25
-1.27 17.16 -0.9
-1.26 17.06 -0.3
-1.26 17.97 0.31
-0.61 8.73 -2.02
-1.28 18.15 0.95
-0.77 10.99 -2.14
-1.27 18.1 1.59
-1 14.19 -2.25
-1.31 18.6 -1.63
-1.2 17.01 -0.89
-1.18 16.84 -0.29
-0.48 7.21 -1.94
-1.11 16.63 0.29
-0.58 8.72 -2.02
-1.18 17.73 0.93
-0.73 10.97 -2.14
-2.04 30.48 2.67
-0.95 14.23 -2.26
-1.19 17.81 -1.56
-1.36 20.36 -1.07
-1.13 16.92 -0.3
-0.46 7.22 -1.94
-1.23 19.4 0.34
-0.55 8.72 -2.02
-0.69 10.97 -2.14
-1.15 18.23 1.6
-0.9 14.27 -2.26
-1.66 26.25 3.23
-1.31 20.73 -1.09
-1.17 18.5 -0.32
-0.43 7.22 -1.94
-1.14 19.12 0.33
-0.52 8.72 -2.02
-1.73 28.99 1.52
-0.65 10.96 -2.13
-1.57 26.32 3.24
-1.06 17.78 -1.56
-1.01 16.96 -0.89
-1.17 19.52 -0.34
-0.41 7.21 -1.93
-1 17.82 0.31
-0.49 8.71 -2.01
-1.61 28.55 1.5
-0.62 10.95 -2.13
-0.81 14.4 -2.28
-1.36 24.11 2.97
-1.01 17.91 -1.57
-0.96 16.97 -0.89
-1.05 18.68 -0.33
-0.38 7.21 -1.93
-1 19 0.33
-0.46 8.71 -2.01
-1.31 24.89 1.31
-0.58 10.94 -2.13
-1.27 24.09 2.96
-1.05 19.84 -1.04
-1.01 19.22 -0.34
-0.36 7.21 -1.93
-0.95 19.17 0.34
-0.43 8.69 -2.01
-1.18 23.95 1.26
-0.54 10.94 -2.13
-1.46 29.53 2.59
-1.41 28.63 3.52
-0.84 17.1 -2.1
-1.02 20.57 -1.08
-0.98 19.86 -0.35
-0.33 7.21 -1.93
-0.89 19.35 0.34
-0.4 8.68 -2.01
-1.1 23.91 1.25
-0.5 10.93 -2.13
-1.36 29.43 2.58
-1.13 24.61 3.02
-0.78 17.01 -2.09
-0.82 17.74 -0.93
-0.85 18.33 -0.32
-0.31 7.2 -1.93
-0.88 20.76 0.36
-0.37 8.69 -2.01
-1 23.66 1.24
-0.46 10.91 -2.12
-1.13 26.54 2.32
-0.6 14.24 -2.26
-0.73 17.09 -2.1
-0.75 17.78 -0.93
-0.78 18.39 -0.32
-0.28 7.19 -1.93
-0.72 18.7 0.33
-0.34 8.68 -2.01
-0.83 21.29 1.12
-0.42 10.91 -2.12
-0.55 14.23 -2.26
-1.13 29.04 3.57
-0.68 17.58 -2.16
-0.72 18.54 -1.62
-0.69 17.85 -0.94
-0.72 18.56 -0.32
-0.25 7.18 -1.93
-0.68 19.24 0.34
-0.3 8.68 -2.01
-0.76 21.6 1.13
-0.38 10.91 -2.12
-1.01 28.9 2.53
-0.5 14.22 -2.25
-1.02 28.94 3.56
-0.64 18.18 -2.23
-0.65 18.62 -1.63
-0.93 26.49 5.15
-0.63 17.92 -0.94
-0.67 18.97 -0.33
-0.23 7.2 -1.93
-0.61 19.27 0.34
-0.28 8.67 -2
-0.71 22.21 1.16
-0.35 10.9 -2.12
-0.94 29.56 2.59
-0.45 14.22 -2.25
-0.92 28.93 3.55
-0.58 18.26 -2.24
-0.85 26.85 4.26
-0.58 18.24 -0.96
-0.58 18.15 -0.32
-0.2 7.2 -1.93
-0.55 19.52 0.34
-0.24 8.67 -2
-0.7 24.77 1.3
-0.31 10.89 -2.12
-0.4 14.21 -2.25
-0.81 28.84 3.54
-0.53 19.02 -2.34
-0.75 26.64 4.22
-0.58 20.74 -1.82
-0.52 18.63 -0.33
-0.18 7.18 -1.93
-0.47 18.76 0.33
-0.22 8.67 -2
-0.67 26.69 1.4
-0.27 10.88 -2.12
-0.73 29.19 2.55
-0.35 14.21 -2.25
-0.66 26.6 3.27
-0.48 19.03 -2.34
-0.67 26.87 4.26
-0.49 19.82 -1.73
-0.53 21.35 -1.12
-0.47 18.75 -0.33
-0.15 7.18 -1.92
-0.41 19.17 0.33
-0.18 8.67 -2
-0.46 21.56 1.13
-0.23 10.89 -2.12
-0.57 26.9 2.35
-0.3 14.2 -2.25
-0.63 29.61 3.64
-0.38 17.64 -2.17
-0.5 23.67 3.75
-0.41 19.25 -1.68
-0.39 18.42 -0.97
-0.4 18.75 -0.33
-0.13 7.17 -1.92
-0.34 18.6 0.32
-0.16 8.66 -2
-0.41 22.45 1.18
-0.2 10.88 -2.12
-0.48 26.64 2.33
-0.26 14.18 -2.25
-0.54 29.5 3.62
-0.35 19.14 -2.35
-0.48 26.68 4.23
-0.33 18.18 -1.59
-0.33 18.41 -0.96
-0.33 18.41 -0.32
-0.1 7.18 -1.92
-0.27 18.73 0.33
-0.13 8.65 -2
-0.33 22.6 1.18
-0.16 10.88 -2.11
-0.43 29.97 2.62
-0.21 14.18 -2.25
-0.38 26.57 3.26
-0.38 26.13 4.14
-0.27 18.56 -1.62
-0.27 18.63 -0.98
-0.27 18.46 -0.32
-0.08 7.17 -1.92
-0.22 19.83 0.35
-0.1 8.64 -2
-0.24 21.78 1.14
-0.12 10.87 -2.11
-0.3 26.47 2.32
-0.16 14.17 -2.24
-0.27 23.86 2.93
-0.18 16.51 -2.03
-0.27 23.83 3.77
-0.22 19.39 -1.7
-0.29 26.15 5.08
-0.21 18.55 -0.97
-0.21 18.8 -0.33
-0.05 7.17 -1.92
-0.19 25.31 0.44
-0.06 8.64 -1.99
-0.17 22.15 1.16
-0.08 10.85 -2.11
-0.18 24.63 2.16
-0.11 14.17 -2.24
-0.18 24.27 2.98
-0.12 16.48 -2.02
-0.2 26.27 4.16
-0.12 16.48 -1.44
-0.2 26.65 5.18
-0.13 17.85 -0.94
-0.15 19.41 -0.34
-0.03 7.16 -1.92
-0.08 20.45 0.36
-0.03 8.64 -2
-0.09 23.04 1.21
-0.04 10.84 -2.11
-0.1 24.62 2.15
-0.06 14.16 -2.24
-0.1 24.23 2.98
-0.08 19.42 -2.38
-0.1 23.8 3.77
-0.08 19.06 -1.67
-0.07 17.72 -0.93
-0.08 19.17 -0.33
-0 7.16 -1.92
-0.01 20.72 0.36
-0 8.63 -1.99
-0.01 21.8 1.14
-0 10.82 -2.1
-0.01 24.54 2.15
-0 14.15 -2.24
-0.01 26.8 3.29
-0.01 19.42 -2.38
-0.01 26.64 4.22
-0.01 18.4 -1.61
-0.01 26.23 5.1
-0.01 18.63 -0.98
-0.01 19.3 -0.34
0.02 7.16 -1.92
0.05 19.78 0.35
0.02 8.62 -1.99
0.06 22.04 1.16
0.03 10.82 -2.1
0.08 29.32 2.56
0.04 14.14 -2.24
0.06 24.75 3.04
0.05 18.5 -2.27
0.07 27.27 4.32
0.05 18.31 -1.6
0.05 18.81 -0.99
0.05 18.44 -0.32
0.05 7.17 -1.92
0.13 19.93 0.35
0.05 8.62 -1.99
0.07 10.8 -2.1
0.15 23.73 2.08
0.09 14.14 -2.24
0.16 24.9 3.06
0.14 22.95 -2.82
0.15 24.16 -2.11
0.12 18.74 -0.98
0.12 18.87 -0.33
0.07 7.16 -1.92
0.2 20.19 0.35
0.09 8.61 -1.99
0.23 22.9 1.2
0.11 10.79 -2.1
0.27 27.05 2.37
0.14 14.12 -2.24
0.25 24.85 3.05
0.21 20.96 -2.57
0.24 23.83 3.78
0.19 19.05 -1.67
0.24 24.04 4.67
0.19 18.88 -0.33
0.1 7.14 -1.91
0.27 19.61 0.34
0.12 8.62 -1.99
0.31 23.02 1.21
0.15 10.78 -2.1
0.33 24.49 2.14
0.19 14.11 -2.23
0.33 24.32 2.99
0.31 22.85 -2.81
0.33 24.25 3.84
0.26 19.17 -1.68
0.25 18.25 -0.96
0.25 18.08 -0.32
0.12 7.14 -1.91
0.32 19.39 0.34
0.14 8.61 -1.99
0.38 22.65 1.19
0.18 10.78 -2.1
0.4 23.82 2.08
0.24 14.09 -2.23
0.4 23.94 2.94
0.4 23.69 3.75
0.32 19.12 -1.67
0.31 18.48 -0.97
0.31 18.69 -0.33
0.15 7.14 -1.91
0.4 19.39 0.34
0.18 8.6 -1.98
0.46 22.51 1.18
0.22 10.77 -2.09
0.48 23.43 2.05
0.29 14.09 -2.23
0.49 23.87 2.93
0.38 18.36 -2.26
0.49 23.82 3.77
0.39 19.16 -1.68
0.49 24.05 4.68
0.42 20.54 -1.08
0.4 19.72 -0.34
0.17 7.14 -1.91
0.47 20.06 0.35
0.2 8.59 -1.98
0.53 22.4 1.17
0.25 10.75 -2.09
0.6 25.45 2.23
0.33 14.07 -2.23
0.58 24.63 3.03
0.45 19.27 -2.37
0.56 23.87 3.78
0.45 19.14 -1.67
0.57 24.16 4.7
0.49 21 -1.1
0.44 18.5 -0.32
0.19 7.14 -1.91
0.55 20.3 0.35
0.23 8.58 -1.98
0.67 24.59 1.29
0.29 10.74 -2.09
0.7 25.7 2.25
0.38 14.06 -2.23
0.64 23.37 2.87
0.48 17.61 -2.16
0.53 19.63 -1.72
0.66 24.39 4.74
0.52 19.27 -1.01
0.51 18.71 -0.33
0.22 7.13 -1.91
0.61 20.12 0.35
0.26 8.59 -1.98
0.72 23.43 1.23
0.33 10.74 -2.09
0.78 25.63 2.24
0.43 14.05 -2.23
0.71 23.28 2.86
0.6 19.57 -2.4
0.72 23.71 3.76
0.61 19.87 -1.74
0.75 24.6 4.78
0.59 19.25 -1.01
0.6 19.53 -0.34
0.24 7.13 -1.91
0.7 20.57 0.36
0.29 8.59 -1.98
0.81 23.64 1.24
0.37 10.72 -2.09
0.8 23.3 2.04
0.48 14.02 -2.22
0.8 23.33 2.87
0.68 19.74 -2.42
0.83 24.35 3.86
0.79 23.19 -2.03
0.84 24.56 4.78
0.68 19.87 -1.04
0.66 19.37 -0.34
0.27 7.13 -1.91
0.75 20 0.35
0.32 8.57 -1.98
0.87 23.35 1.22
0.4 10.72 -2.08
0.85 22.65 1.98
0.52 14 -2.22
0.87 23.24 2.86
0.66 17.7 -2.17
0.93 24.79 3.93
0.74 19.82 -1.04
0.75 20.09 -0.35
0.29 7.13 -1.91
0.81 19.89 0.35
0.35 8.56 -1.98
0.98 23.89 1.25
0.44 10.71 -2.08
1.05 25.72 2.25
0.57 13.99 -2.22
0.74 18 -2.21
0.98 23.95 -2.1
1 24.51 4.77
0.86 20.99 -1.1
0.84 20.41 -0.36
0.32 7.11 -1.91
1.1 24.74 0.43
0.38 8.56 -1.98
1.35 30.37 1.59
0.48 10.7 -2.08
1.05 23.66 2.07
0.62 13.98 -2.22
0.79 17.83 -2.19
1.07 23.93 3.79
0.78 17.62 -1.54
0.91 20.5 -1.08
0.92 20.67 -0.36
0.34 7.11 -1.91
0.97 20.18 0.35
0.41 8.55 -1.98
1.1 22.94 1.2
0.51 10.69 -2.08
1.21 25.05 2.19
0.67 13.96 -2.21
0.85 17.73 -2.18
1.18 24.42 3.87
0.85 17.69 -1.55
1.18 24.55 4.78
1.06 22 -1.15
1.01 20.91 -0.37
0.37 7.12 -1.91
1.04 20.23 0.35
0.44 8.55 -1.98
1.26 24.44 1.28
0.55 10.69 -2.08
1.24 24.04 2.11
0.72 13.95 -2.21
0.92 17.81 -2.19
1.23 23.93 3.8
0.92 17.78 -1.56
1.09 21.1 -1.11
1.07 20.78 -0.36
0.39 7.1 -1.91
1.11 20.23 0.35
0.47 8.55 -1.98
1.25 22.67 1.19
0.59 10.69 -2.08
1.32 23.93 2.1
0.77 13.93 -2.21
0.98 17.84 -2.19
1.32 24.02 3.81
0.99 17.91 -1.57
1.28 23.31 -1.22
1.13 20.53 -0.36
0.41 7.1 -1.9
1.2 20.48 0.36
0.5 8.53 -1.97
1.31 22.46 1.18
0.62 10.68 -2.08
1.42 24.3 2.13
0.81 13.91 -2.21
1.42 24.3 2.99
1.04 17.89 -2.2
1.4 24.05 3.82
1.05 18.02 -1.58
1.3 22.34 -1.17
1.21 20.75 -0.36
0.44 7.09 -1.9
1.28 20.72 0.36
0.53 8.53 -1.97
1.52 24.56 1.29
0.66 10.66 -2.08
1.48 23.83 2.09
0.86 13.9 -2.21
1.5 24.21 2.98
1.11 17.98 -2.21
1.49 23.99 3.81
1.12 18.14 -1.59
1.34 21.55 -1.13
1.3 20.93 -0.37
0.46 7.08 -1.9
1.36 20.76 0.36
0.56 8.53 -1.97
1.47 22.52 1.18
0.7 10.67 -2.08
1.55 23.72 2.08
0.91 13.89 -2.2
1.58 24.23 2.98
1.18 18 -2.21
1.19 18.24 -1.6
1.4 21.48 -1.13
1.4 21.43 -0.37
0.49 7.08 -1.9
0.59 8.52 -1.97
1.56 22.6 1.19
0.73 10.66 -2.08
1.63 23.66 2.07
0.96 13.86 -2.2
1.67 24.26 2.99
1.24 18.05 -2.22
1.27 18.37 -1.61
1.58 22.91 -1.2
1.48 21.42 -0.37
0.51 7.07 -1.9
1.82 25.16 0.44
0.62 8.5 -1.97
2.03 28 1.47
0.77 10.64 -2.07
1.72 23.78 2.09
1 13.85 -2.2
1.76 24.32 2.99
1.31 18.08 -2.23
1.34 18.49 -1.62
1.65 22.84 -1.2
1.5 20.78 -0.36
0.54 7.08 -1.9
0.65 8.49 -1.97
0.81 10.61 -2.07
1.79 23.49 2.06
1.05 13.84 -2.2
1.85 24.38 3
1.38 18.15 -2.23
1.42 18.63 -1.63
1.73 22.78 -1.2
1.79 23.52 -0.41
0.56 7.07 -1.9
0.67 8.48 -1.96
0.84 10.59 -2.06
1.85 23.4 2.05
1.09 13.81 -2.19
1.44 18.2 -2.24
1.49 18.77 -1.65
1.81 22.82 -1.2
1.73 21.81 -0.38
0.58 7.05 -1.9
2.11 25.46 0.45
0.7 8.49 -1.97
0.88 10.58 -2.06
1.94 23.37 2.05
1.14 13.8 -2.19
2 24.16 2.98
1.51 18.28 -2.25
1.57 18.98 -1.67
1.9 22.95 -1.21
0.61 7.05 -1.9
0.73 8.48 -1.96
0.91 10.57 -2.06
2.11 24.36 2.14
1.19 13.77 -2.19
1.58 18.3 -2.26
1.66 19.22 -1.69
1.98 22.88 -1.2
2.1 24.35 -0.43
0.63 7.04 -1.9
0.76 8.45 -1.96
0.95 10.55 -2.06
2.24 24.84 2.18
1.24 13.75 -2.19
1.65 18.3 -2.26
1.74 19.38 -1.7
2.07 23.01 -1.21
2.42 26.89 -0.47
0.66 7.05 -1.9
0.79 8.45 -1.96
0.98 10.54 -2.06
2.26 24.23 2.13
1.28 13.73 -2.18
1.71 18.31 -2.26
1.82 19.54 -1.72
2.17 23.31 -1.23
2.54 27.22 -0.48
0.68 7.04 -1.89
0.82 8.45 -1.96
1.02 10.52 -2.05
2.34 24.17 2.12
1.33 13.72 -2.18
1.78 18.37 -2.27
1.91 19.7 -1.73
2.26 23.36 -1.23
2.65 27.37 -0.48
0.7 7.02 -1.89
0.85 8.44 -1.96
1.06 10.52 -2.05
2.5 24.9 2.19
1.37 13.7 -2.18
1.84 18.36 -2.27
1.99 19.79 -1.74
2.35 23.39 -1.23
2.58 25.67 -0.45
0.73 7.01 -1.89
0.88 8.43 -1.96
1.09 10.5 -2.05
1.42 13.69 -2.18
1.9 18.31 -2.26
2.07 19.91 -1.75
2.43 23.4 -1.23
2.38 22.93 -0.4
0.75 7.02 -1.89
0.9 8.42 -1.96
1.13 10.5 -2.05
1.47 13.67 -2.18
1.97 18.31 -2.26
2.15 20.03 -1.76
0.78 7.01 -1.89
0.93 8.41 -1.95
1.16 10.49 -2.05
1.52 13.66 -2.18
2.04 18.42 -2.28
2.24 20.21 -1.78
0.8 7 -1.89
0.96 8.4 -1.95
1.2 10.46 -2.05
1.56 13.64 -2.18
2.12 18.57 -2.3
2.33 20.4 -1.8
0.82 6.98 -1.88
0.99 8.42 -1.96
1.23 10.45 -2.05
1.61 13.62 -2.17
2.22 18.79 -2.32
2.43 20.65 -1.82
0.85 6.97 -1.88
1.02 8.41 -1.95
1.27 10.44 -2.04
1.65 13.6 -2.17
2.3 18.92 -2.34
2.53 20.88 -1.84
0.87 6.98 -1.89
1.05 8.39 -1.95
1.3 10.44 -2.05
1.7 13.59 -2.17
2.32 18.56 -2.3
2.64 21.15 -1.86
0.9 6.98 -1.89
1.08 8.37 -1.95
1.34 10.41 -2.04
1.74 13.57 -2.17
2.38 18.55 -2.3
3.19 24.86 -2.19
0.92 6.98 -1.89
1.1 8.37 -1.95
1.37 10.4 -2.04
1.79 13.56 -2.17
2.45 18.57 -2.3
3.12 23.61 -1.25
0.94 6.95 -1.88
1.13 8.37 -1.95
1.41 10.39 -2.04
1.83 13.53 -2.16
2.51 18.54 -2.3
3.21 23.66 -2.09
7.94 58.58 -3.1
0.97 6.95 -1.88
1.16 8.36 -1.95
1.44 10.38 -2.04
1.88 13.5 -2.16
2.58 18.52 -2.3
3.43 24.67 -2.18
0.99 6.95 -1.88
1.19 8.34 -1.95
1.48 10.37 -2.04
1.93 13.5 -2.16
2.64 18.47 -2.29
3.5 24.54 -2.17
1.02 6.95 -1.88
1.22 8.34 -1.94
1.51 10.35 -2.03
1.97 13.47 -2.16
2.7 18.44 -2.29
3.58 24.5 -2.17
1.04 6.94 -1.88
1.25 8.34 -1.95
1.55 10.32 -2.03
2.02 13.46 -2.16
2.76 18.4 -2.28
3.68 24.54 -2.17
1.06 6.93 -1.88
1.28 8.33 -1.94
1.58 10.31 -2.03
2.06 13.44 -2.15
2.82 18.38 -2.28
3.97 25.88 -2.29
1.08 6.91 -1.87
1.3 8.31 -1.94
1.62 10.3 -2.03
2.11 13.42 -2.15
2.88 18.35 -2.28
1.11 6.92 -1.88
1.33 8.3 -1.94
1.65 10.28 -2.02
2.15 13.41 -2.15
2.94 18.32 -2.28
1.13 6.9 -1.87
1.36 8.3 -1.94
1.68 10.27 -2.02
2.19 13.38 -2.15
3 18.29 -2.28
1.16 6.9 -1.87
1.39 8.29 -1.94
1.72 10.24 -2.02
2.24 13.36 -2.15
3.06 18.25 -2.27
1.18 6.89 -1.87
1.42 8.29 -1.94
1.75 10.23 -2.02
2.28 13.34 -2.14
3.11 18.2 -2.27
1.2 6.88 -1.87
1.45 8.27 -1.94
1.78 10.21 -2.02
2.33 13.31 -2.14
3.17 18.17 -2.27
1.23 6.88 -1.87
1.47 8.26 -1.94
1.82 10.21 -2.02
2.37 13.29 -2.14
3.23 18.13 -2.26
1.25 6.87 -1.87
1.5 8.26 -1.94
1.85 10.18 -2.01
2.41 13.27 -2.14
3.28 18.08 -2.26
4.89 26.93 -2.39
1.27 6.87 -1.87
1.53 8.25 -1.94
1.88 10.15 -2.01
2.46 13.26 -2.14
3.35 18.06 -2.26
4.99 26.87 -2.39
1.3 6.86 -1.87
1.56 8.23 -1.93
1.92 10.14 -2.01
2.5 13.22 -2.13
3.41 18.01 -2.25
5.06 26.78 -2.38
1.32 6.85 -1.87
1.58 8.22 -1.93
1.95 10.13 -2
2.54 13.2 -2.13
3.46 17.99 -2.25
5.15 26.74 -2.38
1.34 6.85 -1.87
1.61 8.21 -1.93
1.98 10.11 -2
2.58 13.17 -2.13
3.52 17.93 -2.24
5.23 26.66 -2.38
1.37 6.85 -1.87
1.64 8.2 -1.93
2.02 10.09 -2
2.63 13.14 -2.12
3.58 17.9 -2.24
5.32 26.61 -2.37
1.39 6.84 -1.87
1.67 8.19 -1.93
2.05 10.07 -2
2.67 13.12 -2.12
3.63 17.86 -2.24
5.39 26.51 -2.37
1.41 6.82 -1.87
1.7 8.19 -1.93
2.08 10.06 -2
2.71 13.09 -2.12
3.69 17.83 -2.24
5.48 26.44 -2.36
1.43 6.81 -1.87
1.72 8.17 -1.93
2.11 10.03 -1.99
2.75 13.06 -2.11
3.75 17.78 -2.23
5.56 26.38 -2.36
1.46 6.81 -1.87
1.74 8.15 -1.92
2.15 10.02 -1.99
2.79 13.04 -2.11
3.8 17.74 -2.23
5.63 26.29 -2.35
1.48 6.8 -1.87
1.77 8.14 -1.92
2.18 10 -1.99
2.83 13.02 -2.11
3.85 17.7 -2.22
5.71 26.22 -2.35
1.51 6.8 -1.87
1.8 8.13 -1.92
2.21 9.98 -1.99
2.88 13 -2.11
3.92 17.66 -2.22
5.79 26.13 -2.34
1.53 6.78 -1.86
1.83 8.13 -1.92
2.25 9.97 -1.99
2.92 12.97 -2.11
3.97 17.63 -2.22
5.87 26.04 -2.34
1.55 6.78 -1.86
1.86 8.11 -1.92
2.28 9.95 -1.98
2.96 12.93 -2.1
4.02 17.59 -2.22
5.95 25.98 -2.33
1.57 6.77 -1.86
1.88 8.08 -1.92
2.31 9.94 -1.98
3 12.9 -2.1
4.07 17.53 -2.21
6.02 25.92 -2.33
1.6 6.76 -1.86
1.91 8.08 -1.92
2.34 9.91 -1.98
3.04 12.89 -2.1
4.13 17.49 -2.21
6.11 25.86 -2.32
1.62 6.76 -1.86
1.93 8.06 -1.91
2.37 9.88 -1.97
3.08 12.85 -2.09
4.18 17.45 -2.2
6.19 25.8 -2.32
1.64 6.74 -1.86
1.96 8.05 -1.91
2.4 9.86 -1.97
3.12 12.83 -2.09
4.24 17.42 -2.2
6.26 25.72 -2.32
1.66 6.73 -1.86
1.99 8.04 -1.91
2.43 9.86 -1.97
3.16 12.79 -2.09
4.29 17.38 -2.2
6.34 25.66 -2.31
1.69 6.73 -1.86
2.01 8.01 -1.91
2.47 9.84 -1.97
3.2 12.77 -2.09
4.34 17.32 -2.19
6.42 25.6 -2.31
1.71 6.72 -1.86
2.04 8.01 -1.91
2.5 9.83 -1.97
3.24 12.75 -2.08
4.39 17.27 -2.19
6.5 25.53 -2.3
1.73 6.71 -1.86
2.07 8 -1.91
2.53 9.81 -1.97
3.29 12.72 -2.08
4.45 17.22 -2.18
6.57 25.46 -2.3
1.75 6.69 -1.85
2.1 8 -1.91
2.57 9.8 -1.97
3.33 12.7 -2.08
4.5 17.18 -2.18
6.64 25.37 -2.29
1.78 6.69 -1.85
2.12 7.97 -1.9
2.6 9.79 -1.97
3.37 12.67 -2.08
4.55 17.14 -2.18
6.72 25.31 -2.29
1.8 6.69 -1.86
2.14 7.96 -1.9
2.63 9.78 -1.97
3.41 12.65 -2.07
4.6 17.09 -2.17
6.79 25.21 -2.28
1.83 6.68 -1.86
2.17 7.95 -1.9
2.67 9.77 -1.97
3.45 12.63 -2.07
4.65 17.03 -2.17
6.87 25.15 -2.28
1.84 6.66 -1.85
2.2 7.94 -1.9
2.7 9.74 -1.97
3.49 12.6 -2.07
4.7 16.97 -2.16
6.94 25.06 -2.28
1.87 6.65 -1.85
2.23 7.93 -1.9
2.73 9.73 -1.96
3.53 12.57 -2.07
4.75 16.92 -2.16
7.01 24.98 -2.27
1.89 6.64 -1.85
2.25 7.91 -1.9
2.76 9.72 -1.96
3.56 12.53 -2.06
4.8 16.87 -2.15
7.08 24.89 -2.26
1.91 6.63 -1.85
2.27 7.89 -1.9
2.79 9.7 -1.96
3.6 12.5 -2.06
4.84 16.82 -2.15
7.15 24.83 -2.26
1.93 6.62 -1.85
2.29 7.87 -1.89
2.82 9.68 -1.96
3.47 11.91 -1.97
4.88 16.75 -2.14
7.22 24.77 -2.26
1.95 6.61 -1.85
2.33 7.87 -1.89
2.85 9.66 -1.96
3.5 11.86 -1.96
4.94 16.71 -2.14
7.29 24.67 -2.25
1.97 6.59 -1.84
2.35 7.86 -1.89
2.89 9.65 -1.96
3.54 11.84 -1.96
4.99 16.66 -2.14
7.36 24.6 -2.25
2 6.59 -1.85
2.38 7.84 -1.89
2.92 9.63 -1.96
3.57 11.79 -1.95
5.04 16.62 -2.13
7.43 24.52 -2.24
2.02 6.58 -1.84
2.4 7.82 -1.89
2.95 9.62 -1.96
3.59 11.69 -1.94
5.09 16.59 -2.13
7.51 24.46 -2.24
2.04 6.58 -1.85
2.43 7.81 -1.89
2.98 9.59 -1.95
3.61 11.61 -1.93
5.14 16.53 -2.13
7.58 24.39 -2.23
2.06 6.56 -1.84
2.45 7.79 -1.89
3.01 9.57 -1.95
3.62 11.5 -1.91
5.19 16.49 -2.12
7.65 24.29 -2.23
14.78 46.97 -2.58
2.08 6.54 -1.84
2.48 7.78 -1.89
3.04 9.54 -1.95
3.61 11.33 -1.88
5.24 16.46 -2.12
7.7 24.21 -2.22
2.1 6.53 -1.84
2.5 7.76 -1.88
3.07 9.53 -1.95
3.64 11.29 -1.88
5.29 16.42 -2.12
7.77 24.12 -2.22
14.91 46.3 -2.55
2.13 6.52 -1.84
2.52 7.74 -1.88
3.1 9.52 -1.95
3.68 11.3 -1.88
5.33 16.37 -2.11
7.83 24.02 -2.21
2.15 6.52 -1.84
2.55 7.74 -1.88
3.13 9.5 -1.94
3.74 11.34 -1.89
5.37 16.29 -2.11
7.9 23.94 -2.21
15.05 45.63 -2.52
2.17 6.51 -1.84
2.58 7.73 -1.88
3.16 9.46 -1.94
3.8 11.39 -1.9
5.42 16.24 -2.1
7.96 23.86 -2.2
2.19 6.48 -1.83
2.6 7.71 -1.88
3.19 9.45 -1.94
3.86 11.43 -1.91
5.46 16.19 -2.1
8.02 23.76 -2.19
2.21 6.48 -1.83
2.63 7.69 -1.88
3.23 9.45 -1.94
3.9 11.42 -1.91
5.51 16.14 -2.09
8.1 23.7 -2.19
2.24 6.47 -1.83
2.65 7.67 -1.87
3.26 9.42 -1.94
3.95 11.44 -1.92
5.55 16.08 -2.09
8.17 23.65 -2.19
15.3 44.28 -2.45
2.25 6.45 -1.83
2.68 7.67 -1.88
3.29 9.41 -1.94
4 11.46 -1.92
5.59 16.02 -2.08
8.24 23.6 -2.19
2.27 6.44 -1.83
2.7 7.66 -1.87
3.31 9.38 -1.93
4.05 11.48 -1.93
5.64 15.98 -2.08
8.29 23.47 -2.18
2.29 6.42 -1.83
2.73 7.66 -1.88
3.34 9.37 -1.93
4.09 11.47 -1.93
5.69 15.93 -2.08
8.34 23.37 -2.17
2.32 6.42 -1.83
2.75 7.63 -1.87
3.37 9.35 -1.93
4.14 11.48 -1.93
5.73 15.89 -2.07
8.4 23.28 -2.17
2.33 6.4 -1.82
2.78 7.61 -1.87
37.01 101.41 5.66
3.41 9.34 -1.93
4.22 11.57 -1.95
5.78 15.84 -2.07
8.46 23.19 -2.16
2.36 6.4 -1.83
2.8 7.6 -1.87
3.44 9.32 -1.93
4.29 11.63 -1.96
5.82 15.78 -2.07
8.53 23.11 -2.16
2.38 6.37 -1.82
2.83 7.58 -1.87
3.47 9.3 -1.93
4.34 11.63 -1.97
5.87 15.74 -2.06
8.59 23.03 -2.15
2.4 6.36 -1.82
2.86 7.58 -1.87
3.5 9.28 -1.93
4.37 11.6 -1.96
5.76 15.29 -2.01
8.65 22.95 -2.15
2.42 6.34 -1.82
2.87 7.55 -1.87
3.53 9.27 -1.93
4.4 11.56 -1.96
5.79 15.2 -2
8.7 22.85 -2.14
2.44 6.33 -1.82
2.9 7.53 -1.86
3.56 9.26 -1.93
4.44 11.55 -1.96
5.85 15.22 -2
8.76 22.78 -2.14
2.46 6.33 -1.82
2.92 7.52 -1.86
3.59 9.24 -1.93
4.48 11.53 -1.96
5.9 15.19 -2
8.81 22.69 -2.13
2.48 6.31 -1.82
2.95 7.51 -1.86
3.61 9.2 -1.92
4.52 11.51 -1.96
5.93 15.11 -1.99
8.88 22.62 -2.13
2.5 6.29 -1.81
2.97 7.5 -1.86
3.65 9.19 -1.92
4.55 11.48 -1.96
5.93 14.94 -1.97
8.94 22.52 -2.12
2.52 6.28 -1.81
3 7.48 -1.86
3.68 9.18 -1.92
4.61 11.49 -1.96
5.97 14.9 -1.97
9 22.45 -2.12
2.54 6.28 -1.81
3.02 7.46 -1.86
3.71 9.17 -1.92
4.64 11.46 -1.96
6.05 14.94 -1.98
9.08 22.43 -2.12
2.56 6.26 -1.81
3.04 7.44 -1.86
3.74 9.14 -1.92
4.68 11.44 -1.96
6 14.68 -1.95
7.58 18.55 -1.75
2.58 6.25 -1.81
3.07 7.43 -1.85
3.76 9.11 -1.92
4.71 11.42 -1.96
6.02 14.58 -1.94
7.63 18.48 -1.75
2.6 6.23 -1.81
3.1 7.42 -1.86
41.5 99.53 5.65
3.79 9.1 -1.92
4.75 11.4 -1.96
6.04 14.49 -1.93
7.55 18.1 -1.72
2.62 6.22 -1.81
3.11 7.4 -1.85
41.83 99.37 5.65
3.82 9.08 -1.91
4.79 11.38 -1.96
6 14.26 -1.9
7.58 18 -1.71
2.64 6.21 -1.81
3.14 7.38 -1.85
42.2 99.24 5.65
3.86 9.07 -1.92
4.84 11.38 -1.96
5.99 14.09 -1.88
7.64 17.96 -1.71
2.66 6.21 -1.81
3.16 7.37 -1.85
42.52 99.06 5.65
3.88 9.04 -1.91
4.88 11.37 -1.96
6.01 13.99 -1.87
7.68 17.89 -1.7
2.68 6.18 -1.81
3.19 7.36 -1.85
42.89 98.94 5.65
3.9 9 -1.91
4.93 11.37 -1.96
6.01 13.87 -1.86
7.74 17.85 -1.7
2.69 6.16 -1.8
3.21 7.34 -1.85
3.93 9 -1.91
4.97 11.37 -1.96
6.05 13.84 -1.85
7.81 17.86 -1.71
2.72 6.15 -1.8
3.23 7.32 -1.85
3.96 8.97 -1.91
5.01 11.36 -1.97
6.09 13.79 -1.85
7.88 17.86 -1.71
26.55 60.16 -1.15
2.74 6.13 -1.8
3.26 7.3 -1.85
3.99 8.95 -1.9
5.07 11.37 -1.97
6.12 13.72 -1.84
7.96 17.85 -1.71
2.76 6.13 -1.8
3.28 7.29 -1.85
4.02 8.93 -1.9
5.12 11.37 -1.97
6.17 13.72 -1.85
8.02 17.82 -1.71
2.78 6.12 -1.8
3.31 7.28 -1.85
4.04 8.9 -1.9
5.16 11.37 -1.98
6.21 13.68 -1.84
8.06 17.75 -1.71
2.79 6.09 -1.8
3.33 7.27 -1.85
4.07 8.88 -1.9
5.2 11.35 -1.98
6.23 13.59 -1.84
8.13 17.75 -1.71
2.81 6.08 -1.79
3.35 7.25 -1.84
4.1 8.87 -1.9
5.23 11.31 -1.97
6.27 13.56 -1.83
8.2 17.74 -1.71
2.83 6.07 -1.8
3.37 7.23 -1.84
4.13 8.85 -1.9
5.27 11.29 -1.97
6.33 13.57 -1.84
8.28 17.74 -1.71
17.57 37.66 -2.18
2.86 6.07 -1.8
3.4 7.22 -1.84
4.16 8.83 -1.9
5.32 11.29 -1.98
6.38 13.54 -1.84
8.08 17.17 -1.66
8.09 17.19 -1
2.87 6.05 -1.79
3.43 7.21 -1.84
4.18 8.8 -1.89
5.35 11.27 -1.98
6.43 13.53 -1.84
8.16 17.17 -1.66
8.16 17.17 -1
2.89 6.03 -1.79
3.45 7.2 -1.84
4.21 8.78 -1.89
5.38 11.22 -1.97
6.48 13.52 -1.84
8.2 17.1 -1.66
8.21 17.12 -1
2.91 6.02 -1.79
6.11 12.62 0.24
3.47 7.17 -1.84
6.11 12.63 0.74
4.24 8.76 -1.89
5.4 11.17 -1.97
6.52 13.48 -1.84
8.3 17.16 -1.67
8.32 17.19 -1
6.12 12.65 -0.25
2.93 6 -1.79
6.12 12.56 0.24
3.49 7.15 -1.84
6.13 12.57 0.73
4.26 8.74 -1.89
5.43 11.13 -1.96
6.11 12.53 -1.71
6.11 12.52 -1.22
6.12 12.55 -0.73
6.11 12.53 -0.24
2.95 5.99 -1.79
3.51 7.14 -1.84
4.29 8.72 -1.89
5.46 11.09 -1.96
6.15 12.51 -1.71
8.6 17.48 -1.7
2.97 5.97 -1.79
3.54 7.12 -1.84
4.32 8.7 -1.89
5.49 11.06 -1.96
6.68 13.45 -1.84
8.65 17.42 -1.7
17.84 35.93 -2.1
2.98 5.95 -1.78
3.56 7.11 -1.84
4.35 8.68 -1.89
5.52 11.02 -1.95
6.7 13.37 -1.84
8.69 17.35 -1.7
17.88 35.7 -2.09
3 5.94 -1.78
3.58 7.09 -1.83
4.37 8.66 -1.89
5.54 10.97 -1.95
6.72 13.31 -1.83
8.8 17.42 -1.71
17.92 35.48 -2.08
3.02 5.93 -1.78
3.6 7.07 -1.83
4.41 8.65 -1.89
5.57 10.94 -1.94
6.74 13.23 -1.82
8.93 17.53 -1.72
17.95 35.22 -2.07
34.67 68.04 -1.33
3.04 5.92 -1.78
3.63 7.05 -1.83
4.43 8.62 -1.88
5.6 10.89 -1.94
6.79 13.2 -1.82
9.16 17.82 -1.75
3.05 5.89 -1.78
3.65 7.04 -1.83
4.46 8.6 -1.88
5.63 10.86 -1.94
6.86 13.24 -1.83
9.28 17.91 -1.77
3.07 5.87 -1.77
3.67 7.03 -1.83
4.48 8.57 -1.88
5.66 10.82 -1.93
6.91 13.22 -1.83
9.39 17.95 -1.77
3.09 5.87 -1.78
3.7 7.01 -1.83
4.51 8.56 -1.88
5.69 10.78 -1.93
6.94 13.17 -1.83
9.49 17.99 -1.78
18.22 34.55 -2.05
3.11 5.85 -1.78
3.71 6.98 -1.83
4.54 8.54 -1.88
5.72 10.75 -1.93
6.97 13.12 -1.82
9.57 18.01 -1.78
3.13 5.84 -1.77
3.74 6.97 -1.83
4.56 8.51 -1.88
5.75 10.72 -1.93
6.97 13.01 -1.81
9.64 17.99 -1.79
3.15 5.82 -1.77
3.76 6.96 -1.83
4.58 8.48 -1.87
5.78 10.7 -1.93
7 12.95 -1.81
9.68 17.92 -1.78
3.16 5.8 -1.77
3.78 6.94 -1.82
4.61 8.46 -1.87
5.81 10.67 -1.92
7.02 12.89 -1.8
9.68 17.76 -1.77
3.18 5.79 -1.77
3.8 6.91 -1.82
4.64 8.45 -1.87
5.85 10.64 -1.92
7.07 12.86 -1.8
11.09 20.19 -2.02
3.2 5.77 -1.77
3.82 6.89 -1.82
4.67 8.42 -1.87
5.87 10.6 -1.92
7.1 12.82 -1.8
11.14 20.11 -2.01
3.22 5.76 -1.77
3.84 6.87 -1.82
4.69 8.39 -1.87
5.91 10.57 -1.92
7.11 12.73 -1.79
11.18 20.02 -2.01
3.23 5.74 -1.76
3.86 6.86 -1.82
8.33 14.79 0.89
4.71 8.36 -1.87
5.94 10.54 -1.92
7.14 12.67 -1.79
11.22 19.92 -2
3.25 5.72 -1.76
3.89 6.85 -1.82
8.36 14.72 0.89
4.74 8.35 -1.87
8.28 14.57 1.47
5.96 10.5 -1.91
8.29 14.61 2.06
7.18 12.65 -1.79
11.27 19.85 -2
3.27 5.71 -1.76
3.91 6.83 -1.82
8.36 14.6 0.88
4.77 8.32 -1.86
8.36 14.6 1.47
5.99 10.46 -1.91
8.36 14.6 2.07
7.24 12.65 -1.79
11.32 19.78 -1.99
39.57 69.12 -1.39
3.29 5.7 -1.76
8.33 14.43 0.29
3.93 6.81 -1.81
8.38 14.52 0.88
4.79 8.31 -1.86
8.36 14.48 1.46
6.02 10.43 -1.91
8.37 14.5 2.06
7.27 12.59 -1.79
8.4 14.55 2.66
8.31 14.39 -1.45
8.3 14.39 -0.87
8.32 14.42 -0.29
3.31 5.69 -1.76
8.37 14.38 0.29
3.95 6.79 -1.81
8.38 14.4 0.87
4.82 8.28 -1.86
8.4 14.44 1.46
6.05 10.4 -1.91
8.41 14.46 2.05
7.32 12.59 -1.79
8.45 14.52 2.66
8.33 14.32 -1.45
8.34 14.33 -0.87
8.36 14.36 -0.29
3.32 5.67 -1.76
8.44 14.39 0.29
3.97 6.78 -1.81
8.41 14.34 0.87
4.83 8.24 -1.86
8.5 14.49 1.47
6.08 10.36 -1.9
7.35 12.53 -1.78
8.39 14.31 -1.45
8.4 14.32 -0.87
8.41 14.35 -0.29
3.34 5.65 -1.76
3.99 6.75 -1.81
8.43 14.26 0.87
4.86 8.23 -1.86
6.1 10.33 -1.9
7.36 12.46 -1.78
11.51 19.46 -1.98
3.36 5.64 -1.76
4.01 6.74 -1.81
8.47 14.21 0.87
4.89 8.21 -1.86
6.13 10.29 -1.9
7.39 12.41 -1.77
11.55 19.39 -1.97
3.03 5.04 -1.58
4.03 6.71 -1.81
4.91 8.18 -1.86
6.17 10.27 -1.9
7.42 12.36 -1.77
11.6 19.31 -1.97
3.04 5.02 -1.57
4.05 6.69 -1.81
4.94 8.16 -1.85
6.19 10.23 -1.89
7.44 12.28 -1.76
11.64 19.23 -1.97
3.04 4.99 -1.57
4.07 6.67 -1.8
4.96 8.12 -1.85
6.22 10.2 -1.89
7.5 12.3 -1.77
11.69 19.15 -1.96
3.04 4.95 -1.56
4.09 6.66 -1.81
4.98 8.1 -1.85
6.25 10.17 -1.89
7.52 12.24 -1.76
11.73 19.07 -1.96
3.03 4.89 -1.54
4.11 6.64 -1.8
5.01 8.09 -1.85
6.28 10.13 -1.89
7.53 12.16 -1.76
11.78 19.01 -1.96
3.04 4.86 -1.54
4.13 6.61 -1.8
5.04 8.07 -1.85
6.31 10.1 -1.89
7.57 12.12 -1.75
11.82 18.93 -1.95
3.04 4.84 -1.53
4.15 6.6 -1.8
5.06 8.04 -1.85
6.33 10.06 -1.88
7.61 12.1 -1.76
11.87 18.86 -1.95
3.05 4.82 -1.53
4.17 6.58 -1.8
5.08 8.02 -1.85
6.37 10.05 -1.88
7.67 12.09 -1.76
11.9 18.77 -1.94
3.06 4.78 -1.52
4.19 6.56 -1.8
5.1 7.98 -1.84
6.39 10.01 -1.88
7.71 12.07 -1.76
11.92 18.65 -1.94
3.05 4.74 -1.51
4.21 6.54 -1.8
5.13 7.96 -1.84
6.42 9.97 -1.88
7.77 12.06 -1.76
11.96 18.57 -1.93
3.05 4.7 -1.5
4.22 6.51 -1.79
5.16 7.95 -1.84
6.44 9.93 -1.88
7.82 12.06 -1.76
12 18.5 -1.93
3.07 4.69 -1.5
4.24 6.49 -1.79
5.18 7.92 -1.84
6.48 9.91 -1.87
7.85 12.01 -1.76
12.05 18.42 -1.93
3.11 4.72 -1.51
4.27 6.47 -1.79
5.19 7.88 -1.83
6.51 9.87 -1.87
7.92 12.01 -1.77
12.09 18.35 -1.92
3.15 4.74 -1.53
4.29 6.46 -1.79
5.22 7.86 -1.83
6.53 9.84 -1.87
7.97 12.01 -1.77
12.13 18.27 -1.92
3.17 4.74 -1.53
4.3 6.43 -1.79
5.24 7.83 -1.83
6.55 9.8 -1.87
8.02 11.99 -1.77
12.17 18.19 -1.91
3.2 4.75 -1.54
4.32 6.4 -1.78
5.26 7.81 -1.83
6.58 9.76 -1.86
8.09 12.01 -1.78
12.23 18.15 -1.91
3.22 4.74 -1.53
4.33 6.38 -1.78
5.28 7.78 -1.83
6.61 9.74 -1.87
8.14 11.98 -1.78
12.26 18.06 -1.91
3.22 4.71 -1.53
4.36 6.37 -1.78
5.3 7.75 -1.82
6.64 9.71 -1.86
8.17 11.95 -1.78
12.3 17.99 -1.91
10.27 15.03 3.54
3.22 4.67 -1.52
4.37 6.35 -1.78
5.32 7.72 -1.82
6.67 9.68 -1.86
8.23 11.95 -1.78
12.34 17.91 -1.9
10.35 15.03 3.55
3.23 4.65 -1.52
4.39 6.33 -1.78
5.34 7.7 -1.82
6.69 9.64 -1.86
8.3 11.96 -1.79
12.39 17.85 -1.9
10.43 15.03 3.56
3.24 4.63 -1.52
4.4 6.3 -1.77
5.37 7.68 -1.82
6.72 9.61 -1.86
8.37 11.97 -1.79
12.41 17.76 -1.9
10.53 15.06 3.57
3.25 4.61 -1.51
4.42 6.28 -1.77
5.38 7.64 -1.82
6.75 9.58 -1.86
8.43 11.97 -1.8
12.47 17.71 -1.89
10.62 15.09 3.59
3.26 4.59 -1.51
4.44 6.26 -1.77
5.4 7.61 -1.81
6.78 9.55 -1.86
8.51 12 -1.81
12.5 17.62 -1.89
10.72 15.11 3.6
3.26 4.57 -1.5
4.46 6.25 -1.77
5.42 7.59 -1.81
6.8 9.51 -1.85
8.58 12.01 -1.81
12.54 17.55 -1.89
10.82 15.13 3.62
3.28 4.55 -1.5
4.48 6.22 -1.77
5.45 7.57 -1.81
6.82 9.47 -1.85
8.66 12.02 -1.82
12.57 17.46 -1.88
10.9 15.13 3.62
3.3 4.55 -1.51
4.5 6.2 -1.77
5.47 7.53 -1.81
6.85 9.44 -1.85
8.72 12.02 -1.82
12.61 17.37 -1.88
11 15.15 3.64
3.32 4.55 -1.51
4.51 6.17 -1.77
5.49 7.51 -1.81
6.88 9.4 -1.84
8.8 12.03 -1.83
12.66 17.31 -1.88
11.11 15.19 3.66
3.35 4.55 -1.51
4.54 6.17 -1.77
5.51 7.49 -1.81
6.9 9.37 -1.84
8.88 12.06 -1.84
12.71 17.26 -1.88
11.21 15.22 3.67
3.37 4.53 -1.51
4.56 6.14 -1.77
5.54 7.47 -1.81
6.93 9.34 -1.84
8.96 12.07 -1.85
12.76 17.2 -1.87
11.31 15.24 3.69
3.39 4.53 -1.52
4.57 6.12 -1.76
5.56 7.44 -1.81
6.95 9.3 -1.84
9.03 12.09 -1.85
12.81 17.15 -1.87
11.41 15.27 3.7
3.4 4.52 -1.52
4.59 6.1 -1.76
5.58 7.41 -1.8
6.98 9.27 -1.84
9.09 12.07 -1.86
12.86 17.09 -1.87
11.52 15.3 3.72
3.42 4.52 -1.52
4.6 6.07 -1.76
5.59 7.38 -1.8
7 9.23 -1.83
9.14 12.06 -1.86
12.91 17.03 -1.87
11.62 15.33 3.74
3.44 4.5 -1.52
4.63 6.06 -1.76
5.62 7.35 -1.8
7.03 9.21 -1.84
9.19 12.04 -1.86
12.94 16.95 -1.87
11.73 15.35 3.76
3.46 4.49 -1.52
4.65 6.04 -1.76
5.64 7.33 -1.8
7.05 9.17 -1.83
9.22 11.99 -1.86
12.97 16.87 -1.86
11.83 15.39 3.77
3.48 4.5 -1.52
4.67 6.02 -1.76
5.66 7.31 -1.8
7.07 9.12 -1.83
9.26 11.95 -1.86
13.02 16.8 -1.86
11.95 15.42 3.79
3.51 4.5 -1.53
4.68 5.99 -1.76
5.68 7.28 -1.79
7.09 9.09 -1.83
9.28 11.89 -1.85
13.05 16.73 -1.86
12.06 15.46 3.81
3.53 4.49 -1.53
4.7 5.97 -1.75
5.7 7.25 -1.79
7.12 9.06 -1.83
9.3 11.83 -1.85
13.11 16.68 -1.86
12.21 15.54 3.84
3.54 4.48 -1.53
4.72 5.96 -1.76
5.71 7.22 -1.79
7.14 9.03 -1.82
9.33 11.79 -1.85
13.14 16.61 -1.85
3.55 4.46 -1.53
4.74 5.94 -1.75
5.73 7.19 -1.79
7.17 9 -1.82
9.36 11.74 -1.84
13.18 16.54 -1.85
3.57 4.45 -1.53
4.74 5.91 -1.75
5.75 7.16 -1.79
7.19 8.96 -1.82
9.39 11.7 -1.84
13.23 16.49 -1.85
12.84 16 3.99
3.59 4.44 -1.53
4.13 5.11 -1.52
5.78 7.14 -1.79
7.22 8.93 -1.82
9.42 11.65 -1.84
13.25 16.39 -1.84
12.9 15.96 3.99
3.6 4.42 -1.53
4.15 5.09 -1.52
5.79 7.11 -1.78
7.24 8.89 -1.82
9.44 11.6 -1.84
13.3 16.34 -1.84
12.94 15.9 3.99
3.6 4.39 -1.52
37.55 45.8 1.03
4.18 5.09 -1.52
5.8 7.08 -1.78
7.27 8.86 -1.82
9.47 11.55 -1.83
13.34 16.27 -1.84
12.98 15.83 3.98
3.61 4.37 -1.52
37.62 45.55 1.03
4.2 5.08 -1.52
5.83 7.05 -1.78
7.29 8.82 -1.81
9.51 11.51 -1.83
13.37 16.2 -1.84
13 15.75 3.97
3.63 4.36 -1.52
37.72 45.33 1.03
4.2 5.05 -1.52
5.85 7.03 -1.78
7.31 8.78 -1.81
9.54 11.46 -1.83
13.41 16.12 -1.83
3.65 4.36 -1.52
37.72 45.05 1.03
4.2 5.02 -1.51
5.87 7.01 -1.78
7.33 8.75 -1.81
9.56 11.42 -1.83
13.44 16.05 -1.83
3.68 4.36 -1.53
37.79 44.8 1.02
4.21 4.99 -1.51
5.89 6.98 -1.78
7.35 8.72 -1.81
9.58 11.36 -1.83
13.48 15.98 -1.83
3.7 4.36 -1.53
37.82 44.54 1.02
4.22 4.97 -1.5
5.9 6.95 -1.77
7.38 8.69 -1.81
9.61 11.32 -1.82
13.5 15.9 -1.83
3.72 4.35 -1.53
4.23 4.94 -1.5
5.92 6.93 -1.77
7.4 8.66 -1.8
9.63 11.27 -1.82
13.54 15.83 -1.82
3.73 4.33 -1.53
4.23 4.91 -1.5
5.94 6.9 -1.77
7.42 8.62 -1.8
9.67 11.23 -1.82
13.56 15.75 -1.82
3.74 4.32 -1.53
4.23 4.88 -1.49
5.96 6.88 -1.77
7.44 8.58 -1.8
9.69 11.18 -1.82
13.6 15.69 -1.82
3.77 4.31 -1.53
4.24 4.86 -1.49
5.98 6.85 -1.77
7.47 8.56 -1.8
9.72 11.13 -1.81
13.63 15.61 -1.81
3.78 4.3 -1.53
4.26 4.85 -1.49
5.99 6.82 -1.76
7.5 8.53 -1.8
9.75 11.09 -1.81
13.66 15.53 -1.81
3.78 4.27 -1.53
4.27 4.82 -1.49
6.02 6.79 -1.76
7.52 8.49 -1.8
9.78 11.04 -1.81
13.7 15.46 -1.81
3.8 4.26 -1.53
4.29 4.81 -1.49
6.03 6.76 -1.76
7.54 8.45 -1.79
9.81 11 -1.81
13.72 15.39 -1.8
3.81 4.25 -1.53
4.3 4.79 -1.49
6.06 6.74 -1.76
7.56 8.42 -1.79
9.84 10.95 -1.81
13.77 15.33 -1.8
3.83 4.24 -1.53
4.32 4.78 -1.49
6.08 6.72 -1.76
7.58 8.38 -1.79
9.86 10.9 -1.81
13.79 15.25 -1.8
3.84 4.21 -1.53
4.34 4.77 -1.49
6.08 6.68 -1.76
7.6 8.35 -1.79
9.89 10.86 -1.8
13.82 15.18 -1.8
3.85 4.19 -1.52
4.37 4.76 -1.49
6.1 6.65 -1.75
7.63 8.32 -1.79
9.92 10.82 -1.8
13.86 15.11 -1.79
3.86 4.18 -1.52
4.38 4.74 -1.49
6.12 6.63 -1.75
7.64 8.27 -1.78
9.95 10.78 -1.8
13.89 15.04 -1.79
3.87 4.16 -1.52
38.26 41.14 0.98
4.39 4.72 -1.49
6.14 6.6 -1.75
7.65 8.23 -1.78
9.98 10.73 -1.8
13.92 14.97 -1.79
3.89 4.15 -1.52
38.29 40.89 0.98
4.41 4.71 -1.49
6.16 6.57 -1.75
7.68 8.2 -1.78
10 10.68 -1.8
13.96 14.91 -1.79
3.9 4.13 -1.52
38.37 40.69 0.98
4.43 4.7 -1.49
6.16 6.54 -1.75
7.7 8.17 -1.78
10.02 10.63 -1.79
13.98 14.82 -1.78
3.91 4.12 -1.52
38.37 40.42 0.97
4.45 4.69 -1.49
6.19 6.52 -1.75
7.72 8.13 -1.78
10.05 10.59 -1.79
14 14.74 -1.78
3.93 4.11 -1.52
38.39 40.16 0.97
4.46 4.66 -1.49
6.2 6.49 -1.75
7.73 8.09 -1.77
10.08 10.54 -1.79
14.03 14.68 -1.78
38.74 40.53 -0.98
3.94 4.1 -1.52
38.44 39.93 0.97
4.47 4.64 -1.49
6.23 6.47 -1.75
7.76 8.06 -1.77
10.1 10.5 -1.79
14.06 14.61 -1.77
3.96 4.09 -1.53
4.48 4.62 -1.49
6.24 6.44 -1.74
7.78 8.03 -1.77
10.12 10.44 -1.79
14.1 14.54 -1.77
3.98 4.08 -1.53
4.49 4.6 -1.49
6.26 6.41 -1.74
7.81 8 -1.77
10.15 10.4 -1.78
14.12 14.46 -1.77
28.27 28.95 -2.12
38.82 39.75 -0.97
3.99 4.06 -1.53
4.5 4.58 -1.48
6.27 6.38 -1.74
7.83 7.96 -1.77
43.04 43.78 7.54
10.18 10.35 -1.78
14.15 14.39 -1.77
4.01 4.05 -1.53
43.06 43.48 1.07
4.51 4.55 -1.48
43.11 43.53 3.21
6.29 6.35 -1.74
43.16 43.59 5.37
7.85 7.93 -1.77
43.11 43.53 7.52
10.21 10.31 -1.78
14.17 14.31 -1.76
38.96 39.34 -0.97
4.03 4.04 -1.53
43.16 43.29 1.07
4.53 4.54 -1.48
6.31 6.33 -1.74
7.87 7.89 -1.77
43.35 43.47 7.54
10.23 10.26 -1.78
14.19 14.23 -1.76
28.29 28.37 -2.1
4.05 4.03 -1.53
4.55 4.53 -1.48
6.33 6.3 -1.74
7.89 7.86 -1.76
10.25 10.21 -1.78
14.21 14.15 -1.75
4.06 4.02 -1.53
4.57 4.52 -1.48
6.34 6.27 -1.73
7.91 7.83 -1.76
44.08 43.59 7.61
10.27 10.16 -1.77
14.25 14.09 -1.75
28.34 28.03 -2.09
39.08 38.65 -0.96
4.06 3.99 -1.53
4.58 4.5 -1.48
6.37 6.25 -1.73
7.94 7.79 -1.76
10.31 10.12 -1.77
14.27 14.01 -1.75
4.08 3.98 -1.53
4.59 4.47 -1.48
6.38 6.22 -1.73
7.95 7.75 -1.76
10.34 10.08 -1.77
14.31 13.95 -1.75
28.4 27.69 -2.08
4.1 3.97 -1.53
4.6 4.46 -1.48
6.4 6.2 -1.73
7.97 7.72 -1.76
10.35 10.03 -1.77
14.33 13.88 -1.75
4.12 3.96 -1.53
4.63 4.46 -1.48
6.42 6.17 -1.73
8 7.69 -1.76
10.37 9.97 -1.77
14.35 13.8 -1.74
28.44 27.36 -2.07
4.11 3.92 -1.52
4.66 4.45 -1.49
6.43 6.14 -1.73
8.02 7.66 -1.76
10.4 9.93 -1.77
14.38 13.73 -1.74
28.53 27.26 -2.07
4.11 3.9 -1.52
4.68 4.44 -1.49
6.44 6.11 -1.73
8.03 7.62 -1.75
10.43 9.89 -1.76
14.41 13.67 -1.74
4.13 3.89 -1.52
4.69 4.41 -1.49
5.51 5.19 -1.47
8.04 7.57 -1.75
10.45 9.85 -1.76
14.44 13.6 -1.74
28.58 26.92 -2.06
4.15 3.88 -1.52
4.68 4.38 -1.48
5.54 5.18 -1.47
8.07 7.54 -1.75
10.47 9.8 -1.76
14.47 13.53 -1.73
28.53 26.69 -2.05
18.57 17.37 -0.44
4.16 3.87 -1.52
4.69 4.36 -1.48
5.55 5.16 -1.47
43.56 40.46 5.2
8.08 7.51 -1.75
10.49 9.75 -1.76
14.5 13.47 -1.73
18.71 17.38 -0.45
4.17 3.85 -1.52
4.68 4.32 -1.47
5.56 5.13 -1.47
8.11 7.48 -1.75
10.52 9.7 -1.76
14.52 13.39 -1.73
18.92 17.46 -0.45
4.17 3.82 -1.52
4.67 4.28 -1.46
5.58 5.11 -1.47
8.12 7.44 -1.74
10.54 9.66 -1.75
14.53 13.32 -1.72
4.17 3.79 -1.51
4.69 4.27 -1.46
5.59 5.09 -1.47
8.13 7.4 -1.74
10.57 9.62 -1.75
14.55 13.25 -1.72
28.74 26.16 -2.04
4.18 3.78 -1.51
4.72 4.26 -1.47
5.59 5.05 -1.46
43.74 39.52 5.16
8.15 7.37 -1.74
10.59 9.57 -1.75
14.58 13.18 -1.72
4.19 3.76 -1.51
4.74 4.25 -1.47
5.61 5.03 -1.46
43.73 39.24 5.14
8.18 7.34 -1.74
10.61 9.52 -1.75
14.61 13.11 -1.72
28.78 25.82 -2.03
4.2 3.74 -1.51
4.76 4.24 -1.47
5.62 5.01 -1.46
8.19 7.3 -1.74
10.63 9.47 -1.75
14.63 13.03 -1.71
4.21 3.72 -1.51
4.77 4.22 -1.47
5.65 5 -1.47
43.78 38.73 5.11
8.21 7.26 -1.74
10.65 9.43 -1.75
14.65 12.96 -1.71
18.35 16.23 -1.28
4.22 3.71 -1.51
43.52 38.23 1.01
4.78 4.2 -1.47
43.54 38.25 3.04
5.66 4.98 -1.47
43.84 38.52 5.11
8.22 7.22 -1.73
10.68 9.38 -1.75
14.67 12.89 -1.71
18.39 16.16 -1.28
4.24 3.7 -1.51
43.55 37.99 1.01
4.78 4.17 -1.47
43.58 38.02 3.03
5.68 4.96 -1.47
43.9 38.3 5.1
8.24 7.18 -1.73
10.71 9.34 -1.74
14.7 12.82 -1.71
18.41 16.06 -1.28
4.25 3.68 -1.51
43.63 37.8 1.01
4.8 4.16 -1.47
43.59 37.76 3.02
5.71 4.95 -1.47
8.26 7.15 -1.73
10.72 9.29 -1.74
14.72 12.75 -1.7
18.42 15.96 -1.28
4.26 3.66 -1.51
43.65 37.55 1.01
4.82 4.14 -1.47
43.67 37.56 3.02
5.73 4.93 -1.47
8.28 7.12 -1.73
10.74 9.24 -1.74
14.75 12.68 -1.7
18.3 15.74 -1.26
4.27 3.64 -1.5
43.69 37.33 1
4.83 4.12 -1.47
43.7 37.33 3.01
5.74 4.9 -1.47
8.3 7.09 -1.73
10.76 9.2 -1.74
14.75 12.61 -1.7
18.32 15.65 -1.26
4.28 3.63 -1.5
43.72 37.09 1
4.85 4.11 -1.47
43.75 37.12 3.01
5.75 4.87 -1.46
8.31 7.05 -1.73
10.79 9.15 -1.74
14.78 12.54 -1.7
18.34 15.56 -1.26
4.3 3.62 -1.5
43.75 36.85 1
4.86 4.09 -1.47
43.8 36.9 3
5.77 4.86 -1.47
8.33 7.01 -1.72
10.81 9.1 -1.73
14.81 12.48 -1.69
18.43 15.53 -1.26
4.3 3.6 -1.5
43.81 36.64 1
4.89 4.09 -1.47
43.82 36.65 2.99
5.79 4.85 -1.47
44.15 36.93 5.04
8.35 6.98 -1.72
10.82 9.05 -1.73
14.83 12.4 -1.69
18.49 15.46 -1.26
4.31 3.58 -1.5
43.85 36.42 1
4.91 4.08 -1.47
5.81 4.82 -1.47
8.36 6.94 -1.72
10.84 9 -1.73
14.87 12.35 -1.69
18.62 15.46 -1.27
4.31 3.55 -1.5
43.88 36.18 0.99
4.91 4.05 -1.47
43.94 36.23 2.98
5.84 4.81 -1.47
44.25 36.49 5.02
8.37 6.9 -1.72
10.87 8.96 -1.73
14.9 12.28 -1.69
18.75 15.46 -1.27
4.31 3.53 -1.49
43.92 35.96 0.99
4.9 4.01 -1.46
43.93 35.97 2.98
5.86 4.8 -1.47
44.23 36.21 5
8.38 6.86 -1.72
10.89 8.92 -1.73
14.92 12.22 -1.69
4.32 3.52 -1.49
43.99 35.76 0.99
4.9 3.98 -1.46
43.98 35.75 2.97
5.89 4.79 -1.48
44.35 36.06 5
8.4 6.83 -1.71
10.9 8.86 -1.73
14.94 12.14 -1.68
4.34 3.5 -1.49
44.02 35.53 0.99
4.91 3.96 -1.46
44.02 35.54 2.97
5.9 4.76 -1.47
8.42 6.8 -1.71
10.91 8.81 -1.72
14.98 12.09 -1.68
29.05 23.45 -1.96
4.35 3.48 -1.49
44.07 35.32 0.99
4.93 3.95 -1.46
5.91 4.74 -1.47
8.44 6.76 -1.71
10.93 8.76 -1.72
15 12.02 -1.68
29.08 23.31 -1.95
4.35 3.46 -1.49
44.11 35.1 0.98
4.94 3.93 -1.46
44.15 35.13 2.96
5.93 4.72 -1.47
44.42 35.34 4.97
8.45 6.72 -1.71
10.95 8.71 -1.72
15.01 11.94 -1.68
29.16 23.21 -1.95
4.35 3.44 -1.49
44.16 34.89 0.98
4.96 3.92 -1.46
44.16 34.89 2.95
5.96 4.71 -1.48
44.54 35.19 4.97
8.46 6.69 -1.71
10.97 8.67 -1.72
15.02 11.87 -1.67
29.24 23.1 -1.95
4.36 3.42 -1.49
44.16 34.64 0.98
4.97 3.9 -1.46
44.19 34.66 2.94
5.96 4.67 -1.47
44.51 34.91 4.95
8.48 6.65 -1.71
10.98 8.61 -1.71
15.05 11.81 -1.67
4.38 3.41 -1.49
44.21 34.43 0.98
5 3.89 -1.46
44.24 34.46 2.94
5.96 4.64 -1.47
44.63 34.75 4.95
8.5 6.62 -1.71
11 8.57 -1.71
15.07 11.74 -1.67
29.11 22.67 -1.93
4.38 3.38 -1.48
44.24 34.22 0.98
5.02 3.88 -1.47
44.27 34.24 2.93
5.96 4.61 -1.47
44.59 34.48 4.93
8.52 6.59 -1.71
11.02 8.52 -1.71
15.09 11.67 -1.67
29.16 22.56 -1.93
4.38 3.37 -1.48
44.25 33.98 0.97
5.04 3.87 -1.47
44.24 33.97 2.92
5.96 4.57 -1.46
8.54 6.56 -1.71
11.04 8.48 -1.71
15.11 11.61 -1.67
29.15 22.39 -1.93
4.39 3.35 -1.48
44.29 33.76 0.97
5.05 3.85 -1.47
44.34 33.8 2.92
5.94 4.53 -1.45
44.67 34.05 4.91
8.55 6.52 -1.7
11.06 8.44 -1.71
15.13 11.54 -1.67
29.16 22.23 -1.92
4.41 3.34 -1.48
5.05 3.82 -1.46
5.96 4.51 -1.45
44.74 33.86 4.91
8.57 6.49 -1.7
11.08 8.39 -1.71
15.17 11.48 -1.66
29.24 22.13 -1.92
4.41 3.32 -1.48
5.06 3.8 -1.46
5.98 4.5 -1.46
44.74 33.62 4.9
8.6 6.46 -1.7
11.09 8.33 -1.7
15.19 11.41 -1.66
29.16 21.91 -1.91
4.42 3.3 -1.48
5.07 3.78 -1.46
5.99 4.47 -1.45
44.8 33.42 4.89
8.61 6.43 -1.7
11.11 8.29 -1.7
15.2 11.34 -1.66
29.2 21.78 -1.91
4.42 3.27 -1.47
5.09 3.77 -1.46
6.01 4.45 -1.45
44.82 33.19 4.88
8.63 6.39 -1.7
11.13 8.24 -1.7
15.2 11.25 -1.65
29.18 21.61 -1.9
4.43 3.26 -1.47
5.08 3.74 -1.46
6 4.41 -1.45
44.85 32.97 4.87
8.64 6.35 -1.7
11.15 8.2 -1.7
15.22 11.19 -1.65
29.24 21.5 -1.9
4.44 3.24 -1.47
5.07 3.71 -1.45
6 4.38 -1.44
44.88 32.77 4.86
8.65 6.32 -1.7
11.16 8.15 -1.7
15.24 11.13 -1.65
29.29 21.39 -1.9
4.46 3.23 -1.47
5.07 3.68 -1.45
6.02 4.36 -1.45
44.99 32.61 4.86
8.68 6.29 -1.7
11.17 8.1 -1.69
15.27 11.07 -1.65
29.37 21.29 -1.9
4.45 3.2 -1.47
5.1 3.67 -1.45
6.03 4.34 -1.44
44.99 32.38 4.85
8.7 6.26 -1.7
11.19 8.05 -1.69
15.29 11 -1.65
29.31 21.09 -1.89
4.42 3.16 -1.46
5.13 3.66 -1.45
6.05 4.32 -1.45
45.05 32.18 4.84
8.71 6.22 -1.69
11.22 8.01 -1.69
15.3 10.93 -1.65
29.35 20.97 -1.89
4.44 3.15 -1.46
5.14 3.65 -1.45
6.07 4.31 -1.45
45.06 31.95 4.83
8.72 6.18 -1.69
11.24 7.97 -1.69
15.32 10.86 -1.64
29.39 20.84 -1.89
4.45 3.13 -1.46
5.15 3.62 -1.45
6.1 4.29 -1.45
45.12 31.75 4.83
8.74 6.15 -1.69
11.26 7.93 -1.69
15.33 10.79 -1.64
29.39 20.68 -1.88
43.13 30.35 -0.92
4.47 3.12 -1.46
5.17 3.61 -1.45
6.11 4.27 -1.45
45.15 31.53 4.82
8.75 6.11 -1.69
11.26 7.86 -1.69
15.35 10.72 -1.64
29.41 20.54 -1.88
4.48 3.11 -1.46
5.17 3.58 -1.45
6.12 4.24 -1.45
8.78 6.09 -1.69
11.28 7.82 -1.68
15.37 10.65 -1.64
29.42 20.39 -1.88
4.48 3.09 -1.46
5.17 3.56 -1.45
6.14 4.22 -1.45
8.79 6.05 -1.69
11.3 7.78 -1.68
15.38 10.58 -1.63
29.47 20.28 -1.87
4.51 3.08 -1.46
5.18 3.54 -1.45
6.16 4.21 -1.45
8.79 6 -1.69
11.32 7.73 -1.68
15.4 10.52 -1.63
29.49 20.14 -1.87
41.21 28.15 -0.87
4.52 3.07 -1.46
5.2 3.52 -1.45
6.18 4.19 -1.45
8.8 5.97 -1.69
11.34 7.69 -1.68
15.42 10.46 -1.63
29.49 20.01 -1.87
4.55 3.06 -1.47
5.21 3.51 -1.45
6.19 4.17 -1.45
8.81 5.93 -1.68
11.35 7.64 -1.68
15.45 10.4 -1.63
29.55 19.89 -1.87
4.53 3.03 -1.46
5.23 3.5 -1.45
6.2 4.14 -1.45
8.83 5.9 -1.68
11.36 7.59 -1.68
15.45 10.33 -1.63
29.53 19.73 -1.86
4.48 2.97 -1.44
5.25 3.48 -1.45
6.21 4.12 -1.45
7.84 5.19 -1.49
11.38 7.55 -1.68
15.45 10.25 -1.62
29.56 19.6 -1.86
4.49 2.95 -1.44
5.26 3.46 -1.45
6.21 4.09 -1.45
7.84 5.16 -1.49
11.4 7.5 -1.68
15.48 10.18 -1.62
29.54 19.43 -1.85
4.5 2.93 -1.44
5.25 3.43 -1.45
6.23 4.07 -1.45
7.88 5.14 -1.49
11.42 7.46 -1.67
15.48 10.11 -1.62
29.54 19.28 -1.85
4.51 2.92 -1.44
5.26 3.41 -1.45
6.24 4.04 -1.45
7.91 5.12 -1.49
11.43 7.41 -1.67
15.5 10.05 -1.62
29.6 19.18 -1.85
41.1 26.64 -0.85
4.52 2.91 -1.44
5.25 3.38 -1.44
6.26 4.02 -1.45
7.93 5.1 -1.49
11.45 7.36 -1.67
15.49 9.96 -1.61
29.63 19.06 -1.85
41.21 26.5 -0.86
4.52 2.88 -1.44
5.26 3.36 -1.44
6.28 4.01 -1.45
7.89 5.04 -1.48
45.57 29.08 6.64
11.46 7.32 -1.67
15.51 9.89 -1.61
41.31 26.36 -0.86
4.53 2.87 -1.44
5.26 3.33 -1.44
6.29 3.98 -1.45
7.9 5 -1.48
45.64 28.89 6.63
11.48 7.27 -1.67
15.52 9.83 -1.61
41.38 26.19 -0.85
4.52 2.84 -1.43
5.26 3.3 -1.43
6.29 3.95 -1.44
7.84 4.92 -1.47
45.64 28.67 6.62
11.49 7.22 -1.67
15.53 9.76 -1.6
29.7 18.66 -1.84
41.47 26.05 -0.85
4.53 2.82 -1.43
5.25 3.27 -1.43
6.28 3.92 -1.44
7.96 4.96 -1.49
45.7 28.49 6.61
11.49 7.16 -1.66
7.15 4.46 1.33
15.54 9.69 -1.6
29.67 18.49 -1.83
41.5 25.86 -0.85
4.53 2.8 -1.43
5.26 3.25 -1.43
6.27 3.88 -1.43
8.02 4.96 -1.49
45.72 28.28 6.6
11.51 7.12 -1.66
7.12 4.4 1.33
15.56 9.62 -1.6
29.66 18.35 -1.83
41.52 25.68 -0.85
4.52 2.77 -1.42
7.32 4.49 0.15
5.27 3.24 -1.43
7.32 4.49 0.45
6.27 3.85 -1.43
8.14 4.99 -1.51
11.53 7.08 -1.66
15.57 9.56 -1.6
29.69 18.22 -1.83
4.52 2.76 -1.42
7.33 4.47 0.15
5.27 3.21 -1.42
7.34 4.47 0.45
6.28 3.83 -1.43
8.06 4.91 -1.5
7.27 4.43 1.04
11.54 7.03 -1.66
15.58 9.5 -1.6
29.73 18.12 -1.82
41.65 25.38 -0.85
4.54 2.74 -1.42
7.33 4.43 0.15
5.27 3.19 -1.42
7.33 4.43 0.45
6.29 3.8 -1.43
8.07 4.88 -1.49
7.26 4.39 1.04
11.56 6.99 -1.66
15.6 9.43 -1.59
29.73 17.97 -1.82
41.74 25.23 -0.85
4.53 2.72 -1.42
7.31 4.39 0.15
5.28 3.17 -1.42
7.33 4.4 0.45
6.3 3.78 -1.43
8.08 4.85 -1.49
7.3 4.38 1.04
11.56 6.93 -1.65
15.62 9.37 -1.59
41.82 25.09 -0.85
4.53 2.69 -1.41
7.34 4.37 0.15
5.32 3.16 -1.43
7.35 4.38 0.45
6.33 3.76 -1.43
8.1 4.82 -1.49
7.33 4.36 1.05
11.57 6.89 -1.65
7.29 4.34 1.34
15.62 9.3 -1.59
29.74 17.7 -1.81
41.87 24.91 -0.85
4.54 2.68 -1.41
7.35 4.34 0.15
5.34 3.15 -1.43
7.37 4.35 0.45
6.34 3.74 -1.43
8.11 4.79 -1.49
7.36 4.34 1.05
11.59 6.84 -1.65
7.32 4.32 1.35
15.63 9.23 -1.59
29.79 17.59 -1.81
41.92 24.74 -0.85
4.55 2.67 -1.41
7.35 4.3 0.15
5.35 3.13 -1.43
7.37 4.32 0.45
6.36 3.72 -1.43
8.11 4.75 -1.49
7.35 4.3 1.05
11.61 6.8 -1.65
7.35 4.3 1.35
15.64 9.16 -1.59
42 24.6 -0.85
4.57 2.65 -1.42
5.35 3.11 -1.43
7.38 4.29 0.45
6.38 3.71 -1.43
8.11 4.71 -1.49
7.36 4.28 1.05
11.62 6.75 -1.65
7.39 4.29 1.35
15.66 9.1 -1.58
42.02 24.42 -0.85
4.59 2.65 -1.42
5.35 3.09 -1.43
7.38 4.26 0.45
6.38 3.68 -1.43
7.15 4.12 0.72
8.14 4.69 -1.49
11.62 6.7 -1.65
15.68 9.04 -1.58
7.39 4.26 -0.15
4.61 2.64 -1.42
5.36 3.07 -1.43
7.4 4.23 0.45
6.4 3.66 -1.43
7.19 4.11 0.72
8.16 4.67 -1.49
11.64 6.65 -1.65
7.18 4.1 1.31
15.68 8.96 -1.58
7.48 4.27 -0.15
4.62 2.62 -1.42
7.42 4.21 0.15
5.39 3.06 -1.43
7.41 4.2 0.45
6.4 3.63 -1.43
7.22 4.1 0.73
8.2 4.65 -1.49
7.23 4.1 1.02
11.66 6.61 -1.65
7.24 4.11 1.32
15.7 8.9 -1.58
7.49 4.25 -0.15
4.66 2.62 -1.43
7.42 4.17 0.15
5.38 3.03 -1.42
7.42 4.18 0.45
6.41 3.61 -1.43
7.22 4.06 0.72
8.22 4.62 -1.49
7.21 4.06 1.02
11.67 6.57 -1.64
7.23 4.07 1.31
15.72 8.84 -1.58
7.46 4.19 -0.15
4.68 2.61 -1.44
7.43 4.15 0.15
5.37 3 -1.42
7.42 4.14 0.45
6.43 3.59 -1.43
7.22 4.03 0.72
8.2 4.57 -1.49
7.21 4.02 1.01
11.68 6.52 -1.64
7.24 4.04 1.31
15.73 8.78 -1.58
4.71 2.61 -1.44
7.44 4.12 0.15
5.38 2.98 -1.42
7.43 4.11 0.45
6.41 3.55 -1.42
7.23 4 0.72
8.19 4.53 -1.48
7.22 4 1.01
11.69 6.47 -1.64
7.24 4.01 1.31
15.74 8.71 -1.57
4.72 2.59 -1.44
7.45 4.09 0.15
5.39 2.96 -1.42
7.44 4.09 0.44
6.41 3.52 -1.42
7.23 3.97 0.72
8.22 4.52 -1.49
7.18 3.94 1.01
11.71 6.43 -1.64
7.15 3.93 1.29
15.74 8.65 -1.57
4.74 2.58 -1.44
7.46 4.06 0.15
5.39 2.94 -1.42
7.45 4.06 0.44
6.4 3.49 -1.42
7.15 3.89 0.71
8.24 4.48 -1.49
7.6 4.14 -1.06
7.25 3.95 1.31
7.59 4.13 -0.76
7.52 4.09 -0.45
7.44 4.05 -0.15
4.79 2.59 -1.46
7.46 4.03 0.15
5.42 2.92 -1.42
7.47 4.03 0.44
6.42 3.46 -1.42
7.25 3.92 0.72
7.5 4.05 -1.35
7.26 3.92 1.01
7.48 4.04 -1.04
7.28 3.93 1.31
7.46 4.03 -0.74
7.48 4.04 -0.45
7.45 4.02 -0.15
4.86 2.6 -1.48
7.47 4 0.15
5.41 2.9 -1.42
7.47 4 0.44
6.43 3.45 -1.42
7.29 3.9 0.72
7.44 3.99 -1.34
7.41 3.97 1.03
7.48 4 -1.04
7.49 4.01 1.35
7.47 4 -0.74
7.47 4 -0.44
7.46 4 -0.15
4.89 2.6 -1.48
7.48 3.97 0.15
5.42 2.88 -1.42
7.47 3.97 0.44
6.46 3.43 -1.42
7.55 4.01 0.75
7.47 3.97 -1.34
7.54 4.01 1.05
7.48 3.98 -1.04
7.65 4.06 1.37
7.48 3.97 -0.74
7.48 3.98 -0.44
7.47 3.97 -0.15
4.9 2.58 -1.49
7.49 3.94 0.15
5.43 2.86 -1.42
7.48 3.94 0.44
6.48 3.41 -1.42
7.5 3.95 -1.34
46.42 24.45 6.44
7.53 3.96 -1.04
7.53 3.96 -0.74
7.55 3.98 -0.45
7.47 3.93 -0.15
4.94 2.58 -1.49
7.49 3.91 0.15
5.46 2.85 -1.42
7.49 3.91 0.44
6.5 3.4 -1.43
7.52 3.93 -1.34
46.47 24.27 6.44
7.61 3.97 -1.05
7.58 3.96 -0.75
7.59 3.97 -0.45
7.48 3.91 -0.15
4.97 2.57 -1.5
7.5 3.88 0.15
5.47 2.83 -1.42
7.5 3.88 0.44
6.51 3.37 -1.43
8.27 4.28 -1.47
46.53 24.09 6.43
7.6 3.93 -1.05
7.58 3.92 -0.75
7.59 3.93 -0.45
7.5 3.88 -0.15
5.01 2.57 -1.51
7.51 3.85 0.15
5.48 2.81 -1.42
7.51 3.85 0.44
6.52 3.35 -1.42
8.29 4.25 -1.48
