# .PCD v0.7 - Point Cloud Data file format
VERSION 0.7
FIELDS x y z
SIZE 4 4 4
TYPE F F F
COUNT 1 1 1
WIDTH 2875
HEIGHT 1
VIEWPOINT 0 0 0 1 0 0 0
POINTS 2875
DATA ascii
5.67 4.73 -1.71
6.79 5.66 -1.72
8.43 7.04 -1.74
26.16 21.83 4.18
10.57 8.82 -1.69
14.86 12.4 -1.69
24.63 20.55 -1.68
4.86 4.03 -1.69
23.8 19.71 0.54
5.69 4.72 -1.71
22.96 19.02 1.56
6.81 5.64 -1.72
8.46 7.01 -1.74
25.78 21.36 4.11
10.8 8.94 -1.72
14.89 12.33 -1.69
22.28 18.46 -1.52
23.12 19.15 8.04
4.88 4.01 -1.69
5.72 4.7 -1.71
6.83 5.61 -1.72
8.47 6.96 -1.74
10.66 8.76 -1.69
14.93 12.28 -1.69
23.78 19.55 -1.61
4.89 3.99 -1.69
5.73 4.68 -1.71
6.84 5.59 -1.72
23.87 19.49 2.7
8.49 6.93 -1.74
23.48 19.17 3.72
10.77 8.79 -1.71
14.97 12.22 -1.69
21.27 17.37 -1.44
23.1 18.86 6.89
23.9 19.51 -0.54
4.91 3.98 -1.69
23.04 18.68 0.52
5.73 4.65 -1.7
23.81 19.3 1.61
6.86 5.56 -1.72
8.5 6.89 -1.73
23.77 19.27 3.76
10.79 8.74 -1.7
23.99 19.44 4.89
15.02 12.17 -1.69
23.85 19.33 -1.61
23.92 19.39 7.11
22.01 17.85 -0.49
4.91 3.95 -1.69
5.75 4.63 -1.7
6.87 5.53 -1.71
24.1 19.4 2.71
8.52 6.86 -1.73
10.76 8.66 -1.7
23.67 19.05 4.81
15.06 12.12 -1.69
24.05 19.35 6
21.63 17.41 -1.46
22.17 17.84 -0.5
4.92 3.93 -1.69
22.57 18.05 0.5
5.76 4.61 -1.7
22.87 18.29 1.54
6.88 5.5 -1.71
8.54 6.83 -1.73
10.77 8.61 -1.69
24.03 19.22 4.87
15.09 12.06 -1.69
22.57 18.05 -1.51
23.24 18.58 -0.52
24.31 19.44 8.34
4.93 3.91 -1.69
5.77 4.58 -1.7
6.9 5.48 -1.71
24.46 19.42 2.73
8.54 6.78 -1.73
10.79 8.57 -1.69
15.13 12.01 -1.69
22.62 17.96 -1.51
22.93 18.21 6.76
23.27 18.48 -0.52
4.94 3.9 -1.69
5.77 4.55 -1.7
6.91 5.45 -1.71
28.51 22.48 3.18
8.56 6.75 -1.73
24.17 19.05 3.78
10.85 8.56 -1.7
24.23 19.1 4.89
15.17 11.96 -1.69
24.15 19.04 5.98
24.17 19.05 7.1
4.96 3.88 -1.69
5.79 4.53 -1.7
23.83 18.65 1.59
6.93 5.42 -1.71
23.42 18.33 2.6
8.59 6.72 -1.73
10.93 8.55 -1.7
24.12 18.88 4.85
15.2 11.9 -1.69
22.97 17.98 -1.53
22.8 17.85 -0.51
4.96 3.85 -1.68
23.48 18.23 0.52
5.8 4.51 -1.7
6.94 5.39 -1.71
24.33 18.89 2.69
8.61 6.68 -1.73
11 8.54 -1.71
15.26 11.85 -1.69
24.12 18.73 -1.6
24.47 19 7.15
22.76 17.68 -0.5
4.97 3.83 -1.68
5.82 4.49 -1.7
23.68 18.26 1.57
6.95 5.36 -1.71
8.62 6.64 -1.72
11.1 8.56 -1.72
15.29 11.79 -1.69
19.42 14.97 -1.29
22.69 17.49 -0.5
23.96 18.47 8.11
4.98 3.81 -1.68
23.61 18.08 0.52
5.83 4.46 -1.69
6.97 5.34 -1.71
8.62 6.6 -1.72
29.25 22.4 4.52
11.17 8.55 -1.73
15.39 11.78 -1.7
22.9 17.53 -1.51
23 17.61 -0.51
4.99 3.79 -1.68
23.08 17.55 0.51
5.84 4.44 -1.69
23.3 17.71 1.53
6.99 5.31 -1.71
28.86 21.94 3.17
8.63 6.56 -1.72
11.26 8.56 -1.74
15.49 11.77 -1.7
22.96 17.45 -1.51
23.1 17.56 -0.51
5.01 3.78 -1.68
5.85 4.41 -1.69
7 5.28 -1.7
8.65 6.52 -1.72
27.2 20.52 4.18
11.35 8.56 -1.75
27.55 20.79 5.47
15.46 11.66 -1.69
23.12 17.44 -1.52
23.26 17.55 -0.51
5.02 3.76 -1.68
23.64 17.7 0.52
5.86 4.39 -1.69
7.01 5.25 -1.7
8.67 6.49 -1.72
11.43 8.56 -1.75
15.51 11.61 -1.69
23.38 17.51 -1.53
23.3 17.45 -0.51
5.02 3.73 -1.68
5.88 4.37 -1.69
7.02 5.22 -1.7
8.69 6.46 -1.72
26.54 19.74 4.06
11.52 8.56 -1.76
24.65 18.33 4.87
15.57 11.57 -1.7
23.59 17.54 -1.54
24.92 18.53 -0.54
5.03 3.71 -1.68
5.89 4.35 -1.69
7.04 5.19 -1.7
8.69 6.42 -1.71
26.53 19.58 4.05
11.58 8.55 -1.77
27.77 20.5 5.47
15.54 11.47 -1.69
23.61 17.43 -1.54
24.98 18.44 -0.54
5.05 3.7 -1.68
5.89 4.32 -1.69
7.05 5.16 -1.7
26.88 19.7 2.92
8.71 6.38 -1.71
11.62 8.51 -1.77
27.69 20.29 5.44
15.77 11.56 -1.71
23.89 17.5 -1.55
25.05 18.35 -0.54
5.06 3.68 -1.68
5.9 4.29 -1.68
7.05 5.13 -1.69
27.27 19.84 2.95
8.73 6.35 -1.71
11.63 8.46 -1.77
15.79 11.48 -1.71
23.98 17.44 -1.55
5.07 3.66 -1.67
5.92 4.27 -1.69
7.04 5.08 -1.69
8.74 6.31 -1.71
11.68 8.43 -1.77
15.83 11.43 -1.71
25.02 18.06 -1.62
24.21 17.48 6.89
5.07 3.64 -1.67
5.93 4.25 -1.68
7.05 5.06 -1.69
27.61 19.79 2.97
8.75 6.27 -1.7
11.64 8.35 -1.76
29.02 20.8 5.65
15.99 11.46 -1.72
25.14 18.02 -1.62
5.08 3.62 -1.67
5.94 4.23 -1.68
7.07 5.03 -1.69
27.72 19.72 2.98
8.75 6.23 -1.7
11.66 8.3 -1.76
15.99 11.37 -1.72
24.91 17.73 -1.6
26.17 18.62 -0.56
5.1 3.6 -1.67
5.95 4.2 -1.68
7.09 5 -1.69
26.02 18.38 2.79
8.77 6.2 -1.7
11.61 8.2 -1.74
16.05 11.34 -1.72
25.12 17.74 -1.61
5.11 3.58 -1.67
5.96 4.18 -1.68
7.1 4.98 -1.69
8.78 6.16 -1.7
28.3 19.84 4.24
11.58 8.12 -1.74
27.66 19.39 5.35
16.27 11.41 -1.74
25.23 17.69 -1.61
5.12 3.56 -1.67
27.42 19.08 0.58
5.98 4.16 -1.68
7.1 4.94 -1.68
8.8 6.12 -1.7
11.59 8.07 -1.73
16.22 11.29 -1.73
5.12 3.54 -1.67
28.14 19.44 0.6
5.99 4.13 -1.68
7.13 4.92 -1.68
27.62 19.07 2.94
8.82 6.09 -1.7
11.6 8.01 -1.73
16.3 11.25 -1.73
5.13 3.52 -1.67
6 4.11 -1.68
7.15 4.9 -1.68
8.82 6.05 -1.69
31.21 21.4 4.65
11.61 7.96 -1.73
16.31 11.18 -1.73
28.08 19.26 -0.59
5.15 3.51 -1.67
6 4.08 -1.67
26.27 17.89 1.67
7.16 4.88 -1.68
8.84 6.02 -1.69
11.64 7.92 -1.73
16.55 11.27 -1.75
26.11 17.77 -1.66
5.16 3.49 -1.67
26.93 18.2 0.57
6.01 4.07 -1.68
7.17 4.85 -1.68
8.86 5.99 -1.69
11.64 7.87 -1.72
16.63 11.24 -1.76
26.19 17.7 -1.66
28.22 19.08 -0.59
5.16 3.46 -1.67
6.03 4.04 -1.68
7.17 4.81 -1.68
8.87 5.95 -1.69
30 20.1 4.43
11.66 7.81 -1.72
16.7 11.19 -1.76
26.39 17.69 -1.67
28.62 19.18 -0.6
5.17 3.44 -1.66
27.64 18.39 0.58
6.04 4.02 -1.68
28.87 19.21 1.82
7.19 4.79 -1.68
29.4 19.56 3.09
8.89 5.91 -1.69
11.68 7.77 -1.72
16.88 11.23 -1.77
26.58 17.69 -1.67
30.02 19.97 8.32
5.18 3.42 -1.66
6.05 3.99 -1.67
7.21 4.76 -1.68
8.89 5.87 -1.69
11.7 7.73 -1.72
16.93 11.18 -1.77
26.7 17.62 -1.68
5.19 3.4 -1.66
28.44 18.64 0.59
6.05 3.97 -1.67
7.22 4.73 -1.68
8.91 5.84 -1.69
11.71 7.68 -1.72
17.03 11.16 -1.78
26.73 17.52 -1.67
5.2 3.38 -1.66
6.06 3.94 -1.67
7.23 4.7 -1.68
25.93 16.86 2.71
8.92 5.8 -1.69
11.72 7.62 -1.72
17.16 11.15 -1.79
26.79 17.42 -1.67
5.21 3.36 -1.66
6.08 3.92 -1.67
7.24 4.67 -1.67
25.99 16.78 2.71
8.94 5.77 -1.68
11.73 7.57 -1.71
30.36 19.6 5.72
17.25 11.14 -1.8
23.42 15.11 -1.46
5.22 3.34 -1.66
27.46 17.58 0.57
6.09 3.9 -1.67
7.26 4.65 -1.67
8.95 5.73 -1.68
11.75 7.52 -1.71
29.8 19.08 5.6
17.36 11.11 -1.8
30.14 19.3 6.96
27.21 17.42 -1.69
5.23 3.32 -1.66
31.81 20.22 0.66
6.1 3.88 -1.67
27.18 17.27 1.69
7.26 4.62 -1.67
8.96 5.7 -1.68
11.77 7.48 -1.71
17.49 11.12 -1.81
27.35 17.38 -1.7
5.25 3.31 -1.66
6.1 3.85 -1.66
7.27 4.58 -1.67
26.5 16.71 2.74
8.97 5.66 -1.68
11.78 7.43 -1.71
31.08 19.59 5.82
17.59 11.09 -1.82
27.42 17.29 -1.7
5.25 3.29 -1.66
6.11 3.83 -1.67
7.28 4.56 -1.67
27.49 17.2 2.84
8.98 5.62 -1.68
30.53 19.1 4.42
11.77 7.36 -1.7
30.75 19.25 5.75
17.66 11.05 -1.82
30.75 19.24 7.05
27.5 17.21 -1.7
5.27 3.27 -1.66
6.12 3.8 -1.66
30.62 19.01 1.89
7.29 4.53 -1.67
26.24 16.29 2.7
9 5.59 -1.68
30.7 19.06 4.44
11.79 7.32 -1.7
30.77 19.1 5.74
17.8 11.05 -1.83
30.82 19.13 7.05
27.63 17.15 -1.7
28.7 17.81 -0.59
5.27 3.24 -1.66
6.14 3.78 -1.66
30.8 18.98 1.9
7.3 4.5 -1.67
30.81 18.98 3.17
9.01 5.55 -1.68
30.78 18.97 4.44
11.8 7.27 -1.7
17.83 10.99 -1.83
27.72 17.08 -1.71
28.73 17.7 -0.59
5.28 3.23 -1.66
29.01 17.74 0.59
6.14 3.76 -1.66
30.86 18.87 1.9
7.32 4.47 -1.67
31.1 19.02 3.19
9.02 5.52 -1.67
11.81 7.22 -1.7
17.99 11 -1.84
25.71 15.72 -1.58
30.92 18.91 -0.63
5.29 3.21 -1.66
30.84 18.72 0.63
6.14 3.73 -1.66
7.32 4.44 -1.66
9.03 5.48 -1.67
11.83 7.18 -1.7
18.01 10.93 -1.84
25.85 15.69 -1.58
30.93 18.78 -0.63
5.3 3.19 -1.66
32.04 19.29 0.65
6.15 3.7 -1.66
7.34 4.42 -1.66
27.25 16.41 2.78
9.04 5.44 -1.67
11.83 7.13 -1.7
18.08 10.89 -1.85
25.65 15.44 -1.57
31.05 18.69 -0.63
5.31 3.17 -1.66
6.16 3.68 -1.66
7.33 4.38 -1.66
29.8 17.81 3.04
9.05 5.41 -1.67
30.82 18.42 4.41
11.85 7.08 -1.7
18.2 10.87 -1.85
25.64 15.32 -1.57
30.04 17.95 -0.61
5.31 3.14 -1.65
6.18 3.66 -1.66
7.35 4.35 -1.66
9.07 5.37 -1.67
34.43 20.39 4.91
11.86 7.02 -1.69
31.14 18.44 5.73
18.25 10.81 -1.86
25.49 15.09 -1.55
5.32 3.13 -1.65
30.21 17.75 0.61
6.19 3.64 -1.66
7.35 4.32 -1.66
9.06 5.33 -1.67
11.88 6.98 -1.69
30.1 17.69 5.53
18.35 10.78 -1.86
25.29 14.86 -1.54
5.34 3.11 -1.66
30.45 17.74 0.62
6.18 3.6 -1.65
7.37 4.29 -1.66
9.08 5.29 -1.66
29.65 17.28 4.21
11.89 6.93 -1.69
29.95 17.45 5.49
18.46 10.76 -1.87
25.41 14.81 -1.54
5.35 3.09 -1.66
30.52 17.65 0.62
6.19 3.58 -1.65
7.37 4.26 -1.66
9.08 5.25 -1.66
11.89 6.88 -1.69
34.66 20.05 6.34
18.54 10.72 -1.87
25.4 14.69 -1.54
5.36 3.07 -1.66
30.97 17.76 0.62
6.21 3.56 -1.65
7.37 4.23 -1.65
9.08 5.21 -1.66
29.75 17.06 4.21
11.89 6.82 -1.68
18.54 10.63 -1.87
25.5 14.62 -1.54
5.36 3.05 -1.65
31.18 17.74 0.63
6.22 3.54 -1.65
34.56 19.66 2.08
7.39 4.2 -1.65
34.63 19.7 3.49
9.09 5.17 -1.66
11.89 6.77 -1.68
18.59 10.58 -1.87
25.67 14.61 -1.55
5.37 3.03 -1.65
31.16 17.59 0.62
6.23 3.52 -1.65
7.4 4.18 -1.65
9.1 5.14 -1.65
11.92 6.73 -1.68
15.87 8.96 -1.59
31.45 17.76 -0.63
5.38 3.01 -1.65
31.34 17.56 0.63
6.22 3.49 -1.65
7.41 4.15 -1.65
9.1 5.1 -1.65
11.92 6.68 -1.68
15.87 8.89 -1.59
31.63 17.72 -0.63
5.39 2.99 -1.65
31.79 17.64 0.63
6.23 3.46 -1.65
7.41 4.11 -1.65
9.13 5.07 -1.65
11.93 6.62 -1.67
15.92 8.83 -1.59
31.82 17.66 -0.64
5.4 2.97 -1.65
31.79 17.51 0.63
6.25 3.44 -1.65
7.42 4.08 -1.65
9.13 5.03 -1.65
11.93 6.57 -1.67
16.01 8.82 -1.6
32.49 17.89 -0.65
5.4 2.95 -1.65
32.5 17.74 0.65
6.26 3.42 -1.65
7.43 4.06 -1.65
9.15 4.99 -1.65
11.95 6.53 -1.67
16.12 8.8 -1.61
5.41 2.93 -1.65
6.27 3.4 -1.65
7.45 4.03 -1.65
9.14 4.95 -1.65
11.96 6.47 -1.67
16.29 8.82 -1.62
33.72 18.26 -0.67
5.43 2.92 -1.65
6.27 3.37 -1.64
7.46 4.01 -1.65
9.16 4.92 -1.65
11.96 6.43 -1.67
16.44 8.83 -1.63
5.44 2.9 -1.65
6.28 3.35 -1.64
7.46 3.98 -1.64
9.17 4.89 -1.65
11.96 6.37 -1.66
16.6 8.85 -1.65
5.45 2.88 -1.65
6.29 3.32 -1.64
7.46 3.94 -1.64
21.17 11.17 2.09
9.17 4.84 -1.64
11.97 6.32 -1.66
16.73 8.83 -1.65
5.45 2.85 -1.65
6.3 3.3 -1.64
7.47 3.91 -1.64
9.19 4.81 -1.64
11.98 6.27 -1.66
16.89 8.84 -1.67
21.16 11.08 4.64
5.46 2.84 -1.65
6.31 3.28 -1.64
36 18.7 2.13
7.49 3.89 -1.64
9.19 4.77 -1.64
22.31 11.59 3.09
11.98 6.22 -1.66
17.06 8.86 -1.68
21.26 11.05 4.66
5.47 2.82 -1.65
6.32 3.26 -1.64
7.49 3.86 -1.64
9.19 4.74 -1.64
21.42 11.04 2.96
11.98 6.17 -1.66
17.17 8.85 -1.69
5.49 2.8 -1.65
6.33 3.23 -1.64
7.51 3.83 -1.64
9.21 4.7 -1.64
21.07 10.75 2.9
11.99 6.12 -1.65
21.29 10.86 3.79
17.23 8.79 -1.69
5.49 2.78 -1.65
6.34 3.21 -1.64
7.5 3.8 -1.63
9.22 4.66 -1.64
12.01 6.08 -1.65
21.84 11.05 3.88
17.19 8.7 -1.69
21.59 10.92 5.59
5.49 2.76 -1.65
6.36 3.19 -1.64
7.51 3.77 -1.63
21.07 10.57 2.06
9.22 4.63 -1.63
12.03 6.04 -1.65
21.63 10.86 3.83
17.12 8.59 -1.68
5.5 2.74 -1.65
6.37 3.17 -1.64
7.52 3.74 -1.63
22.01 10.96 2.15
9.22 4.59 -1.63
21.65 10.78 2.97
12.03 5.99 -1.65
21.71 10.8 3.84
17.07 8.5 -1.67
5.52 2.72 -1.65
6.36 3.14 -1.64
7.53 3.71 -1.63
21.91 10.8 2.14
9.24 4.55 -1.63
21.64 10.66 2.96
12.05 5.94 -1.65
21.58 10.63 3.81
17.01 8.38 -1.66
5.53 2.7 -1.65
6.38 3.12 -1.64
21.72 10.61 1.27
7.54 3.68 -1.63
21.76 10.63 2.12
9.24 4.51 -1.63
21.75 10.63 2.97
12.04 5.88 -1.65
16.99 8.3 -1.65
5.54 2.68 -1.65
21.84 10.58 0.42
6.4 3.1 -1.64
21.81 10.57 1.27
7.54 3.66 -1.63
21.47 10.4 2.09
9.25 4.48 -1.63
12.04 5.83 -1.64
17.01 8.24 -1.65
21.88 10.6 -1.27
21.86 10.59 -0.42
5.54 2.66 -1.65
6.4 3.08 -1.64
7.54 3.62 -1.63
9.25 4.44 -1.63
12.05 5.79 -1.64
17.02 8.18 -1.65
21.51 10.34 4.64
21.9 10.52 -1.27
21.91 10.53 -0.42
5.55 2.64 -1.65
6.41 3.05 -1.64
21.82 10.37 1.27
7.56 3.59 -1.63
9.25 4.4 -1.62
12.07 5.74 -1.64
22.34 10.62 3.92
17.02 8.09 -1.65
21.22 10.09 4.57
5.57 2.62 -1.65
6.41 3.02 -1.64
7.57 3.57 -1.63
21.8 10.27 2.11
9.26 4.36 -1.62
21.55 10.16 2.92
12.07 5.69 -1.64
17 8.01 -1.64
25.75 12.14 -1.49
5.58 2.61 -1.65
6.43 3 -1.64
7.58 3.54 -1.63
9.27 4.33 -1.62
21.95 10.26 2.97
12.07 5.64 -1.64
21.8 10.19 3.81
17 7.94 -1.64
25.88 12.1 -1.5
5.59 2.59 -1.65
6.44 2.98 -1.64
7.57 3.51 -1.62
9.28 4.3 -1.62
22 10.18 2.98
12.08 5.59 -1.63
16.98 7.86 -1.64
26.06 12.06 -1.5
5.58 2.56 -1.65
6.44 2.95 -1.64
7.58 3.47 -1.62
9.29 4.26 -1.62
12.09 5.54 -1.63
16.99 7.79 -1.64
26.2 12.01 -1.51
5.6 2.54 -1.65
6.46 2.93 -1.64
7.6 3.45 -1.62
22.12 10.04 2.13
9.28 4.22 -1.62
21.63 9.82 2.92
12.1 5.49 -1.63
16.99 7.71 -1.63
26.27 11.93 -1.51
5.61 2.52 -1.65
6.46 2.91 -1.63
7.61 3.43 -1.62
9.28 4.18 -1.61
12.1 5.45 -1.63
16.99 7.65 -1.63
26.32 11.85 -1.51
5.63 2.51 -1.65
6.47 2.88 -1.63
7.62 3.4 -1.62
9.3 4.14 -1.61
12.07 5.38 -1.62
17.01 7.58 -1.63
26.39 11.76 -1.51
5.63 2.49 -1.65
6.48 2.87 -1.64
7.61 3.37 -1.62
22.83 10.09 2.18
9.3 4.11 -1.61
12.06 5.33 -1.62
16.98 7.51 -1.62
26.47 11.7 -1.52
26.79 11.84 7.85
5.62 2.46 -1.65
6.5 2.85 -1.64
7.62 3.34 -1.62
9.31 4.07 -1.61
12.09 5.29 -1.62
26.81 11.74 4.64
16.97 7.43 -1.62
26.83 11.74 5.69
26.56 11.62 -1.52
5.64 2.45 -1.65
6.5 2.82 -1.64
7.63 3.31 -1.62
26.84 11.64 2.56
9.31 4.04 -1.61
26.85 11.65 3.59
12.1 5.25 -1.62
22.09 9.58 3.81
16.98 7.36 -1.62
26.66 11.57 -1.52
5.66 2.43 -1.65
26.89 11.55 0.51
6.51 2.79 -1.63
26.91 11.56 1.54
7.65 3.29 -1.62
9.32 4 -1.61
12.14 5.21 -1.62
16.99 7.3 -1.62
26.67 11.45 -1.52
26.91 11.56 -0.51
5.66 2.41 -1.65
6.52 2.77 -1.63
7.65 3.25 -1.62
9.33 3.97 -1.61
12.12 5.15 -1.62
16.97 7.21 -1.61
26.79 11.39 -1.53
5.67 2.39 -1.65
6.53 2.75 -1.64
7.65 3.22 -1.61
9.34 3.93 -1.61
12.13 5.1 -1.62
16.97 7.14 -1.61
26.91 11.32 -1.53
5.67 2.36 -1.65
6.54 2.73 -1.64
7.67 3.2 -1.62
9.34 3.89 -1.6
12.12 5.05 -1.61
16.95 7.06 -1.61
26.96 11.24 -1.53
5.68 2.34 -1.65
6.55 2.7 -1.64
51.14 21.1 2.9
7.68 3.17 -1.61
9.35 3.86 -1.6
12.12 5 -1.61
16.95 6.99 -1.6
27.36 11.29 -1.55
5.69 2.33 -1.65
6.55 2.68 -1.63
7.69 3.15 -1.62
9.35 3.82 -1.6
12.13 4.96 -1.61
16.94 6.93 -1.6
27.76 11.36 -1.57
5.71 2.31 -1.65
6.56 2.66 -1.63
7.7 3.12 -1.62
9.35 3.79 -1.6
12.12 4.91 -1.61
16.93 6.85 -1.6
27.82 11.26 -1.57
5.71 2.29 -1.65
6.58 2.64 -1.64
7.71 3.09 -1.61
9.37 3.75 -1.6
12.13 4.86 -1.61
16.95 6.79 -1.6
28.08 11.25 -1.59
5.71 2.26 -1.65
6.59 2.61 -1.64
7.71 3.05 -1.61
9.37 3.71 -1.6
12.14 4.81 -1.6
16.91 6.7 -1.59
28.31 11.22 -1.6
5.71 2.24 -1.65
6.6 2.59 -1.64
7.72 3.03 -1.61
9.37 3.68 -1.59
12.15 4.77 -1.6
16.91 6.64 -1.59
28.57 11.21 -1.61
5.73 2.22 -1.65
6.6 2.56 -1.63
7.74 3 -1.61
9.37 3.64 -1.59
12.16 4.72 -1.6
16.9 6.56 -1.59
28.83 11.2 -1.62
5.75 2.21 -1.65
6.61 2.54 -1.64
7.75 2.98 -1.61
9.38 3.6 -1.59
12.15 4.67 -1.6
16.91 6.5 -1.59
28.96 11.14 -1.63
5.75 2.18 -1.65
6.62 2.52 -1.64
7.75 2.95 -1.61
9.39 3.57 -1.59
12.14 4.62 -1.59
16.91 6.43 -1.58
5.74 2.16 -1.64
6.63 2.5 -1.63
7.76 2.92 -1.61
9.4 3.54 -1.59
12.16 4.58 -1.6
16.9 6.36 -1.58
5.76 2.14 -1.65
6.65 2.47 -1.64
7.77 2.89 -1.61
9.4 3.5 -1.59
12.16 4.53 -1.59
16.9 6.29 -1.58
5.76 2.12 -1.65
6.64 2.45 -1.63
7.78 2.87 -1.61
9.4 3.46 -1.59
12.16 4.48 -1.59
16.89 6.22 -1.57
26.16 9.64 -1.46
5.78 2.11 -1.65
6.65 2.42 -1.63
7.79 2.84 -1.61
9.4 3.43 -1.58
12.13 4.42 -1.59
16.88 6.15 -1.57
26.13 9.53 -1.46
5.78 2.09 -1.65
6.66 2.4 -1.64
7.8 2.81 -1.61
9.41 3.39 -1.58
12.13 4.37 -1.58
16.87 6.08 -1.57
26.14 9.43 -1.46
5.78 2.06 -1.64
6.67 2.38 -1.64
7.81 2.78 -1.61
9.42 3.36 -1.58
12.15 4.33 -1.58
16.87 6.02 -1.57
26.2 9.34 -1.46
5.79 2.04 -1.65
6.68 2.36 -1.64
7.82 2.76 -1.61
9.42 3.32 -1.58
12.15 4.29 -1.58
16.87 5.95 -1.56
26.35 9.29 -1.46
5.8 2.02 -1.65
6.68 2.33 -1.63
7.83 2.73 -1.61
9.45 3.29 -1.58
12.16 4.24 -1.58
16.86 5.88 -1.56
5.82 2.01 -1.65
6.69 2.31 -1.63
7.85 2.71 -1.61
9.45 3.26 -1.58
12.16 4.19 -1.58
16.86 5.81 -1.56
5.82 1.98 -1.65
6.7 2.29 -1.64
7.85 2.68 -1.61
9.46 3.22 -1.58
12.16 4.15 -1.58
16.85 5.74 -1.56
5.82 1.96 -1.65
6.72 2.27 -1.64
7.86 2.65 -1.61
9.47 3.19 -1.58
12.16 4.1 -1.58
16.83 5.68 -1.55
5.83 1.94 -1.65
6.72 2.24 -1.64
7.86 2.62 -1.61
9.47 3.16 -1.58
12.16 4.05 -1.57
16.75 5.58 -1.54
5.84 1.92 -1.65
6.72 2.22 -1.63
7.88 2.6 -1.61
9.47 3.12 -1.58
12.17 4.01 -1.57
16.78 5.53 -1.55
5.85 1.9 -1.65
6.73 2.19 -1.63
7.89 2.57 -1.61
9.49 3.09 -1.58
12.15 3.96 -1.57
16.77 5.46 -1.54
5.85 1.88 -1.65
6.74 2.17 -1.63
7.89 2.54 -1.61
36.02 11.59 3.31
9.5 3.06 -1.58
12.16 3.91 -1.57
5.85 1.86 -1.65
35.98 11.44 0.66
6.75 2.15 -1.64
36.05 11.46 1.98
7.9 2.51 -1.61
9.51 3.02 -1.58
12.15 3.86 -1.57
16.77 5.33 -1.54
5.86 1.84 -1.64
6.76 2.12 -1.64
7.91 2.48 -1.61
9.51 2.99 -1.58
12.16 3.82 -1.57
16.75 5.26 -1.54
35.97 11.29 -0.66
5.86 1.82 -1.64
6.76 2.1 -1.63
7.92 2.46 -1.61
9.52 2.95 -1.58
12.16 3.77 -1.56
16.75 5.19 -1.53
5.87 1.8 -1.65
6.77 2.07 -1.63
7.93 2.43 -1.61
9.53 2.92 -1.58
12.15 3.72 -1.56
16.74 5.13 -1.53
5.88 1.78 -1.65
6.78 2.05 -1.64
7.93 2.4 -1.61
9.55 2.89 -1.58
12.15 3.68 -1.56
16.74 5.06 -1.53
5.86 1.75 -1.64
6.79 2.03 -1.64
7.94 2.37 -1.61
9.56 2.85 -1.58
12.17 3.64 -1.56
16.72 4.99 -1.53
5.87 1.73 -1.64
6.8 2.01 -1.64
7.95 2.35 -1.61
9.56 2.82 -1.58
12.17 3.59 -1.56
16.72 4.93 -1.53
5.89 1.72 -1.64
6.8 1.98 -1.63
7.97 2.32 -1.61
9.58 2.79 -1.58
12.17 3.54 -1.56
16.71 4.87 -1.52
5.91 1.7 -1.65
6.8 1.96 -1.63
7.96 2.29 -1.61
9.59 2.76 -1.58
12.17 3.5 -1.56
16.7 4.8 -1.52
5.9 1.67 -1.64
6.81 1.93 -1.63
7.97 2.26 -1.61
9.6 2.72 -1.58
12.19 3.46 -1.56
16.69 4.74 -1.52
5.92 1.66 -1.65
6.83 1.91 -1.64
7.98 2.23 -1.61
9.61 2.69 -1.58
12.19 3.41 -1.55
16.67 4.67 -1.51
5.92 1.63 -1.65
6.83 1.89 -1.64
7.99 2.2 -1.61
9.61 2.65 -1.58
12.22 3.37 -1.56
16.67 4.6 -1.51
5.93 1.61 -1.65
6.83 1.86 -1.63
8 2.18 -1.61
9.62 2.62 -1.58
12.22 3.33 -1.55
16.67 4.54 -1.51
5.94 1.6 -1.65
6.84 1.84 -1.63
8.01 2.15 -1.61
9.64 2.59 -1.58
12.21 3.28 -1.55
16.64 4.47 -1.51
5.94 1.57 -1.65
6.85 1.81 -1.63
8.01 2.12 -1.61
9.64 2.55 -1.58
12.23 3.24 -1.55
16.63 4.4 -1.51
26.82 7.1 -1.45
5.95 1.55 -1.65
6.86 1.79 -1.64
8.01 2.09 -1.61
9.65 2.52 -1.58
12.24 3.2 -1.55
16.6 4.34 -1.5
5.95 1.53 -1.65
6.85 1.77 -1.63
8.03 2.07 -1.61
9.66 2.49 -1.58
12.25 3.16 -1.55
16.6 4.28 -1.5
5.96 1.51 -1.65
6.85 1.74 -1.63
8.04 2.04 -1.61
9.67 2.45 -1.58
12.27 3.11 -1.55
16.59 4.21 -1.5
5.98 1.49 -1.65
6.87 1.72 -1.63
8.05 2.01 -1.61
9.67 2.42 -1.58
12.25 3.06 -1.55
16.59 4.15 -1.5
5.98 1.47 -1.65
6.87 1.69 -1.63
8.05 1.98 -1.61
9.69 2.39 -1.58
12.26 3.02 -1.55
16.57 4.08 -1.49
5.97 1.45 -1.65
6.88 1.67 -1.64
8.05 1.95 -1.61
9.69 2.35 -1.58
12.29 2.98 -1.55
16.56 4.02 -1.49
5.98 1.43 -1.65
6.89 1.65 -1.63
8.06 1.93 -1.61
9.69 2.32 -1.58
12.3 2.94 -1.55
16.55 3.96 -1.49
6 1.41 -1.65
6.88 1.62 -1.63
8.08 1.9 -1.61
9.7 2.28 -1.58
12.31 2.9 -1.55
16.51 3.88 -1.48
6 1.39 -1.65
6.89 1.59 -1.63
8.09 1.87 -1.61
9.72 2.25 -1.58
12.3 2.85 -1.55
16.51 3.82 -1.48
26.08 6.04 -1.4
6 1.37 -1.65
6.9 1.57 -1.63
8.08 1.84 -1.61
9.73 2.22 -1.58
12.32 2.81 -1.55
16.5 3.76 -1.48
26.19 5.96 -1.41
6 1.34 -1.65
6.91 1.55 -1.63
8.09 1.81 -1.61
9.73 2.18 -1.58
12.33 2.76 -1.55
16.48 3.69 -1.48
26.29 5.89 -1.41
6 1.32 -1.65
6.92 1.53 -1.64
8.09 1.78 -1.61
9.73 2.14 -1.58
12.35 2.72 -1.55
16.51 3.64 -1.48
6.02 1.3 -1.65
6.92 1.5 -1.63
8.11 1.76 -1.61
9.74 2.11 -1.58
12.36 2.68 -1.55
16.55 3.59 -1.48
6.02 1.28 -1.65
6.92 1.48 -1.63
8.11 1.73 -1.61
9.76 2.08 -1.58
12.35 2.63 -1.55
16.58 3.53 -1.48
6.03 1.26 -1.65
6.93 1.45 -1.63
8.11 1.7 -1.61
9.76 2.05 -1.58
12.37 2.59 -1.55
16.55 3.47 -1.48
6.02 1.24 -1.65
6.94 1.43 -1.64
8.12 1.67 -1.61
9.76 2.01 -1.58
12.38 2.55 -1.55
16.56 3.41 -1.48
6.03 1.22 -1.65
6.95 1.4 -1.64
8.13 1.64 -1.61
9.75 1.97 -1.58
12.4 2.51 -1.55
16.58 3.35 -1.48
6.04 1.2 -1.65
6.94 1.38 -1.63
8.14 1.62 -1.61
9.75 1.94 -1.57
12.39 2.46 -1.55
16.58 3.29 -1.48
25.84 5.13 -1.38
6.04 1.18 -1.65
6.95 1.35 -1.63
8.15 1.59 -1.61
9.77 1.9 -1.58
12.41 2.42 -1.55
16.6 3.24 -1.48
6.05 1.16 -1.65
6.96 1.33 -1.63
8.15 1.56 -1.61
9.8 1.87 -1.58
12.41 2.37 -1.55
16.6 3.18 -1.48
25.68 4.91 -1.37
6.04 1.13 -1.65
6.96 1.31 -1.64
8.15 1.53 -1.61
12.42 2.33 -1.55
16.61 3.12 -1.48
25.7 4.83 -1.37
6.04 1.11 -1.65
6.96 1.28 -1.63
8.16 1.5 -1.61
9.81 1.81 -1.58
12.43 2.29 -1.55
16.62 3.06 -1.48
6.06 1.09 -1.65
6.96 1.26 -1.63
8.17 1.48 -1.61
9.82 1.77 -1.58
12.44 2.25 -1.55
16.64 3 -1.48
25.53 4.61 -1.36
6.06 1.07 -1.65
88.39 15.63 1.57
6.96 1.23 -1.63
8.18 1.45 -1.61
9.84 1.74 -1.58
12.45 2.2 -1.55
16.66 2.94 -1.48
25.42 4.49 -1.35
6.06 1.05 -1.65
88.39 15.32 1.57
6.98 1.21 -1.63
8.17 1.42 -1.61
9.84 1.71 -1.58
12.45 2.16 -1.55
16.66 2.89 -1.48
25.37 4.4 -1.35
6.05 1.03 -1.65
88.41 14.99 1.57
6.99 1.18 -1.64
8.18 1.39 -1.61
9.86 1.67 -1.58
12.46 2.11 -1.55
16.66 2.83 -1.48
25.38 4.3 -1.35
6.07 1.01 -1.65
88.56 14.71 1.57
6.99 1.16 -1.64
8.19 1.36 -1.61
9.85 1.64 -1.58
12.48 2.07 -1.55
16.68 2.77 -1.48
6.07 0.99 -1.65
6.98 1.13 -1.63
8.2 1.33 -1.62
9.86 1.6 -1.58
12.48 2.03 -1.55
16.71 2.71 -1.48
6.07 0.97 -1.65
6.99 1.11 -1.63
8.2 1.3 -1.61
9.87 1.57 -1.58
12.48 1.98 -1.55
16.72 2.66 -1.48
6.08 0.94 -1.65
7 1.09 -1.63
8.2 1.27 -1.61
9.88 1.53 -1.58
12.5 1.94 -1.55
16.71 2.59 -1.48
6.08 0.92 -1.65
7.01 1.06 -1.64
8.2 1.25 -1.61
9.88 1.5 -1.58
12.5 1.9 -1.55
16.71 2.54 -1.48
6.09 0.9 -1.65
7.01 1.04 -1.64
8.21 1.22 -1.61
9.88 1.46 -1.58
12.51 1.86 -1.55
16.74 2.48 -1.48
6.09 0.88 -1.65
7 1.01 -1.63
8.22 1.19 -1.61
9.89 1.43 -1.58
12.52 1.81 -1.55
16.75 2.42 -1.48
6.1 0.86 -1.65
7.01 0.99 -1.63
8.22 1.16 -1.61
9.9 1.4 -1.58
12.52 1.77 -1.55
16.74 2.36 -1.48
6.1 0.84 -1.65
7.02 0.96 -1.63
8.22 1.13 -1.61
9.91 1.36 -1.58
12.53 1.72 -1.55
16.72 2.3 -1.48
6.09 0.81 -1.65
7.03 0.94 -1.64
8.22 1.1 -1.61
9.91 1.33 -1.58
12.54 1.68 -1.55
16.74 2.24 -1.48
6.09 0.79 -1.65
7.03 0.92 -1.64
8.23 1.07 -1.61
9.91 1.29 -1.58
12.55 1.64 -1.55
16.78 2.19 -1.48
6.1 0.77 -1.65
7.02 0.89 -1.63
8.25 1.05 -1.62
9.92 1.26 -1.58
12.55 1.59 -1.55
16.79 2.13 -1.48
6.11 0.75 -1.65
7.02 0.87 -1.63
8.24 1.01 -1.61
9.92 1.22 -1.58
12.55 1.55 -1.55
16.81 2.07 -1.48
6.11 0.73 -1.65
7.03 0.84 -1.63
8.23 0.98 -1.61
9.93 1.19 -1.58
12.56 1.5 -1.55
16.82 2.01 -1.48
6.1 0.71 -1.65
7.04 0.82 -1.64
8.23 0.96 -1.61
9.93 1.15 -1.58
12.56 1.46 -1.55
16.82 1.95 -1.48
6.11 0.69 -1.65
7.04 0.79 -1.64
8.25 0.93 -1.61
9.93 1.12 -1.58
12.57 1.41 -1.55
16.82 1.89 -1.48
6.11 0.67 -1.65
7.04 0.77 -1.63
8.25 0.9 -1.61
9.93 1.08 -1.58
12.58 1.37 -1.55
16.84 1.84 -1.48
6.12 0.64 -1.65
7.04 0.74 -1.63
8.25 0.87 -1.61
9.94 1.05 -1.58
12.58 1.33 -1.55
16.85 1.78 -1.48
25.47 2.68 -1.34
6.11 0.62 -1.65
7.05 0.72 -1.64
8.25 0.84 -1.61
9.94 1.01 -1.58
12.58 1.28 -1.55
16.85 1.72 -1.48
25.49 2.6 -1.34
6.11 0.6 -1.65
7.06 0.69 -1.64
8.25 0.81 -1.61
9.95 0.98 -1.58
12.59 1.24 -1.55
16.86 1.66 -1.48
25.46 2.51 -1.34
6.12 0.58 -1.65
7.05 0.67 -1.64
8.25 0.78 -1.61
9.94 0.94 -1.58
12.59 1.19 -1.55
16.86 1.6 -1.48
6.12 0.56 -1.65
7.04 0.64 -1.63
8.26 0.76 -1.61
9.94 0.91 -1.58
12.6 1.15 -1.55
16.87 1.54 -1.48
23.73 2.17 -1.25
23.27 2.13 -0.41
6.13 0.54 -1.65
7.05 0.62 -1.63
8.26 0.73 -1.61
9.94 0.88 -1.58
12.59 1.11 -1.55
16.88 1.49 -1.48
23.76 2.1 -1.25
23.24 2.05 -0.41
6.13 0.52 -1.65
7.06 0.6 -1.63
8.26 0.7 -1.61
9.96 0.84 -1.58
12.59 1.07 -1.55
16.89 1.43 -1.48
23.17 1.96 -0.41
6.13 0.49 -1.65
7.06 0.57 -1.64
8.26 0.67 -1.61
9.95 0.8 -1.58
12.6 1.02 -1.55
16.87 1.36 -1.48
25.56 2.07 -1.34
23.17 1.87 -0.41
6.13 0.47 -1.65
7.06 0.55 -1.64
8.27 0.64 -1.61
9.95 0.77 -1.58
12.61 0.97 -1.55
16.89 1.31 -1.48
25.53 1.97 -1.34
23.15 1.79 -0.41
6.14 0.45 -1.65
7.05 0.52 -1.63
8.28 0.61 -1.61
9.95 0.73 -1.58
12.62 0.93 -1.55
16.88 1.25 -1.48
25.52 1.88 -1.34
6.15 0.43 -1.65
7.05 0.5 -1.63
8.28 0.58 -1.61
9.96 0.7 -1.58
12.62 0.89 -1.55
16.89 1.19 -1.48
25.51 1.79 -1.34
6.14 0.41 -1.65
7.07 0.47 -1.64
8.27 0.55 -1.61
9.97 0.67 -1.58
12.61 0.84 -1.55
16.89 1.13 -1.48
25.49 1.7 -1.34
6.13 0.39 -1.65
7.07 0.45 -1.63
8.27 0.52 -1.61
9.97 0.63 -1.58
12.61 0.8 -1.55
16.88 1.07 -1.48
25.5 1.61 -1.34
6.13 0.37 -1.65
7.08 0.42 -1.64
8.28 0.49 -1.61
9.96 0.59 -1.58
12.62 0.75 -1.55
16.88 1.01 -1.48
25.53 1.53 -1.34
23.13 1.38 -0.4
6.14 0.35 -1.65
7.07 0.4 -1.63
8.28 0.47 -1.61
9.97 0.56 -1.58
12.63 0.71 -1.55
16.89 0.95 -1.48
25.55 1.44 -1.34
23.15 1.3 -0.4
6.14 0.32 -1.65
7.07 0.37 -1.63
8.29 0.44 -1.61
9.98 0.53 -1.58
12.63 0.67 -1.55
16.92 0.89 -1.48
25.56 1.35 -1.34
23.17 1.22 -0.4
6.15 0.3 -1.65
7.07 0.35 -1.63
8.28 0.41 -1.61
9.98 0.49 -1.58
12.62 0.62 -1.55
16.9 0.83 -1.48
25.56 1.26 -1.34
23.16 1.14 -0.4
6.13 0.28 -1.64
7.09 0.32 -1.64
8.28 0.38 -1.61
9.98 0.46 -1.58
12.64 0.58 -1.55
16.86 0.77 -1.48
25.56 1.17 -1.34
23.17 1.06 -0.4
6.14 0.26 -1.65
7.08 0.3 -1.64
8.29 0.35 -1.61
9.98 0.42 -1.58
12.64 0.53 -1.55
16.87 0.71 -1.48
25.56 1.08 -1.34
6.14 0.24 -1.65
119.32 4.63 2.08
7.07 0.27 -1.63
8.3 0.32 -1.61
9.98 0.39 -1.58
12.65 0.49 -1.55
16.89 0.65 -1.48
25.63 0.99 -1.34
6.15 0.22 -1.65
119.32 4.21 2.08
7.07 0.25 -1.63
8.29 0.29 -1.61
9.98 0.35 -1.58
12.64 0.45 -1.55
16.9 0.6 -1.48
6.15 0.2 -1.65
119.34 3.79 2.08
7.08 0.23 -1.64
8.29 0.26 -1.61
9.99 0.32 -1.58
12.65 0.4 -1.55
23.2 0.74 -0.41
6.14 0.17 -1.65
119.35 3.38 2.08
7.09 0.2 -1.64
8.29 0.23 -1.61
9.99 0.28 -1.58
12.64 0.36 -1.55
16.92 0.48 -1.48
23.23 0.66 -0.41
6.14 0.15 -1.65
119.35 2.96 2.08
7.09 0.18 -1.64
8.3 0.21 -1.61
9.97 0.25 -1.58
12.66 0.31 -1.55
16.92 0.42 -1.48
23.89 0.59 -1.25
23.31 0.58 -0.41
6.15 0.13 -1.65
119.38 2.54 2.08
7.08 0.15 -1.63
8.3 0.18 -1.61
9.98 0.21 -1.58
12.66 0.27 -1.55
16.95 0.36 -1.48
23.81 0.51 -1.25
23.35 0.5 -0.41
6.15 0.11 -1.65
7.08 0.13 -1.63
8.3 0.15 -1.61
9.98 0.18 -1.58
12.65 0.23 -1.55
16.95 0.3 -1.48
23.85 0.42 -1.25
6.15 0.09 -1.65
7.08 0.1 -1.63
8.29 0.12 -1.61
9.99 0.14 -1.58
12.65 0.18 -1.55
16.94 0.24 -1.48
6.13 0.07 -1.64
7.09 0.08 -1.64
8.29 0.09 -1.61
9.98 0.11 -1.58
12.65 0.14 -1.55
16.94 0.18 -1.48
6.14 0.04 -1.64
7.09 0.05 -1.64
8.3 0.06 -1.61
9.98 0.07 -1.58
12.66 0.09 -1.55
16.93 0.12 -1.48
6.15 0.02 -1.65
7.08 0.03 -1.63
8.3 0.03 -1.61
65.37 0.25 5.72
9.97 0.04 -1.58
12.66 0.05 -1.55
16.94 0.07 -1.48
6.15 0 -1.65
43.26 0.02 0.76
7.08 0 -1.63
8.3 0 -1.61
65.37 0.02 5.72
9.98 0 -1.58
12.65 0 -1.55
16.95 0.01 -1.48
6.15 -0.02 -1.65
7.08 -0.02 -1.64
8.28 -0.03 -1.61
65.32 -0.21 5.71
9.99 -0.03 -1.58
12.66 -0.04 -1.55
16.95 -0.05 -1.48
6.14 -0.04 -1.65
7.09 -0.05 -1.64
8.29 -0.06 -1.61
65.33 -0.43 5.72
10 -0.07 -1.58
12.67 -0.08 -1.56
16.94 -0.11 -1.48
6.14 -0.06 -1.65
7.09 -0.07 -1.64
8.3 -0.08 -1.61
65.31 -0.66 5.71
9.99 -0.1 -1.58
12.67 -0.13 -1.56
16.94 -0.17 -1.48
6.15 -0.08 -1.65
7.08 -0.1 -1.63
8.31 -0.11 -1.62
65.36 -0.89 5.72
9.99 -0.14 -1.58
12.67 -0.17 -1.56
16.94 -0.23 -1.48
6.16 -0.11 -1.65
43.24 -0.74 0.75
7.08 -0.12 -1.63
8.3 -0.14 -1.61
65.36 -1.12 5.72
9.99 -0.17 -1.58
12.66 -0.22 -1.55
16.96 -0.29 -1.48
25.6 -0.44 -1.34
6.15 -0.13 -1.65
43.26 -0.89 0.76
7.08 -0.15 -1.63
8.3 -0.17 -1.61
10 -0.21 -1.58
12.66 -0.26 -1.56
16.96 -0.35 -1.48
25.55 -0.53 -1.34
6.14 -0.15 -1.65
7.09 -0.17 -1.64
8.3 -0.2 -1.61
10 -0.24 -1.58
12.67 -0.31 -1.56
16.96 -0.41 -1.48
26.14 -0.63 -1.37
6.14 -0.17 -1.65
7.09 -0.2 -1.64
8.3 -0.23 -1.61
9.99 -0.28 -1.58
12.66 -0.35 -1.56
16.97 -0.47 -1.48
26.25 -0.72 -1.38
6.15 -0.19 -1.65
7.08 -0.22 -1.63
8.31 -0.26 -1.62
9.99 -0.31 -1.58
12.67 -0.39 -1.56
16.96 -0.53 -1.48
26.47 -0.82 -1.39
6.15 -0.21 -1.65
43.26 -1.5 0.76
7.08 -0.24 -1.63
8.31 -0.29 -1.62
10 -0.35 -1.58
12.66 -0.44 -1.56
16.96 -0.59 -1.48
26.49 -0.92 -1.39
6.15 -0.23 -1.65
7.08 -0.27 -1.64
8.29 -0.32 -1.61
10.01 -0.38 -1.59
12.67 -0.48 -1.56
16.96 -0.65 -1.48
26.6 -1.01 -1.4
6.14 -0.26 -1.65
7.09 -0.29 -1.64
8.3 -0.34 -1.61
9.99 -0.42 -1.58
12.67 -0.53 -1.56
16.93 -0.7 -1.48
26.8 -1.11 -1.41
6.14 -0.28 -1.65
7.08 -0.32 -1.64
8.31 -0.37 -1.62
9.99 -0.45 -1.58
12.67 -0.57 -1.56
16.94 -0.76 -1.48
26.8 -1.21 -1.41
48.38 -2.18 -0.85
6.15 -0.3 -1.65
7.07 -0.34 -1.63
8.3 -0.4 -1.62
9.99 -0.48 -1.58
12.68 -0.62 -1.56
16.92 -0.82 -1.48
26.73 -1.3 -1.4
48.37 -2.35 -0.85
6.15 -0.32 -1.65
7.07 -0.37 -1.63
8.3 -0.43 -1.62
9.99 -0.52 -1.58
12.66 -0.66 -1.56
16.92 -0.88 -1.48
26.37 -1.37 -1.38
6.14 -0.34 -1.65
7.08 -0.39 -1.64
8.29 -0.46 -1.61
9.98 -0.55 -1.58
12.67 -0.7 -1.56
16.92 -0.94 -1.48
27 -1.5 -1.42
6.13 -0.36 -1.65
7.08 -0.42 -1.64
8.29 -0.49 -1.61
9.98 -0.59 -1.58
12.66 -0.75 -1.56
17.22 -1.02 -1.51
25.9 -1.53 -1.36
6.14 -0.38 -1.65
7.08 -0.44 -1.64
8.29 -0.52 -1.62
9.97 -0.62 -1.58
12.66 -0.79 -1.56
17.27 -1.08 -1.51
25.77 -1.61 -1.35
6.15 -0.41 -1.65
7.07 -0.47 -1.64
8.3 -0.55 -1.62
9.96 -0.66 -1.58
12.65 -0.84 -1.56
17.39 -1.15 -1.52
25.79 -1.7 -1.35
6.16 -0.43 -1.65
7.07 -0.49 -1.64
8.3 -0.58 -1.62
9.97 -0.69 -1.58
12.65 -0.88 -1.56
17.46 -1.21 -1.53
26.15 -1.82 -1.37
6.14 -0.45 -1.65
7.07 -0.52 -1.64
8.28 -0.61 -1.61
9.98 -0.73 -1.58
12.65 -0.92 -1.56
17.46 -1.28 -1.53
26.24 -1.92 -1.38
6.13 -0.47 -1.65
7.07 -0.54 -1.64
8.28 -0.63 -1.61
9.97 -0.76 -1.58
12.63 -0.97 -1.56
17.43 -1.34 -1.53
26.05 -2 -1.37
6.13 -0.49 -1.65
7.07 -0.57 -1.64
8.28 -0.66 -1.62
9.96 -0.8 -1.58
12.63 -1.01 -1.56
17.4 -1.39 -1.53
25.91 -2.08 -1.36
6.14 -0.51 -1.65
7.06 -0.59 -1.64
8.28 -0.69 -1.62
9.95 -0.83 -1.58
12.62 -1.06 -1.56
17.34 -1.45 -1.52
25.74 -2.15 -1.35
6.14 -0.53 -1.65
7.06 -0.62 -1.64
8.28 -0.72 -1.62
9.95 -0.87 -1.58
12.61 -1.1 -1.55
17.29 -1.51 -1.52
25.65 -2.24 -1.35
37.3 -3.25 -0.65
6.14 -0.56 -1.65
7.07 -0.64 -1.64
8.26 -0.75 -1.61
9.95 -0.9 -1.58
12.62 -1.14 -1.56
17.21 -1.56 -1.51
23.76 -2.15 -1.25
6.12 -0.58 -1.65
40.21 -3.79 0.71
7.06 -0.67 -1.64
8.27 -0.78 -1.61
9.95 -0.94 -1.58
12.69 -1.2 -1.57
17.05 -1.61 -1.5
23.83 -2.24 -1.25
6.12 -0.6 -1.65
7.07 -0.69 -1.64
8.27 -0.81 -1.61
9.93 -0.97 -1.58
12.88 -1.26 -1.59
17.01 -1.66 -1.49
21.31 -2.08 -1.12
6.12 -0.62 -1.65
7.05 -0.71 -1.64
8.27 -0.84 -1.62
9.94 -1.01 -1.58
12.92 -1.31 -1.59
17.15 -1.74 -1.51
21.25 -2.15 -1.12
6.13 -0.64 -1.65
7.05 -0.74 -1.64
8.27 -0.87 -1.62
9.93 -1.04 -1.58
12.91 -1.35 -1.59
17.22 -1.8 -1.52
21.24 -2.22 -1.12
6.12 -0.66 -1.65
7.05 -0.76 -1.64
8.25 -0.89 -1.61
9.94 -1.08 -1.58
12.9 -1.4 -1.59
17.08 -1.85 -1.5
22.55 -2.44 -1.19
6.11 -0.68 -1.65
7.06 -0.79 -1.64
8.25 -0.92 -1.61
9.93 -1.11 -1.58
12.83 -1.43 -1.58
17.08 -1.91 -1.5
21.42 -2.4 -1.13
34.59 -3.87 -0.61
6.11 -0.71 -1.65
7.05 -0.81 -1.64
8.25 -0.95 -1.61
9.93 -1.15 -1.58
12.81 -1.48 -1.58
16.99 -1.96 -1.5
21.24 -2.45 -1.12
34.36 -3.97 -0.6
6.11 -0.73 -1.65
7.04 -0.84 -1.64
8.25 -0.98 -1.61
9.92 -1.18 -1.58
12.84 -1.53 -1.59
17.06 -2.03 -1.5
21.28 -2.53 -1.12
6.11 -0.75 -1.65
7.04 -0.86 -1.64
8.25 -1.01 -1.62
9.93 -1.22 -1.58
12.88 -1.58 -1.59
17.16 -2.1 -1.51
21.13 -2.59 -1.12
6.11 -0.77 -1.65
7.04 -0.89 -1.64
8.23 -1.04 -1.61
9.92 -1.25 -1.58
12.84 -1.62 -1.59
16.93 -2.14 -1.49
22.52 -2.84 -1.19
6.1 -0.79 -1.65
7.04 -0.91 -1.64
8.23 -1.07 -1.61
9.9 -1.28 -1.58
12.89 -1.67 -1.6
16.76 -2.17 -1.48
22.52 -2.92 -1.19
6.1 -0.81 -1.65
7.04 -0.94 -1.64
8.23 -1.1 -1.61
9.94 -1.32 -1.59
12.95 -1.72 -1.6
16.68 -2.22 -1.47
18.37 -2.45 -0.97
6.1 -0.83 -1.65
7.03 -0.96 -1.64
8.23 -1.13 -1.62
10.04 -1.37 -1.6
12.86 -1.76 -1.59
16.62 -2.27 -1.47
22.59 -3.09 -1.19
6.1 -0.86 -1.65
31.29 -4.39 0.55
7.02 -0.99 -1.64
8.23 -1.16 -1.62
10.05 -1.41 -1.61
12.83 -1.8 -1.59
16.53 -2.32 -1.46
20.24 -2.84 -1.07
6.1 -0.88 -1.65
7.03 -1.01 -1.64
8.21 -1.18 -1.61
10.07 -1.45 -1.61
12.74 -1.83 -1.58
14.93 -2.15 -1.32
22.43 -3.22 -1.19
6.08 -0.9 -1.65
7.02 -1.03 -1.64
8.21 -1.21 -1.61
10.03 -1.48 -1.61
12.76 -1.88 -1.58
16.42 -2.42 -1.45
22.47 -3.31 -1.19
6.08 -0.92 -1.65
7.01 -1.06 -1.64
8.22 -1.24 -1.62
10.07 -1.52 -1.61
12.74 -1.93 -1.58
16.35 -2.47 -1.45
22.46 -3.39 -1.19
6.08 -0.94 -1.65
7.01 -1.08 -1.64
8.21 -1.27 -1.61
10.06 -1.56 -1.61
12.7 -1.96 -1.58
16.34 -2.53 -1.45
22.33 -3.45 -1.18
27 -4.18 -0.48
6.09 -0.96 -1.65
7 -1.11 -1.64
8.2 -1.3 -1.61
9.97 -1.58 -1.6
12.71 -2.01 -1.58
16.36 -2.59 -1.45
22.38 -3.54 -1.19
26.95 -4.26 -0.48
6.09 -0.98 -1.65
7 -1.13 -1.64
8.19 -1.32 -1.61
9.97 -1.61 -1.6
12.68 -2.05 -1.58
16.32 -2.64 -1.45
22.36 -3.62 -1.19
6.07 -1 -1.65
7 -1.16 -1.64
8.19 -1.35 -1.61
9.95 -1.64 -1.6
12.62 -2.09 -1.57
15.14 -2.5 -1.34
22.32 -3.69 -1.19
28.78 -4.76 -0.51
6.06 -1.02 -1.65
7 -1.18 -1.64
8.19 -1.38 -1.62
9.93 -1.68 -1.6
12.67 -2.14 -1.58
15.02 -2.54 -1.33
21.96 -3.71 -1.17
28.84 -4.87 -0.51
6.06 -1.05 -1.65
6.98 -1.2 -1.64
8.31 -1.43 -1.64
9.82 -1.69 -1.58
12.76 -2.2 -1.59
14.11 -2.43 -1.25
21.91 -3.78 -1.17
26.84 -4.63 -0.48
6.07 -1.07 -1.65
6.98 -1.23 -1.64
8.3 -1.46 -1.64
10.02 -1.77 -1.61
12.65 -2.23 -1.58
14.07 -2.48 -1.25
22.04 -3.88 -1.17
26.88 -4.74 -0.48
6.06 -1.09 -1.65
6.98 -1.25 -1.64
8.31 -1.49 -1.64
10.04 -1.8 -1.62
12.67 -2.28 -1.58
14.96 -2.69 -1.33
21.75 -3.91 -1.16
26.82 -4.82 -0.48
6.05 -1.11 -1.65
6.98 -1.28 -1.64
8.29 -1.52 -1.64
9.92 -1.82 -1.6
12.68 -2.33 -1.58
13.99 -2.56 -1.24
18.08 -3.31 -0.96
25.11 -4.6 -0.45
6.05 -1.13 -1.65
6.97 -1.3 -1.64
8.31 -1.55 -1.64
9.88 -1.85 -1.59
12.62 -2.36 -1.58
14.48 -2.71 -1.29
22.28 -4.16 -1.19
23.34 -4.36 -0.41
6.05 -1.15 -1.65
6.96 -1.33 -1.63
8.28 -1.58 -1.64
9.75 -1.86 -1.57
11.91 -2.27 -1.06
22.3 -4.25 -1.19
23.32 -4.44 -0.41
6.05 -1.17 -1.65
6.95 -1.35 -1.63
8.31 -1.61 -1.65
9.86 -1.91 -1.59
11.61 -2.25 -1.45
15.95 -3.1 -1.42
15.6 -3.03 -0.83
23.25 -4.51 -0.41
6.05 -1.2 -1.65
6.96 -1.38 -1.64
32.86 -6.5 1.76
8.26 -1.63 -1.64
37.12 -7.34 3.31
9.9 -1.96 -1.6
11.66 -2.31 -1.46
15.79 -3.12 -1.41
22.3 -4.41 -1.19
6.03 -1.22 -1.65
32.35 -6.52 0.58
6.96 -1.4 -1.64
8.27 -1.67 -1.64
9.84 -1.98 -1.59
11.65 -2.35 -1.46
13.95 -2.81 -1.25
15.5 -3.12 -0.83
6.03 -1.24 -1.65
32.35 -6.63 0.58
6.95 -1.43 -1.64
8.24 -1.69 -1.64
9.84 -2.02 -1.59
11.63 -2.39 -1.46
13.83 -2.84 -1.23
21.48 -4.41 -1.15
6.03 -1.26 -1.65
6.95 -1.45 -1.64
32.68 -6.82 1.75
8.24 -1.72 -1.64
9.78 -2.04 -1.58
11.39 -2.38 -1.43
13.78 -2.88 -1.23
15.26 -3.18 -0.82
6.02 -1.28 -1.65
7.03 -1.49 -1.66
33.11 -7.03 1.77
8.2 -1.74 -1.63
9.65 -2.05 -1.56
11.47 -2.44 -1.44
11.49 -2.44 -1.03
21.23 -4.51 -1.14
6.03 -1.3 -1.65
32.45 -7.01 0.58
7.04 -1.52 -1.66
8.21 -1.77 -1.63
32.41 -7 2.9
9.74 -2.1 -1.58
11.4 -2.46 -1.43
11.59 -2.5 -1.04
21.3 -4.6 -1.14
6 -1.32 -1.65
28.43 -6.25 0.51
7.15 -1.57 -1.69
32.94 -7.24 1.77
8.21 -1.8 -1.63
32.42 -7.12 2.9
9.71 -2.13 -1.57
11.43 -2.51 -1.44
11.89 -2.61 -1.07
21.15 -4.65 -1.13
6.01 -1.34 -1.65
31.72 -7.08 0.57
7.12 -1.59 -1.69
32.92 -7.35 1.77
8.19 -1.83 -1.63
32.37 -7.23 2.9
9.75 -2.18 -1.58
11.47 -2.56 -1.44
15.21 -3.4 -1.36
21.89 -4.89 -1.18
6.01 -1.37 -1.65
28.41 -6.45 0.51
7.15 -1.62 -1.69
32.74 -7.43 1.76
8.18 -1.86 -1.63
32.89 -7.47 2.95
9.75 -2.21 -1.58
11.5 -2.61 -1.45
11.44 -2.6 -1.03
21.82 -4.95 -1.17
28.33 -6.43 -0.51
6 -1.38 -1.65
31.64 -7.3 0.57
7.11 -1.64 -1.68
32.68 -7.54 1.76
8.11 -1.87 -1.62
9.82 -2.26 -1.6
11.45 -2.64 -1.44
15.19 -3.5 -1.36
21.76 -5.02 -1.17
5.99 -1.4 -1.65
31.55 -7.39 0.57
7.05 -1.65 -1.67
32.72 -7.67 1.76
8.05 -1.89 -1.61
33.71 -7.9 3.03
9.82 -2.3 -1.6
8.14 -1.91 1.03
11.46 -2.68 -1.44
13.56 -3.18 -1.22
21.79 -5.11 -1.17
5.98 -1.42 -1.65
29.89 -7.12 0.54
7.08 -1.69 -1.68
32.45 -7.73 1.75
8 -1.91 -1.6
9.77 -2.32 -1.59
11.47 -2.73 -1.45
13.43 -3.2 -1.21
18.88 -4.49 -1.02
5.98 -1.45 -1.65
32.15 -7.77 0.58
7.07 -1.71 -1.68
32.46 -7.85 1.75
7.98 -1.93 -1.6
9.77 -2.36 -1.59
11.56 -2.8 -1.46
8.02 -1.94 1.31
13.41 -3.24 -1.21
23.61 -5.71 4.72
21.13 -5.11 -1.14
25.13 -6.08 -0.45
5.99 -1.47 -1.65
31.89 -7.83 0.57
7.06 -1.73 -1.68
32.55 -7.99 1.76
7.97 -1.96 -1.6
8.4 -2.06 -1.37
7.95 -1.95 1
11.43 -2.81 -1.45
7.98 -1.96 1.3
13.48 -3.31 -1.21
23.54 -5.78 4.71
19.02 -4.67 -1.03
24.79 -6.09 -0.45
5.98 -1.49 -1.65
31.9 -7.95 0.57
7.08 -1.76 -1.68
32.37 -8.07 1.75
7.89 -1.97 -1.58
7.94 -1.98 0.72
9.75 -2.43 -1.59
7.91 -1.97 1
11.2 -2.79 -1.42
7.9 -1.97 1.29
13.61 -3.39 -1.23
7.91 -1.97 1.58
18.74 -4.67 -1.01
27.61 -6.88 -0.5
6.06 -1.53 -1.68
7.96 -2.01 0.14
7.06 -1.79 -1.68
7.94 -2.01 0.43
7.83 -1.98 -1.57
7.89 -2 0.71
9.67 -2.44 -1.58
7.86 -1.99 1
11.08 -2.8 -1.4
7.84 -1.98 1.28
11.17 -2.82 -1.01
7.89 -1.99 1.58
7.99 -2.02 -0.43
7.97 -2.02 -0.14
23.59 -5.96 6.52
6.13 -1.57 -1.7
7.91 -2.03 0.14
7.06 -1.81 -1.68
7.92 -2.03 0.43
7.8 -2 -1.57
7.83 -2.01 0.71
8 -2.05 -1.31
7.82 -2.01 0.99
7.99 -2.05 -1.01
7.79 -2 1.27
7.98 -2.05 -0.72
7.97 -2.05 -0.43
7.92 -2.03 -0.14
23.48 -6.03 6.5
6.14 -1.6 -1.7
7.93 -2.06 0.14
7.06 -1.84 -1.68
7.78 -2.03 -1.56
7.79 -2.03 0.7
7.97 -2.08 -1.3
7.79 -2.03 0.99
7.97 -2.08 -1.01
7.74 -2.02 1.27
7.97 -2.07 -0.72
23.44 -6.1 4.71
7.96 -2.07 -0.43
23.02 -5.99 5.49
7.96 -2.07 -0.14
24.67 -6.42 6.83
6.03 -1.59 -1.67
31.89 -8.42 0.58
7.04 -1.86 -1.68
31.93 -8.43 1.73
7.69 -2.03 -1.55
7.76 -2.05 0.7
8.08 -2.13 -1.32
10.69 -2.82 -1.36
7.7 -2.03 1.26
10.66 -2.82 -0.96
23 -6.07 4.62
14.5 -3.83 -0.79
22.84 -6.03 5.45
10.58 -2.79 -0.19
22.92 -6.05 6.35
6.13 -1.64 -1.7
7.03 -1.88 -1.68
7.71 -2.06 -1.55
8.19 -2.19 -1.34
10.94 -2.93 -1.39
7.64 -2.05 1.25
13.94 -3.73 -1.26
22.85 -6.12 4.6
14.35 -3.84 -0.78
22.71 -6.08 5.43
10.49 -2.81 -0.19
22.84 -6.12 6.33
6.13 -1.66 -1.7
25.47 -6.92 0.46
7.03 -1.91 -1.68
7.68 -2.09 -1.55
8.05 -2.19 -1.32
52.09 -14.14 6.63
10.81 -2.93 -1.37
10.52 -2.86 -0.95
22.86 -6.21 4.6
14.37 -3.9 -0.78
22.59 -6.13 5.4
26.49 -7.19 -0.48
22.93 -6.23 6.37
6.09 -1.68 -1.69
10.64 -2.93 0.19
7.05 -1.94 -1.69
7.7 -2.12 -1.55
7.95 -2.19 -1.31
52.02 -14.32 6.62
10.84 -2.98 -1.38
10.46 -2.88 -0.95
22.95 -6.32 4.63
18.12 -4.99 -0.98
22.56 -6.21 5.4
10.44 -2.87 -0.19
22.89 -6.3 6.36
6.02 -1.68 -1.67
10.69 -2.98 0.19
6.97 -1.94 -1.67
7.7 -2.15 -1.55
9.45 -2.64 -1.55
51.73 -14.43 6.59
10.81 -3.02 -1.38
22.13 -6.17 3.64
14.63 -4.08 -1.33
22.82 -6.37 4.6
10.43 -2.91 -0.57
22.61 -6.31 5.42
10.43 -2.91 -0.19
22.9 -6.39 6.37
6.08 -1.72 -1.69
6.96 -1.97 -1.67
7.69 -2.18 -1.55
8.99 -2.54 -1.48
10.55 -2.98 -1.35
22.09 -6.25 3.64
14.58 -4.12 -1.33
22.69 -6.42 4.58
10.36 -2.93 -0.56
22.62 -6.4 5.43
10.52 -2.97 -0.19
23.5 -6.64 6.54
6.08 -1.74 -1.69
6.95 -1.99 -1.67
7.69 -2.2 -1.56
9.02 -2.58 -1.49
10.34 -2.96 -1.32
22.14 -6.35 3.65
10.68 -3.06 -0.97
22.63 -6.49 4.58
10.43 -2.99 -0.57
22.57 -6.47 5.42
10.58 -3.03 -0.19
23.41 -6.71 6.53
6.04 -1.75 -1.68
24.88 -7.23 0.45
6.94 -2.02 -1.67
7.67 -2.23 -1.55
9.08 -2.64 -1.5
10.52 -3.06 -1.35
21.93 -6.37 3.62
10.44 -3.03 -0.95
22.51 -6.54 4.56
10.49 -3.05 -0.57
22.24 -6.46 5.35
10.56 -3.07 -0.19
23.56 -6.84 6.57
6.07 -1.79 -1.7
6.94 -2.04 -1.67
35.47 -10.44 1.94
7.68 -2.26 -1.56
8.48 -2.5 -1.4
10.48 -3.08 -1.34
21.81 -6.42 3.6
14.95 -4.4 -1.36
22.43 -6.6 4.54
11.24 -3.31 -0.61
22.98 -6.76 5.53
10.55 -3.1 -0.19
22.94 -6.75 6.41
6.08 -1.81 -1.7
6.91 -2.06 -1.67
7.69 -2.29 -1.56
8.42 -2.51 -1.39
10.43 -3.11 -1.34
21.79 -6.5 3.6
10.54 -3.14 -0.96
22.56 -6.72 4.58
10.59 -3.16 -0.58
22.85 -6.81 5.51
24.4 -7.27 -0.44
23.04 -6.87 6.44
6 -1.81 -1.68
10.57 -3.19 0.19
6.85 -2.07 -1.65
7.73 -2.33 -1.57
8.38 -2.53 -1.39
10.5 -3.17 -1.35
21.75 -6.57 3.6
10.57 -3.19 -0.97
22.54 -6.8 4.58
10.61 -3.2 -0.58
22.42 -6.77 5.41
10.67 -3.22 -0.19
23.04 -6.96 6.45
6.07 -1.85 -1.7
10.49 -3.2 0.19
6.86 -2.09 -1.66
7.82 -2.39 -1.59
36.69 -11.21 3.36
8.22 -2.51 -1.36
10.58 -3.23 -1.36
21.85 -6.68 3.62
10.58 -3.23 -0.97
22.25 -6.8 4.52
10.67 -3.26 -0.58
22.28 -6.81 5.38
10.76 -3.29 -0.2
23.17 -7.08 6.49
6.06 -1.87 -1.7
10.58 -3.27 0.19
6.85 -2.12 -1.65
36.66 -11.34 2.01
7.8 -2.41 -1.59
8.26 -2.55 -1.37
11.43 -3.54 -1.47
22.3 -6.9 3.7
10.48 -3.24 -0.96
21.99 -6.8 4.47
10.61 -3.28 -0.58
22.33 -6.91 5.4
10.7 -3.31 -0.2
22.33 -6.91 6.26
6.05 -1.9 -1.7
10.5 -3.29 0.19
6.84 -2.14 -1.65
7.78 -2.44 -1.58
8.23 -2.58 -1.37
10.54 -3.3 -1.36
21.69 -6.8 3.6
10.32 -3.23 -0.95
22.24 -6.97 4.53
10.49 -3.29 -0.58
22.06 -6.91 5.34
10.58 -3.32 -0.19
21.44 -6.72 6.02
6.03 -1.91 -1.7
10.55 -3.35 0.19
6.83 -2.17 -1.65
7.78 -2.47 -1.59
8.22 -2.61 -1.37
11.43 -3.63 -1.47
21.67 -6.87 3.6
14.1 -4.47 -1.29
21.83 -6.93 4.45
10.41 -3.3 -0.57
22.11 -7.01 5.36
10.59 -3.36 -0.19
21.53 -6.83 6.05
6.03 -1.93 -1.7
22.92 -7.36 0.42
6.82 -2.19 -1.65
11.96 -3.84 0.66
7.78 -2.5 -1.59
8.25 -2.65 -1.37
8.3 -2.67 -1.07
21.78 -6.99 3.62
14.54 -4.67 -1.34
21.74 -6.98 4.44
17.77 -5.71 -0.98
22.1 -7.1 5.36
22.88 -7.35 -0.42
22.71 -7.29 6.39
6.06 -1.97 -1.71
22.83 -7.42 0.42
6.84 -2.22 -1.66
22.86 -7.43 1.26
7.77 -2.52 -1.59
22.89 -7.44 2.11
8.25 -2.68 -1.37
22.88 -7.43 2.95
10.31 -3.35 -1.33
21.94 -7.13 3.65
10.4 -3.38 -0.96
21.73 -7.06 4.44
17.79 -5.78 -0.98
22.39 -7.28 5.44
10.4 -3.38 -0.19
22.92 -7.45 6.46
6.04 -1.99 -1.7
12.18 -4.01 0.22
6.85 -2.25 -1.66
22.78 -7.49 1.26
7.75 -2.55 -1.59
22.79 -7.5 2.1
8.26 -2.72 -1.38
22.76 -7.49 2.94
11.58 -3.81 -1.5
22.1 -7.27 3.68
13.65 -4.49 -1.26
21.7 -7.14 4.44
10.37 -3.41 -0.57
22.72 -7.47 5.52
12.13 -3.99 -0.22
22.68 -7.46 6.4
5.99 -1.99 -1.69
22.79 -7.58 0.42
6.85 -2.28 -1.67
22.75 -7.57 1.26
7.75 -2.58 -1.59
22.73 -7.57 2.1
8.24 -2.74 -1.38
22.71 -7.56 2.94
11.58 -3.85 -1.5
22.06 -7.34 3.68
11.42 -3.8 -1.05
21.64 -7.2 4.43
10.32 -3.43 -0.57
22.58 -7.51 5.49
10.46 -3.48 -0.19
20.88 -6.95 5.9
5.97 -2.01 -1.69
22.82 -7.68 0.42
6.81 -2.29 -1.66
22.77 -7.66 1.26
7.75 -2.61 -1.59
22.75 -7.66 2.1
8.22 -2.77 -1.37
22.7 -7.64 2.94
10.08 -3.39 -1.31
22.04 -7.42 3.68
15.16 -5.1 -1.4
21.63 -7.28 4.44
17.84 -6.01 -0.99
22.35 -7.52 5.44
11.85 -3.99 -0.22
20.88 -7.03 5.9
5.96 -2.03 -1.69
6.75 -2.3 -1.65
7.74 -2.63 -1.59
22.81 -7.76 2.11
8.2 -2.79 -1.37
22.74 -7.74 2.95
10.23 -3.48 -1.33
21.99 -7.49 3.68
10.17 -3.46 -0.94
21.35 -7.27 4.38
17.68 -6.02 -0.98
22.47 -7.65 5.48
11.66 -3.97 -0.21
20.83 -7.09 5.9
5.95 -2.05 -1.69
15.51 -5.34 0.29
6.75 -2.33 -1.65
7.71 -2.66 -1.59
29.62 -10.21 2.74
8.18 -2.82 -1.37
11.51 -3.97 -1.5
22.18 -7.64 3.72
14.36 -4.95 -1.33
21.4 -7.37 4.4
20.33 -7 -1.13
22.47 -7.74 5.49
11.58 -3.99 -0.21
20.94 -7.21 5.93
5.93 -2.07 -1.68
23.15 -8.06 0.43
6.73 -2.35 -1.65
7.69 -2.68 -1.58
29.59 -10.31 2.74
8.14 -2.84 -1.37
29.46 -10.26 3.83
21.94 -7.64 3.68
10.21 -3.56 -0.95
21.14 -7.36 4.35
12.11 -4.22 -0.67
20.74 -7.22 5.07
12.14 -4.23 -0.22
21 -7.31 5.96
5.92 -2.08 -1.68
23.11 -8.14 0.43
6.73 -2.37 -1.65
20.6 -7.25 1.14
7.67 -2.7 -1.58
29.42 -10.36 2.73
8.13 -2.86 -1.36
29.42 -10.36 3.83
10.2 -3.59 -1.33
21.84 -7.69 3.67
13.1 -4.61 -1.22
21.15 -7.45 4.36
14.62 -5.15 -0.81
20.68 -7.28 5.06
11.45 -4.03 -0.21
20.82 -7.33 5.91
5.94 -2.11 -1.69
12.08 -4.3 0.22
6.72 -2.39 -1.65
29.38 -10.46 1.63
7.67 -2.73 -1.58
29.58 -10.53 2.75
8.07 -2.87 -1.36
37.89 -13.49 4.94
10.25 -3.65 -1.34
21.87 -7.78 3.68
12.14 -4.32 -1.13
21.02 -7.48 4.34
15.04 -5.36 -0.84
22.17 -7.89 5.43
11.83 -4.21 -0.22
20.84 -7.42 5.93
5.94 -2.14 -1.69
20.61 -7.42 0.38
6.7 -2.41 -1.64
20.52 -7.39 1.14
7.66 -2.76 -1.58
8.06 -2.9 -1.36
10.22 -3.68 -1.33
21.92 -7.89 3.69
10.1 -3.64 -0.94
21.09 -7.59 4.36
14.65 -5.27 -0.82
22.24 -8.01 5.46
20.75 -7.47 5.91
5.93 -2.16 -1.69
11.93 -4.34 0.22
6.69 -2.43 -1.64
7.65 -2.78 -1.58
8.02 -2.92 -1.35
10.21 -3.72 -1.33
22.14 -8.06 3.73
10.16 -3.7 -0.95
21.09 -7.67 4.36
15.08 -5.49 -0.84
21.83 -7.94 5.36
11.87 -4.32 -0.22
20.39 -7.42 5.81
5.93 -2.18 -1.69
11.96 -4.4 0.22
6.73 -2.48 -1.66
7.58 -2.79 -1.57
7.95 -2.92 -1.34
22.09 -8.13 3.73
10.07 -3.7 -0.94
21.76 -8.01 4.51
14.42 -5.3 -0.81
21.81 -8.03 5.37
16.21 -5.96 -0.3
20.47 -7.53 5.85
5.93 -2.21 -1.7
23.14 -8.6 0.43
6.76 -2.51 -1.66
7.59 -2.82 -1.57
7.91 -2.94 -1.34
10.07 -3.74 -1.32
21.92 -8.15 3.7
12.15 -4.52 -1.13
21.51 -8 4.46
15.1 -5.61 -0.84
22.6 -8.4 5.57
11.93 -4.44 -0.22
20.33 -7.56 5.81
5.91 -2.22 -1.69
20.39 -7.67 0.38
6.76 -2.54 -1.67
7.57 -2.85 -1.57
7.89 -2.96 -1.33
10.19 -3.83 -1.34
32.68 -12.28 5.53
21.51 -8.09 4.47
11.9 -4.47 -0.67
22.52 -8.46 5.55
16.22 -6.1 -0.3
20.22 -7.6 5.79
5.88 -2.23 -1.68
19.94 -7.57 0.37
6.72 -2.55 -1.66
7.57 -2.87 -1.57
7.82 -2.97 -1.32
10.2 -3.87 -1.34
12.09 -4.59 -1.13
21.53 -8.18 4.48
22.45 -8.53 5.54
11.74 -4.46 -0.22
20.09 -7.63 5.76
5.87 -2.25 -1.68
22.35 -8.58 0.42
6.71 -2.57 -1.66
23.63 -9.07 1.33
7.56 -2.9 -1.57
7.8 -2.99 -1.32
9.92 -3.81 -1.3
32.59 -12.51 5.53
10.2 -3.92 -0.96
21.59 -8.29 4.5
14.89 -5.72 -0.84
22.67 -8.7 5.61
11.68 -4.48 -0.22
20.04 -7.69 5.75
5.84 -2.27 -1.68
12.03 -4.67 0.23
6.7 -2.6 -1.66
7.54 -2.92 -1.57
23.86 -9.25 2.24
7.73 -3 -1.31
10.12 -3.93 -1.33
9.94 -3.85 -0.93
14.9 -5.78 -0.84
22.55 -8.74 5.58
16.18 -6.27 -0.3
20.2 -7.83 5.8
5.87 -2.3 -1.69
22.35 -8.77 0.42
6.67 -2.62 -1.65
7.54 -2.96 -1.57
23.43 -9.19 2.2
7.67 -3.01 -1.3
32.22 -12.64 4.25
10.07 -3.95 -1.33
9.99 -3.92 -0.94
14.92 -5.85 -0.84
11.64 -4.57 -0.22
20.14 -7.9 5.8
5.88 -2.33 -1.69
11.56 -4.58 0.22
6.62 -2.62 -1.64
23.48 -9.3 1.32
7.57 -3 -1.58
23.45 -9.29 2.21
8.74 -3.46 -1.49
32.18 -12.75 4.25
10.1 -4 -1.33
10.67 -4.23 -1
10.1 -4 -0.57
11.89 -4.71 -0.22
31.58 -12.51 9.1
5.91 -2.36 -1.71
18.23 -7.29 0.34
6.59 -2.64 -1.64
20.8 -8.32 1.17
7.47 -2.99 -1.56
8.74 -3.49 -1.49
31.71 -12.68 4.19
7.02 -2.81 -0.93
11.73 -4.69 -1.11
14.93 -5.97 -0.84
31.7 -12.68 7.88
14.45 -5.78 -0.27
5.84 -2.36 -1.69
22.06 -8.91 0.42
6.52 -2.63 -1.62
7 -2.83 -1.47
8.74 -3.53 -1.49
31.78 -12.84 4.21
10.02 -4.05 -1.33
31.76 -12.83 5.42
31.65 -12.79 6.64
14.69 -5.94 -0.83
31.58 -12.76 7.86
18.83 -7.61 -0.35
31.51 -12.73 9.11
5.8 -2.37 -1.68
18.16 -7.41 0.34
6.47 -2.64 -1.61
19.45 -7.94 1.1
6.92 -2.82 -1.45
31.81 -12.98 3.01
8.68 -3.54 -1.49
31.68 -12.93 4.2
10.04 -4.1 -1.33
31.64 -12.91 5.41
10.11 -4.12 -0.95
31.64 -12.91 6.64
11.59 -4.73 -0.66
31.12 -12.7 7.76
14.61 -5.96 -0.28
5.77 -2.38 -1.67
19.62 -8.09 0.37
6.44 -2.65 -1.61
19.88 -8.19 1.13
6.92 -2.85 -1.45
31.77 -13.09 3.01
8.65 -3.56 -1.48
10.06 -4.15 -1.34
11.59 -4.78 -1.1
14.51 -5.98 -0.82
14.43 -5.95 -0.27
5.76 -2.4 -1.67
20.14 -8.38 0.38
6.42 -2.67 -1.61
20.09 -8.36 1.14
6.82 -2.84 -1.44
19.97 -8.31 1.89
6.99 -2.91 -1.2
10.02 -4.17 -1.33
10.29 -4.28 -0.97
14.57 -6.06 -0.83
14.76 -6.15 -0.28
5.78 -2.43 -1.68
6.4 -2.69 -1.6
6.8 -2.86 -1.43
8.57 -3.6 -1.47
10.11 -4.25 -1.35
10.3 -4.33 -0.98
14.7 -6.18 -0.84
30.71 -12.9 7.69
15.82 -6.65 -0.3
5.77 -2.45 -1.68
14.64 -6.22 0.28
6.37 -2.7 -1.6
6.77 -2.87 -1.43
20.3 -8.62 1.93
8.51 -3.61 -1.46
10.07 -4.27 -1.34
9.97 -4.23 -0.95
14.42 -6.12 -0.82
14.42 -6.12 -0.27
5.74 -2.46 -1.67
6.36 -2.73 -1.6
6.72 -2.88 -1.42
10.03 -4.3 -1.34
11.11 -4.76 -1.06
14.57 -6.24 -0.83
14.72 -6.31 -0.28
5.67 -2.45 -1.65
6.35 -2.75 -1.6
6.56 -2.84 -1.39
19.62 -8.49 1.87
6.66 -2.88 -1.15
9.98 -4.32 -1.34
10.93 -4.73 -1.04
10.11 -4.37 -0.58
30.33 -13.13 7.63
14.65 -6.34 -0.28
5.65 -2.47 -1.65
16.35 -7.14 0.31
6.24 -2.73 -1.57
6.72 -2.93 -1.42
8.34 -3.64 -1.44
9.94 -4.34 -1.33
9.84 -4.3 -0.94
13.83 -6.04 -0.79
9.87 -4.31 -0.19
5.61 -2.47 -1.64
19.88 -8.77 0.38
6.32 -2.79 -1.59
20.68 -9.12 1.18
6.71 -2.96 -1.43
6.71 -2.96 -1.16
9.96 -4.39 -1.34
10.2 -4.5 -0.98
11.63 -5.13 -0.67
16.42 -7.24 -0.31
23.93 -10.55 7.01
5.59 -2.49 -1.64
6.32 -2.82 -1.6
6.75 -3 -1.44
8.25 -3.67 -1.43
9.94 -4.43 -1.34
10.2 -4.54 -0.98
11.58 -5.16 -0.66
21.29 -9.48 -0.41
5.57 -2.5 -1.64
25 -11.23 0.48
6.32 -2.84 -1.6
5.74 -2.58 -1.22
8.24 -3.7 -1.43
9.91 -4.45 -1.33
10.2 -4.59 -0.98
14.01 -6.3 -0.81
24.58 -11.04 6.22
9.61 -4.32 -0.18
5.53 -2.51 -1.63
16.14 -7.32 0.31
6.32 -2.87 -1.6
19.73 -8.95 1.14
6.61 -3 -1.41
8.26 -3.75 -1.44
9.77 -4.43 -1.32
10.28 -4.66 -0.99
9.73 -4.41 -0.56
14.27 -6.47 -0.27
5.52 -2.53 -1.63
9.57 -4.38 0.18
6.32 -2.9 -1.61
29.62 -13.56 1.71
6.59 -3.02 -1.41
8.25 -3.78 -1.44
9.9 -4.53 -1.34
10.05 -4.6 -0.97
14.26 -6.53 -0.82
9.43 -4.32 -0.18
5.5 -2.54 -1.62
6.22 -2.87 -1.58
6.58 -3.04 -1.41
8.25 -3.81 -1.44
9.9 -4.57 -1.34
10.12 -4.67 -0.97
10.51 -4.86 -0.61
24.53 -11.34 6.24
9.37 -4.33 -0.18
5.5 -2.56 -1.63
6.29 -2.93 -1.6
6.53 -3.04 -1.4
6.31 -2.94 -1.1
9.82 -4.58 -1.33
38.97 -18.17 6.81
10.21 -4.76 -0.99
10.6 -4.94 -0.61
15.05 -7.02 -0.29
5.47 -2.58 -1.62
14.66 -6.9 0.28
6.24 -2.94 -1.59
21.04 -9.9 1.22
6.49 -3.06 -1.4
8.25 -3.88 -1.44
9.77 -4.6 -1.33
10.34 -4.87 -1
24.95 -11.74 5.36
12.44 -5.85 -0.72
9.4 -4.42 -0.18
5.46 -2.59 -1.62
9.88 -4.69 0.19
6.49 -3.08 -1.4
8.24 -3.91 -1.44
9.63 -4.57 -1.31
10.19 -4.84 -0.99
9.76 -4.63 -0.57
22.88 -10.86 5.85
9.55 -4.54 -0.18
23.93 -11.36 7.1
5.44 -2.61 -1.62
23.05 -11.05 0.45
5.41 -2.59 -1.38
6.42 -3.08 -1.38
6.22 -2.98 -1.09
9.62 -4.61 -1.31
10.11 -4.84 -0.98
23.14 -11.09 4.99
9.44 -4.52 -0.55
9.79 -4.69 -0.19
5.44 -2.63 -1.62
9.66 -4.67 0.19
5.37 -2.59 -1.38
22.93 -11.08 1.33
6.37 -3.08 -1.38
22.91 -11.08 2.23
6.21 -3 -1.09
22.85 -11.05 3.12
9.76 -4.72 -1.33
22.86 -11.05 4.02
12.14 -5.87 -0.71
9.58 -4.63 -0.19
20.2 -9.77 6.01
5.45 -2.66 -1.62
22.87 -11.16 0.44
5.36 -2.61 -1.38
22.86 -11.15 1.33
6.32 -3.08 -1.37
22.84 -11.14 2.22
6.3 -3.07 -1.11
22.78 -11.11 3.11
9.71 -4.74 -1.33
22.77 -11.1 4.01
9.56 -4.66 -0.93
22.73 -11.09 4.92
12.17 -5.94 -0.71
22.75 -11.1 5.84
22.92 -11.18 -0.45
22.73 -11.08 6.77
5.43 -2.67 -1.62
13.72 -6.75 0.27
5.32 -2.62 -1.37
22.84 -11.24 1.33
6.28 -3.09 -1.36
22.84 -11.24 2.23
6.31 -3.1 -1.11
22.78 -11.21 3.12
9.74 -4.79 -1.33
22.72 -11.18 4.01
10.4 -5.12 -1.01
22.69 -11.17 4.92
9.59 -4.72 -0.56
22.69 -11.17 5.84
14.98 -7.37 -0.29
22.69 -11.16 6.77
5.41 -2.68 -1.62
9.67 -4.8 0.19
9.38 -4.66 0.55
6.32 -3.14 -1.37
13.66 -6.78 1.33
6.28 -3.12 -1.11
9.57 -4.75 -1.31
22.79 -11.31 4.03
10.35 -5.14 -1.01
11.35 -5.63 -0.66
22.73 -11.28 5.86
9.64 -4.78 -0.19
18.94 -9.4 5.67
5.38 -2.69 -1.61
20.59 -10.31 0.4
5.35 -2.68 -1.38
13.64 -6.83 0.8
6.27 -3.14 -1.36
6.28 -3.14 -1.11
26.06 -13.05 3.58
9.51 -4.76 -1.31
