# .PCD v0.7 - Point Cloud Data file format
VERSION 0.7
FIELDS x y z
SIZE 4 4 4
TYPE F F F
COUNT 1 1 1
WIDTH 2849
HEIGHT 1
VIEWPOINT 0 0 0 1 0 0 0
POINTS 2849
DATA ascii
4.69 -5.95 -1.75
12.71 -16.13 1.08
5.59 -7.09 -1.75
7.1 -9.01 1
6.3 -7.99 -1.61
7.88 -10 1.56
7.78 -9.87 -1.54
9.61 -12.2 2.46
10.15 -12.88 -1.44
10.38 -13.18 3.26
15.89 -20.16 -1.35
13.68 -17.36 -0.39
8.03 -10.19 3.48
4.05 -5.17 -1.76
14.48 -18.5 0.41
4.67 -5.97 -1.75
12.62 -16.12 1.07
5.55 -7.09 -1.75
7.26 -9.28 1.03
6.3 -8.05 -1.62
7.72 -9.87 -1.54
9.56 -12.21 2.46
10.1 -12.91 -1.43
15.69 -20.05 -1.33
14.94 -19.09 5.6
14.07 -17.97 -0.4
10.11 -12.91 4.39
4.03 -5.18 -1.76
8.07 -10.38 0.23
4.66 -6 -1.75
7.68 -9.88 0.66
5.53 -7.11 -1.75
7.69 -9.89 1.1
6.29 -8.09 -1.62
17.72 -22.79 3.54
7.7 -9.91 -1.54
10.57 -13.6 2.73
10 -12.86 -1.43
15.59 -20.06 4.94
15.63 -20.11 -1.33
15.54 -20 5.85
17.31 -22.28 -0.49
10.98 -14.13 4.8
4.01 -5.19 -1.76
4.64 -6.01 -1.75
17.58 -22.78 1.51
5.51 -7.14 -1.75
14.03 -18.18 2.01
6.27 -8.12 -1.62
13.68 -17.72 2.75
7.55 -9.78 -1.52
15.55 -20.15 4.03
10.01 -12.97 -1.43
15.02 -19.47 4.78
15.53 -20.13 -1.33
15.54 -20.14 5.87
7.45 -9.65 -0.21
10.91 -14.13 4.78
3.98 -5.2 -1.76
8.07 -10.52 0.23
4.62 -6.03 -1.75
13.68 -17.85 1.18
5.49 -7.17 -1.76
16.97 -22.14 2.44
6.27 -8.18 -1.63
16.93 -22.09 3.42
7.52 -9.81 -1.52
15.36 -20.04 4
9.96 -12.99 -1.43
15.46 -20.18 4.94
15.39 -20.08 -1.33
6.55 -8.54 2.48
9.04 -11.79 -0.26
14.67 -19.14 6.46
3.97 -5.22 -1.76
8 -10.52 0.23
4.6 -6.05 -1.76
17.41 -22.89 1.51
5.45 -7.17 -1.75
3.21 -4.22 0.46
6.24 -8.21 -1.63
3.22 -4.23 0.65
7.34 -9.64 -1.49
9.09 -11.94 2.38
3.16 -4.15 1.01
13.2 -17.36 -1.14
3.17 -4.16 1.21
3.2 -4.2 -0.09
3.16 -4.15 1.4
3.19 -4.22 -1.42
3.15 -4.17 0.09
3.18 -4.21 -1.22
3.15 -4.17 0.27
3.19 -4.22 -1.03
3.16 -4.18 0.46
3.18 -4.21 -0.84
3.15 -4.17 0.64
3.18 -4.21 -0.65
3.16 -4.18 0.83
3.17 -4.2 -0.46
3.13 -4.15 1.01
3.17 -4.19 -0.28
3.13 -4.15 1.2
3.16 -4.19 -0.09
3.12 -4.13 1.39
3.16 -4.22 -1.41
3.14 -4.19 0.09
3.16 -4.22 -1.22
3.13 -4.18 0.27
3.15 -4.21 -1.02
3.13 -4.18 0.46
3.16 -4.22 -0.83
3.13 -4.17 0.64
3.15 -4.21 -0.65
3.13 -4.18 0.83
3.15 -4.2 -0.46
3.12 -4.16 1.01
3.15 -4.2 -0.28
3.12 -4.16 1.2
3.13 -4.18 -0.09
3.1 -4.13 1.38
3.14 -4.22 -1.41
3.11 -4.18 0.09
3.14 -4.22 -1.21
3.11 -4.18 0.27
3.14 -4.21 -1.02
3.11 -4.17 0.46
3.14 -4.22 -0.83
3.11 -4.17 0.64
3.13 -4.21 -0.64
3.1 -4.17 0.82
3.12 -4.2 -0.46
3.1 -4.17 1.01
3.13 -4.21 -0.27
3.09 -4.16 1.2
3.12 -4.19 -0.09
3.08 -4.14 1.38
3.12 -4.22 -1.4
3.09 -4.18 0.09
3.11 -4.21 -1.21
3.1 -4.19 0.27
3.12 -4.22 -1.02
3.09 -4.18 0.45
3.12 -4.22 -0.83
3.08 -4.17 0.64
3.11 -4.21 -0.64
3.08 -4.17 0.82
3.11 -4.21 -0.46
3.07 -4.16 1
3.1 -4.2 -0.27
3.07 -4.16 1.19
3.1 -4.19 -0.09
3.06 -4.15 1.38
3.1 -4.22 -1.4
3.07 -4.18 0.09
3.08 -4.2 -1.2
3.07 -4.18 0.27
3.1 -4.22 -1.02
3.07 -4.19 0.45
3.09 -4.22 -0.83
3.06 -4.17 0.63
3.09 -4.21 -0.64
3.06 -4.17 0.82
3.09 -4.21 -0.46
3.05 -4.16 1
3.08 -4.2 -0.27
3.05 -4.16 1.19
3.08 -4.2 -0.09
3.04 -4.15 1.38
3.08 -4.23 -1.4
3.05 -4.19 0.09
3.06 -4.21 -1.2
3.04 -4.18 0.27
3.08 -4.23 -1.02
3.05 -4.19 0.45
3.07 -4.22 -0.83
3.04 -4.17 0.63
3.06 -4.2 -0.64
3.04 -4.18 0.82
3.07 -4.22 -0.46
3.03 -4.16 1
3.06 -4.2 -0.27
3.03 -4.16 1.19
3.06 -4.2 -0.09
3.03 -4.16 1.38
3.06 -4.23 -1.4
3.03 -4.2 0.09
3.04 -4.21 -1.2
3.02 -4.18 0.27
3.05 -4.22 -1.01
3.03 -4.19 0.45
3.05 -4.22 -0.82
3.02 -4.18 0.63
3.04 -4.21 -0.64
3.01 -4.17 0.81
3.05 -4.22 -0.46
3.01 -4.16 1
3.04 -4.21 -0.27
3.01 -4.16 1.19
3.03 -4.19 -0.09
3 -4.15 1.37
3.03 -4.22 -1.39
3.01 -4.19 0.09
3.02 -4.21 -1.2
3 -4.19 0.27
3.03 -4.22 -1.01
3 -4.19 0.45
3.03 -4.22 -0.82
3 -4.18 0.63
3.03 -4.22 -0.64
3 -4.18 0.81
3.02 -4.21 -0.45
2.99 -4.16 1
3.02 -4.21 -0.27
2.99 -4.16 1.18
3.01 -4.19 -0.09
2.98 -4.15 1.37
3.01 -4.22 -1.39
2.98 -4.19 0.09
3.01 -4.22 -1.2
2.99 -4.19 0.27
3.02 -4.23 -1.01
2.98 -4.18 0.45
3 -4.21 -0.82
2.98 -4.18 0.63
3.01 -4.22 -0.64
2.97 -4.17 0.81
3 -4.21 -0.45
2.96 -4.16 0.99
3 -4.21 -0.27
2.98 -4.18 1.18
2.99 -4.2 -0.09
2.96 -4.15 1.37
3 -4.24 -1.39
2.97 -4.2 0.09
2.99 -4.23 -1.19
2.97 -4.2 0.27
3 -4.24 -1.01
2.97 -4.2 0.45
2.99 -4.23 -0.82
2.96 -4.18 0.63
2.99 -4.23 -0.64
2.96 -4.19 0.81
2.99 -4.22 -0.45
2.95 -4.18 0.99
2.99 -4.22 -0.27
2.97 -4.2 1.19
2.98 -4.21 -0.09
2.96 -4.18 1.37
3 -4.27 -1.4
2.97 -4.22 0.09
2.99 -4.26 -1.2
2.96 -4.21 0.27
3 -4.27 -1.01
2.97 -4.23 0.45
2.98 -4.25 -0.82
2.95 -4.21 0.63
2.99 -4.26 -0.64
2.97 -4.22 0.82
2.99 -4.26 -0.46
2.96 -4.22 1
2.98 -4.25 -0.27
2.96 -4.22 1.19
2.98 -4.25 -0.09
2.96 -4.21 1.38
3 -4.3 -1.4
2.97 -4.27 0.09
2.99 -4.3 -1.21
2.96 -4.25 0.27
2.99 -4.29 -1.02
2.97 -4.27 0.46
2.99 -4.29 -0.83
2.96 -4.25 0.64
2.99 -4.29 -0.64
2.96 -4.25 0.82
2.99 -4.29 -0.46
2.96 -4.24 1.01
2.98 -4.28 -0.27
2.97 -4.26 1.2
2.98 -4.27 -0.09
2.96 -4.25 1.39
2.99 -4.32 -1.41
2.97 -4.3 0.09
4.34 -6.28 -1.76
2.97 -4.29 0.27
5.11 -7.39 -1.75
2.97 -4.29 0.46
2.98 -4.31 -0.83
2.96 -4.27 0.64
2.96 -4.28 0.83
2.98 -4.31 -0.46
2.99 -4.31 -0.27
5.67 -8.19 2.3
2.98 -4.3 -0.09
3.72 -5.43 -1.76
10.33 -15.05 0.32
4.32 -6.3 -1.76
10.26 -14.96 0.95
5.08 -7.4 -1.74
10.21 -14.88 1.58
5.8 -8.45 -1.62
8.41 -12.25 1.82
7.06 -10.29 -1.53
19.33 -28.17 5.41
7.42 -10.81 -1.15
6.01 -8.75 2.06
14.02 -20.43 -1.3
5.87 -8.56 2.4
11.58 -16.87 -0.36
14.33 -20.88 6.79
3.71 -5.44 -1.76
10.27 -15.07 0.32
4.29 -6.3 -1.76
10.24 -15.03 0.95
5.06 -7.42 -1.75
12.55 -18.43 1.95
5.76 -8.46 -1.62
11.25 -16.52 2.45
7.07 -10.38 -1.54
8 -11.74 2.25
9.89 -14.52 -1.54
8.66 -12.71 2.99
13.88 -20.38 -1.29
17.55 -25.76 -0.54
13.79 -20.23 6.56
3.69 -5.46 -1.77
10.23 -15.12 0.32
4.28 -6.32 -1.76
8.45 -12.49 0.79
5 -7.4 -1.74
21.55 -31.87 3.37
5.72 -8.46 -1.62
17.58 -26 3.85
7.17 -10.61 -1.57
22.38 -33.09 6.33
9.7 -14.35 -1.52
8.61 -12.73 2.99
13.84 -20.47 -1.3
8.19 -12.12 3.38
10.33 -15.27 -0.32
10.08 -14.9 4.82
3.68 -5.47 -1.77
4.25 -6.34 -1.76
17.71 -26.39 1.67
4.98 -7.41 -1.74
12.46 -18.57 1.96
5.7 -8.5 -1.62
11.22 -16.71 2.47
6.96 -10.37 -1.53
7.03 -10.47 2
6.72 -10.02 -1.06
5.95 -8.87 2.08
11.36 -16.91 -1.07
10.15 -15.12 4.2
10.24 -15.26 -0.32
3.65 -5.47 -1.76
6.82 -10.24 0.21
4.24 -6.36 -1.77
17.85 -26.79 1.69
4.96 -7.45 -1.74
12.27 -18.42 1.94
5.72 -8.59 -1.63
11.11 -16.68 2.46
6.92 -10.39 -1.53
13.01 -19.53 3.72
6.75 -10.13 -1.06
8.12 -12.2 2.85
11.56 -17.35 -1.09
5.69 -8.55 2.37
10.19 -15.3 -0.32
13.7 -20.56 6.62
3.63 -5.49 -1.76
6.78 -10.25 0.21
4.22 -6.38 -1.77
16.63 -25.15 1.58
4.92 -7.45 -1.74
12.16 -18.39 1.93
5.66 -8.57 -1.63
11.01 -16.64 2.45
6.8 -10.28 -1.51
8.1 -12.25 2.33
9.67 -14.63 -1.53
11.52 -17.42 -1.09
5.68 -8.58 2.38
10.16 -15.36 -0.32
13.59 -20.55 6.6
3.61 -5.51 -1.77
6.75 -10.28 0.21
4.19 -6.39 -1.77
4.89 -7.45 -1.73
8.06 -12.28 1.29
5.62 -8.57 -1.62
10.89 -16.6 2.44
6.64 -10.13 -1.49
7.36 -11.22 2.12
9.57 -14.59 -1.53
13.66 -20.81 -1.3
6.81 -10.38 2.87
10.14 -15.46 -0.32
14.29 -21.77 6.98
3.6 -5.52 -1.77
6.73 -10.33 0.22
4.17 -6.41 -1.77
4.86 -7.46 -1.73
17.56 -26.96 2.82
5.55 -8.52 -1.61
8.04 -12.34 1.81
6.82 -10.47 -1.53
7.2 -11.06 2.09
9.32 -14.31 -1.49
5.99 -9.19 2.13
13.6 -20.88 -1.31
5.85 -8.99 2.48
8.13 -12.48 -0.26
3.58 -5.54 -1.77
6.74 -10.43 0.22
4.16 -6.43 -1.77
4.82 -7.46 -1.73
5.5 -8.51 -1.61
8 -12.37 1.81
6.76 -10.46 -1.53
7.17 -11.1 2.09
9.37 -14.5 -1.51
6.52 -10.09 2.34
10.08 -15.59 -0.97
5.48 -8.48 2.33
8.09 -12.51 -0.26
11.73 -18.15 5.79
3.56 -5.54 -1.77
6.69 -10.42 0.22
4.14 -6.45 -1.77
4.78 -7.46 -1.72
7.99 -12.45 1.29
5.51 -8.59 -1.62
12.12 -18.89 2.76
6.69 -10.43 -1.52
7.15 -11.14 2.1
9.33 -14.53 -1.51
5.91 -9.21 2.13
10 -15.59 -0.97
5.43 -8.46 2.32
16.52 -25.74 -0.53
14.23 -22.17 7.06
3.54 -5.56 -1.77
6.66 -10.47 0.22
4.12 -6.47 -1.77
7.99 -12.55 0.78
4.75 -7.47 -1.72
8.59 -13.5 1.4
5.48 -8.62 -1.62
15.41 -24.22 3.52
6.72 -10.57 -1.54
7.09 -11.14 2.09
9.23 -14.51 -1.5
5.95 -9.34 2.15
9.93 -15.61 -0.97
5.36 -8.42 2.31
16.35 -25.7 -0.53
19.77 -31.06 9.87
3.52 -5.58 -1.77
6.64 -10.51 0.22
4.09 -6.48 -1.77
7.94 -12.57 0.78
4.72 -7.47 -1.72
8.56 -13.56 1.4
5.47 -8.67 -1.62
10.95 -17.33 2.52
6.68 -10.57 -1.54
9.12 -14.44 -1.49
5.93 -9.39 2.16
9.88 -15.65 -0.97
5.3 -8.39 2.29
16.28 -25.77 -0.53
3.51 -5.59 -1.77
6.62 -10.56 0.22
4.07 -6.49 -1.77
8.38 -13.37 0.83
4.69 -7.48 -1.72
11.88 -18.96 1.96
5.51 -8.79 -1.64
7.59 -12.1 1.75
6.65 -10.6 -1.54
10.88 -17.37 3.25
8.93 -14.25 -1.47
9.83 -15.68 -0.97
6.13 -9.77 2.66
16.27 -25.95 -0.53
10.83 -17.28 5.47
3.48 -5.6 -1.77
4.05 -6.51 -1.77
15.55 -24.99 1.54
4.66 -7.49 -1.71
8.52 -13.7 1.41
5.45 -8.76 -1.63
7.55 -12.14 1.76
6.65 -10.69 -1.55
10.72 -17.24 3.22
8.65 -13.9 -1.43
5.78 -9.3 2.13
9.81 -15.77 -0.97
5.51 -8.86 2.41
7.87 -12.64 -0.26
7.05 -11.33 3.58
3.46 -5.61 -1.77
7.51 -12.18 0.25
4.03 -6.52 -1.77
16.29 -26.4 1.63
4.63 -7.5 -1.71
8.27 -13.4 1.38
5.48 -8.88 -1.65
17.14 -27.77 4.01
6.61 -10.72 -1.55
16.02 -25.97 4.83
9.16 -14.85 -1.53
5.71 -9.25 2.11
7.85 -12.72 -0.78
5.45 -8.84 2.4
3.44 -5.62 -1.77
16.04 -26.2 0.54
4.01 -6.54 -1.77
4.59 -7.49 -1.71
8.45 -13.79 1.42
5.46 -8.91 -1.66
6.55 -10.7 -1.54
7.84 -12.8 -1.31
15.75 -25.72 5.86
9.76 -15.93 -0.98
5.52 -9.02 2.44
8.05 -13.14 -0.27
10.66 -17.41 5.47
3.42 -5.63 -1.77
3.98 -6.55 -1.77
13.91 -22.9 1.4
4.56 -7.5 -1.71
11.14 -18.34 1.88
5.41 -8.9 -1.65
19.37 -31.89 4.58
6.49 -10.68 -1.53
8.86 -14.59 -1.49
7.26 -11.95 2.72
12.73 -20.95 -1.28
5.5 -9.05 2.44
11.78 -19.39 -0.4
6.86 -11.29 3.54
3.41 -5.65 -1.77
11.71 -19.42 0.4
3.96 -6.58 -1.77
8.28 -13.74 0.84
4.53 -7.52 -1.71
8.2 -13.6 1.39
5.35 -8.88 -1.64
10.84 -17.98 2.58
6.46 -10.72 -1.54
6.96 -11.54 2.13
7.45 -12.35 -1.26
5.89 -9.78 2.22
9.59 -15.91 -0.97
6.94 -11.5 -0.23
15.82 -26.24 8.21
3.39 -5.67 -1.77
7 -11.7 0.24
3.94 -6.6 -1.77
6.94 -11.61 0.71
4.49 -7.51 -1.7
19.25 -32.19 3.28
5.32 -8.89 -1.64
10.74 -17.95 2.57
6.91 -11.55 2.13
7.45 -12.46 -1.27
6.31 -10.56 2.39
9.63 -16.1 -0.98
5.81 -9.71 2.61
6.89 -11.53 -0.23
10.48 -17.52 5.47
3.36 -5.67 -1.77
6.97 -11.75 0.24
3.92 -6.61 -1.78
11.56 -19.48 1.19
4.48 -7.56 -1.71
11.51 -19.4 1.97
5.28 -8.91 -1.64
11.46 -19.32 2.76
5.81 -9.8 -1.4
7.41 -12.49 -1.27
11.36 -19.15 4.33
9.61 -16.2 -0.99
11.21 -18.89 5.07
6.87 -11.57 -0.23
3.35 -5.68 -1.77
6.47 -10.98 0.22
3.9 -6.62 -1.77
15.8 -26.82 1.63
4.47 -7.59 -1.71
10.39 -17.64 1.79
5.23 -8.88 -1.63
11.42 -19.38 2.76
5.96 -10.13 -1.44
11.37 -19.3 3.55
7.02 -11.92 -1.21
9.58 -16.26 3.67
5.51 -9.35 -0.57
5.68 -9.65 2.59
6.88 -11.68 -0.24
2.77 -4.7 1.46
3.33 -5.7 -1.77
6.41 -10.97 0.22
3.87 -6.63 -1.77
8.13 -13.92 0.84
4.44 -7.59 -1.71
10.71 -18.33 1.86
5.2 -8.9 -1.63
6.34 -10.85 -1.54
15.5 -26.52 4.87
5.59 -9.57 -0.97
5.49 -9.4 -0.57
5.26 -8.99 2.41
6.77 -11.59 -0.23
2.76 -4.73 1.47
3.31 -5.71 -1.77
6.38 -11.02 0.22
3.85 -6.65 -1.77
18.78 -32.42 1.96
4.4 -7.6 -1.71
14.91 -25.74 2.6
5.1 -8.81 -1.61
15.77 -27.22 3.86
9.52 -16.43 3.01
5.55 -9.58 -0.97
10.25 -17.7 3.98
6.9 -11.91 -0.72
6.63 -11.45 -0.23
2.75 -4.75 1.47
3.29 -5.73 -1.77
14.81 -25.78 0.52
3.83 -6.67 -1.78
6.19 -10.78 0.65
4.36 -7.59 -1.7
10.59 -18.42 1.86
5.05 -8.79 -1.61
6.18 -10.76 -1.52
15.75 -27.4 5.01
7.38 -12.83 -1.3
6.2 -10.79 2.42
6.86 -11.95 -0.72
5.16 -8.98 2.39
6.57 -11.42 -0.23
2.74 -4.77 1.47
3.27 -5.73 -1.77
7.1 -12.47 0.25
3.81 -6.68 -1.78
10.05 -17.64 1.06
4.3 -7.55 -1.69
7.91 -13.87 1.4
5.01 -8.79 -1.6
6.03 -10.58 1.5
5.97 -10.47 -1.48
18.95 -33.25 6.06
5.41 -9.5 -0.96
5.77 -10.12 2.27
6.84 -11.99 -0.72
6.1 -10.71 2.85
6.6 -11.57 -0.23
2.75 -4.82 1.49
3.25 -5.74 -1.77
6.25 -11.04 0.22
3.79 -6.7 -1.78
10.06 -17.8 1.07
4.26 -7.53 -1.68
14.69 -25.98 2.61
5.01 -8.86 -1.61
5.99 -10.59 1.49
5.9 -10.44 -1.47
14.54 -25.71 4.68
6.69 -11.83 -1.19
6.1 -10.79 2.41
6.74 -11.92 -0.72
6.45 -11.41 -0.23
3.23 -5.76 -1.77
6.95 -12.4 0.25
3.76 -6.71 -1.77
6.39 -11.4 0.68
4.21 -7.52 -1.67
9.95 -17.74 1.78
4.96 -8.85 -1.61
5.94 -10.59 1.49
10.05 -17.92 3.25
5.43 -9.69 -0.97
6.71 -11.98 -0.72
9.47 -16.9 4.47
6.43 -11.46 -0.23
3.21 -5.77 -1.77
6.85 -12.32 0.25
3.74 -6.72 -1.78
5.86 -10.54 0.63
4.18 -7.52 -1.67
15.26 -27.43 2.75
4.96 -8.91 -1.62
5.9 -10.61 1.49
5.27 -9.47 -1.33
6.63 -11.92 2.16
5.31 -9.54 -0.95
9.31 -16.74 3.72
6.66 -11.98 -0.72
5.89 -10.58 2.8
5.28 -9.49 -0.19
2.74 -4.92 1.51
3.19 -5.79 -1.77
6.81 -12.34 0.25
3.72 -6.74 -1.78
6.28 -11.38 0.68
4.14 -7.51 -1.67
7.29 -13.22 1.32
4.94 -8.96 -1.62
5.22 -9.46 -1.33
6.59 -11.94 2.16
5.31 -9.62 -0.96
5.15 -9.33 -0.56
4.72 -8.55 2.25
6.41 -11.63 -0.23
2.75 -4.98 1.52
3.17 -5.79 -1.77
6.77 -12.37 0.25
3.7 -6.76 -1.78
6.19 -11.32 0.68
4.12 -7.54 -1.67
16.54 -30.23 3.01
4.92 -8.99 -1.62
5.2 -9.51 -1.33
6.54 -11.96 2.16
5.23 -9.57 -0.95
9.91 -18.11 4.01
5 -9.15 -0.55
4.69 -8.58 2.26
6.41 -11.72 -0.23
2.75 -5.03 1.54
3.15 -5.81 -1.77
6.73 -12.39 0.25
3.68 -6.77 -1.78
6.17 -11.37 0.68
4.11 -7.56 -1.67
14.76 -27.19 2.71
4.86 -8.96 -1.62
8.99 -16.57 2.31
5.13 -9.45 -1.32
6.52 -12.02 2.17
5.14 -9.47 -0.94
5.68 -10.47 2.32
5.02 -9.24 -0.55
9.19 -16.94 4.45
6.34 -11.69 -0.23
2.75 -5.07 1.55
3.13 -5.82 -1.77
6.68 -12.42 0.25
3.65 -6.78 -1.78
11.34 -21.07 1.25
4.13 -7.68 -1.69
9.42 -17.5 1.74
4.85 -9.02 -1.62
9.71 -18.04 2.52
5.05 -9.39 -1.31
6.5 -12.07 2.17
6.51 -12.09 -1.2
7.07 -13.13 2.9
4.97 -9.23 -0.55
11.16 -20.74 5.44
6.26 -11.64 -0.23
2.74 -5.1 1.55
3.11 -5.83 -1.77
6.63 -12.43 0.25
3.63 -6.8 -1.78
7.3 -13.67 0.81
4.12 -7.73 -1.7
9.65 -18.07 1.79
4.83 -9.05 -1.62
9.64 -18.06 2.51
5.73 -10.73 -1.49
6.89 -12.91 2.32
5.32 -9.96 -0.99
7.03 -13.16 2.9
5.05 -9.46 -0.56
9.7 -18.17 4.76
6.28 -11.78 -0.23
2.76 -5.17 1.57
3.09 -5.84 -1.77
6.58 -12.43 0.25
3.61 -6.82 -1.78
7.28 -13.75 0.82
4.07 -7.69 -1.69
9.62 -18.18 1.8
4.78 -9.04 -1.62
5.66 -10.69 1.49
5.05 -9.54 -1.33
6.86 -12.96 2.32
5.06 -9.57 -0.95
6.95 -13.13 2.89
5.17 -9.77 -0.58
8.92 -16.86 4.4
6.19 -11.69 -0.23
2.76 -5.22 1.58
3.07 -5.85 -1.77
6.49 -12.37 0.24
3.58 -6.83 -1.78
9.46 -18.03 1.07
4.04 -7.69 -1.69
7 -13.35 1.32
4.74 -9.04 -1.62
5.01 -9.54 -0.94
6.89 -13.14 2.88
4.94 -9.41 -0.56
8.9 -16.96 4.42
6.13 -11.69 -0.23
2.76 -5.27 1.59
3.05 -5.86 -1.77
6.34 -12.19 0.24
3.56 -6.85 -1.78
6.66 -12.79 0.76
4.02 -7.72 -1.69
6.23 -11.98 1.18
4.72 -9.08 -1.62
16.37 -31.45 4.35
5.18 -9.95 -1.38
6.21 -11.93 2.13
4.87 -9.37 -0.92
6.77 -13.01 2.85
4.96 -9.54 -0.56
9.35 -17.96 4.68
6.13 -11.78 -0.23
2.76 -5.31 1.6
3.03 -5.88 -1.77
6.22 -12.06 0.24
3.53 -6.85 -1.78
6.56 -12.72 0.75
3.99 -7.73 -1.69
6.19 -12 1.18
4.62 -8.95 -1.6
14.26 -27.63 3.82
5.06 -9.81 -1.36
6.19 -11.99 2.14
4.62 -8.95 -0.88
6.75 -13.08 2.86
4.94 -9.58 -0.57
6.21 -12.03 3.13
6.09 -11.79 -0.23
2.77 -5.37 1.62
3.01 -5.89 -1.77
6.2 -12.11 0.24
3.51 -6.86 -1.78
6.34 -12.4 0.73
3.97 -7.75 -1.69
6.07 -11.87 1.17
4.59 -8.98 -1.6
6.35 -12.41 1.71
5 -9.78 -1.35
4.74 -9.27 -0.91
6.66 -13.02 2.84
4.73 -9.24 -0.54
6.74 -13.18 3.42
6.06 -11.84 -0.23
2.77 -5.41 1.63
2.99 -5.9 -1.77
6.16 -12.14 0.24
3.49 -6.88 -1.78
6.18 -12.18 0.72
3.93 -7.76 -1.69
5.76 -11.37 1.11
4.56 -9 -1.6
6.3 -12.42 1.71
4.96 -9.78 -1.35
6.52 -12.86 2.28
4.95 -9.77 -0.96
6.58 -12.97 2.83
6.37 -12.56 -0.74
6.7 -13.21 3.42
6.01 -11.85 -0.23
2.78 -5.48 1.65
2.97 -5.91 -1.77
6.04 -12.02 0.23
3.47 -6.9 -1.78
6.13 -12.19 0.72
3.9 -7.76 -1.69
5.72 -11.38 1.11
4.55 -9.05 -1.6
6.23 -12.39 1.7
4.9 -9.76 -1.34
6.18 -12.3 2.18
4.77 -9.49 -0.93
6.57 -13.06 2.84
6.62 -13.17 3.4
5.98 -11.9 -0.23
2.76 -5.5 1.65
2.95 -5.92 -1.77
6.09 -12.21 0.24
3.45 -6.91 -1.78
6.33 -12.7 0.74
3.87 -7.76 -1.69
5.98 -12 1.17
4.51 -9.05 -1.6
6.09 -12.21 1.68
4.85 -9.74 -1.34
5.51 -11.04 1.95
4.67 -9.36 -0.91
6.5 -13.03 2.83
5.94 -11.92 -0.7
6.55 -13.13 3.39
5.86 -11.75 -0.23
2.93 -5.93 -1.77
5.96 -12.06 0.23
3.42 -6.92 -1.78
6.3 -12.74 0.74
3.85 -7.79 -1.69
5.88 -11.9 1.16
4.49 -9.08 -1.6
5.42 -10.96 1.5
4.81 -9.74 -1.33
5.46 -11.06 1.95
4.68 -9.46 -0.92
6.47 -13.1 2.84
4.73 -9.58 -0.56
5.98 -12.11 3.12
5.87 -11.87 -0.23
5.6 -11.34 3.39
2.91 -5.95 -1.77
5.65 -11.53 0.22
3.4 -6.93 -1.78
6.31 -12.87 0.75
3.83 -7.82 -1.69
6.32 -12.9 1.26
4.45 -9.09 -1.6
5.87 -11.98 1.64
4.77 -9.74 -1.33
5.42 -11.06 1.95
6.41 -13.08 2.83
5.85 -11.94 -0.7
6 -12.24 3.15
5.77 -11.78 -0.23
5.55 -11.32 3.38
2.89 -5.95 -1.77
5.62 -11.57 0.22
3.37 -6.94 -1.78
6.35 -13.07 0.76
3.79 -7.8 -1.69
5.94 -12.23 1.19
4.42 -9.1 -1.6
5.81 -11.96 1.63
4.72 -9.72 -1.33
5.4 -11.12 1.96
4.76 -9.81 -0.95
6.35 -13.08 2.83
5.81 -11.97 -0.7
5.87 -12.08 3.1
5.68 -11.71 -0.23
5.49 -11.31 3.37
2.87 -5.96 -1.77
5.55 -11.54 0.22
3.35 -6.95 -1.78
9.39 -19.51 1.13
3.77 -7.83 -1.69
5.91 -12.28 1.19
4.38 -9.11 -1.6
5.77 -11.99 1.63
4.73 -9.83 -1.34
5.37 -11.15 1.96
4.78 -9.94 -0.96
6.28 -13.05 2.82
4.53 -9.41 -0.55
6.01 -12.49 3.2
5.79 -12.04 -0.23
5.78 -12.01 3.57
2.85 -5.97 -1.77
5.54 -11.62 0.22
3.32 -6.97 -1.78
5.78 -12.11 0.7
3.75 -7.87 -1.7
5.83 -12.22 1.18
4.36 -9.14 -1.6
5.7 -11.96 1.63
4.71 -9.88 -1.34
5.91 -12.4 2.18
4.74 -9.94 -0.96
6.15 -12.89 2.78
4.55 -9.53 -0.55
5.22 -10.94 2.8
5.64 -11.82 -0.23
4.18 -8.77 2.6
2.83 -5.99 -1.77
5.47 -11.57 0.22
3.3 -6.98 -1.78
5.72 -12.11 0.7
3.74 -7.91 -1.7
5.76 -12.19 1.18
4.33 -9.17 -1.61
5.66 -11.98 1.63
4.98 -10.53 -1.43
5.26 -11.12 1.95
4.98 -10.54 -1.02
6.1 -12.89 2.77
4.52 -9.56 -0.55
5.16 -10.92 2.79
5.66 -11.98 -0.23
4.17 -8.83 2.62
2.81 -6 -1.78
5.46 -11.65 0.22
3.27 -6.98 -1.78
5.4 -11.52 0.67
3.7 -7.9 -1.7
5.39 -11.5 1.11
4.31 -9.19 -1.61
5.67 -12.1 1.64
5.01 -10.7 -1.45
5.77 -12.33 2.16
4.54 -9.69 -0.94
6.11 -13.04 2.8
5.58 -11.92 -0.69
5.12 -10.93 2.79
4.25 -9.07 2.68
2.79 -6.01 -1.78
5.43 -11.7 0.23
3.25 -7 -1.78
5.34 -11.5 0.66
3.67 -7.9 -1.69
5.41 -11.65 1.12
4.29 -9.24 -1.61
5.28 -11.38 1.54
5.01 -10.8 -1.46
5.64 -12.14 2.12
4.56 -9.82 -0.95
5.13 -11.04 2.37
5.48 -11.81 -0.68
5.08 -10.95 2.79
5.47 -11.79 -0.23
5.05 -10.88 3.21
2.76 -6 -1.77
5.43 -11.8 0.23
3.23 -7.02 -1.78
5.3 -11.52 0.66
3.64 -7.92 -1.69
4.26 -9.25 -1.61
5.24 -11.39 1.54
4.94 -10.74 -1.45
4.93 -10.71 1.87
4.51 -9.81 -0.94
5.06 -11 2.35
5.53 -12.02 -0.69
5.03 -10.94 2.78
5.44 -11.82 -0.23
5 -10.86 3.2
2.75 -6.03 -1.78
5.47 -12 0.23
3.2 -7.03 -1.78
5.25 -11.53 0.66
3.61 -7.93 -1.69
5.23 -11.49 1.1
4.22 -9.26 -1.61
5.19 -11.39 1.54
4.92 -10.79 -1.46
5.02 -11.02 1.92
5.14 -11.28 -1.08
4.99 -10.95 2.34
4.34 -9.52 -0.55
4.99 -10.95 2.78
5.42 -11.9 -0.23
4.96 -10.88 3.2
2.73 -6.04 -1.78
5.44 -12.06 0.23
3.17 -7.03 -1.78
5.22 -11.56 0.66
3.59 -7.95 -1.7
5.19 -11.5 1.1
4.2 -9.3 -1.62
5.06 -11.21 1.51
4.95 -10.97 -1.48
5.02 -11.12 1.93
4.44 -9.83 -0.94
4.95 -10.95 2.77
6.09 -13.48 -0.26
4.91 -10.88 3.2
2.71 -6.05 -1.78
5.49 -12.26 0.23
3.15 -7.05 -1.78
5.49 -12.26 0.7
3.57 -7.97 -1.7
5.1 -11.4 1.09
4.17 -9.33 -1.62
5 -11.18 1.5
4.92 -11 -1.48
4.97 -11.11 1.93
4.42 -9.88 -0.95
4.92 -11 2.34
4.41 -9.84 -0.57
4.91 -10.97 2.77
5.95 -13.28 -0.25
4.9 -10.96 3.22
2.69 -6.06 -1.78
5.12 -11.56 0.22
3.13 -7.07 -1.79
5.06 -11.42 0.65
3.56 -8.03 -1.71
4.98 -11.24 1.08
4.13 -9.32 -1.62
4.96 -11.18 1.5
4.95 -11.16 -1.5
4.92 -11.09 1.92
4.92 -11.09 -1.06
4.9 -11.04 2.35
7.45 -16.81 -0.96
4.88 -11.01 2.78
5.16 -11.65 -0.22
4.88 -11 3.23
2.66 -6.07 -1.77
5.06 -11.52 0.22
3.11 -7.08 -1.79
5 -11.39 0.65
3.53 -8.03 -1.7
4.94 -11.24 1.07
4.06 -9.24 -1.6
4.92 -11.19 1.5
4.98 -11.33 -1.52
4.88 -11.1 1.92
4.87 -11.08 -1.06
5.17 -11.78 -0.67
4.87 -11.09 2.8
5.09 -11.59 -0.22
2.64 -6.08 -1.78
5.01 -11.51 0.22
3.08 -7.09 -1.78
4.96 -11.41 0.65
3.5 -8.04 -1.7
4.9 -11.25 1.07
4.02 -9.25 -1.6
4.87 -11.19 1.5
4.83 -11.1 -1.49
4.84 -11.13 1.92
4.34 -9.98 2.12
5.11 -11.74 -0.67
5.01 -11.51 2.9
5.04 -11.59 -0.22
5.01 -11.53 3.37
2.63 -6.09 -1.78
4.94 -11.46 0.22
3.06 -7.09 -1.78
4.91 -11.4 0.65
3.47 -8.05 -1.7
4.86 -11.27 1.07
3.99 -9.25 -1.6
4.82 -11.19 1.5
4.73 -10.98 -1.47
4.81 -11.16 1.92
4.85 -11.25 -1.07
4.75 -11.03 2.33
5.05 -11.72 -0.67
4.6 -10.67 2.68
5 -11.61 -0.22
4.45 -10.32 3.01
2.6 -6.1 -1.78
4.85 -11.36 0.22
3.03 -7.1 -1.78
4.86 -11.4 0.65
3.43 -8.03 -1.7
4.83 -11.31 1.08
3.95 -9.27 -1.6
4.74 -11.11 1.48
4.67 -10.94 -1.46
4.79 -11.21 1.93
4.78 -11.21 -1.07
5 -11.72 -0.67
4.62 -10.82 2.71
4.95 -11.61 -0.22
4.41 -10.34 3.01
2.59 -6.12 -1.78
4.83 -11.43 0.22
3.01 -7.12 -1.79
4.82 -11.41 0.65
3.4 -8.05 -1.7
4.8 -11.34 1.08
3.91 -9.25 -1.59
4.76 -11.27 1.5
4.35 -10.28 -1.37
4.8 -11.35 1.95
4.73 -11.18 -1.06
4.89 -11.57 2.44
4.97 -11.75 -0.67
4.76 -11.25 2.82
4.92 -11.64 -0.22
4.89 -11.56 3.36
2.56 -6.11 -1.77
4.81 -11.5 0.22
2.99 -7.14 -1.79
4.79 -11.45 0.65
3.38 -8.08 -1.7
4.76 -11.37 1.08
3.88 -9.27 -1.59
4.74 -11.32 1.51
4.56 -10.9 -1.45
4.8 -11.47 1.97
4.66 -11.14 -1.06
4.84 -11.56 2.44
4.92 -11.76 -0.67
4.73 -11.3 2.83
4.88 -11.66 -0.22
4.65 -11.1 3.22
2.54 -6.12 -1.78
4.77 -11.5 0.22
2.97 -7.16 -1.79
4.77 -11.5 0.65
3.35 -8.09 -1.7
3.85 -9.29 -1.59
5.02 -12.11 1.61
4.55 -10.97 -1.46
4.76 -11.5 1.97
4.66 -11.24 -1.06
4.61 -11.11 2.34
4.89 -11.8 -0.67
4.71 -11.37 2.84
4.86 -11.73 -0.22
4.6 -11.1 3.22
2.52 -6.14 -1.78
4.72 -11.49 0.22
2.94 -7.16 -1.79
4.76 -11.6 0.66
3.33 -8.11 -1.7
4.63 -11.29 1.07
3.81 -9.3 -1.59
4.92 -12 1.59
4.53 -11.03 -1.46
4.75 -11.59 1.98
4.59 -11.2 -1.06
4.38 -10.68 2.24
4.85 -11.82 -0.67
4.68 -11.41 2.85
4.83 -11.77 -0.22
4.58 -11.16 3.23
2.5 -6.15 -1.78
4.65 -11.44 0.22
2.91 -7.16 -1.78
5.09 -12.51 0.71
3.3 -8.12 -1.7
4.57 -11.24 1.06
3.77 -9.29 -1.59
4.56 -11.22 -1.49
4.76 -11.7 2
4.48 -11.03 -1.04
4.8 -11.81 2.48
4.84 -11.9 -0.67
4.62 -11.38 2.83
4.68 -11.51 3.33
2.48 -6.16 -1.78
4.7 -11.68 0.22
2.89 -7.19 -1.79
5.03 -12.49 0.71
3.26 -8.1 -1.7
4.5 -11.19 1.06
3.75 -9.31 -1.59
4.69 -11.65 1.54
4.5 -11.19 -1.48
4.68 -11.64 1.99
4.41 -10.97 -1.03
4.66 -11.58 2.43
5.36 -13.32 3.31
4.65 -11.55 -0.22
4.69 -11.65 3.36
2.45 -6.16 -1.78
9.76 -24.5 0.46
2.87 -7.21 -1.79
4.98 -12.51 0.71
3.23 -8.11 -1.7
4.47 -11.23 1.06
3.71 -9.32 -1.59
4.62 -11.6 1.53
4.54 -11.4 -1.51
4.62 -11.6 1.98
4.37 -10.97 -1.03
4.65 -11.68 2.44
5.11 -12.82 -0.72
4.7 -11.79 2.93
4.6 -11.55 -0.22
4.63 -11.62 3.35
2.43 -6.17 -1.78
11.28 -28.59 0.54
2.85 -7.22 -1.79
4.96 -12.59 0.71
3.2 -8.13 -1.7
4.38 -11.1 1.04
3.68 -9.32 -1.59
4.57 -11.59 1.53
4.53 -11.48 -1.52
4.58 -11.62 1.98
4.38 -11.1 -1.04
4.2 -10.66 2.23
4.79 -12.16 -0.68
4.65 -11.79 2.92
4.62 -11.71 -0.22
4.56 -11.58 3.33
2.41 -6.19 -1.78
4.83 -12.37 0.23
2.82 -7.23 -1.79
4.92 -12.61 0.71
3.19 -8.18 -1.71
4.39 -11.24 1.06
3.64 -9.34 -1.59
4.53 -11.59 1.53
4.4 -11.28 -1.49
4.55 -11.65 1.98
4.3 -11.02 -1.04
4.92 -12.61 2.63
4.76 -12.2 -0.69
4.02 -10.3 2.55
4.88 -12.5 -0.23
4.51 -11.54 3.32
2.39 -6.2 -1.78
4.76 -12.33 0.23
2.8 -7.24 -1.79
4.88 -12.64 0.71
3.15 -8.16 -1.7
4.34 -11.23 1.05
3.61 -9.34 -1.59
4.5 -11.65 1.53
4.34 -11.23 -1.48
4.34 -11.24 1.91
4.25 -11.01 -1.03
10.01 -25.92 5.4
4.71 -12.2 -0.69
5.12 -13.24 3.28
4.66 -12.06 3.46
2.37 -6.2 -1.78
4.72 -12.36 0.23
2.77 -7.25 -1.79
5.02 -13.12 0.74
3.12 -8.16 -1.7
5.05 -13.2 1.24
3.59 -9.38 -1.59
4.44 -11.62 1.53
3.71 -9.71 -1.28
4.29 -11.23 1.9
4.2 -10.98 -1.03
5.03 -13.17 2.74
4.66 -12.2 -0.68
4.63 -12.11 2.99
4.42 -11.56 -0.22
4.58 -11.98 3.44
2.35 -6.2 -1.78
4.85 -12.83 0.24
2.74 -7.24 -1.79
4.99 -13.18 0.74
3.07 -8.12 -1.69
4.98 -13.16 1.23
3.57 -9.44 -1.6
4.15 -10.98 1.44
3.68 -9.72 -1.28
4.41 -11.66 1.97
4.18 -11.05 -1.03
4.96 -13.11 2.72
4.61 -12.19 -0.68
4.96 -13.12 3.24
4.39 -11.59 -0.22
4.46 -11.79 3.38
2.33 -6.21 -1.78
2.72 -7.27 -1.79
4.95 -13.23 0.74
3.05 -8.14 -1.69
4.94 -13.2 1.23
3.52 -9.41 -1.59
4.11 -10.99 1.44
3.64 -9.73 -1.28
4.25 -11.36 1.92
4.14 -11.07 -1.03
4.56 -12.18 2.53
4.23 -11.3 -0.63
3.66 -9.78 2.41
4.31 -11.52 -0.21
4.4 -11.75 3.36
2.31 -6.23 -1.78
4.37 -11.8 0.22
2.69 -7.26 -1.79
3.02 -8.16 -1.69
3.49 -9.41 -1.59
4.8 -12.97 1.7
4.22 -11.41 1.93
4.11 -11.1 -1.04
5.02 -13.57 2.81
4.2 -11.34 -0.63
6.42 -17.34 4.27
4.3 -11.61 -0.22
4.41 -11.9 3.4
2.29 -6.24 -1.78
4.33 -11.83 0.22
2.66 -7.26 -1.79
3.89 -10.62 0.59
2.99 -8.16 -1.69
4.27 -11.66 1.09
3.45 -9.41 -1.59
4.01 -10.93 1.43
4.14 -11.29 -1.48
4.05 -11.05 1.86
4.08 -11.13 -1.04
4.38 -11.96 2.48
4.33 -11.81 -0.66
5.52 -15.07 3.71
4.28 -11.69 -0.22
3.97 -10.85 3.1
2.26 -6.25 -1.78
4.29 -11.85 0.22
2.63 -7.26 -1.78
3.85 -10.62 0.59
2.95 -8.13 -1.68
4.23 -11.67 1.09
3.41 -9.42 -1.59
3.98 -10.99 1.43
4.11 -11.35 -1.48
3.98 -11 1.85
4.06 -11.21 -1.04
4.33 -11.95 2.47
4.11 -11.34 -0.63
4.72 -13.04 3.2
4.27 -11.79 -0.22
3.91 -10.78 3.07
2.24 -6.25 -1.78
4.25 -11.85 0.22
2.61 -7.29 -1.79
5.44 -15.17 0.84
2.92 -8.13 -1.68
4.19 -11.68 1.09
3.38 -9.43 -1.59
5.15 -14.34 1.87
4.11 -11.44 -1.49
4.01 -11.19 1.88
4.05 -11.28 -1.05
4.27 -11.91 2.46
4.06 -11.32 -0.63
4.76 -13.26 3.25
4.24 -11.81 -0.22
3.88 -10.82 3.08
2.22 -6.26 -1.78
5.39 -15.18 0.28
2.59 -7.3 -1.79
5.39 -15.18 0.84
2.89 -8.14 -1.68
4.45 -12.54 1.16
3.34 -9.41 -1.58
5.11 -14.39 1.88
3.82 -10.76 -1.4
3.96 -11.17 1.88
4.01 -11.29 -1.05
4.19 -11.82 2.44
3.96 -11.16 -0.62
4.6 -12.95 3.17
4.21 -11.86 -0.22
4.44 -12.5 3.56
2.2 -6.27 -1.78
4.15 -11.84 0.22
2.56 -7.29 -1.78
5.35 -15.23 0.85
2.88 -8.2 -1.69
4.47 -12.73 1.18
3.31 -9.43 -1.58
4.58 -13.06 1.7
4.09 -11.65 -1.52
3.96 -11.28 1.89
3.97 -11.32 -1.05
4.18 -11.9 2.45
3.92 -11.16 -0.62
4.52 -12.88 3.15
4.13 -11.76 -0.22
4.21 -11.99 3.4
2.18 -6.29 -1.78
4.11 -11.84 0.22
2.53 -7.29 -1.78
4.6 -13.25 0.74
2.86 -8.23 -1.69
4.39 -12.65 1.17
3.28 -9.44 -1.58
4.69 -13.51 1.76
4.05 -11.68 -1.52
4.2 -12.1 2.03
3.95 -11.38 -1.05
4.18 -12.06 2.48
3.86 -11.13 -0.62
4.25 -12.24 2.99
4.05 -11.67 -0.22
4.24 -12.2 3.46
2.16 -6.3 -1.79
4.08 -11.89 0.22
2.51 -7.32 -1.79
4.67 -13.59 0.75
2.83 -8.24 -1.69
4.44 -12.93 1.2
3.25 -9.46 -1.58
4.66 -13.58 1.76
3.98 -11.58 -1.5
4.16 -12.13 2.03
3.96 -11.52 -1.07
4.15 -12.1 2.49
3.82 -11.11 -0.62
4.21 -12.25 2.99
4.02 -11.72 -0.22
4.25 -12.39 3.51
2.14 -6.3 -1.78
4.02 -11.86 0.22
2.49 -7.34 -1.79
7.93 -23.39 1.29
2.8 -8.25 -1.69
3.53 -10.4 0.96
3.21 -9.47 -1.58
4.6 -13.57 1.76
4.02 -11.85 -1.54
3.74 -11.03 1.84
3.93 -11.57 -1.07
4.13 -12.16 2.5
3.78 -11.15 -0.62
4.16 -12.26 2.99
4.25 -12.53 -0.23
4.65 -13.72 3.88
2.12 -6.31 -1.78
3.97 -11.84 0.22
2.46 -7.33 -1.79
3.53 -10.54 0.58
2.77 -8.26 -1.69
4.46 -13.29 1.23
3.18 -9.5 -1.59
3.07 -9.17 1.19
3.99 -11.89 -1.54
3.9 -11.63 1.94
3.87 -11.54 -1.06
4.07 -12.15 2.49
3.74 -11.15 -0.62
4.15 -12.38 3.01
4.49 -13.4 3.79
2.09 -6.32 -1.78
3.98 -12.02 0.22
2.43 -7.33 -1.78
3.36 -10.15 0.56
2.75 -8.29 -1.7
4.11 -12.41 1.14
3.14 -9.47 -1.58
4.69 -14.15 1.83
3.79 -11.44 -1.48
3.83 -11.56 -1.07
4.09 -12.35 2.53
3.71 -11.21 -0.62
4.17 -12.61 3.07
3.95 -11.93 -0.22
4.47 -13.49 3.81
2.08 -6.33 -1.79
3.93 -12 0.22
2.4 -7.32 -1.78
3.32 -10.12 0.56
2.72 -8.3 -1.7
3.91 -11.92 1.1
3.1 -9.45 -1.57
4.64 -14.15 1.83
3.65 -11.14 1.86
3.79 -11.56 -1.06
3.97 -12.12 2.48
4.14 -12.62 3.07
4 -12.21 -0.22
4.47 -13.62 3.84
2.05 -6.33 -1.78
3.86 -11.94 0.22
2.38 -7.36 -1.79
3.27 -10.11 0.56
2.7 -8.33 -1.7
3.97 -12.25 1.13
3.06 -9.44 -1.57
4.58 -14.16 1.83
3.33 -10.27 -1.33
3.55 -10.97 1.83
3.72 -11.5 -1.06
3.91 -12.08 2.47
3.62 -11.18 -0.62
4.02 -12.43 3.02
3.98 -12.29 -0.23
3.58 -11.07 3.12
2.03 -6.33 -1.78
3.82 -11.94 0.22
2.36 -7.37 -1.79
3.53 -11.02 0.61
2.68 -8.37 -1.71
3.92 -12.26 1.13
3.01 -9.41 -1.57
4.44 -13.88 1.79
3.31 -10.33 -1.33
3.64 -11.38 1.89
3.19 -9.95 -0.91
4.33 -13.52 2.76
3.92 -12.25 2.97
3.9 -12.19 -0.22
3.52 -10.99 3.09
2.01 -6.35 -1.78
3.14 -9.95 0.18
2.34 -7.39 -1.79
3.49 -11.06 0.61
2.65 -8.4 -1.71
3.9 -12.33 1.13
2.97 -9.41 -1.56
4.06 -12.84 1.65
3.8 -12.02 -1.55
3.6 -11.4 1.89
3.16 -10 -0.92
4.28 -13.54 2.76
3.59 -11.34 -0.62
3.9 -12.33 2.99
3.83 -12.11 -0.22
3.53 -11.18 3.14
1.99 -6.36 -1.79
3.7 -11.85 0.22
2.3 -7.38 -1.78
3.53 -11.3 0.62
2.63 -8.41 -1.71
3.86 -12.37 1.13
2.95 -9.44 -1.57
4.01 -12.84 1.65
3.77 -12.08 -1.55
3.18 -10.19 1.69
3.07 -9.84 -0.9
4.23 -13.55 2.76
3.56 -11.4 -0.63
3.84 -12.31 2.98
3.79 -12.14 -0.22
4.07 -13.04 3.66
1.96 -6.37 -1.79
3.71 -12.04 0.22
2.27 -7.35 -1.78
4.34 -14.09 0.77
2.6 -8.44 -1.72
3.81 -12.36 1.13
2.93 -9.5 -1.57
2.86 -9.28 1.19
3.71 -12.03 -1.55
3.15 -10.23 1.69
3.06 -9.93 -0.91
4.19 -13.59 2.76
3 -9.73 -0.53
3.75 -12.18 2.94
3.74 -12.14 -0.22
3.96 -12.85 3.6
1.95 -6.38 -1.79
3.72 -12.21 0.22
2.24 -7.35 -1.77
4.28 -14.06 0.77
2.57 -8.45 -1.72
3.77 -12.38 1.13
2.89 -9.47 -1.57
2.82 -9.26 1.19
3.06 -10.04 -1.29
4.16 -13.64 2.26
3.52 -11.56 -1.06
3.72 -12.21 2.48
2.93 -9.61 -0.53
3.73 -12.25 2.96
3.69 -12.09 -0.22
1.92 -6.38 -1.78
3.02 -10.03 0.18
2.22 -7.39 -1.78
3.06 -10.17 0.56
2.55 -8.47 -1.72
3.73 -12.41 1.13
2.87 -9.55 -1.58
2.79 -9.26 1.19
3.04 -10.11 -1.3
3.69 -12.26 2.03
3.49 -11.61 -1.06
3.69 -12.26 2.49
2.9 -9.63 -0.53
3.72 -12.36 2.98
3.58 -11.91 -0.22
3.83 -12.75 3.57
1.9 -6.39 -1.79
2.98 -10.03 0.18
2.2 -7.4 -1.78
3.03 -10.19 0.56
2.53 -8.5 -1.72
3.71 -12.49 1.14
2.84 -9.56 -1.58
2.75 -9.25 1.19
3.63 -12.21 2.02
3.44 -11.59 -1.06
3.62 -12.19 2.47
2.91 -9.78 -0.53
3.68 -12.38 2.98
3.55 -11.95 -0.22
3.32 -11.16 3.12
1.88 -6.4 -1.79
2.94 -10.02 0.18
2.17 -7.4 -1.78
3.67 -12.5 0.68
2.47 -8.43 -1.71
4.21 -14.35 1.31
2.8 -9.56 -1.58
3.58 -12.21 1.56
3.42 -11.67 -1.49
3.42 -11.67 -1.06
3.51 -11.98 2.43
2.88 -9.83 -0.54
3.62 -12.34 2.97
3.48 -11.89 -0.22
3.48 -11.86 3.31
1.86 -6.41 -1.79
3.47 -11.98 0.22
2.15 -7.43 -1.79
4.1 -14.16 0.77
2.43 -8.4 -1.7
3.62 -12.5 1.14
2.78 -9.61 -1.58
4.07 -14.05 1.8
3.47 -11.97 -1.53
3.5 -12.08 1.99
3.42 -11.8 -1.07
3.46 -11.95 2.42
3.38 -11.66 -0.64
3.51 -12.11 2.91
3.45 -11.9 -0.22
1.83 -6.42 -1.79
3.42 -11.98 0.22
2.13 -7.47 -1.79
4.07 -14.25 0.78
2.4 -8.39 -1.7
3.57 -12.49 1.14
2.74 -9.58 -1.58
4.03 -14.1 1.8
3.36 -11.75 -1.5
3.8 -13.31 2.19
2.85 -9.96 -0.91
3.44 -12.03 2.43
3.33 -11.67 -0.64
2.64 -9.24 2.22
3.4 -11.89 -0.22
3.41 -11.96 3.33
1.81 -6.42 -1.79
3.82 -13.56 0.25
2.11 -7.49 -1.8
4.26 -15.11 0.82
2.38 -8.43 -1.7
3.53 -12.51 1.14
2.71 -9.62 -1.58
2.91 -10.32 1.32
2.82 -10.02 -1.28
3.34 -11.85 1.95
3.31 -11.75 -1.07
3.38 -12 2.42
3.28 -11.65 -0.63
2.61 -9.25 2.22
3.35 -11.89 -0.22
3.36 -11.94 3.32
1.79 -6.43 -1.79
2.78 -10 0.18
2.08 -7.47 -1.79
4.05 -14.57 0.79
2.36 -8.48 -1.71
2.83 -10.19 0.93
2.66 -9.56 -1.57
2.88 -10.38 1.32
3.29 -11.85 -1.51
2.84 -10.23 1.68
3.28 -11.79 -1.07
3.36 -12.08 2.44
3.23 -11.64 -0.63
2.58 -9.3 2.23
3.31 -11.9 -0.22
3.37 -12.12 3.37
1.77 -6.44 -1.79
2.74 -9.97 0.18
2.04 -7.43 -1.78
2.72 -9.89 0.54
2.32 -8.45 -1.7
2.95 -10.74 0.97
2.63 -9.57 -1.57
2.9 -10.57 1.35
3.35 -12.18 -1.55
2.87 -10.46 1.72
3.24 -11.79 -1.07
3.33 -12.11 2.44
3.2 -11.63 -0.63
3.36 -12.23 2.93
3.01 -10.97 -0.2
2.96 -10.77 2.99
1.75 -6.45 -1.79
3.65 -13.49 0.24
2.01 -7.42 -1.77
4.17 -15.41 0.84
2.29 -8.45 -1.7
3.42 -12.64 1.15
2.6 -9.6 -1.57
3.06 -11.31 1.44
3.25 -12.01 -1.53
2.84 -10.5 1.72
3.2 -11.81 -1.07
3.28 -12.1 2.44
3.14 -11.59 -0.63
3.34 -12.33 2.95
3.21 -11.86 -0.21
2.92 -10.77 2.99
1.73 -6.46 -1.79
1.99 -7.44 -1.78
3.22 -12.04 0.65
2.26 -8.46 -1.7
2.57 -9.6 -1.57
2.64 -9.89 1.26
5.56 -20.79 3.41
3.14 -11.76 -1.06
3.57 -13.35 2.69
3.1 -11.61 -0.63
2.5 -9.36 2.24
3.16 -11.82 -0.21
3.3 -12.36 3.43
1.7 -6.46 -1.79
3.27 -12.43 0.22
1.95 -7.42 -1.77
2.46 -9.35 0.51
2.24 -8.52 -1.71
3.33 -12.63 1.14
2.53 -9.62 -1.58
3.66 -13.89 1.76
3.15 -11.98 -1.52
2.51 -9.54 1.56
3.09 -11.74 -1.06
3.54 -13.46 2.71
3.06 -11.6 -0.63
2.34 -8.87 2.12
3.02 -11.45 -0.21
3.26 -12.37 3.43
1.68 -6.47 -1.79
3.49 -13.44 0.24
1.93 -7.41 -1.77
2.43 -9.35 0.51
2.22 -8.56 -1.72
3.27 -12.58 1.14
2.5 -9.64 -1.58
2.61 -10.05 1.28
6.6 -25.42 4.16
3.06 -11.77 -1.06
3.43 -13.22 2.65
3.01 -11.6 -0.63
2.29 -8.83 2.11
3.09 -11.9 -0.21
3.84 -14.79 4.09
1.66 -6.48 -1.79
3.23 -12.62 0.23
1.89 -7.4 -1.76
2.39 -9.35 0.51
2.19 -8.56 -1.72
3.25 -12.72 1.15
2.48 -9.68 -1.58
3.55 -13.86 1.76
2.39 -9.34 1.53
3 -11.71 -1.06
3.39 -13.25 2.66
2.96 -11.57 -0.63
3.04 -11.88 -0.21
5.36 -20.96 5.8
1.64 -6.49 -1.79
3.17 -12.58 0.23
1.87 -7.4 -1.76
2.36 -9.35 0.51
2.14 -8.51 -1.71
2.3 -9.12 0.82
2.45 -9.71 -1.59
3.47 -13.77 1.74
3.13 -12.4 -1.57
2.37 -9.39 1.53
2.95 -11.69 -1.05
3.35 -13.29 2.66
2.91 -11.55 -0.62
2.25 -8.91 2.12
3.01 -11.92 -0.21
3.12 -12.38 3.42
1.62 -6.5 -1.8
3.13 -12.59 0.23
1.84 -7.41 -1.76
2.12 -8.55 -1.71
2.26 -9.11 0.82
2.41 -9.71 -1.58
3.43 -13.82 1.75
3.06 -12.33 -1.56
2.37 -9.54 1.56
3.24 -13.05 -1.18
3.31 -13.31 2.67
2.99 -12.02 -0.65
2.23 -8.96 2.13
2.96 -11.9 -0.21
2.41 -9.72 2.68
1.59 -6.49 -1.79
1.81 -7.41 -1.76
2.3 -9.38 0.51
2.1 -8.57 -1.71
2.24 -9.15 0.82
2.38 -9.72 -1.59
3.38 -13.81 1.75
3.02 -12.35 -1.56
4.89 -19.98 3.26
2.89 -11.82 -1.06
2.12 -8.67 1.74
3.23 -13.21 -0.71
2.2 -9 2.14
2.92 -11.91 -0.21
3.05 -12.47 3.44
1.57 -6.5 -1.79
1.79 -7.4 -1.76
2.63 -10.91 0.59
2.07 -8.57 -1.71
2.82 -11.69 1.05
2.35 -9.72 -1.58
3.34 -13.84 1.75
2.97 -12.29 -1.55
2.31 -9.57 1.56
2.87 -11.88 -1.07
3.21 -13.31 2.66
3.16 -13.09 -0.71
2.88 -11.94 -0.21
3.02 -12.51 3.45
1.55 -6.51 -1.79
7.9 -33.28 0.6
1.76 -7.43 -1.76
2.6 -10.94 0.59
2.03 -8.56 -1.71
2.18 -9.19 0.83
2.28 -9.6 -1.56
3.29 -13.85 1.75
2.92 -12.29 -1.55
4.77 -20.08 3.27
3.71 -15.63 -1.41
3.19 -13.43 2.68
5.5 -23.17 -1.25
2.12 -8.92 2.12
2.84 -11.98 -0.21
2.95 -12.42 3.42
1.53 -6.53 -1.8
7.77 -33.23 0.6
1.74 -7.46 -1.77
2.57 -10.99 0.59
2 -8.57 -1.71
2.79 -11.92 1.07
2.24 -9.58 -1.56
2.86 -12.24 -1.54
2.31 -9.89 1.61
3.07 -13.13 -1.18
3.18 -13.63 2.72
3.03 -12.98 -0.7
2.12 -9.06 2.15
2.81 -12.01 -0.22
4.62 -19.75 5.44
1.5 -6.54 -1.8
7.64 -33.19 0.59
1.72 -7.46 -1.77
2.54 -11.05 0.59
1.98 -8.59 -1.71
2.21 -9.6 -1.56
4.65 -20.21 2.55
2.82 -12.24 -1.54
2.25 -9.76 1.59
3.01 -13.1 -1.18
3.15 -13.68 2.73
2.99 -12.98 -0.7
2.16 -9.4 2.23
3.12 -13.55 -0.24
2.8 -12.19 3.35
1.48 -6.53 -1.79
5.33 -23.54 0.42
1.69 -7.46 -1.77
2.52 -11.1 0.6
1.95 -8.63 -1.72
4.59 -20.27 1.82
2.22 -9.79 -1.59
4.72 -20.85 2.62
2.76 -12.17 -1.53
4.6 -20.29 3.3
2.95 -13.01 -1.17
3.05 -13.45 2.68
2.95 -13.02 -0.7
2.06 -9.1 2.16
3.06 -13.5 -0.24
6.61 -29.15 8.01
1.45 -6.53 -1.79
2.81 -12.62 0.23
1.66 -7.45 -1.76
1.92 -8.61 -1.71
3.3 -14.83 1.33
2.18 -9.8 -1.59
2.08 -9.32 1.17
2.7 -12.11 -1.52
2.19 -9.84 1.6
2.89 -12.98 -1.16
2.12 -9.5 1.89
2.9 -13.03 -0.7
2.11 -9.45 2.24
3.01 -13.53 -0.24
3.37 -15.13 4.15
1.43 -6.54 -1.79
2.77 -12.63 0.23
1.63 -7.44 -1.76
2.45 -11.16 0.6
1.9 -8.66 -1.72
3.28 -14.98 1.34
2.16 -9.84 -1.6
6.15 -28.06 3.53
2.64 -12.05 -1.51
3.38 -15.44 2.5
2.42 -11.06 -0.99
2.93 -13.35 2.66
2.85 -12.99 -0.7
2.96 -13.48 -0.24
1.41 -6.56 -1.8
2.73 -12.66 0.23
1.6 -7.44 -1.76
2.41 -11.19 0.6
1.87 -8.65 -1.72
5 -23.17 2.07
2.14 -9.91 -1.61
3.35 -15.55 1.95
2.62 -12.16 -1.53
2.11 -9.81 1.59
3.63 -16.84 -1.51
2.1 -9.73 1.93
2.35 -10.92 -0.59
2.21 -10.25 2.42
2.95 -13.69 -0.24
5.01 -23.23 6.37
1.39 -6.56 -1.8
5.6 -26.38 0.47
1.58 -7.44 -1.76
2.38 -11.21 0.6
1.85 -8.71 -1.73
2.04 -9.61 0.86
2.11 -9.95 -1.61
2.2 -10.39 1.3
2.62 -12.34 -1.55
2.06 -9.73 1.58
2.34 -11.02 -0.99
2.08 -9.8 1.95
2.76 -13.04 -0.7
2.01 -9.47 2.23
2.87 -13.52 -0.24
2.42 -11.43 3.13
1.37 -6.56 -1.8
2.64 -12.69 0.23
1.56 -7.47 -1.76
2.35 -11.25 0.6
1.81 -8.67 -1.72
2.07 -9.95 -1.61
4.84 -23.25 2.92
2.57 -12.33 -1.55
2.03 -9.73 1.57
3.52 -16.89 -1.51
4.45 -21.34 4.24
2.54 -12.19 -0.65
3.35 -16.08 3.79
2.54 -12.17 -0.22
2.39 -11.45 3.13
1.35 -6.57 -1.8
2.47 -12.05 0.21
1.53 -7.47 -1.76
2.32 -11.31 0.6
1.78 -8.68 -1.72
1.96 -9.57 0.85
2.03 -9.9 -1.6
4.73 -23.11 2.9
2.52 -12.32 -1.54
1.99 -9.71 1.57
3.53 -17.26 -1.54
4.38 -21.39 4.24
2.12 -10.34 2.44
2.5 -12.19 -0.22
4.15 -20.28 5.55
1.32 -6.59 -1.8
1.5 -7.46 -1.76
2.28 -11.33 0.61
1.75 -8.68 -1.72
1.92 -9.56 0.85
2 -9.97 -1.61
1.91 -9.49 1.19
2.47 -12.3 -1.54
1.96 -9.77 1.58
3.47 -17.23 -1.54
4.27 -21.22 4.21
2.63 -13.07 -0.7
2.08 -10.37 2.44
3.17 -15.77 -0.28
1.3 -6.6 -1.8
2.12 -10.73 0.19
1.47 -7.47 -1.76
2.64 -13.37 0.71
1.72 -8.68 -1.72
1.89 -9.55 0.85
1.97 -9.98 -1.61
1.88 -9.49 1.19
2.43 -12.3 -1.54
1.94 -9.8 1.58
3.12 -15.8 -1.41
4.11 -20.83 4.13
2.44 -12.33 -0.66
2.79 -14.12 3.32
3.13 -15.83 -0.28
4.67 -23.62 6.45
1.28 -6.6 -1.8
2.09 -10.76 0.19
1.45 -7.47 -1.76
2.58 -13.33 0.71
1.69 -8.71 -1.72
1.85 -9.56 0.85
1.91 -9.85 -1.59
1.84 -9.51 1.19
2.37 -12.25 -1.53
4.03 -20.78 4.11
4.41 -22.75 -1.21
1.79 -9.24 2.17
4.11 -21.18 5.78
1.25 -6.59 -1.8
4.06 -21.33 0.38
1.42 -7.47 -1.76
4.05 -21.28 1.14
1.65 -8.69 -1.72
4.02 -21.13 1.88
1.88 -9.85 -1.59
2.28 -11.97 -1.5
1.84 -9.65 1.56
3.24 -17.01 -1.51
3.98 -20.89 4.13
2.25 -11.81 -0.63
1.97 -10.35 2.43
3.92 -20.62 5.62
1.23 -6.6 -1.8
2.01 -10.76 0.19
1.39 -7.47 -1.75
1.76 -9.42 0.5
1.62 -8.69 -1.72
3.94 -21.1 1.88
1.84 -9.85 -1.59
1.78 -9.52 1.19
2.24 -11.98 -1.5
3.91 -20.96 3.38
3.17 -16.98 -1.51
3.9 -20.91 4.13
2.24 -12.03 -0.64
3.89 -20.84 4.9
2.01 -10.77 -0.19
1.95 -10.45 2.85
1.21 -6.61 -1.8
1.96 -10.7 0.19
1.37 -7.48 -1.76
1.73 -9.43 0.5
1.59 -8.7 -1.72
1.73 -9.47 0.84
1.83 -10 -1.61
1.74 -9.51 1.19
1.76 -9.61 1.55
2.84 -15.53 -1.38
3.95 -21.58 4.26
3.61 -19.7 -1.05
3.96 -21.63 -0.38
3.8 -20.76 5.66
1.19 -6.62 -1.8
3.52 -19.61 0.35
1.34 -7.49 -1.76
3.81 -21.23 1.13
1.56 -8.71 -1.72
1.8 -10.05 -1.62
1.71 -9.52 1.19
1.72 -9.58 1.54
2.17 -12.08 -1.07
3.87 -21.56 4.26
3.85 -21.49 -1.14
1.85 -10.34 2.42
3.88 -21.62 -0.38
1.88 -10.49 2.86
1.16 -6.62 -1.8
3.77 -21.43 0.38
1.32 -7.5 -1.76
3.82 -21.7 1.15
1.53 -8.7 -1.72
3.81 -21.67 1.92
1.78 -10.1 -1.62
1.68 -9.53 1.19
2.14 -12.18 -1.52
1.68 -9.55 1.54
2.82 -16.02 -1.42
1.79 -10.16 2
3.86 -21.94 -1.17
1.82 -10.33 2.42
2.15 -12.2 -0.22
3.78 -21.51 5.85
1.14 -6.62 -1.8
1.87 -10.84 0.19
1.29 -7.48 -1.75
2.04 -11.84 0.63
1.5 -8.72 -1.72
3.73 -21.64 1.92
1.74 -10.11 -1.62
1.64 -9.55 1.19
2.09 -12.12 -1.51
1.64 -9.54 1.53
2.97 -17.28 -1.53
1.75 -10.17 2.01
3.79 -21.98 -1.17
2.44 -14.19 3.33
3.78 -21.94 -0.39
1.81 -10.5 2.86
1.12 -6.63 -1.8
3.67 -21.73 0.38
1.26 -7.48 -1.75
2 -11.85 0.63
1.47 -8.74 -1.72
3.66 -21.68 1.92
1.71 -10.12 -1.62
1.61 -9.55 1.19
2.03 -12.02 -1.5
1.61 -9.55 1.53
1.98 -11.73 -1.04
1.72 -10.19 2.01
1.61 -9.53 -0.51
2.14 -12.7 -0.22
1.78 -10.53 2.86
1.1 -6.64 -1.8
2.38 -14.43 0.26
1.23 -7.47 -1.75
1.45 -8.76 -1.73
3.93 -23.84 2.11
1.66 -10.07 -1.62
1.56 -9.44 1.17
1.99 -12.04 -1.5
1.58 -9.57 1.54
2.03 -12.32 -1.09
1.68 -10.21 2.01
1.57 -9.52 -0.51
1.5 -9.1 2.13
2.1 -12.71 -0.22
3.06 -18.52 5.03
1.07 -6.65 -1.81
1.21 -7.48 -1.75
1.99 -12.31 0.65
1.41 -8.74 -1.72
2.94 -18.24 1.62
1.62 -10.05 -1.61
1.52 -9.41 1.17
1.94 -12.03 -1.5
4.96 -30.73 4.93
1.93 -11.97 -1.06
1.53 -9.5 -0.5
1.68 -10.41 2.43
3.55 -21.98 -0.39
1.87 -11.55 3.14
1.05 -6.65 -1.8
7.22 -45.72 0.81
1.18 -7.49 -1.75
1.46 -9.24 0.49
1.38 -8.72 -1.72
1.79 -11.33 1
1.6 -10.13 -1.62
1.51 -9.56 1.19
1.74 -11.02 -1.37
4.37 -27.69 4.44
1.79 -11.33 -1
3.51 -22.22 -1.18
2.22 -14.06 3.29
1.87 -11.85 -0.21
2.81 -17.79 4.83
1.02 -6.64 -1.8
5.32 -34.47 0.61
1.15 -7.47 -1.75
1.35 -8.74 -1.72
1.76 -11.38 1.01
1.56 -10.12 -1.62
1.48 -9.57 1.19
1.7 -11.04 -1.37
1.48 -9.58 1.54
1.43 -9.29 -0.82
1.79 -11.59 -0.61
1.76 -11.4 -0.2
2.74 -17.78 4.82
1 -6.65 -1.8
1.65 -10.91 0.19
1.13 -7.46 -1.74
2.76 -18.28 0.97
1.32 -8.75 -1.72
1.43 -9.44 0.83
1.53 -10.14 -1.62
1.33 -8.84 1.1
1.44 -9.5 1.52
1.67 -11.07 -0.98
1.75 -11.57 -0.61
4.09 -27.06 6.32
1.72 -11.37 -0.2
1.59 -10.54 2.86
0.98 -6.66 -1.8
1.61 -10.9 0.19
1.1 -7.44 -1.74
1.29 -8.76 -1.72
3.52 -23.89 2.11
1.48 -10.06 -1.61
1.89 -12.79 -1.59
1.4 -9.48 1.52
1.44 -9.79 -0.87
2.07 -14 2.75
3.32 -22.51 -1.19
4.4 -29.86 6.97
1.92 -12.99 -0.23
1.56 -10.56 2.86
0.96 -6.66 -1.8
1.58 -10.96 0.19
1.07 -7.46 -1.74
2.66 -18.45 0.98
1.26 -8.77 -1.72
3.38 -23.46 2.07
1.45 -10.08 -1.61
1.58 -10.97 1.36
1.36 -9.47 1.52
1.93 -13.38 -1.18
1.72 -11.94 2.35
1.88 -13.04 -0.69
2.45 -17 3.97
2.01 -13.98 -0.25
1.52 -10.59 2.87
0.94 -6.67 -1.8
4.73 -33.72 0.59
1.05 -7.48 -1.74
1.38 -9.86 0.52
1.23 -8.76 -1.72
3.31 -23.6 2.08
1.41 -10.04 -1.61
1.54 -11.01 1.36
1.33 -9.45 1.51
1.72 -12.24 -1.08
1.57 -11.2 2.2
1.78 -12.7 -0.67
1.58 -11.26 2.63
1.96 -13.98 -0.25
0.91 -6.67 -1.8
1.3 -9.51 0.17
1.02 -7.48 -1.74
1.59 -11.63 0.62
1.19 -8.7 -1.71
3.22 -23.51 2.08
1.39 -10.17 -1.63
1.5 -10.93 1.35
1.38 -10.1 -1.25
1.3 -9.49 1.52
1.42 -10.38 -0.92
1.73 -12.66 -0.67
1.3 -9.48 2.21
4.6 -33.65 -0.59
2.55 -18.64 5.04
0.89 -6.67 -1.8
1.24 -9.31 0.16
1 -7.49 -1.74
1.55 -11.66 0.62
1.16 -8.68 -1.7
1.28 -9.57 0.84
1.35 -10.13 -1.62
1.61 -12.11 1.5
1.34 -10.08 -1.25
1.27 -9.53 1.52
1.64 -12.31 -1.09
1.41 -10.61 2.08
1.53 -11.51 -0.61
4.52 -33.95 -0.6
1.44 -10.82 2.92
0.87 -6.67 -1.8
1.24 -9.59 0.17
0.97 -7.48 -1.74
1.51 -11.68 0.62
1.13 -8.74 -1.71
1.24 -9.53 0.84
1.32 -10.16 -1.62
1.16 -8.97 1.11
1.54 -11.87 -1.47
1.24 -9.56 1.53
2.29 -17.64 -1.56
4.05 -31.25 6.13
2.74 -21.1 -1.12
1.37 -10.6 2.47
1.4 -10.83 2.93
0.84 -6.69 -1.81
1.52 -12.03 0.21
0.95 -7.5 -1.75
1.11 -8.77 -1.72
1.23 -9.73 0.86
1.28 -10.15 -1.62
1.54 -12.22 1.51
1.5 -11.89 -1.47
1.21 -9.58 1.53
2.22 -17.63 -1.55
2.49 -19.75 3.87
1.49 -11.77 -0.62
1.35 -10.7 2.49
1.3 -10.3 2.78
0.82 -6.68 -1.8
1.34 -10.95 0.19
0.92 -7.49 -1.74
1.07 -8.74 -1.71
1.2 -9.75 0.86
1.24 -10.14 -1.62
3.39 -27.61 3.42
1.39 -11.33 -1.4
1.18 -9.59 1.53
1.51 -12.3 -1.08
2.24 -18.23 3.57
1.16 -9.42 -0.5
1.3 -10.59 2.46
1.54 -12.53 -0.22
1.24 -10.14 2.74
0.8 -6.68 -1.8
1.43 -12.04 0.21
0.89 -7.49 -1.74
3.26 -27.38 1.45
1.04 -8.76 -1.71
1.21 -10.17 -1.62
1.1 -9.21 1.14
1.1 -9.27 -1.15
1.14 -9.6 1.53
1.46 -12.26 -1.08
1.23 -10.31 2.02
1.4 -11.79 -0.62
1.22 -10.21 2.37
1.49 -12.52 -0.22
1.2 -10.11 2.73
0.77 -6.68 -1.8
1.22 -10.57 0.19
0.87 -7.49 -1.74
1.22 -10.54 0.56
1.01 -8.77 -1.72
1.18 -10.24 0.9
1.17 -10.15 -1.62
1.07 -9.22 1.14
1.06 -9.21 -1.14
1.11 -9.64 1.54
2.05 -17.74 -1.56
1.19 -10.26 2.01
1.4 -12.13 -0.64
1.18 -10.19 2.37
1.44 -12.46 -0.22
1.17 -10.1 2.72
0.75 -6.69 -1.8
1.18 -10.52 0.18
0.84 -7.49 -1.74
1.17 -10.48 0.55
0.98 -8.76 -1.71
1.15 -10.24 0.9
1.15 -10.23 -1.63
1.04 -9.26 1.14
1.06 -9.46 -1.17
1.08 -9.65 1.54
1.21 -10.79 -0.95
1.14 -10.21 2
1.07 -9.51 -0.5
1.14 -10.18 2.37
1.13 -10.11 2.73
0.73 -6.71 -1.81
1.14 -10.5 0.18
0.82 -7.51 -1.74
1.13 -10.44 0.55
0.95 -8.75 -1.71
1.08 -9.99 0.88
1.12 -10.27 -1.64
1.01 -9.31 1.15
1.03 -9.48 -1.17
1.05 -9.65 1.54
1.17 -10.73 -0.94
1.11 -10.21 2
1.03 -9.53 -0.5
1.1 -10.17 2.36
1.1 -10.13 2.73
0.7 -6.71 -1.81
0.79 -7.53 -1.75
1.04 -9.9 0.52
0.92 -8.73 -1.71
1.02 -9.72 0.85
1.05 -10.02 -1.6
0.98 -9.31 1.15
1 -9.51 -1.17
1.01 -9.66 1.54
1.01 -9.58 1.87
1.12 -10.65 -0.56
1.07 -10.19 2.37
1.03 -9.81 -0.17
1.07 -10.14 2.73
0.68 -6.7 -1.8
0.76 -7.51 -1.74
0.89 -8.77 -1.71
1.06 -10.42 0.92
1.02 -10.04 -1.6
0.94 -9.22 1.14
1.09 -10.77 -1.33
0.97 -9.58 1.52
1.08 -10.67 -0.94
1.04 -10.22 2
1.08 -10.61 -0.56
1.04 -10.21 2.37
0.99 -9.77 -0.17
1.03 -10.14 2.73
0.66 -6.7 -1.8
0.98 -9.98 0.18
0.74 -7.5 -1.74
0.95 -9.68 0.51
0.86 -8.78 -1.72
1.02 -10.42 0.92
0.99 -10.05 -1.6
1.06 -10.77 -1.33
0.95 -9.65 1.54
1.05 -10.69 -0.94
1 -10.22 2
1.02 -10.36 -0.55
1 -10.24 2.38
1.04 -10.56 -0.19
1 -10.18 2.74
0.63 -6.71 -1.81
0.71 -7.5 -1.74
0.99 -10.46 0.55
0.83 -8.79 -1.72
0.99 -10.45 0.92
0.96 -10.2 -1.62
0.92 -9.76 1.2
0.93 -9.84 -1.21
0.98 -10.38 1.65
1.01 -10.7 -0.94
0.97 -10.25 2
0.95 -10.01 -0.53
0.92 -9.77 2.26
1 -10.58 -0.19
0.61 -6.71 -1.81
0.96 -10.53 0.18
0.68 -7.52 -1.74
0.95 -10.46 0.55
0.8 -8.8 -1.72
0.96 -10.51 0.92
0.92 -10.06 -1.6
0.88 -9.66 -1.19
0.88 -9.67 1.54
0.98 -10.72 -0.94
1.08 -11.87 2.32
0.97 -10.62 -0.56
0.87 -9.57 2.22
0.87 -9.51 -0.17
1.68 -18.47 4.97
0.59 -6.72 -1.81
0.92 -10.57 0.19
0.66 -7.54 -1.75
0.92 -10.5 0.55
0.77 -8.82 -1.72
0.89 -10.12 -1.61
0.87 -9.98 1.23
0.85 -9.68 -1.19
0.85 -9.67 1.54
0.9 -10.32 -0.91
0.83 -9.45 1.84
0.92 -10.51 -0.55
0.81 -9.27 2.49
0.56 -6.72 -1.81
0.89 -10.63 0.19
0.63 -7.54 -1.75
0.89 -10.56 0.56
0.74 -8.83 -1.72
0.92 -10.96 0.96
0.85 -10.17 -1.62
0.88 -10.42 1.28
0.86 -10.21 -1.26
1.01 -12.02 1.91
0.85 -10.12 -0.89
0.81 -9.61 1.87
0.84 -10.05 -0.53
0.79 -9.35 2.17
0.84 -10.02 -0.18
0.78 -9.3 2.5
0.54 -6.72 -1.81
0.95 -11.84 0.21
1.52 -18.89 0.99
0.83 -10.3 -1.64
0.82 -10.22 -1.26
0.94 -11.69 1.86
0.82 -10.14 -0.89
0.77 -9.57 1.87
0.81 -10.06 -0.53
0.9 -11.16 2.58
0.79 -9.78 -0.17
1.49 -18.5 4.97
0.52 -6.73 -1.81
0.97 -12.55 0.22
0.85 -11.01 0.58
0.94 -12.28 1.08
0.78 -10.16 -1.61
0.92 -11.98 1.47
0.84 -10.95 -1.35
1.43 -18.6 2.96
0.95 -12.29 -1.08
1.43 -18.64 3.63
0.91 -11.86 -0.62
0.72 -9.36 2.17
0.75 -9.69 -0.17
1.41 -18.35 4.93
0.49 -6.73 -1.81
0.9 -12.24 0.64
2.26 -30.72 2.7
0.74 -10.09 -1.6
0.88 -11.94 -1.47
0.88 -11.93 1.89
0.87 -11.91 -1.04
0.7 -9.48 1.85
0.9 -12.26 -0.64
0.71 -9.62 -0.17
0.67 -9.16 2.46
0.47 -6.73 -1.81
0.84 -11.97 0.63
0.62 -8.87 -1.73
2.15 -30.75 2.7
0.72 -10.31 -1.64
0.83 -11.94 -1.47
0.81 -11.59 1.84
0.86 -12.33 -1.08
0.66 -9.49 1.85
0.82 -11.77 -0.62
1.3 -18.63 4.31
0.67 -9.58 -0.17
0.75 -10.66 2.86
0.45 -6.73 -1.81
0.77 -11.63 0.2
0.66 -9.97 0.52
0.74 -11.19 0.98
0.68 -10.19 -1.62
0.77 -11.56 -1.42
0.85 -12.85 2.04
0.8 -12.04 -1.06
0.61 -9.26 1.8
0.78 -11.81 -0.62
1.85 -27.88 6.45
0.77 -11.57 -0.2
0.65 -9.74 2.62
0.42 -6.74 -1.81
0.72 -11.38 0.2
0.63 -9.96 0.52
0.65 -10.32 -1.64
0.77 -12.22 1.5
0.75 -11.94 -1.47
0.71 -11.28 1.79
0.76 -12.05 -1.06
0.8 -12.75 2.48
0.76 -12.13 -0.64
1.46 -23.23 5.37
0.61 -10.29 0.54
0.7 -11.79 1.03
0.62 -10.46 -1.66
0.69 -11.52 1.42
0.72 -12 -1.48
0.75 -12.58 2
0.71 -11.91 -1.04
0.76 -12.81 2.49
0.72 -12.1 -0.64
1.39 -23.25 5.38
0.75 -12.55 -0.22
0.58 -9.75 2.62
0.53 -9.43 0.16
0.64 -11.47 0.6
0.65 -11.53 1.01
0.58 -10.43 -1.65
0.58 -10.37 1.28
0.67 -11.95 -1.47
0.66 -11.82 1.88
0.68 -12.04 -1.06
1.31 -23.31 4.54
0.67 -11.93 -0.63
1.31 -23.33 5.4
0.66 -11.85 -0.21
0.56 -10.02 2.69
0.5 -9.46 0.17
0.6 -11.43 0.6
0.55 -10.43 -1.65
1.22 -23.13 2.84
0.64 -12.14 -1.49
0.52 -9.87 1.56
0.63 -11.96 -1.05
0.82 -15.69 3.05
0.52 -9.82 -0.52
1.51 -28.79 6.66
0.65 -12.4 -0.22
0.58 -11.9 0.21
0.56 -11.34 0.6
0.53 -10.85 0.95
0.5 -10.14 -1.61
0.56 -11.33 1.39
0.59 -12.12 -1.49
0.77 -15.67 2.48
0.59 -11.96 -1.05
0.58 -11.91 -0.63
0.91 -18.58 4.3
0.59 -11.97 -0.21
0.77 -15.76 4.23
0.55 -12.11 0.21
0.71 -15.61 0.82
0.57 -12.46 1.09
0.48 -10.44 -1.66
0.47 -10.31 1.27
0.57 -12.5 -1.54
0.51 -11.27 1.79
0.55 -12.1 -1.06
0.71 -15.66 3.05
0.42 -9.3 2.15
0.56 -12.31 -0.22
0.45 -9.92 2.66
0.66 -15.61 0.27
0.51 -12.23 0.64
0.44 -10.44 -1.66
0.47 -11.22 1.38
0.5 -11.81 -1.45
0.54 -12.77 2.02
0.52 -12.31 -1.08
0.55 -13.07 2.54
0.41 -9.8 -0.51
0.85 -20.18 4.66
0.42 -9.91 2.66
0.46 -12.03 0.21
0.29 -7.61 -1.76
0.39 -10.05 0.53
0.49 -12.61 1.1
0.4 -10.28 -1.63
0.38 -9.9 1.22
0.47 -12.16 -1.49
0.5 -12.96 2.05
0.38 -9.76 -0.85
0.46 -11.86 2.31
0.38 -9.82 -0.51
0.51 -13.18 3.04
0.68 -17.55 4.71
0.35 -10.02 0.18
0.27 -7.6 -1.76
0.45 -12.74 0.67
0.31 -8.83 -1.72
0.46 -13.12 1.15
0.36 -10.3 -1.63
0.44 -12.57 1.54
0.43 -12.16 -1.49
0.38 -10.91 1.73
0.43 -12.27 -1.07
0.32 -9.03 1.76
0.43 -12.12 2.8
0.43 -12.18 -0.21
0.35 -9.86 2.64
0.36 -11.41 0.2
0.24 -7.61 -1.76
0.69 -21.86 1.15
0.33 -10.35 -1.64
0.4 -12.73 1.56
0.39 -12.19 -1.5
0.34 -10.82 1.72
0.4 -12.74 -1.12
0.29 -9.22 1.79
0.35 -11.22 -0.59
0.49 -15.54 3.59
0.37 -11.61 -0.2
0.49 -15.51 4.16
0.33 -11.65 0.2
0.21 -7.63 -1.76
0.29 -10.32 0.54
0.3 -10.5 0.92
0.29 -10.39 -1.65
0.27 -9.69 1.19
0.36 -12.91 2.04
0.34 -12.23 -1.07
0.26 -9.15 1.78
0.32 -11.25 -0.59
0.44 -15.56 3.59
0.33 -11.73 -0.2
0.44 -15.52 4.16
0.22 -8.84 -1.72
0.53 -21.49 1.88
0.26 -10.41 -1.65
0.24 -9.71 1.19
0.3 -12.1 -1.49
0.52 -21.32 3.38
0.24 -9.57 -0.84
0.22 -9.06 1.76
0.31 -12.63 -0.66
0.29 -11.67 -0.2
0.25 -12.05 0.21
0.24 -11.18 0.59
0.19 -8.8 -1.71
0.22 -10.43 -1.65
0.21 -9.81 1.2
0.26 -12.34 -1.52
0.56 -26.51 4.2
0.2 -9.69 -0.85
0.19 -9.07 1.76
0.27 -12.63 -0.66
0.64 -30.48 7.04
0.25 -11.73 -0.2
0.44 -20.83 5.58
0.21 -11.91 0.21
0.22 -12.59 0.66
0.16 -8.8 -1.71
0.21 -12.09 1.06
0.18 -10.49 -1.66
0.17 -9.85 1.21
0.22 -12.41 -1.52
0.47 -26.45 4.19
0.3 -17.02 -1.49
0.16 -8.97 1.74
0.21 -11.81 -0.62
0.37 -21 4.85
0.22 -12.54 -0.22
0.17 -9.88 2.65
0.17 -12.04 0.63
0.12 -8.82 -1.72
0.15 -10.45 0.91
0.15 -10.45 -1.66
0.17 -12.03 1.48
0.18 -12.4 -1.52
0.3 -21.43 3.39
0.14 -9.63 -0.84
0.13 -8.99 1.75
0.17 -11.87 -0.62
0.43 -30.75 7.1
0.18 -12.62 -0.22
0.14 -9.86 2.64
0.12 -11.43 0.2
0.12 -10.83 0.57
0.1 -8.84 -1.72
0.11 -10.34 0.9
0.11 -10.51 -1.67
0.13 -12.02 1.48
0.13 -12.39 -1.52
0.13 -12.32 1.95
0.2 -18.14 -1.59
0.11 -9.77 1.9
0.22 -20.4 4.71
0.14 -12.65 -0.22
0.13 -11.85 3.18
0.08 -11.44 0.2
0.08 -11.39 0.6
0.06 -8.77 -1.71
0.08 -10.4 0.91
0.08 -10.6 -1.68
0.09 -12.08 1.48
0.09 -12.3 -1.51
0.09 -11.96 1.89
0.07 -9.19 -0.8
0.07 -9.34 -0.49
0.07 -10.11 2.33
0.09 -12.7 -0.22
0.17 -22.56 6.05
0.04 -9.37 0.49
0.03 -8.69 -1.69
0.04 -10.57 0.92
0.04 -10.6 -1.68
0.05 -12.21 -1.5
0.05 -12.04 1.91
0.03 -9.02 -0.79
0.04 -9.99 1.94
0.05 -12.64 -0.66
0.05 -11.96 2.76
0.04 -11.55 3.1
0 -7.62 -1.76
0 -11.16 0.59
0 -8.69 -1.69
0 -10.56 0.92
0 -10.13 -1.61
