# .PCD v0.7 - Point Cloud Data file format
VERSION 0.7
FIELDS x y z
SIZE 4 4 4
TYPE F F F
COUNT 1 1 1
WIDTH 2970
HEIGHT 1
VIEWPOINT 0 0 0 1 0 0 0
POINTS 2970
DATA ascii
0.17 13.04 -2.07
0.19 14.62 1.79
0.18 14.15 -1.74
0.21 16.27 2.58
0.18 14.14 -1.24
0.21 16.23 3.15
0.18 14.25 -0.75
0.21 16.13 3.72
0.18 14.4 -0.25
0.11 6.51 -1.74
0.24 14.67 0.26
0.12 7.58 -1.75
0.23 14.17 0.74
0.13 8.19 -1.59
0.24 14.81 1.3
0.21 13.04 -2.07
0.24 14.76 1.81
0.23 14.27 -1.75
0.26 16.26 2.58
0.23 14.24 -1.25
0.26 16.26 3.16
0.23 14.05 -0.74
0.23 14.29 -0.25
0.13 6.51 -1.75
0.29 14.52 0.25
0.15 7.58 -1.75
0.29 14.51 0.76
0.16 8.2 -1.59
0.28 14.3 1.25
0.26 13.07 -2.07
0.29 14.67 1.8
0.29 14.78 -1.29
0.28 14.05 -0.74
0.29 14.73 -0.26
0.15 6.52 -1.75
0.34 14.45 0.25
0.18 7.56 -1.75
0.19 8.2 -1.6
0.33 14.42 1.26
0.3 13.09 -2.07
0.34 14.57 1.79
0.33 14.05 -1.73
0.64 27.61 4.37
0.34 14.82 -1.3
0.37 16.11 3.72
0.34 14.76 -0.26
0.33 14.07 3.77
0.17 6.52 -1.75
0.39 14.48 0.25
0.2 7.55 -1.74
0.38 14.34 0.75
0.22 8.2 -1.6
0.39 14.42 1.26
0.35 13.09 -2.07
0.39 14.48 1.78
0.37 14.03 -1.72
0.39 14.64 2.32
0.4 14.97 -1.31
0.39 14.74 -0.77
0.43 16.06 3.71
0.4 14.83 -0.26
0.37 14.02 3.76
0.2 6.51 -1.74
0.44 14.53 0.25
0.23 7.57 -1.75
0.43 14.39 0.75
0.25 8.2 -1.59
0.44 14.44 1.26
0.4 13.09 -2.07
0.44 14.53 1.79
0.5 16.54 -2.03
0.45 14.82 2.35
0.5 16.56 -1.45
0.61 20.16 3.92
0.44 14.53 -0.76
0.49 16.2 3.74
0.45 14.82 -0.26
0.61 20.18 5.41
0.22 6.51 -1.74
0.48 14.39 0.25
0.25 7.57 -1.75
0.48 14.38 0.75
0.27 8.2 -1.6
0.48 14.4 1.26
0.44 13.08 -2.07
0.49 14.7 1.81
0.47 14.07 -1.73
0.67 20.07 3.18
0.49 14.58 -1.28
0.67 20.08 3.91
0.47 14.11 -0.74
0.68 20.15 4.65
0.48 14.26 -0.25
0.47 13.99 3.75
0.24 6.5 -1.74
0.52 14.02 0.24
0.28 7.56 -1.75
0.54 14.52 0.76
0.3 8.2 -1.6
0.74 20.02 1.75
0.48 13.04 -2.07
0.53 14.38 1.77
0.52 14.08 -1.73
0.6 16.26 2.58
0.52 14.05 -1.23
0.55 14.91 2.9
0.53 14.34 -0.75
0.53 14.26 -0.25
0.58 15.8 4.24
0.26 6.5 -1.74
1.09 26.87 0.47
0.31 7.56 -1.75
0.59 14.56 0.76
0.33 8.21 -1.6
0.6 14.77 1.29
0.52 12.79 -2.03
0.59 14.55 1.79
0.57 14.04 -1.73
0.58 14.14 -1.24
0.6 14.65 2.85
0.58 14.14 -0.74
0.73 17.97 4.15
0.58 14.2 -0.25
0.73 17.96 4.82
0.29 6.51 -1.74
0.63 14.37 0.25
0.33 7.55 -1.74
0.63 14.16 0.74
0.36 8.2 -1.59
0.65 14.79 1.29
0.56 12.76 -2.02
0.65 14.64 1.8
1.18 26.65 -3.27
0.76 17.29 2.74
0.62 14.13 -1.24
0.79 17.93 3.49
0.63 14.17 -0.74
0.79 17.86 4.13
0.63 14.35 -0.25
0.65 14.62 3.92
0.31 6.5 -1.74
0.95 20.03 0.35
0.36 7.56 -1.75
0.68 14.3 0.75
0.39 8.21 -1.6
0.86 17.95 1.57
0.61 12.75 -2.02
0.7 14.76 1.81
0.71 14.85 -1.83
0.84 17.69 2.81
0.67 14.07 -1.23
0.7 14.68 2.86
0.68 14.35 -0.25
0.67 14.13 3.79
0.33 6.49 -1.74
0.74 14.46 0.25
0.39 7.56 -1.75
0.75 14.63 0.77
0.42 8.21 -1.6
0.74 14.55 1.27
0.65 12.74 -2.02
0.76 14.93 1.84
0.74 14.4 -1.77
0.77 15.05 2.39
1.02 19.9 -1.74
0.74 14.53 2.83
0.72 14.14 -0.74
1.03 20.16 4.66
0.73 14.2 -0.25
0.35 6.49 -1.74
0.98 17.89 0.31
0.41 7.55 -1.75
0.8 14.58 0.77
0.45 8.22 -1.6
0.79 14.36 1.26
0.7 12.73 -2.02
0.79 14.51 1.78
0.78 14.32 -1.76
0.81 14.78 2.34
1.09 19.86 -1.74
0.8 14.68 2.86
0.77 14.13 -0.74
1.38 25.3 5.85
0.98 17.91 -0.31
0.38 6.49 -1.74
0.85 14.57 0.25
0.44 7.54 -1.74
0.85 14.55 0.76
0.48 8.24 -1.61
0.86 14.82 1.3
0.74 12.74 -2.02
0.84 14.38 1.77
0.83 14.24 -1.75
0.86 14.81 2.35
0.82 14.01 -1.23
0.86 14.83 2.89
0.82 14.07 -0.74
1.17 20.12 4.65
0.83 14.26 -0.25
1.05 18.11 4.86
0.4 6.49 -1.74
1.33 21.53 0.38
0.47 7.54 -1.74
0.9 14.53 0.76
0.51 8.24 -1.6
0.79 12.74 -2.02
0.89 14.4 1.77
0.88 14.23 -1.75
0.92 14.87 2.36
0.87 14.05 -1.23
0.9 14.65 2.85
0.87 14.14 -0.74
1.55 25.09 5.8
0.88 14.21 -0.25
0.42 6.49 -1.74
0.94 14.38 0.25
0.49 7.54 -1.74
0.94 14.44 0.76
0.54 8.28 -1.61
0.92 14.06 1.23
0.83 12.75 -2.02
0.98 15.11 1.86
0.93 14.21 -1.75
0.97 14.9 2.36
0.93 14.31 -1.25
0.97 14.83 2.89
0.94 14.35 -0.75
1.32 20.2 4.67
0.93 14.33 -0.25
0.44 6.48 -1.74
1 14.5 0.25
0.52 7.54 -1.74
0.99 14.45 0.76
0.57 8.28 -1.61
0.99 14.41 1.26
0.88 12.77 -2.03
0.98 14.32 -1.76
1.85 26.89 4.27
0.97 14.19 -1.24
1.02 14.9 2.9
0.97 14.13 -0.74
1.71 24.91 5.76
0.99 14.34 -0.25
0.47 6.48 -1.74
1.03 14.27 0.25
0.54 7.53 -1.74
1.04 14.41 0.76
0.6 8.26 -1.61
1.07 14.85 1.3
0.92 12.77 -2.03
1.09 15.13 1.86
1.04 14.39 -1.77
1.25 17.36 2.76
1.04 14.47 -1.27
1.08 14.93 2.91
1.04 14.36 -0.75
1.04 14.45 -0.25
0.49 6.47 -1.74
1.08 14.29 0.25
0.57 7.52 -1.74
1.35 17.8 0.94
0.63 8.29 -1.62
1.12 14.85 1.3
0.97 12.78 -2.03
1.14 15.07 1.86
1.08 14.32 -1.76
1.11 14.67 2.33
1.09 14.45 -1.27
1.4 18.48 3.6
1.09 14.36 -0.75
2.09 27.61 6.39
1.09 14.38 -0.25
1.23 16.25 4.37
0.51 6.47 -1.74
1.37 17.35 0.3
0.6 7.52 -1.74
1.41 17.8 0.94
0.66 8.29 -1.62
1.17 14.81 1.3
1.01 12.8 -2.03
1.2 15.13 1.86
1.17 14.71 2.34
1.13 14.25 -1.25
1.16 14.67 2.86
1.12 14.16 -0.74
1.69 21.37 4.95
1.13 14.32 -0.25
1.28 16.18 4.35
0.54 6.47 -1.74
1.45 17.49 0.31
0.62 7.52 -1.74
1.47 17.72 0.93
0.68 8.27 -1.61
1.77 21.33 1.87
1.06 12.79 -2.03
1.25 15.14 1.87
1.2 14.45 -1.78
2.17 26.23 4.17
1.19 14.41 -1.27
1.21 14.59 2.85
1.2 14.45 -0.76
2.03 24.55 5.69
1.19 14.34 -0.25
2.05 24.8 6.67
0.56 6.46 -1.74
1.24 14.35 0.25
0.65 7.52 -1.74
1.52 17.67 0.93
0.71 8.27 -1.61
1.25 14.51 1.27
1.1 12.77 -2.03
1.31 15.14 1.87
1.24 14.34 -1.77
1.24 14.37 -1.26
1.26 14.56 2.84
1.24 14.38 -0.76
1.22 14.18 -0.25
0.58 6.46 -1.74
1.31 14.59 0.26
0.67 7.51 -1.74
1.72 19.11 1.01
0.74 8.26 -1.61
1.95 21.7 1.91
1.14 12.75 -2.03
1.36 15.16 1.87
2.38 26.47 -3.26
2.18 24.29 3.86
1.28 14.3 -1.26
1.35 15 2.93
1.29 14.37 -0.76
2.45 27.31 6.33
1.29 14.32 -0.25
1.9 21.13 5.68
0.6 6.46 -1.74
1.36 14.58 0.26
0.7 7.49 -1.74
2.01 21.56 1.13
0.77 8.25 -1.61
2.25 24.11 2.12
1.19 12.75 -2.03
1.41 15.15 1.87
1.35 14.42 -1.78
1.44 15.4 2.45
1.35 14.42 -1.27
2.55 27.34 5.34
1.34 14.35 -0.76
1.53 16.41 3.81
1.34 14.39 -0.25
1.53 16.45 4.43
0.63 6.46 -1.74
1.42 14.7 0.26
0.73 7.49 -1.74
1.7 17.59 0.93
0.8 8.24 -1.61
2.33 24.11 2.12
1.23 12.74 -2.03
1.47 15.16 1.87
1.39 14.41 -1.78
1.58 16.37 2.6
1.39 14.33 -1.26
1.59 16.39 3.2
1.38 14.27 -0.75
1.59 16.38 3.8
1.39 14.31 -0.25
1.59 16.41 4.42
0.65 6.45 -1.74
1.49 14.86 0.26
0.75 7.49 -1.74
1.45 14.49 0.76
0.83 8.24 -1.61
1.65 16.4 1.44
1.28 12.74 -2.03
1.52 15.15 1.87
1.46 14.51 -1.79
1.54 15.39 2.45
1.44 14.33 -1.26
1.64 16.32 3.19
1.44 14.37 -0.76
1.64 16.35 3.79
1.44 14.39 -0.25
0.67 6.44 -1.73
1.7 16.41 0.29
0.78 7.49 -1.74
1.6 15.42 0.81
0.85 8.22 -1.61
1.7 16.36 1.44
1.32 12.74 -2.03
1.7 16.35 2.02
1.73 16.62 -2.05
1.7 16.33 2.6
1.5 14.42 -1.27
1.69 16.24 3.17
1.67 16.11 3.74
1.51 14.54 -0.26
1.67 16.13 4.34
0.69 6.44 -1.74
1.61 15.01 0.26
0.8 7.48 -1.74
1.76 16.38 0.86
0.88 8.23 -1.61
1.76 16.39 1.44
1.37 12.72 -2.03
2.28 21.26 2.63
1.78 16.56 -2.05
1.56 14.54 -1.28
1.77 16.48 -0.87
1.72 16.01 3.72
1.58 14.67 -0.26
1.73 16.13 4.35
0.71 6.44 -1.74
1.68 15.13 0.27
0.83 7.47 -1.73
1.68 15.16 0.8
0.91 8.22 -1.61
1.76 15.88 1.4
1.41 12.73 -2.03
2.97 26.76 3.31
1.74 15.65 -1.93
1.98 17.85 2.84
1.61 14.51 -1.28
1.61 14.48 -0.76
2.37 21.37 4.96
1.62 14.65 -0.26
1.72 15.5 4.18
0.74 6.44 -1.74
1.98 17.27 0.3
0.85 7.47 -1.74
2.44 21.34 1.13
0.94 8.23 -1.61
1.46 12.72 -2.03
1.97 17.25 2.13
1.79 15.65 -1.93
2.06 17.99 2.87
1.65 14.39 -1.27
1.68 14.65 -0.77
3.06 26.74 6.21
1.7 14.89 -0.26
0.76 6.44 -1.74
1.81 15.35 0.27
0.88 7.47 -1.74
2.52 21.38 1.13
0.97 8.22 -1.61
3.14 26.6 2.34
1.5 12.74 -2.03
1.8 15.22 1.88
1.85 15.67 -1.94
1.8 15.22 2.43
1.69 14.29 -1.26
3.13 26.52 5.19
1.78 15.09 -0.8
2.58 21.88 5.09
1.82 15.38 -0.27
0.78 6.42 -1.73
1.82 15 0.26
0.91 7.47 -1.74
2.13 17.55 0.93
1 8.23 -1.61
2.15 17.7 1.56
1.55 12.72 -2.03
1.85 15.21 1.88
3.14 25.87 -3.2
1.76 14.47 2.31
1.75 14.38 -1.27
3.23 26.57 5.2
3.68 30.29 -1.6
3.31 27.26 6.34
1.83 15.08 -0.27
3.4 27.94 7.54
0.8 6.42 -1.73
2.17 17.34 0.31
0.93 7.46 -1.74
1.83 14.66 0.77
1.03 8.24 -1.61
2.95 23.61 2.08
1.59 12.71 -2.03
3.31 26.49 3.28
3.23 25.82 -3.2
1.82 14.51 2.32
1.79 14.31 -1.26
1.84 14.73 -0.78
7.77 62.12 14.45
1.89 15.1 -0.27
3.46 27.66 7.47
0.83 6.41 -1.73
1.92 14.94 0.26
0.96 7.44 -1.73
1.89 14.72 0.78
1.06 8.22 -1.61
3.4 26.42 2.33
1.63 12.71 -2.03
2.29 17.83 2.21
1.99 15.48 -1.92
1.89 14.69 2.35
1.84 14.28 -1.26
2.79 21.69 -1.15
3.3 25.65 5.97
1.94 15.07 -0.27
0.85 6.42 -1.73
2.31 17.46 0.31
0.98 7.44 -1.73
1.94 14.66 0.78
1.08 8.2 -1.61
3.49 26.39 2.33
1.68 12.71 -2.03
3.51 26.57 3.29
3.4 25.75 -3.19
2.37 17.91 2.86
1.87 14.12 -1.25
3.53 26.73 5.24
1.94 14.68 -0.78
3.63 27.49 6.4
2.29 17.31 -0.3
0.87 6.41 -1.73
2 14.77 0.26
1.01 7.44 -1.73
1.99 14.68 0.78
1.11 8.18 -1.6
1.97 14.51 1.28
1.73 12.71 -2.03
3.59 26.42 3.27
2.69 19.85 -2.46
2.02 14.92 2.38
1.9 14 -1.24
2.43 17.89 3.51
1.99 14.66 -0.78
8.48 62.47 14.56
1.99 14.67 -0.26
0.89 6.39 -1.73
2.43 17.43 0.31
1.04 7.44 -1.73
2.05 14.75 0.78
1.14 8.19 -1.61
3.75 26.91 2.38
1.77 12.7 -2.03
2.02 14.47 -1.79
4.05 29.05 4.65
1.95 13.97 -1.23
2.49 17.86 3.51
2.39 17.17 -0.91
2.05 14.7 -0.26
0.91 6.4 -1.73
2.12 14.81 0.26
1.06 7.43 -1.73
2.09 14.64 0.77
1.17 8.21 -1.61
2.09 14.64 1.29
1.81 12.7 -2.03
3.7 25.91 3.21
2.06 14.42 -1.79
2.56 17.93 2.87
1.99 13.94 -1.23
2.45 17.14 -0.91
2.1 14.73 -0.26
1.96 13.7 3.71
0.94 6.39 -1.73
3.73 25.46 0.45
1.09 7.41 -1.73
2.73 18.64 0.99
1.2 8.22 -1.62
3.77 25.78 2.28
1.86 12.7 -2.03
3.71 25.31 3.14
2.05 13.97 -1.73
3.64 24.86 3.98
2.05 13.99 -1.24
2.51 17.13 -0.91
3.62 24.71 5.77
2.18 14.87 -0.26
3.46 23.61 6.39
0.96 6.39 -1.73
2.24 14.9 0.26
1.11 7.41 -1.73
3.84 25.61 1.36
1.23 8.21 -1.61
2.89 19.28 1.71
1.91 12.7 -2.03
9.3 62.03 7.7
2.11 14.1 -1.75
3.92 26.11 4.18
2.11 14.08 -1.25
2.17 14.46 2.84
4.27 28.48 -1.51
3.71 24.71 5.77
2.23 14.89 -0.26
3.52 23.5 6.37
0.98 6.39 -1.73
3.86 25.16 0.44
1.14 7.41 -1.73
2.27 14.79 0.78
1.26 8.21 -1.62
2.26 14.69 1.3
1.95 12.7 -2.04
2.14 13.95 -1.73
2.5 16.28 2.61
2.19 14.27 -1.26
2.12 13.79 2.71
2.21 14.42 -0.76
1 6.36 -1.72
3.95 25.16 0.44
1.16 7.41 -1.73
2.33 14.83 0.79
1.29 8.21 -1.62
2.3 14.66 1.3
1.99 12.69 -2.04
2.22 14.11 -1.75
2.18 13.89 2.23
2.19 13.97 -1.24
4.15 26.38 5.19
4.81 30.62 -1.62
4.14 26.36 6.16
2.04 12.98 3.52
1.02 6.36 -1.73
2.39 14.86 0.26
1.19 7.41 -1.73
2.4 14.93 0.79
1.32 8.21 -1.62
3.08 19.15 1.7
2.04 12.69 -2.03
2.38 14.81 -1.84
2.23 13.87 2.23
2.27 14.15 -1.25
2.34 14.57 2.87
2.42 15.05 -0.8
4.17 25.93 6.06
4.08 25.36 -0.45
3.73 23.24 6.31
1.05 6.37 -1.73
2.45 14.94 0.26
1.21 7.39 -1.73
2.45 14.94 0.79
1.35 8.2 -1.62
2.08 12.69 -2.04
2.32 14.15 -1.76
10.35 62.97 10.11
2.4 14.6 -1.29
2.48 15.09 2.97
4.12 25.07 -1.33
4.39 26.74 6.26
2.42 14.7 -0.26
3.54 21.56 5.85
1.07 6.36 -1.73
5.95 35.44 0.63
1.24 7.38 -1.73
3.06 18.24 0.97
1.37 8.19 -1.61
2.13 12.67 -2.04
3.04 18.11 -2.26
2.5 14.88 2.39
2.42 14.4 -1.28
2.52 14.99 -0.8
4.45 26.48 6.2
5.12 30.52 -0.54
2.21 13.16 3.58
1.09 6.36 -1.73
2.55 14.85 0.26
1.27 7.38 -1.73
2.52 14.72 0.78
1.4 8.16 -1.61
3.22 18.79 1.67
2.17 12.66 -2.03
4.41 25.74 -3.21
2.54 14.83 2.38
2.51 14.66 -1.3
4.84 28.25 5.57
4.29 25 -1.33
3.95 23.05 5.4
5.23 30.5 -0.54
2.25 13.14 3.57
1.11 6.33 -1.72
3.3 18.84 0.33
1.29 7.39 -1.73
3.23 18.47 0.98
1.43 8.17 -1.61
4.86 27.77 2.47
2.21 12.64 -2.03
2.48 14.18 -1.77
2.47 14.12 -1.25
4.38 25.03 -1.33
4.56 26.02 6.1
6.16 35.18 -0.62
2.3 13.11 3.57
1.13 6.34 -1.73
2.62 14.67 0.26
1.32 7.37 -1.73
3.28 18.34 0.98
1.46 8.18 -1.62
2.26 12.63 -2.03
2.7 15.09 1.88
2.56 14.35 -1.79
4.96 27.79 4.47
2.51 14.05 -1.25
4.09 22.89 4.52
2.51 14.03 -0.75
2.81 15.71 -0.28
3.8 21.28 5.79
1.16 6.34 -1.73
2.67 14.64 0.26
1.34 7.36 -1.73
3.53 19.34 1.03
1.49 8.17 -1.61
3.51 19.25 1.71
2.3 12.63 -2.03
2.59 14.2 -1.77
4.16 22.82 3.67
2.58 14.16 -1.26
5.18 28.44 5.62
2.58 14.13 -0.75
5.52 30.3 -0.54
2.84 15.6 4.25
1.18 6.34 -1.73
2.71 14.58 0.26
1.37 7.35 -1.73
2.9 15.62 0.83
1.51 8.12 -1.61
5.36 28.84 2.57
2.35 12.63 -2.04
2.85 15.31 1.91
2.62 14.1 -1.76
4.23 22.78 3.67
2.65 14.27 -1.27
4.29 23.1 4.57
2.63 14.15 -0.75
2.92 15.73 3.69
4.94 26.56 -0.47
2.93 15.76 4.3
1.2 6.33 -1.73
2.77 14.63 0.26
1.39 7.34 -1.73
4.61 24.3 1.3
1.54 8.13 -1.61
4.82 25.45 2.27
2.39 12.63 -2.04
2.83 14.95 1.87
2.7 14.23 -1.78
2.81 14.82 2.39
2.7 14.26 -1.27
4.02 21.21 4.2
2.68 14.15 -0.75
2.98 15.73 3.7
5.02 26.49 -0.47
3 15.85 4.32
1.22 6.31 -1.72
2.84 14.73 0.26
1.42 7.34 -1.73
3.79 19.64 1.05
1.57 8.13 -1.61
4.36 22.6 2.01
2.44 12.62 -2.04
3.13 16.21 2.03
2.75 14.25 -1.78
2.84 14.72 2.37
2.77 14.33 -1.28
3.06 15.84 3.14
2.77 14.35 -0.77
3.09 16.02 3.77
2.84 14.71 -0.26
4.13 21.38 5.84
1.24 6.31 -1.72
5.3 26.93 0.48
1.44 7.33 -1.72
4.44 22.54 1.2
1.6 8.14 -1.61
5.63 28.6 2.55
2.48 12.6 -2.03
2.88 14.65 1.83
2.78 14.11 -1.77
3.14 15.96 2.58
2.8 14.25 -1.27
3.11 15.8 3.13
2.79 14.21 -0.76
5.07 25.77 6.06
2.9 14.75 -0.26
5.15 26.18 7.15
1.26 6.31 -1.72
4.51 22.49 0.4
1.47 7.31 -1.72
5.04 25.14 1.34
1.63 8.13 -1.61
2.99 14.94 1.33
2.52 12.6 -2.04
2.91 14.51 1.82
2.84 14.18 -1.78
3.19 15.94 2.57
2.89 14.44 -1.29
3.22 16.09 3.19
3.08 15.38 -0.82
4.25 21.21 4.99
2.88 14.38 -0.26
1.29 6.31 -1.73
5.13 25.16 0.45
1.49 7.31 -1.72
3.96 19.39 1.04
1.66 8.12 -1.61
3.06 14.98 1.34
2.57 12.61 -2.04
4.31 21.11 2.64
2.88 14.09 -1.77
2.93 14.34 -1.28
2.86 14.02 -0.75
2.93 14.36 3.38
2.99 14.66 -0.26
1.31 6.29 -1.72
4.04 19.44 0.35
1.52 7.31 -1.72
5.06 24.37 1.3
1.68 8.09 -1.61
3.11 14.95 1.34
2.62 12.63 -2.04
3.34 16.11 2.02
2.95 14.21 -1.78
3.35 16.14 2.61
3.05 14.68 -1.31
3.03 14.6 -0.78
5.35 25.75 6.07
3.05 14.68 -0.26
1.33 6.28 -1.72
3.91 18.52 0.33
1.54 7.31 -1.73
3.42 16.17 0.87
1.71 8.1 -1.61
3.1 14.66 1.31
2.67 12.62 -2.04
5.55 26.28 3.3
4.73 22.4 -2.81
3.39 16.06 2.6
3.09 14.62 -1.31
3.32 15.74 -0.84
4.44 21.01 4.96
3.19 15.12 -0.27
1.35 6.28 -1.72
3.26 15.15 0.27
1.57 7.3 -1.72
3.47 16.15 0.87
1.74 8.08 -1.61
6.4 29.79 2.67
2.71 12.61 -2.04
3.8 17.67 2.22
3.04 14.13 -1.77
3.17 14.73 2.39
3.07 14.28 -1.28
3.34 15.53 -0.83
3.37 15.69 3.7
4.19 19.52 -0.35
2.88 13.38 3.67
1.37 6.27 -1.72
3.54 16.2 0.29
1.59 7.28 -1.72
1.76 8.06 -1.6
5.96 27.28 2.44
2.76 12.61 -2.04
3.47 15.89 2
3.2 14.65 -1.84
3.18 14.55 2.36
5.47 25.02 -2.24
3.43 15.7 3.12
3.55 16.22 -0.87
5.78 26.42 6.24
3.21 14.71 -0.26
3.04 13.92 3.82
1.39 6.27 -1.72
3.45 15.51 0.28
1.62 7.28 -1.72
4.15 18.69 1
1.79 8.07 -1.61
2.8 12.61 -2.05
5.58 25.09 -3.16
5.76 25.93 4.21
3.18 14.31 -1.28
4.06 18.28 3.64
3.25 14.62 -0.78
5.9 26.53 6.27
3.28 14.77 -0.26
5.71 25.71 7.06
1.42 6.26 -1.72
4.41 19.51 0.35
1.64 7.27 -1.72
3.48 15.42 0.83
1.82 8.07 -1.61
5.42 23.97 2.15
2.85 12.61 -2.05
3.59 15.88 2
3.2 14.17 -1.78
3.7 16.39 -1.47
3.27 14.48 -0.78
6.01 26.62 6.3
5.83 25.82 -0.46
4.09 18.1 4.97
1.43 6.25 -1.72
3.41 14.86 0.27
1.67 7.27 -1.72
1.85 8.05 -1.61
3.36 14.62 1.31
2.9 12.62 -2.05
4.07 17.74 2.23
3.79 16.51 -2.08
5.3 23.1 3.75
3.28 14.27 -1.28
6.3 27.43 5.47
3.36 14.63 -0.79
6.12 26.68 6.32
3.37 14.68 -0.26
4.14 18.03 4.96
1.46 6.24 -1.72
5.64 24.18 0.43
1.69 7.26 -1.72
4.54 19.45 1.05
1.88 8.05 -1.61
3.69 15.82 1.42
2.94 12.61 -2.05
3.85 16.5 -2.08
5.07 21.74 3.54
3.33 14.25 -1.28
6.38 27.31 5.45
3.41 14.6 -0.79
5.42 23.2 5.5
5.32 22.8 -0.41
4.21 18.02 4.96
1.48 6.24 -1.72
6.14 25.91 0.46
1.72 7.24 -1.72
4.52 19.07 1.03
1.9 8.02 -1.6
3.47 14.63 1.32
2.99 12.61 -2.05
4.06 17.12 2.16
3.44 14.51 -1.83
3.43 14.48 -1.3
3.46 14.58 -0.79
5.49 23.15 5.49
5.41 22.8 -0.41
5 21.08 5.81
1.5 6.25 -1.72
3.61 15 0.27
1.74 7.24 -1.72
6.26 26.03 1.4
1.93 8.02 -1.6
3.63 15.07 1.36
3.03 12.6 -2.05
4.16 17.3 2.18
3.47 14.4 -1.82
3.48 14.44 -1.3
5.54 23.04 4.61
5.46 22.7 -1.22
5.98 24.84 5.9
5.54 23.01 -0.41
3.43 14.24 3.93
1.52 6.23 -1.72
3.75 15.36 0.28
1.77 7.23 -1.72
6.28 25.72 1.39
1.95 8 -1.6
6.38 26.12 2.35
3.08 12.6 -2.05
3.57 14.6 -1.85
5.6 22.93 3.74
3.49 14.26 -1.28
6.31 25.84 5.17
6.75 27.62 -1.49
6.35 25.97 6.17
5.48 22.43 -0.4
4.74 19.41 5.35
1.54 6.21 -1.71
5.33 21.49 0.39
1.79 7.24 -1.72
6.34 25.56 1.38
1.98 7.99 -1.6
6.48 26.13 2.36
3.12 12.59 -2.05
4.31 17.37 2.2
6.38 25.71 4.2
3.53 14.25 -1.28
3.64 14.69 -0.79
5.5 22.18 -0.4
1.56 6.21 -1.72
3.92 15.58 0.28
1.82 7.22 -1.72
6.49 25.79 1.39
2.01 8 -1.6
6.76 26.85 2.42
3.17 12.58 -2.05
5.75 22.83 2.89
6.35 25.21 -3.19
5.61 22.3 3.64
3.56 14.14 -1.28
3.55 14.1 -0.76
4.94 19.61 4.67
3.55 14.12 -0.25
4.93 19.59 5.41
1.59 6.2 -1.72
3.74 14.66 0.26
1.84 7.21 -1.72
6.52 25.52 1.38
2.05 8.03 -1.61
4.08 15.96 1.44
3.21 12.58 -2.06
5.73 22.42 2.84
3.64 14.25 -1.81
4.61 18.05 2.95
3.73 14.58 -1.32
3.81 14.92 2.99
3.76 14.7 -0.8
4.99 19.55 4.66
3.68 14.4 -0.26
5.01 19.6 5.42
1.61 6.21 -1.72
4.11 15.84 0.29
1.87 7.2 -1.72
6.47 24.96 1.35
2.09 8.07 -1.62
5.91 22.79 2.06
3.26 12.57 -2.06
4.82 18.59 2.36
3.71 14.33 -1.82
5.06 19.51 3.19
3.74 14.41 -1.3
3.88 14.97 3.01
3.76 14.53 -0.79
5.07 19.55 4.66
3.74 14.42 -0.26
1.63 6.2 -1.72
4.1 15.58 0.28
1.89 7.2 -1.72
5.96 22.68 1.23
2.12 8.07 -1.62
5.12 19.48 1.76
3.31 12.57 -2.06
5.12 19.47 2.47
3.78 14.39 -1.83
4.8 18.26 2.99
3.8 14.47 -1.31
3.8 14.46 -0.78
6.35 24.16 5.77
3.72 14.16 -0.26
3.87 14.71 4.07
1.65 6.18 -1.71
5.2 19.5 0.35
1.92 7.19 -1.72
5.19 19.45 1.05
2.15 8.06 -1.62
5.2 19.5 1.77
3.35 12.56 -2.06
5.2 19.51 2.48
3.93 14.75 -1.87
4.26 15.98 2.62
3.87 14.52 -1.31
3.84 14.39 -0.78
4.98 18.68 -0.34
5.24 19.66 5.45
1.67 6.18 -1.71
5.26 19.44 0.35
1.94 7.18 -1.72
4.9 18.14 0.98
2.18 8.07 -1.62
6.91 25.56 2.32
3.39 12.55 -2.06
3.98 14.73 -1.87
3.92 14.5 -1.31
4.18 15.47 3.12
3.86 14.28 -0.78
4.12 15.24 3.64
5.26 19.44 -0.35
5.32 19.69 5.47
1.69 6.17 -1.72
5.34 19.46 0.35
1.96 7.16 -1.71
6.41 23.37 1.27
2.21 8.07 -1.63
4.14 15.09 1.37
3.44 12.54 -2.06
4.88 17.79 2.27
4 14.61 -1.86
4.36 15.89 2.61
5.34 19.49 -1.77
3.93 14.33 -0.78
4.18 15.23 3.65
3.9 14.23 -0.26
4.87 17.76 4.93
1.71 6.17 -1.72
4.07 14.66 0.27
1.99 7.16 -1.72
5.03 18.1 0.98
2.23 8.04 -1.62
5.19 18.69 1.7
3.49 12.55 -2.06
6.9 24.84 3.16
4.13 14.86 -1.89
4.37 15.74 2.59
4 14.39 -1.31
4.26 15.34 3.09
4.03 14.49 -0.79
5.54 19.93 4.77
6.24 22.45 -0.41
5.31 19.1 5.31
1.74 6.16 -1.71
7.37 26.15 0.47
2.01 7.15 -1.72
4.32 15.35 0.84
2.26 8.02 -1.62
4.25 15.09 1.37
3.54 12.55 -2.07
5.08 18.03 2.3
4.09 14.53 -1.85
4.43 15.73 2.59
4.03 14.29 -1.3
6.31 22.41 -1.22
4.57 16.22 -0.29
1.75 6.15 -1.71
5.05 17.7 0.32
2.04 7.15 -1.72
6.49 22.72 1.24
2.29 8.01 -1.62
4.31 15.11 1.38
3.58 12.53 -2.06
5.04 17.65 2.25
5.08 17.8 -2.27
5.02 17.58 2.9
4.13 14.48 -1.32
5.01 17.55 3.55
4.78 16.76 -0.91
6.81 23.87 5.73
5.04 17.65 -0.32
6.8 23.84 6.64
1.77 6.14 -1.71
5.09 17.61 0.32
2.06 7.14 -1.72
5.09 17.59 0.96
2.32 8.02 -1.62
5.09 17.59 1.6
3.62 12.52 -2.06
5.11 17.66 2.26
6.47 22.39 -2.86
5.08 17.58 2.9
4.15 14.34 -1.31
5.07 17.53 3.55
5.1 17.65 -0.96
5.07 17.54 4.22
5.09 17.58 -0.32
4.29 14.84 4.14
1.8 6.13 -1.71
5.15 17.57 0.32
2.09 7.12 -1.71
5.15 17.58 0.96
2.36 8.06 -1.63
3.67 12.53 -2.07
4.69 15.99 2.05
6.55 22.33 -2.86
4.87 16.61 2.74
4.27 14.55 -1.33
4.49 15.3 3.1
4.18 14.27 -0.78
4.44 15.13 3.64
4.21 14.34 -0.26
5.13 17.51 4.89
1.82 6.13 -1.71
2.11 7.12 -1.71
2.41 8.11 -1.65
4.49 15.11 1.38
3.72 12.53 -2.07
4.71 15.86 2.03
4.32 14.54 -1.86
4.63 15.59 2.58
4.33 14.59 -1.33
4.55 15.33 3.11
5.01 16.86 -0.92
4.31 14.51 -0.26
5.77 19.44 5.43
1.84 6.12 -1.71
4.44 14.76 0.27
2.14 7.11 -1.71
5.31 17.67 0.97
2.44 8.11 -1.65
4.52 15.03 1.37
3.77 12.54 -2.07
4.77 15.86 2.03
4.35 14.47 -1.86
4.38 14.56 -1.33
7.25 24.13 4.9
4.33 14.41 -0.79
4.57 15.2 3.67
6.51 21.64 -0.39
4.86 16.17 4.52
1.86 6.11 -1.71
4.94 16.22 0.3
2.16 7.11 -1.72
4.93 16.2 0.89
2.46 8.08 -1.64
4.59 15.07 1.38
3.81 12.53 -2.07
4.94 16.23 2.08
4.44 14.58 -1.87
4.92 16.16 2.68
4.45 14.61 -1.34
4.91 16.13 3.28
4.38 14.38 -0.79
4.49 14.76 3.56
4.94 16.22 -0.3
4.91 16.12 4.51
1.88 6.1 -1.71
4.96 16.1 0.29
2.19 7.09 -1.71
4.98 16.16 0.89
2.5 8.1 -1.65
4.67 15.16 1.39
3.86 12.52 -2.07
4.96 16.09 2.07
4.51 14.62 -1.88
5.02 16.27 -1.49
4.72 15.3 3.11
4.98 16.16 3.9
4.99 16.18 -0.3
4.72 15.3 4.29
1.9 6.1 -1.71
5.05 16.17 0.3
2.21 7.07 -1.71
5.04 16.15 0.89
2.53 8.11 -1.65
4.74 15.19 1.39
3.91 12.52 -2.08
5.05 16.18 2.08
5.09 16.31 -2.1
4.42 14.16 -1.3
4.52 14.47 2.95
5.06 16.22 -0.89
4.57 14.65 3.54
5.05 16.19 -0.3
4.99 15.99 4.49
1.93 6.09 -1.71
2.23 7.06 -1.71
2.56 8.11 -1.65
4.83 15.3 1.4
3.96 12.52 -2.08
4.52 14.3 1.84
5.14 16.27 -2.09
5.04 15.94 2.65
4.69 14.83 -1.36
4.91 15.54 3.17
4.58 14.5 -0.8
4.67 14.79 3.58
5.16 16.33 -0.3
4.48 14.17 3.98
1.94 6.08 -1.71
7.4 23.13 0.42
2.26 7.06 -1.71
5.67 17.73 0.98
2.56 8.01 -1.63
4.76 14.87 1.37
4 12.52 -2.08
4.51 14.08 1.82
5.21 16.28 -2.1
4.91 15.34 2.55
4.74 14.8 -1.36
4.47 13.98 2.85
4.62 14.45 -0.79
4.73 14.78 3.58
4.62 14.44 -0.26
4.53 14.16 3.98
1.96 6.07 -1.71
4.81 14.87 0.27
2.28 7.06 -1.71
5.68 17.54 0.97
2.6 8.02 -1.64
6.35 19.6 1.8
4.05 12.52 -2.08
5.07 15.65 2.02
4.97 15.34 2.55
4.71 14.56 -1.34
4.78 14.76 3.02
4.66 14.39 -0.79
4.77 14.73 3.58
5.57 17.19 -0.32
4.56 14.09 3.97
1.99 6.06 -1.71
7.46 22.76 0.42
2.31 7.05 -1.71
5.78 17.65 0.97
2.62 8.01 -1.64
5.43 16.59 1.53
4.1 12.5 -2.08
5.08 15.5 2
4.86 14.82 -1.91
5.2 15.88 2.65
4.8 14.66 -1.35
4.82 14.72 3.01
4.74 14.48 -0.8
8.13 24.81 6.03
4.71 14.38 -0.26
4.64 14.16 3.99
2.01 6.06 -1.71
7.25 21.9 0.4
2.33 7.02 -1.71
2.64 7.96 -1.63
5.2 15.68 1.45
4.14 12.5 -2.09
4.94 14.91 1.93
4.67 14.11 -1.83
5.07 15.3 2.55
4.57 13.79 -1.27
4.86 14.66 3
4.77 14.39 -0.79
4.9 14.79 3.6
4.75 14.33 -0.26
2.03 6.06 -1.71
5.7 16.99 0.31
2.35 7.02 -1.71
5.33 15.92 0.88
2.67 7.96 -1.63
5.79 17.28 1.59
4.19 12.5 -2.09
6.09 18.18 2.35
5.72 17.08 -2.21
5.96 17.77 2.97
4.91 14.66 -1.35
4.96 14.81 3.04
4.8 14.34 -0.79
5.73 17.11 -0.31
6.73 20.09 5.68
2.05 6.04 -1.71
5.74 16.91 0.31
2.38 7.01 -1.71
5.38 15.85 0.88
2.69 7.94 -1.63
5.74 16.91 1.56
4.25 12.52 -2.09
5.94 17.52 2.27
5.01 14.76 -1.91
5.15 15.18 2.54
4.96 14.61 -1.35
5.45 16.06 3.3
5 14.74 -0.82
5 14.75 3.6
7.43 21.89 -0.4
6.74 19.86 5.62
2.07 6.03 -1.71
6.06 17.67 0.33
2.4 7 -1.71
4.88 14.23 0.79
2.72 7.92 -1.63
5.18 15.1 1.4
4.29 12.51 -2.09
5.56 16.21 2.1
5.07 14.77 -1.92
5.43 15.84 2.65
8.96 26.1 5.36
4.93 14.38 -0.8
5.07 14.78 3.61
4.92 14.33 -0.26
4.88 14.23 4.03
2.09 6.02 -1.71
2.43 6.99 -1.71
5.03 14.51 0.8
2.75 7.92 -1.63
6.42 18.52 1.71
4.33 12.47 -2.09
5.62 16.2 2.11
5.16 14.87 -1.93
5.32 15.34 2.57
4.91 14.15 -1.31
7.06 20.35 4.19
5.17 14.9 -0.83
5.5 15.84 3.87
5 14.43 -0.27
5.47 15.76 4.47
2.11 6.02 -1.71
2.45 6.97 -1.71
5.17 14.73 0.82
2.78 7.91 -1.63
5.69 16.21 1.5
4.37 12.47 -2.09
5.51 15.71 2.04
5.24 14.93 -1.94
4.82 13.74 2.31
4.93 14.05 -1.3
5.56 15.84 3.26
5.94 16.94 -0.94
8.32 23.72 5.8
5.94 16.93 -0.31
5.56 15.84 4.5
2.13 6.02 -1.71
5.87 16.56 0.31
2.47 6.97 -1.71
5.52 15.56 0.87
2.81 7.91 -1.63
5.73 16.14 1.5
4.42 12.47 -2.1
5.56 15.67 2.04
5.3 14.95 -1.95
4.95 13.96 2.35
4.98 14.05 -1.3
5.58 15.73 3.24
5.13 14.45 -0.8
5.07 14.3 -0.26
5.18 14.61 4.16
2.15 6 -1.71
5.22 14.55 0.27
2.5 6.96 -1.71
5.53 15.41 0.86
2.82 7.87 -1.63
5.46 15.23 1.42
4.47 12.47 -2.1
6.12 17.06 2.23
6.08 16.96 -2.21
5.67 15.8 2.66
5.19 14.46 -1.34
5.63 15.69 3.24
8.55 23.84 5.85
5.12 14.29 -0.26
5.25 14.63 4.16
2.17 5.99 -1.71
8.38 23.11 0.43
2.52 6.96 -1.71
5.56 15.34 0.86
2.85 7.85 -1.62
5.31 14.64 1.36
4.52 12.45 -2.1
5.52 15.22 1.99
6.16 16.98 -2.22
5.68 15.65 2.64
5.2 14.34 -1.33
4.95 13.63 2.82
5.24 14.44 -0.81
8.65 23.85 5.86
5.16 14.22 -0.26
7.45 20.54 5.86
2.19 5.98 -1.71
6.25 17.04 0.32
2.55 6.94 -1.71
5.78 15.75 0.88
2.88 7.85 -1.63
6.36 17.35 1.62
4.56 12.43 -2.1
5.39 14.71 1.92
5.24 14.28 -1.87
5.71 15.58 2.63
5.36 14.62 -1.36
5.8 15.82 3.28
5.28 14.4 -0.8
7.54 20.56 5.06
5.29 14.42 -0.27
7.52 20.51 5.85
2.21 5.97 -1.71
5.85 15.79 0.29
2.57 6.92 -1.7
5.84 15.75 0.88
2.91 7.85 -1.63
5.68 15.33 1.43
4.6 12.42 -2.1
7.61 20.54 2.69
5.49 14.82 -1.94
7.65 20.63 3.48
5.37 14.5 -1.35
7.62 20.54 4.26
5.32 14.36 -0.8
7.62 20.55 5.06
5.98 16.14 -0.3
2.24 5.97 -1.71
6.67 17.8 0.33
2.59 6.92 -1.71
5.45 14.55 0.81
2.93 7.82 -1.62
5.49 14.66 1.37
4.65 12.41 -2.1
5.7 15.21 1.99
6.27 16.73 -2.19
5.25 14.03 2.37
5.49 14.64 -1.37
5.96 15.9 3.3
5.4 14.41 -0.81
6.06 16.18 -0.3
5.79 15.44 4.42
2.26 5.96 -1.71
7.82 20.65 0.39
2.62 6.91 -1.71
5.48 14.46 0.81
2.95 7.8 -1.62
6.3 16.64 1.56
3.33 8.79 -1.49
5.63 14.88 1.95
5.45 14.38 -1.89
5.33 14.07 2.38
5.6 14.79 -1.38
5.91 15.61 3.25
5.38 14.2 -0.8
6.08 16.06 3.96
7.86 20.75 -0.39
5.49 14.49 4.15
2.27 5.94 -1.71
6.4 16.72 0.31
2.64 6.91 -1.71
6.41 16.75 0.94
2.99 7.81 -1.62
6.73 17.59 1.65
3.36 8.78 -1.49
5.7 14.9 1.96
5.47 14.28 -1.88
5.35 13.98 2.37
5.45 14.24 -1.33
5.94 15.53 3.23
5.4 14.11 -0.79
5.61 14.66 -0.27
5.67 14.81 4.25
2.29 5.93 -1.7
5.65 14.61 0.27
2.66 6.89 -1.71
5.64 14.59 0.82
3.01 7.8 -1.62
5.79 14.98 1.4
3.4 8.79 -1.49
6.06 15.69 2.07
5.52 14.28 -1.88
5.5 14.22 2.42
8.06 20.85 -1.96
6.16 15.95 3.32
5.48 14.18 -0.8
5.57 14.42 -0.27
5.65 14.63 4.2
2.32 5.93 -1.71
5.61 14.38 0.27
2.68 6.87 -1.7
5.71 14.63 0.82
3.06 7.84 -1.64
5.99 15.35 1.44
3.46 8.85 -1.5
5.81 14.89 1.96
5.56 14.25 -1.88
5.63 14.41 2.45
8.14 20.85 -1.96
5.99 15.33 3.2
5.52 14.13 -0.79
10.34 26.48 6.56
5.62 14.39 -0.27
6.05 15.49 4.46
2.33 5.92 -1.7
5.76 14.6 0.27
2.71 6.86 -1.7
5.69 14.42 0.81
3.09 7.83 -1.64
6.01 15.24 1.43
3.49 8.85 -1.51
5.86 14.84 1.96
5.61 14.21 -1.88
5.59 14.16 2.41
5.53 14.03 -1.32
9.7 24.6 5.14
5.59 14.16 -0.8
5.71 14.48 -0.27
6 15.22 4.38
2.35 5.91 -1.7
5.85 14.67 0.28
2.73 6.85 -1.7
5.79 14.53 0.82
3.11 7.81 -1.63
3.53 8.86 -1.51
6.85 17.19 2.27
8.33 20.9 -2.76
5.72 14.36 2.45
9.75 24.47 -2.3
9.78 24.54 5.13
5.96 14.95 -0.84
5.93 14.87 3.7
5.71 14.32 -0.27
5.99 15.03 4.34
2.37 5.9 -1.7
9 22.35 0.42
2.76 6.85 -1.7
5.94 14.76 0.83
3.15 7.81 -1.64
10.4 25.82 2.44
3.58 8.89 -1.52
6.91 17.17 2.27
9.85 24.47 -3.24
5.76 14.31 2.44
5.72 14.21 -1.34
6.07 15.07 3.16
5.97 14.82 -0.84
6.54 16.25 4.04
5.81 14.43 -0.27
6.05 15.04 4.34
2.39 5.89 -1.7
9.06 22.29 0.42
2.78 6.83 -1.7
6.14 15.11 0.85
3.19 7.83 -1.64
9.2 22.63 2.14
3.61 8.87 -1.52
6.16 15.16 2.01
5.75 14.15 -1.88
6.61 16.26 2.78
11.46 28.19 -2.66
6.1 15 3.15
5.99 14.72 -0.83
6.47 15.9 3.96
5.88 14.45 -0.27
6.09 14.98 4.33
2.42 5.88 -1.7
5.74 13.98 0.26
2.8 6.82 -1.7
6.08 14.79 0.84
3.22 7.84 -1.65
6.13 14.92 1.41
3.64 8.86 -1.52
6.25 15.21 2.02
5.78 14.08 -1.87
6.01 14.64 2.51
11.88 28.93 -2.74
6.55 15.96 3.35
6.06 14.76 -0.84
6.15 14.96 3.73
5.93 14.44 -0.27
6.13 14.93 4.33
2.44 5.87 -1.7
5.95 14.35 0.27
2.82 6.8 -1.7
9.35 22.53 1.28
3.25 7.83 -1.65
9.24 22.26 2.11
3.67 8.84 -1.52
6.29 15.16 2.01
7.34 17.7 -2.35
6.81 16.41 2.81
5.89 14.19 -1.34
6.64 16 3.37
9.42 22.7 -1.29
6.09 14.67 3.67
5.89 14.21 -0.27
6.2 14.95 4.34
2.45 5.86 -1.7
5.99 14.28 0.27
2.85 6.79 -1.7
6.13 14.63 0.83
3.27 7.79 -1.64
6.78 16.19 1.54
3.7 8.83 -1.52
6.76 16.12 2.15
5.94 14.17 -1.89
5.96 14.21 2.44
6.13 14.64 -1.39
6.68 15.94 3.36
6.03 14.38 -0.82
6.71 16.01 4.01
5.96 14.23 -0.27
6.56 15.64 4.55
2.47 5.85 -1.7
6.13 14.48 0.27
2.87 6.79 -1.7
6.11 14.44 0.82
3.29 7.78 -1.64
6.83 16.13 1.53
3.74 8.83 -1.52
6.06 14.32 1.91
6 14.17 -1.89
6.78 16.02 2.76
10.7 25.27 -2.4
6.34 14.98 3.16
6.06 14.32 -0.82
5.6 13.23 3.32
6.02 14.23 -0.27
6.16 14.57 4.24
2.5 5.84 -1.7
6.23 14.57 0.28
2.89 6.77 -1.7
6.42 15.01 0.86
3.33 7.79 -1.65
6.7 15.68 1.49
3.77 8.82 -1.52
6.08 14.22 1.9
6.03 14.12 -1.89
6.24 14.61 2.52
6.08 14.23 -1.35
6.8 15.91 3.36
6.14 14.37 -0.82
6.75 15.79 3.96
6.09 14.25 -0.27
6.8 15.92 4.64
2.52 5.84 -1.7
6.06 14.06 0.27
2.91 6.75 -1.7
6.31 14.63 0.83
3.35 7.77 -1.65
6.15 14.26 1.36
3.8 8.81 -1.52
6.31 14.62 1.96
9.85 22.82 -3.05
6.34 14.7 2.54
6.13 14.2 -1.35
6.8 15.76 3.34
6.08 14.1 -0.8
7.2 16.7 4.2
6.16 14.27 -0.27
6.89 15.97 4.66
2.54 5.82 -1.7
6.47 14.85 0.28
2.93 6.73 -1.7
6.28 14.41 0.82
3.38 7.76 -1.65
6.25 14.35 1.37
3.83 8.8 -1.52
6.42 14.75 1.98
6.14 14.09 -1.89
6.29 14.45 2.5
6.14 14.1 -1.35
5.96 13.69 2.9
6.26 14.36 -0.82
6.35 14.58 3.67
6.24 14.33 -0.27
5.87 13.47 3.94
2.55 5.81 -1.7
6.35 14.44 0.28
2.96 6.73 -1.7
6.34 14.42 0.83
3.41 7.75 -1.65
6.32 14.38 1.37
3.86 8.78 -1.52
6.86 15.6 2.09
6.19 14.08 -1.89
6.52 14.82 2.56
6.44 14.65 -1.4
6.78 15.4 3.27
7.4 16.84 -0.96
6.38 14.52 3.66
6.33 14.4 -0.27
6.8 15.45 4.52
2.57 5.79 -1.7
6.43 14.48 0.28
2.99 6.73 -1.7
6.36 14.33 0.82
3.44 7.76 -1.65
6.33 14.26 1.37
3.89 8.76 -1.52
6.93 15.61 2.1
7.26 16.34 -2.2
6.82 15.36 2.66
6.26 14.09 -1.35
6.43 14.48 3.08
6.37 14.36 -0.82
6.07 13.68 3.46
6.43 14.48 -0.28
6.94 15.63 4.58
2.59 5.79 -1.7
6.51 14.52 0.28
3.01 6.71 -1.7
6.53 14.57 0.84
3.48 7.76 -1.65
6.35 14.17 1.36
3.92 8.74 -1.52
6.58 14.68 -1.98
6.74 15.03 2.61
6.35 14.18 -1.36
10 22.3 4.75
6.46 14.41 -0.83
6.07 13.55 3.43
6.35 14.17 -0.27
11.65 25.99 7.63
2.62 5.78 -1.7
6.45 14.25 0.27
3.03 6.69 -1.69
6.62 14.64 0.84
3.51 7.76 -1.65
6.52 14.4 1.38
3.95 8.73 -1.52
7.44 16.45 2.22
6.78 14.99 2.61
6.42 14.19 -1.36
6.57 14.52 3.1
6.48 14.32 -0.82
6.87 15.19 3.85
6.45 14.26 -0.27
6.99 15.45 4.54
2.63 5.77 -1.7
6.47 14.16 0.27
3.05 6.68 -1.69
6.61 14.47 0.83
3.54 7.75 -1.66
6.65 14.56 1.4
3.96 8.68 -1.51
6.63 14.52 1.96
6.86 15.02 -2.03
10.15 22.24 3.87
6.56 14.36 -1.38
6.64 14.55 3.11
6.71 14.7 -0.85
6.13 13.42 3.41
6.74 14.76 -0.28
6.01 13.16 3.88
2.66 5.76 -1.7
6.72 14.59 0.28
3.07 6.67 -1.7
6.62 14.36 0.83
3.57 7.75 -1.66
6.63 14.4 1.39
3.99 8.65 -1.51
10.2 22.14 2.99
6.76 14.66 -1.98
6.97 15.13 2.64
6.47 14.04 -1.35
6.71 14.57 3.12
6.88 14.93 -0.86
6.25 13.56 3.45
6.54 14.2 -0.27
6.31 13.69 4.04
2.67 5.75 -1.7
6.78 14.59 0.28
3.1 6.66 -1.7
6.7 14.41 0.83
3.6 7.75 -1.66
6.68 14.38 1.39
3.98 8.56 -1.5
8 17.21 2.33
7.85 16.88 -2.29
6.61 14.22 -1.37
6.81 14.65 3.14
6.6 14.2 -0.82
6.15 13.24 3.37
6.71 14.44 -0.28
6.21 13.36 3.95
2.69 5.73 -1.7
6.92 14.75 0.28
3.12 6.65 -1.7
6.76 14.41 0.83
3.65 7.77 -1.67
6.75 14.38 1.39
3.98 8.49 -1.49
7.08 15.09 2.05
6.76 14.4 -1.95
6.87 14.65 2.56
6.68 14.25 -1.38
7.18 15.31 3.29
6.58 14.03 -0.81
10.54 22.48 5.73
6.76 14.42 -0.28
6.23 13.28 3.93
2.71 5.73 -1.7
6.79 14.35 0.28
3.14 6.63 -1.69
6.82 14.42 0.84
3.68 7.77 -1.67
6.86 14.5 1.4
4 8.44 -1.48
12.07 25.51 3.46
6.88 14.54 -1.98
6.96 14.71 2.58
13.06 27.6 -2.67
7.03 14.86 3.2
6.8 14.36 -0.83
6.79 14.34 -0.28
6.35 13.43 3.98
2.73 5.72 -1.7
6.69 13.99 0.27
3.16 6.62 -1.69
6.92 14.49 0.84
3.71 7.77 -1.67
6.94 14.51 1.41
4.02 8.41 -1.48
7.13 14.93 2.03
6.93 14.49 -1.97
6.98 14.6 2.56
6.82 14.27 -1.38
6.86 14.35 3.09
6.85 14.33 -0.83
7.34 15.37 3.93
6.79 14.21 -0.27
6.38 13.36 3.97
2.75 5.71 -1.7
7.03 14.59 0.28
3.19 6.61 -1.69
6.92 14.36 0.84
3.74 7.76 -1.67
6.98 14.48 1.41
4.06 8.41 -1.48
7.13 14.79 2.02
6.86 14.22 -1.94
7.03 14.59 2.56
13.26 27.52 -2.67
7.03 14.58 -0.85
6.29 13.06 3.35
6.98 14.48 -0.28
6.48 13.44 4
2.77 5.69 -1.7
6.96 14.32 0.28
3.21 6.6 -1.69
7.07 14.53 0.85
3.77 7.75 -1.68
6.98 14.34 1.4
4.09 8.4 -1.48
7.01 14.42 1.97
6.87 14.12 -1.93
6.41 13.18 2.32
7.41 15.23 -1.48
6.49 13.34 2.88
11.19 23 -1.34
6.32 12.98 3.33
6.99 14.37 -0.28
6.15 12.64 3.77
2.79 5.68 -1.69
7.04 14.35 0.28
3.23 6.58 -1.69
7.15 14.58 0.85
3.8 7.75 -1.68
7.11 14.5 1.41
4.13 8.41 -1.48
7.01 14.28 1.95
8.07 16.44 -2.25
6.49 13.23 2.33
11.22 22.86 -2.23
6.94 14.15 3.06
7.07 14.4 -0.84
6.41 13.07 3.36
7.05 14.38 -0.28
6.67 13.59 4.06
2.81 5.67 -1.7
7.13 14.39 0.28
3.25 6.56 -1.69
7.18 14.51 0.85
3.84 7.76 -1.68
7.21 14.57 1.42
4.17 8.41 -1.49
7.95 16.05 2.2
8.14 16.45 -2.25
6.53 13.2 2.33
11.34 22.9 -2.24
10.9 22.01 -1.29
6.61 13.34 3.44
7.16 14.46 -0.28
6.66 13.45 4.02
2.83 5.67 -1.7
8.86 17.75 0.35
3.27 6.55 -1.69
7.27 14.57 0.85
3.87 7.75 -1.68
7.25 14.51 1.42
4.2 8.41 -1.49
7.25 14.53 1.99
7.1 14.23 -1.95
6.93 13.87 2.46
7.38 14.78 -1.44
7.41 14.84 -0.87
6.51 13.04 3.37
7.18 14.39 -0.28
6.64 13.3 3.98
2.85 5.65 -1.7
8.86 17.59 0.34
3.3 6.54 -1.69
7.34 14.57 0.86
3.89 7.71 -1.68
7.24 14.37 1.41
4.24 8.41 -1.49
8.04 15.95 2.19
7.19 14.27 -1.96
7.31 14.51 2.57
7.37 14.63 -1.43
6.66 13.21 2.88
7.4 14.68 -0.86
6.52 12.94 3.35
7.27 14.43 -0.28
6.98 13.86 4.16
2.86 5.63 -1.69
8.7 17.12 0.34
3.32 6.53 -1.69
7.44 14.63 0.86
3.92 7.71 -1.68
7.31 14.38 1.41
4.27 8.41 -1.49
8.02 15.78 2.17
7.25 14.27 -1.97
11.16 21.97 -2.16
9.74 19.17 4.18
7.18 14.14 -0.83
6.88 13.53 3.5
9.2 18.11 -0.35
6.39 12.58 3.78
2.88 5.62 -1.69
7.48 14.6 0.29
3.34 6.51 -1.69
9.08 17.71 1.04
3.93 7.67 -1.68
7.46 14.55 1.43
4.31 8.4 -1.5
13.28 25.91 3.58
8.39 16.37 -2.26
9.26 18.06 3.22
8.35 16.29 -1.6
7.34 14.32 -0.84
10.86 21.19 5.5
7.54 14.71 -0.29
6.81 13.29 4
2.9 5.61 -1.69
10.29 19.9 0.39
3.35 6.49 -1.69
7.52 14.55 0.86
3.97 7.68 -1.68
9.36 18.11 1.78
4.34 8.4 -1.5
9.04 17.48 -2.42
7.62 14.74 2.63
8.56 16.56 -1.63
10.9 21.08 4.61
7.41 14.34 -0.85
9.22 17.84 4.64
8.4 16.24 -0.32
9.31 18.01 5.43
2.93 5.62 -1.7
8.4 16.12 0.32
3.38 6.48 -1.69
7.53 14.45 0.85
3.99 7.65 -1.68
8.39 16.09 1.59
4.37 8.37 -1.5
10.99 21.08 2.92
9.01 17.29 -2.39
10.99 21.08 3.77
7.27 13.95 -1.38
7.06 13.54 2.97
7.58 14.54 -0.86
9.38 18 4.69
9.11 17.47 -0.34
6.68 12.82 3.87
2.94 5.6 -1.69
9.3 17.69 0.35
3.4 6.47 -1.69
7.58 14.43 0.85
4.01 7.63 -1.67
7.56 14.38 1.42
4.4 8.38 -1.5
9.44 17.96 2.49
7.51 14.29 -1.98
9.38 17.84 3.19
7.55 14.37 -1.42
9.44 17.96 3.94
7.33 13.95 -0.83
9.2 17.5 -0.35
7.28 13.85 4.19
2.96 5.57 -1.69
7.65 14.43 0.29
3.43 6.46 -1.69
8.54 16.1 0.95
4.04 7.62 -1.68
9.54 17.99 1.78
4.43 8.35 -1.5
8.46 15.94 2.22
9.16 17.27 -2.4
9.05 17.06 3.06
7.52 14.18 -1.4
8.88 16.75 3.69
7.34 13.85 -0.82
7.17 13.52 3.53
7.68 14.49 -0.29
7.33 13.83 4.19
2.97 5.56 -1.69
9.62 17.99 0.36
3.45 6.45 -1.69
8.02 14.99 0.89
4.07 7.6 -1.68
7.78 14.55 1.44
4.45 8.33 -1.5
8.44 15.78 2.2
11.86 22.18 -3.09
14.8 27.68 4.97
7.54 14.1 -1.4
8.31 15.54 3.42
7.53 14.08 -0.84
9.59 17.94 -0.36
7.32 13.68 4.16
3 5.56 -1.69
7.66 14.2 0.28
3.46 6.42 -1.68
9.5 17.61 1.05
4.1 7.59 -1.68
4.49 8.32 -1.5
8.47 15.71 2.19
10.83 20.09 -2.8
8.46 15.69 2.82
7.61 14.11 -1.4
9.67 17.93 -1.07
7.21 13.36 3.51
7.68 14.23 -0.28
7.43 13.77 4.19
3.02 5.55 -1.69
7.74 14.24 0.28
3.49 6.42 -1.69
4.11 7.57 -1.67
7.99 14.7 1.46
4.51 8.3 -1.5
14.22 26.15 3.66
7.72 14.21 -1.99
8.49 15.62 2.82
7.68 14.12 -1.41
7.26 13.36 2.96
7.65 14.08 -0.84
7.54 13.87 3.64
7.7 14.16 -0.28
6.79 12.49 3.81
3.03 5.53 -1.69
9.36 17.07 0.34
3.51 6.4 -1.69
9.28 16.92 1.01
4.14 7.54 -1.67
9.99 18.21 1.82
4.56 8.32 -1.5
8.55 15.59 2.82
7.67 13.99 -1.4
7.73 14.1 3.13
7.85 14.32 -0.86
7.64 13.93 3.67
7.8 14.22 -0.28
6.78 12.37 3.78
3.05 5.51 -1.69
13.62 24.63 0.49
3.53 6.39 -1.69
14.62 26.45 1.58
4.16 7.53 -1.67
11.85 21.44 2.14
4.59 8.3 -1.5
8.43 15.25 2.14
7.87 14.23 -2
7.76 14.03 -1.4
7.31 13.23 2.94
7.85 14.2 -0.85
7.93 14.34 3.78
9.34 16.9 -0.34
7.06 12.77 3.91
3.07 5.51 -1.69
3.55 6.38 -1.69
8.23 14.76 0.89
4.19 7.52 -1.67
10.02 17.98 1.8
4.62 8.29 -1.5
8.49 15.23 2.14
8.75 15.7 -2.21
8.89 15.94 2.89
7.8 13.99 -1.4
7.61 13.65 3.04
7.88 14.14 -0.85
7.92 14.2 3.75
8.01 14.37 -0.29
9.85 17.67 5.42
3.09 5.49 -1.69
13.94 24.8 0.5
3.57 6.35 -1.68
12.37 22.01 1.32
4.21 7.5 -1.67
4.64 8.26 -1.5
10.93 19.44 2.74
8.07 14.36 -2.02
10.99 19.56 3.55
7.83 13.93 -1.4
9.99 17.78 3.96
7.7 13.71 -0.82
11.11 19.76 5.23
7.89 14.04 -0.28
9.93 17.67 5.43
3.11 5.48 -1.69
14.05 24.8 0.5
3.59 6.34 -1.68
8.69 15.34 0.92
4.24 7.48 -1.67
9.38 16.56 1.67
4.68 8.26 -1.5
9.42 16.62 2.35
8.12 14.33 -2.02
9.48 16.72 3.04
8.83 15.58 -1.57
7.77 13.72 3.07
17.1 30.17 -1.82
10.03 17.69 4.69
12.16 21.45 -0.43
7.29 12.86 3.96
3.12 5.47 -1.69
9.38 16.42 0.33
3.62 6.34 -1.68
13.97 24.45 1.48
4.26 7.46 -1.67
11.21 19.62 1.98
4.72 8.26 -1.51
9.51 16.64 2.35
8.18 14.31 -2.02
8.48 14.84 2.71
8.4 14.71 -1.48
7.89 13.8 3.09
7.98 13.97 -0.84
14.69 25.7 6.83
13.39 23.44 -0.47
3.14 5.45 -1.68
12.45 21.61 0.44
3.64 6.32 -1.68
14.05 24.4 1.48
4.28 7.44 -1.67
11.22 19.48 1.97
4.73 8.22 -1.5
8.57 14.89 2.11
8.26 14.35 -2.03
7.87 13.67 2.5
16.45 28.56 -2.88
8.33 14.46 3.24
12.28 21.32 -1.29
8.11 14.08 3.75
9 15.62 -0.31
9.17 15.92 4.92
3.16 5.44 -1.69
12.59 21.68 0.44
3.66 6.3 -1.68
11.3 19.46 1.18
4.31 7.42 -1.67
14.8 25.5 2.58
4.75 8.18 -1.5
8.66 14.92 2.12
12.15 20.93 -2.97
8.57 14.77 2.7
9 15.51 -1.57
9.3 16.01 3.6
9.18 15.8 -0.96
9.23 15.9 4.25
9.04 15.56 -0.31
9.22 15.88 4.92
3.18 5.43 -1.69
8.94 15.27 0.31
3.67 6.28 -1.68
14.89 25.43 1.54
4.33 7.41 -1.67
8.62 14.74 1.49
4.78 8.16 -1.5
9.4 16.06 2.29
8.24 14.09 -2
9.38 16.02 2.94
8.26 14.12 -1.43
9.32 15.92 3.59
9.54 16.31 -0.99
9.31 15.9 4.25
13.43 22.94 -0.46
3.2 5.42 -1.69
8.96 15.18 0.31
3.7 6.27 -1.68
8.86 15.02 0.91
4.35 7.38 -1.67
8.85 15 1.52
4.83 8.18 -1.5
9.45 16.01 2.28
8.31 14.08 -2.01
8.64 14.65 2.69
8.3 14.07 -1.43
9.43 15.98 3.61
9.06 15.36 -0.93
10.48 17.77 4.76
8.32 14.11 -0.29
3.22 5.41 -1.69
9.14 15.37 0.31
3.72 6.26 -1.68
8.89 14.96 0.91
4.38 7.37 -1.67
9.54 16.04 1.63
4.86 8.18 -1.51
9.51 16 2.29
8.33 14 -2
8.31 13.98 -1.42
8.4 14.12 3.19
8.31 13.97 -0.85
8.34 14.03 3.77
9.05 15.22 -0.31
9.25 15.55 4.85
3.23 5.39 -1.68
8.87 14.8 0.3
3.74 6.24 -1.68
8.82 14.71 0.9
4.4 7.34 -1.66
9.68 16.15 1.65
4.9 8.17 -1.51
9.1 15.18 2.17
8.4 14.01 -2.01
8.46 14.11 -1.44
8.45 14.09 3.19
9.27 15.47 -0.95
13.95 23.27 6.26
9.15 15.26 -0.31
10.09 16.83 5.26
3.25 5.38 -1.68
12.56 20.78 0.42
3.77 6.23 -1.68
4.44 7.35 -1.67
13.29 21.99 2.25
4.94 8.17 -1.51
13.59 22.48 3.23
7.91 13.09 -1.88
10.22 16.9 3.13
9.19 15.2 -1.55
10.27 16.98 3.86
8.75 14.48 -0.89
14.12 23.37 6.3
9.2 15.22 -0.31
3.27 5.37 -1.68
16.69 27.4 0.56
3.78 6.2 -1.68
8.83 14.5 0.89
4.46 7.32 -1.67
12.75 20.93 2.14
4.98 8.18 -1.52
9.05 14.85 2.14
7.95 13.04 -1.88
9.24 15.16 -1.55
13.83 22.71 5.17
9.3 15.27 -0.94
14.24 23.37 6.32
12.61 20.7 -0.42
7.58 12.43 3.9
3.29 5.36 -1.69
9.03 14.71 0.3
3.8 6.19 -1.68
10.5 17.09 1.05
4.49 7.3 -1.67
5.02 8.17 -1.52
7.95 12.95 -1.87
9.54 15.53 2.89
9.26 15.09 -1.55
8.89 14.48 -0.89
13.83 22.52 6.1
13.49 21.97 -0.45
7.59 12.37 3.89
3.31 5.35 -1.69
9.41 15.21 0.31
3.83 6.18 -1.68
8.7 14.06 0.87
4.51 7.28 -1.66
12.97 20.95 2.16
5.05 8.16 -1.52
8.91 14.4 2.08
8 12.92 -1.87
9.32 15.06 -1.55
9.2 14.86 3.4
9.4 15.18 -0.94
10.4 16.81 -0.35
3.32 5.32 -1.68
9.45 15.16 0.31
3.85 6.17 -1.68
17.04 27.34 1.69
4.53 7.27 -1.66
13.04 20.91 2.16
5.08 8.15 -1.52
14.09 22.59 3.27
8.05 12.92 -1.87
9.54 15.3 -1.58
9.41 15.09 3.46
9.17 14.71 -0.91
9.27 14.87 -0.31
3.34 5.32 -1.68
17.1 27.22 0.56
3.86 6.15 -1.68
10.54 16.78 1.04
4.55 7.25 -1.66
15.71 25.01 2.58
5.12 8.15 -1.52
5.66 9 -1.31
12.61 20.08 3.76
5.65 9 -0.93
16.47 26.21 -1.62
12.76 20.3 5.54
9.31 14.81 -0.31
11.27 17.94 5.68
3.36 5.3 -1.68
9.17 14.48 0.3
3.88 6.12 -1.67
13.64 21.53 1.34
4.58 7.24 -1.67
13.22 20.87 2.16
5.15 8.14 -1.53
12.61 19.91 2.89
5.71 9.01 -1.31
12.77 20.17 3.78
8.78 13.86 3.19
9.57 15.1 -0.94
14.23 22.46 6.14
10.6 16.73 -0.35
3.38 5.3 -1.68
9.2 14.42 0.3
3.9 6.11 -1.67
9.58 15.01 0.93
4.61 7.22 -1.67
5.19 8.13 -1.53
12.68 19.86 2.89
8.24 12.9 -1.88
14.29 22.39 4.21
9.72 15.23 -1.58
14.27 22.36 5.16
10.38 16.26 -1.01
9.54 14.94 -0.31
3.39 5.27 -1.68
10.46 16.26 0.34
3.92 6.1 -1.67
13.91 21.63 1.35
4.63 7.2 -1.66
14.34 22.29 2.32
5.24 8.15 -1.53
9.27 14.42 2.1
8.31 12.92 -1.89
14.4 22.39 4.22
9.72 15.11 -1.57
9.42 14.64 -0.91
9.55 14.84 -0.31
9.98 15.51 4.94
3.41 5.25 -1.68
14.45 22.3 0.46
3.95 6.09 -1.67
13.85 21.36 1.33
4.66 7.18 -1.66
13.92 21.48 2.24
5.28 8.14 -1.54
8.37 12.91 -1.89
9.6 14.81 -1.54
10.51 16.22 -1.01
9.47 14.61 -0.3
3.42 5.25 -1.68
9.63 14.75 0.31
3.96 6.07 -1.67
9.65 14.78 0.92
4.68 7.17 -1.66
16.93 25.93 2.71
5.3 8.12 -1.54
8.43 12.91 -1.89
12.84 19.67 3.72
9.73 14.91 -1.56
9.64 14.76 -0.92
9.53 14.59 -0.3
11.72 17.94 5.74
3.45 5.24 -1.68
9.67 14.7 0.31
3.98 6.04 -1.67
4.7 7.15 -1.66
5.34 8.11 -1.54
8.48 12.89 -1.9
10.33 15.7 2.98
9.66 14.68 -1.54
16.63 25.28 -1.59
9.54 14.5 -0.3
11.75 17.87 5.73
3.47 5.23 -1.68
12.88 19.43 0.41
4 6.03 -1.67
10.99 16.57 1.04
4.73 7.13 -1.66
5.36 8.08 -1.54
8.54 12.88 -1.9
12.11 18.27 3.47
9.47 14.28 -1.5
13.02 19.64 4.58
9.74 14.69 -0.92
12.97 19.56 5.42
9.48 14.3 -0.3
12.94 19.51 6.27
3.48 5.21 -1.68
10.86 16.26 0.34
4.03 6.02 -1.67
4.75 7.1 -1.66
5.39 8.07 -1.54
8.6 12.87 -1.9
9.52 14.25 -1.5
13.03 19.5 4.56
9.83 14.72 -0.93
13.01 19.46 5.4
9.5 14.21 -0.3
10.03 15.01 4.84
3.49 5.19 -1.68
16.67 24.76 0.52
4.05 6.01 -1.67
4.77 7.09 -1.66
5.44 8.09 -1.54
8.66 12.87 -1.9
13.08 19.43 3.71
9.51 14.12 -1.49
13.07 19.41 4.55
10.2 15.15 -0.96
10.12 15.03 4.18
9.6 14.26 -0.3
15.25 22.65 7.31
3.52 5.18 -1.68
13.82 20.37 0.43
4.06 5.99 -1.67
10.86 16.01 1.01
4.8 7.08 -1.66
13.17 19.41 2.05
5.5 8.11 -1.55
13.14 19.38 2.87
8.73 12.87 -1.91
13.17 19.41 3.72
9.53 14.04 -1.48
9.54 14.06 -0.89
9.64 14.22 -0.3
11.08 16.33 5.29
3.53 5.17 -1.68
9.75 14.27 0.3
4.07 5.96 -1.67
13.23 19.37 1.23
4.82 7.06 -1.66
13.23 19.36 2.05
5.53 8.1 -1.55
13.21 19.34 2.88
8.78 12.86 -1.91
9.6 14.05 -1.49
11.08 16.22 3.82
9.69 14.18 -0.9
9.65 14.13 -0.3
10.06 14.73 4.78
3.55 5.16 -1.68
9.82 14.27 0.3
4.1 5.95 -1.67
13.28 19.29 1.23
4.84 7.03 -1.66
10.19 14.8 1.57
5.58 8.1 -1.56
8.84 12.85 -1.91
9.65 14.02 2.7
9.69 14.08 -1.5
9.73 14.13 -0.9
9.76 14.18 -0.3
11.28 16.39 5.33
3.56 5.14 -1.68
9.94 14.33 0.3
4.12 5.94 -1.67
9.9 14.28 0.91
4.86 7.01 -1.66
10.03 14.47 1.54
5.62 8.1 -1.56
10.15 14.63 2.19
8.9 12.84 -1.92
11.43 16.48 3.18
9.72 14.02 -1.49
11.36 16.38 3.87
9.78 14.1 -0.9
11.35 16.36 4.6
9.8 14.13 -0.3
11.36 16.38 5.34
3.58 5.12 -1.67
10.01 14.32 0.3
4.14 5.93 -1.67
11.79 16.88 1.08
4.89 6.99 -1.66
10.27 14.7 1.57
5.64 8.07 -1.56
11.42 16.34 2.45
8.97 12.84 -1.92
11.41 16.33 3.15
9.93 14.22 -1.52
11.4 16.32 3.87
9.84 14.09 -0.9
11.44 16.37 4.61
9.85 14.1 -0.3
12.31 17.62 5.76
3.6 5.11 -1.67
10.25 14.56 0.31
4.16 5.91 -1.67
11.14 15.82 1.01
4.91 6.98 -1.66
10.22 14.52 1.55
5.65 8.03 -1.56
11.48 16.31 2.45
9.03 12.83 -1.93
11.49 16.32 3.16
9.9 14.07 -1.5
9.83 13.96 -0.89
10.86 15.42 4.35
9.86 14 -0.3
11.65 16.55 5.42
3.62 5.1 -1.68
10.19 14.37 0.31
4.18 5.89 -1.67
10.84 15.29 0.98
4.94 6.96 -1.66
10.36 14.61 1.57
5.68 8.01 -1.56
16.13 22.75 3.42
9.09 12.82 -1.93
10 14.1 -1.51
11.59 16.35 -1.05
13.03 18.37 5.2
10.36 14.61 -0.31
3.64 5.09 -1.68
10.35 14.5 0.31
4.2 5.88 -1.67
10.92 15.3 0.99
4.95 6.94 -1.66
10.44 14.62 1.57
5.71 7.99 -1.56
9.15 12.82 -1.93
11.65 16.31 -1.75
10.03 14.05 -0.9
12.33 17.26 4.9
11.62 16.27 -0.35
11.21 15.7 5.17
3.65 5.07 -1.67
10.25 14.24 0.31
4.22 5.87 -1.67
11.93 16.58 1.07
4.97 6.91 -1.65
11.29 15.7 1.69
5.74 7.98 -1.56
9.22 12.81 -1.94
13.36 18.57 3.62
10.04 13.95 -1.5
13.17 18.31 4.38
10.16 14.12 -0.91
13.2 18.35 5.22
10.04 13.96 -0.3
16.09 22.36 7.38
3.66 5.05 -1.67
11.97 16.51 0.36
4.24 5.85 -1.67
11.98 16.52 1.07
5 6.89 -1.66
5.76 7.94 -1.55
13.46 18.56 2.82
9.28 12.8 -1.94
13.36 18.42 3.6
11.02 15.2 -1.64
13.27 18.3 4.39
10.65 14.68 -0.95
13.2 18.2 5.19
10.15 14 -0.3
13.1 18.06 5.98
3.69 5.04 -1.67
10.45 14.3 0.31
4.26 5.83 -1.67
13.7 18.75 1.22
5.03 6.88 -1.66
10.98 15.03 1.63
5.79 7.93 -1.55
13.54 18.53 2.82
9.35 12.8 -1.95
11.07 15.16 2.97
11.12 15.22 -1.65
16.41 22.46 5.41
11.73 16.05 -1.04
11.23 15.37 4.39
10.12 13.85 -0.3
3.7 5.03 -1.67
13.87 18.85 0.41
4.27 5.8 -1.66
10.83 14.72 0.96
5.05 6.86 -1.66
17.24 23.42 2.54
5.82 7.91 -1.56
13.05 17.73 2.7
9.4 12.77 -1.95
16.49 22.4 4.41
13.68 18.59 -2.02
16.48 22.4 5.41
17.78 24.17 -1.57
10.73 14.58 4.18
14.01 19.04 -0.41
3.72 5.02 -1.68
10.46 14.11 0.31
4.29 5.79 -1.66
10.4 14.03 0.92
5.07 6.84 -1.66
11.12 15 1.63
5.86 7.91 -1.56
16.54 22.32 3.41
9.45 12.75 -1.95
11 14.84 2.93
10.38 14 -1.52
10.84 14.62 -0.95
18.21 24.57 7.06
14.08 18.99 -0.41
12.15 16.4 5.47
3.74 5 -1.67
10.64 14.26 0.31
4.32 5.78 -1.67
10.93 14.64 0.96
5.09 6.82 -1.65
17.51 23.45 2.56
5.9 7.91 -1.56
11.92 15.96 2.45
9.51 12.73 -1.95
11.29 15.12 2.99
11.22 15.03 -1.64
12.21 16.35 3.97
14.26 19.1 -1.25
12.14 16.25 4.68
13.28 17.79 -0.39
12.14 16.26 5.44
3.75 4.98 -1.67
13.3 17.69 0.39
4.33 5.76 -1.66
13.28 17.65 1.16
5.11 6.8 -1.65
12.4 16.48 1.8
5.94 7.9 -1.57
12.33 16.39 2.52
9.57 12.72 -1.95
11.36 15.1 2.99
16.68 22.18 -2.43
12.23 16.26 3.96
13.35 17.74 -1.16
12.21 16.23 4.69
13.32 17.71 -0.39
12.07 16.04 5.38
3.77 4.97 -1.67
13.36 17.64 0.39
4.36 5.75 -1.67
12.52 16.53 1.09
5.14 6.78 -1.65
11.17 14.75 1.62
5.98 7.89 -1.57
13.37 17.65 2.72
9.63 12.71 -1.96
11.39 15.03 2.99
13.45 17.76 -1.95
18.17 23.99 5.85
11.05 14.59 -0.96
18.21 24.04 6.96
10.76 14.2 -0.31
10.4 13.73 4.61
3.79 4.96 -1.67
12.62 16.54 0.36
4.37 5.72 -1.66
12.56 16.46 1.09
5.16 6.77 -1.65
12.81 16.79 1.85
6.01 7.88 -1.57
18.22 23.88 3.69
9.69 12.7 -1.96
12.78 16.75 3.34
10.83 14.19 -1.56
10.9 14.29 -0.94
18.08 23.69 6.88
10.77 14.12 -0.31
10.41 13.65 4.6
3.81 4.96 -1.68
12.67 16.49 0.36
4.39 5.71 -1.66
18.29 23.81 1.57
5.18 6.74 -1.65
18.32 23.84 2.63
6.05 7.87 -1.57
11.29 14.69 2.27
9.75 12.69 -1.97
10.91 14.19 -1.57
10.9 14.19 -0.94
10.71 13.93 -0.31
9.93 12.92 4.37
3.82 4.93 -1.67
12.6 16.28 0.36
4.41 5.7 -1.66
18.41 23.78 1.58
5.2 6.71 -1.65
12.85 16.61 1.84
6.09 7.87 -1.58
9.82 12.69 -1.97
11.06 14.29 -1.58
12.7 16.4 4.03
10.96 14.16 -0.94
12.24 15.81 4.62
10.92 14.11 -0.31
10.13 13.08 4.43
3.83 4.91 -1.67
11.02 14.14 0.31
4.43 5.68 -1.66
5.22 6.7 -1.65
6.12 7.85 -1.58
9.89 12.69 -1.98
11.07 14.2 -1.58
11.37 14.58 -0.97
10.94 14.03 -0.31
10.15 13.02 4.43
3.85 4.9 -1.67
12.08 15.38 0.34
4.45 5.66 -1.66
12.85 16.37 1.09
5.25 6.68 -1.65
12.82 16.33 1.82
6.15 7.83 -1.58
9.96 12.69 -1.98
12.19 15.52 3.13
11.1 14.13 -1.57
10.99 13.99 -0.93
11.13 14.18 -0.31
3.87 4.89 -1.67
10.98 13.89 0.31
4.46 5.64 -1.66
12.88 16.28 1.09
5.27 6.67 -1.65
12.83 16.23 1.81
6.17 7.81 -1.58
12.79 16.17 2.53
10.03 12.68 -1.99
12.81 16.2 3.27
13.02 16.47 -1.84
11.12 14.06 -0.94
11.97 15.13 4.45
11.16 14.11 -0.31
10.45 13.21 4.51
3.88 4.88 -1.67
13.04 16.37 0.37
4.48 5.62 -1.66
10.99 13.79 0.92
5.29 6.64 -1.65
12.89 16.18 1.81
6.21 7.79 -1.58
12.4 15.57 2.44
10.09 12.66 -1.99
11.85 14.87 3.01
11.3 14.19 -1.59
12.64 15.86 3.94
13.09 16.43 -1.1
12.04 15.11 4.46
11.25 14.12 -0.32
10.15 12.74 4.36
3.9 4.86 -1.67
11.26 14.03 0.31
4.5 5.61 -1.66
5.3 6.61 -1.65
13.06 16.27 1.83
6.27 7.81 -1.59
12.92 16.1 2.53
10.11 12.6 -1.98
12.87 16.03 3.26
12.24 15.25 -1.71
12.82 15.98 3.98
13.16 16.4 -1.1
12.78 15.92 4.71
11.34 14.13 -0.32
10.2 12.71 4.37
3.91 4.84 -1.67
11.33 14.01 0.31
4.53 5.6 -1.66
5.33 6.59 -1.65
6.3 7.8 -1.59
10.16 12.57 -1.98
11.32 14 2.85
11.45 14.16 -1.59
13.09 16.19 4.05
11.52 14.26 -0.96
12.07 14.93 4.43
18.67 23.1 -0.52
12.82 15.85 5.46
3.93 4.83 -1.67
11.61 14.26 0.32
4.54 5.58 -1.66
5.35 6.57 -1.65
6.35 7.8 -1.59
13.4 16.45 2.61
10.21 12.55 -1.99
11.92 14.64 2.99
12.24 15.03 -1.7
18.69 22.96 5.75
11.54 14.17 -0.96
12.21 15 4.46
18.76 23.04 -0.52
12.89 15.84 5.47
3.95 4.82 -1.67
4.55 5.55 -1.66
5.37 6.55 -1.65
18.57 22.64 2.56
6.4 7.81 -1.6
10.26 12.51 -1.99
11.48 14 2.87
11.51 14.04 -1.59
11.52 14.04 -0.95
12.21 14.89 4.45
11.63 14.18 -0.32
12.09 14.74 5.11
3.97 4.81 -1.67
11.78 14.26 0.32
4.57 5.53 -1.66
5.39 6.53 -1.65
6.44 7.8 -1.6
10.28 12.45 -1.98
12.26 14.85 3.05
12.57 15.22 -1.73
11.54 13.98 -0.95
12.28 14.87 4.45
11.66 14.12 -0.32
11.86 14.36 4.99
3.98 4.79 -1.67
11.8 14.19 0.32
4.6 5.53 -1.66
5.41 6.5 -1.64
16.56 19.91 2.27
6.48 7.79 -1.61
13.14 15.79 2.52
10.32 12.41 -1.98
11.5 13.83 2.85
11.73 14.1 -1.6
11.62 13.97 -0.95
13.79 16.58 4.98
11.81 14.2 -0.32
11.95 14.37 5.01
4 4.77 -1.67
11.9 14.21 0.32
4.61 5.5 -1.66
5.43 6.49 -1.64
6.53 7.79 -1.61
13.19 15.75 2.52
10.36 12.37 -1.98
11.56 13.8 2.85
12.82 15.3 -1.75
13.01 15.53 3.94
11.68 13.94 -0.95
16.51 19.72 5.94
11.62 13.87 -0.32
16.56 19.77 6.91
4.01 4.76 -1.67
4.63 5.49 -1.66
12.73 15.09 1.03
5.45 6.46 -1.64
6.56 7.77 -1.61
13.67 16.21 2.6
10.4 12.33 -1.98
11.56 13.7 2.84
13.13 15.57 -1.78
11.99 14.21 -0.97
11.18 13.26 4
11.95 14.17 -0.32
4.02 4.74 -1.67
22.68 26.71 0.61
4.64 5.47 -1.66
13.4 15.78 1.09
5.48 6.45 -1.64
6.61 7.78 -1.62
19.58 23.06 3.71
10.43 12.28 -1.98
11.48 13.52 2.81
12.21 14.37 -1.65
16.64 19.59 5
11.88 13.99 -0.96
11.06 13.03 3.95
11.92 14.03 -0.32
12.35 14.55 5.11
4.04 4.73 -1.67
12.48 14.59 0.34
4.66 5.45 -1.66
12.86 15.04 1.04
5.49 6.42 -1.64
6.64 7.76 -1.62
16.69 19.52 3.15
10.46 12.23 -1.98
16.71 19.54 4.07
12.06 14.1 -1.62
12.22 14.29 3.66
12.06 14.1 -0.97
11.17 13.06 3.97
12.11 14.16 -0.33
12.33 14.42 5.08
4.06 4.71 -1.67
22.93 26.61 0.61
4.68 5.43 -1.66
13.54 15.71 1.09
5.5 6.39 -1.64
16.81 19.5 2.25
6.67 7.75 -1.62
16.78 19.47 3.16
10.5 12.18 -1.97
12.45 14.44 3.02
17.43 20.23 -2.34
12.29 14.26 -0.99
12.27 14.24 -0.33
12.98 15.06 5.33
4.07 4.69 -1.66
12.39 14.28 0.33
4.71 5.43 -1.66
16.9 19.48 1.35
5.53 6.37 -1.64
6.71 7.73 -1.62
13.9 16.02 2.6
10.54 12.14 -1.97
12.42 14.32 -1.66
12.11 13.96 -0.97
12.29 14.16 -0.33
13.02 15.01 5.32
4.09 4.68 -1.67
12.44 14.23 0.33
4.72 5.4 -1.66
13.5 15.45 1.07
5.55 6.35 -1.64
12.77 14.61 1.7
6.75 7.72 -1.62
