# .PCD v0.7 - Point Cloud Data file format
VERSION 0.7
FIELDS x y z
SIZE 4 4 4
TYPE F F F
COUNT 1 1 1
WIDTH 2846
HEIGHT 1
VIEWPOINT 0 0 0 1 0 0 0
POINTS 2846
DATA ascii
-8.17 12.08 -2.31
-8.18 12.1 -1.79
-8.17 12.09 -1.28
-9.71 14.37 3.37
-8.19 12.12 -0.77
-8.09 11.97 -0.25
-19.81 29.52 0.62
-19.83 29.56 1.87
-8.12 12.11 -2.31
-8.14 12.14 -1.79
-8.16 12.16 -1.28
-9.62 14.34 3.36
-8.16 12.16 -0.77
-8 11.93 -0.25
-7.87 11.82 0.25
-19.86 29.83 1.88
-8.06 12.1 -2.3
-8.06 12.1 -1.79
-8.06 12.1 -1.27
-8.07 12.12 -0.76
-7.94 11.93 -0.25
-7.85 11.89 0.25
-19.8 29.97 1.88
-24.43 36.98 3.88
-8.01 12.13 -2.3
-8.01 12.12 -1.78
-8.01 12.13 -1.27
-8.03 12.15 -0.76
-7.89 11.94 -0.25
-7.84 11.96 0.25
-19.65 29.98 1.88
-7.93 12.1 -2.29
-7.95 12.12 -1.78
-32.74 49.95 9.46
-7.94 12.11 -1.27
-7.95 12.13 -0.76
-7.78 11.86 -0.25
-7.83 12.03 0.25
-33.99 52.24 5.45
-7.83 12.04 -2.27
-7.85 12.06 -1.77
-7.85 12.07 -1.26
-7.86 12.08 -0.75
-7.75 11.91 -0.25
-7.77 12.04 0.25
-7.78 12.06 -2.27
-7.8 12.08 -1.76
-7.81 12.1 -1.26
-7.84 12.15 -0.76
-7.65 11.84 -0.25
-7.73 12.07 0.25
-7.79 12.16 -2.29
-7.79 12.16 -1.77
-7.8 12.17 -1.26
-7.81 12.19 -0.76
-7.58 11.84 -0.25
-7.65 12.04 0.25
-7.7 12.12 -2.27
-7.72 12.15 -1.77
-7.72 12.14 -1.26
-7.75 12.19 -0.76
-7.46 11.73 -0.24
-7.63 12.1 0.25
-22.53 35.7 2.21
-7.67 12.15 -2.28
-7.66 12.15 -1.76
-7.66 12.14 -1.26
-7.68 12.17 -0.75
-7.46 11.83 -0.24
-7.59 12.13 0.25
-22.44 35.85 2.22
-7.59 12.12 -2.26
-7.61 12.16 -1.76
-31.94 51.03 9.53
-7.61 12.16 -1.26
-7.63 12.19 -0.75
-7.45 11.91 -0.25
-7.6 12.22 0.25
-32.06 51.58 5.31
-7.56 12.16 -2.27
-31.87 51.28 7.41
-7.55 12.15 -1.76
-7.56 12.16 -1.25
-7.56 12.17 -0.75
-7.37 11.86 -0.24
-7.62 12.36 0.25
-21.73 35.24 2.17
-6.46 10.48 -2.39
-7.49 12.15 -2.26
-7.49 12.15 -1.75
-7.71 12.51 2.33
-7.51 12.18 -1.25
-7.52 12.2 -0.75
-7.32 11.87 -0.24
-7.39 12.08 0.25
-6.4 10.47 -2.39
-7.44 12.16 -2.26
-7.43 12.15 -1.75
-30.81 50.35 9.35
-7.43 12.14 -1.25
-7.46 12.19 -0.75
-7.3 11.93 -0.24
-21.12 34.79 2.13
-6.35 10.47 -2.38
-7.44 12.25 1.25
-7.37 12.14 -2.25
-7.4 12.19 -1.75
-7.4 12.19 -1.25
-7.41 12.21 -0.75
-7.28 11.99 -0.24
-7.28 12.1 0.25
-6.32 10.49 -2.38
-7.4 12.28 1.25
-7.34 12.18 -2.25
-7.6 12.62 1.81
-7.34 12.19 -1.75
-29.28 48.62 8.99
-7.33 12.17 -1.24
-7.34 12.19 -0.75
-7.24 12.03 -0.25
-7.36 12.32 0.25
-21.39 35.79 2.19
-6.27 10.49 -2.38
-7.27 12.16 -2.24
-7.28 12.18 -1.74
-7.28 12.18 -1.24
-7.3 12.21 -0.75
-7.18 12.01 -0.24
-7.29 12.3 0.25
-6.23 10.5 -2.37
-7.27 12.27 1.25
-7.22 12.18 -2.24
-7.4 12.49 1.78
-7.21 12.16 -1.74
-7.21 12.17 -1.24
-7.23 12.2 -0.74
-7.12 12.01 -0.24
-6.19 10.52 -2.37
-7.17 12.19 1.24
-7.16 12.17 -2.24
-7.17 12.2 -1.74
-7.65 13.01 2.39
-7.17 12.2 -1.24
-7.19 12.22 -0.74
-7.08 12.03 -0.24
-6.15 10.53 -2.37
-6.86 11.76 1.19
-7.1 12.18 -2.23
-7.44 12.75 1.81
-7.1 12.18 -1.73
-7.11 12.18 -1.23
-7.11 12.18 -0.74
-6.98 11.96 -0.24
-20.48 35.39 0.71
-20.34 35.14 2.13
-6.1 10.53 -2.37
-7.21 12.46 1.26
-7.05 12.18 -2.23
-7.35 12.7 1.8
-7.06 12.2 -1.73
-7.07 12.21 -1.23
-7.08 12.23 -0.74
-6.96 12.02 -0.24
-6.93 12.07 0.24
-6.05 10.54 -2.36
-7.06 12.3 1.24
-7 12.19 -2.23
-7.09 12.35 1.75
-6.99 12.18 -1.72
-7.04 12.26 2.24
-7 12.19 -1.23
-7.01 12.22 -0.74
-6.95 12.11 -0.24
-20.76 36.45 0.73
-20.66 36.27 2.19
-5.99 10.52 -2.35
-6.92 12.16 1.22
-6.95 12.2 -2.22
-7.14 12.54 1.77
-6.95 12.2 -1.72
-7.11 12.48 2.27
-6.96 12.22 -1.23
-6.97 12.24 -0.74
-6.86 12.05 -0.24
-20.03 35.45 0.71
-7.38 13.06 0.79
-5.96 10.55 -2.36
-7.2 12.74 1.28
-6.88 12.17 -2.21
-6.73 11.9 1.68
-6.9 12.2 -1.72
-6.69 11.84 2.15
-6.89 12.19 -1.23
-6.91 12.23 -0.74
-6.74 11.93 -0.24
-6.88 12.28 0.25
-7.36 13.13 0.79
-5.91 10.55 -2.35
-7.25 12.93 1.3
-6.83 12.19 -2.21
-6.66 11.89 1.67
-6.85 12.23 -1.72
-6.89 12.3 2.23
-6.86 12.24 -1.23
-6.86 12.24 -0.74
-6.74 12.02 -0.24
-6.77 12.17 0.24
-7.28 13.1 0.79
-5.88 10.58 -2.35
-7.21 12.96 1.3
-6.78 12.2 -2.21
-6.92 12.45 1.75
-6.79 12.21 -1.72
-6.87 12.37 2.24
-6.78 12.2 -1.22
-6.8 12.24 -0.73
-6.68 12.01 3.17
-6.68 12.02 -0.24
-6.73 12.2 0.24
-7.17 13.01 0.78
-5.84 10.59 -2.35
-7.21 13.09 1.31
-6.73 12.2 -2.21
-6.89 12.49 1.75
-6.74 12.22 -1.71
-6.62 12 2.17
-6.75 12.24 -1.22
-6.53 11.84 2.63
-6.75 12.25 -0.73
-6.58 11.94 -0.24
-6.69 12.24 0.24
-7.24 13.24 0.79
-5.79 10.59 -2.35
-6.55 11.99 1.2
-6.68 12.21 -2.2
-6.91 12.63 1.77
-6.67 12.21 -1.71
-6.56 11.99 2.16
-6.68 12.22 -1.22
-6.63 12.13 2.69
-6.7 12.25 -0.73
-6.53 11.94 -0.24
-6.68 12.31 0.24
-7.12 13.13 0.78
-5.74 10.59 -2.34
-6.89 12.71 1.26
-6.63 12.22 -2.2
-6.67 12.3 1.72
-6.64 12.24 -1.71
-6.39 11.79 2.12
-6.64 12.24 -1.22
-6.65 12.27 -0.73
-6.48 11.95 -0.24
-6.57 12.22 0.24
-6.68 12.42 0.74
-5.7 10.6 -2.34
-7.02 13.06 1.3
-6.57 12.22 -2.2
-6.56 12.2 1.7
-6.58 12.23 -1.71
-6.21 11.56 2.08
-6.58 12.23 -1.21
-6.48 12.04 2.66
-6.59 12.25 -0.73
-6.42 11.95 -0.24
-6.48 12.16 0.24
-6.69 12.54 0.74
-5.66 10.61 -2.34
-7.13 13.36 1.32
-6.51 12.21 -2.19
-6.53 12.24 -1.7
-6.5 12.19 2.19
-6.53 12.25 -1.21
-6.54 12.26 -0.73
-6.38 11.97 -0.24
-6.32 11.96 0.24
-6.41 12.13 0.72
-5.61 10.61 -2.33
-7.03 13.3 1.32
-6.47 12.23 -2.19
-6.41 12.12 1.68
-6.47 12.23 -1.7
-6.47 12.23 2.19
-6.47 12.24 -1.21
-6.49 12.27 -0.73
-6.3 11.91 3.11
-6.35 12 -0.24
-6.29 12 0.24
-5.56 10.61 -2.33
-7.1 13.55 1.34
-6.4 12.21 -2.18
-6.4 12.22 1.69
-6.42 12.25 -1.7
-6.38 12.18 2.18
-6.43 12.25 -1.21
-6.44 12.29 -0.73
-6.3 12.01 -0.24
-6.33 12.17 0.24
-6.3 12.11 0.72
-5.52 10.62 -2.33
-6.95 13.35 1.32
-6.38 12.26 -2.19
-6.46 12.42 1.72
-6.38 12.25 -1.7
-6.42 12.33 2.2
-6.36 12.22 -1.21
-6.19 11.89 2.6
-6.39 12.27 -0.73
-6.26 12.04 -0.24
-6.32 12.25 0.72
-5.48 10.62 -2.32
-6.14 11.9 1.17
-6.3 12.21 -2.18
-6.36 12.32 1.7
-6.31 12.23 -1.69
-6.25 12.11 2.16
-6.32 12.24 -1.21
-6.12 11.86 2.59
-6.32 12.25 -0.72
-6.15 11.92 -0.23
-6.33 12.37 0.24
-6.65 13.01 0.77
-5.43 10.62 -2.32
-6.12 11.97 1.18
-6.28 12.28 -2.18
-6.81 13.31 1.84
-6.28 12.28 -1.69
-6.2 12.13 2.16
-6.28 12.28 -1.21
-6.1 11.93 2.6
-6.28 12.28 -0.72
-6.11 11.94 -0.23
-6.08 11.9 3.58
-6.13 12.1 0.24
-6.29 12.42 0.73
-5.38 10.62 -2.31
-5.98 11.81 1.16
-6.2 12.23 -2.17
-6.29 12.41 1.71
-6.21 12.25 -1.69
-6.53 12.89 2.29
-6.22 12.27 -1.2
-6.23 12.29 -0.72
-6.09 12.01 3.11
-6.09 12.01 -0.23
-6.1 12.14 0.24
-6.29 12.51 0.73
-5.33 10.61 -2.31
-6.12 12.18 1.19
-6.17 12.28 -2.18
-6.08 12.1 1.66
-6.17 12.27 -1.69
-6.1 12.14 2.15
-6.17 12.27 -1.2
-6.04 12.03 2.62
-6.17 12.27 -0.72
-6.07 12.07 -0.24
-6.07 12.19 0.24
-6.05 12.14 0.71
-5.29 10.62 -2.31
-6.09 12.23 -2.16
-6.63 13.31 1.83
-6.1 12.25 -1.68
-6.05 12.15 2.15
-6.1 12.26 -1.2
-5.99 12.03 2.61
-6.13 12.3 -0.72
-6.66 13.37 3.45
-6.01 12.06 -0.24
-6.07 12.29 0.72
-5.25 10.63 -2.3
-5.93 12 1.17
-6.06 12.28 -2.17
-6.01 12.18 1.67
-6.08 12.31 -1.69
-6.54 13.24 2.34
-6.06 12.28 -1.2
-5.94 12.03 2.61
-6.08 12.3 -0.72
-5.97 12.1 -0.24
-5.99 12.25 0.24
-6.3 12.87 0.75
-5.21 10.64 -2.3
-5.76 11.77 1.15
-5.99 12.24 -2.16
-5.83 11.91 1.63
-6.01 12.27 -1.68
-5.82 11.88 2.1
-6.01 12.27 -1.2
-5.77 11.79 2.55
-6.02 12.29 -0.72
-5.93 12.11 -0.24
-5.98 12.32 0.24
-6.67 13.74 0.8
-5.17 10.65 -2.3
-5.74 11.84 1.15
-5.96 12.28 -2.16
-5.82 11.99 1.64
-5.98 12.32 -1.68
-5.85 12.06 2.12
-5.98 12.33 -1.2
-5.71 11.76 2.54
-5.98 12.33 -0.72
-5.88 12.12 -0.24
-5.92 12.31 0.24
-6.43 13.37 0.78
-5.12 10.64 -2.3
-5.81 12.08 1.17
-5.9 12.27 -2.16
-6.59 13.71 1.87
-5.9 12.27 -1.67
-5.99 12.45 2.19
-5.91 12.29 -1.19
-6.42 13.35 2.88
-5.92 12.3 -0.72
-6.46 13.44 3.44
-5.83 12.12 -0.23
-5.87 12.33 0.24
-6.19 12.98 0.75
-5.08 10.65 -2.29
-7.07 14.85 1.44
-5.85 12.28 -2.15
-6.55 13.74 1.87
-5.87 12.31 -1.67
-5.75 12.07 2.12
-5.87 12.32 -1.19
-5.59 11.72 2.52
-5.88 12.35 -0.72
-5.79 12.15 -0.23
-5.75 12.17 0.23
-6.55 13.86 0.8
-5.04 10.66 -2.29
-6.58 13.94 1.35
-5.79 12.26 -2.15
-5.54 11.73 1.59
-5.8 12.27 -1.67
-5.77 12.22 2.14
-5.8 12.29 -1.19
-6.38 13.5 2.9
-5.81 12.31 -0.71
-5.75 12.17 -0.23
-5.77 12.33 0.24
-6.45 13.79 0.8
-4.99 10.67 -2.29
-6.53 13.95 1.35
-5.75 12.28 -2.15
-7.04 15.05 2.04
-5.77 12.32 -1.67
-5.64 12.04 2.11
-5.76 12.32 -1.19
-5.78 12.35 -0.71
-5.7 12.18 -0.23
-5.75 12.4 0.24
-6.4 13.81 0.8
-4.95 10.67 -2.29
-5.67 12.22 1.18
-5.7 12.28 -2.14
-6.07 13.09 1.77
-5.7 12.29 -1.66
-5.37 11.58 2.02
-5.71 12.3 -1.19
-6 12.94 2.77
-5.71 12.31 -0.71
-5.68 12.24 -0.24
-5.64 12.28 0.24
-5.59 12.16 0.7
-4.91 10.67 -2.28
-5.57 12.12 1.17
-5.65 12.29 -2.14
-5.5 11.97 1.62
-5.65 12.3 -1.66
-5.59 12.17 2.12
-5.66 12.33 -1.19
-6.19 13.47 2.88
-5.68 12.36 -0.71
-5.65 12.28 -0.24
-5.63 12.36 0.24
-5.54 12.16 0.7
-4.86 10.68 -2.28
-5.81 12.76 1.23
-5.61 12.32 -2.14
-5.54 12.18 1.64
-5.61 12.32 -1.66
-5.61 12.32 2.14
-5.6 12.29 -1.18
-6.78 14.88 3.18
-5.61 12.33 -0.71
-6.4 14.07 3.57
-5.61 12.32 -0.24
-5.56 12.33 0.24
-5.95 13.18 0.76
-4.82 10.69 -2.28
-5.56 12.32 1.18
-5.53 12.26 -2.13
-5.54 12.29 1.66
-5.55 12.31 -1.66
-5.56 12.32 -1.18
-5.69 12.61 2.69
-5.57 12.35 -0.71
-5.89 13.07 3.31
-5.57 12.36 -0.24
-5.5 12.32 0.24
-5.91 13.23 0.76
-4.78 10.69 -2.28
-5.7 12.75 1.22
-5.51 12.32 -2.14
-5.4 12.07 1.62
-5.51 12.33 -1.66
-5.72 12.8 2.22
-5.51 12.33 -1.18
-5.51 12.33 -0.71
-6.02 13.47 3.41
-5.52 12.34 -0.24
-5.48 12.37 0.24
-5.82 13.15 0.75
-4.73 10.69 -2.27
-5.86 13.23 1.27
-5.43 12.27 -2.13
-5.57 12.59 1.69
-5.44 12.29 -1.65
-5.87 13.27 2.3
-5.44 12.28 -1.18
-5.97 13.47 2.86
-5.45 12.31 -0.71
-5.92 13.37 3.38
-5.45 12.31 -0.24
-5.88 13.28 3.89
-5.45 12.42 0.24
-4.69 10.7 -2.27
-5.55 12.65 1.21
-5.37 12.23 -2.12
-5.34 12.17 1.63
-5.37 12.25 -1.64
-5.61 12.8 2.21
-5.37 12.25 -1.17
-5.84 13.32 2.83
-5.39 12.3 -0.7
-5.38 12.28 -0.23
-6.26 14.39 0.27
-5.77 13.28 0.76
-4.65 10.7 -2.27
-5.42 12.48 1.19
-5.32 12.24 -2.11
-5.41 12.45 1.67
-5.33 12.26 -1.64
-5.64 12.97 2.24
-5.32 12.24 -1.17
-5.68 13.08 2.77
-5.35 12.31 -0.7
-5.61 12.9 3.25
-5.32 12.25 -0.23
-5.37 12.46 0.24
-4.61 10.7 -2.27
-5.79 13.44 1.28
-5.28 12.27 -2.12
-5.32 12.36 -1.65
-5.39 12.53 2.16
-5.32 12.36 -1.18
-5.53 12.85 2.72
-5.31 12.32 -0.7
-4.94 11.46 2.88
-5.28 12.27 -0.23
-5.52 12.94 0.74
-4.57 10.71 -2.26
-5.34 12.53 1.19
-5.24 12.29 -2.12
-5.22 12.25 1.63
-5.26 12.33 -1.65
-5.26 12.33 2.12
-5.25 12.32 -1.17
-5.27 12.36 2.61
-5.27 12.36 -0.7
-5.4 12.67 3.18
-5.23 12.27 -0.23
-5.29 12.52 0.24
-5.1 12.08 0.69
-4.53 10.72 -2.26
-5.8 13.73 1.3
-5.2 12.32 -2.12
-6.02 14.26 1.9
-5.22 12.36 -1.65
-5.37 12.71 2.19
-5.23 12.38 -1.18
-5.35 12.68 2.68
-5.19 12.29 -0.7
-5.36 12.7 3.18
-5.17 12.24 -0.23
-5.19 12.3 3.58
-5.21 12.46 0.24
-5.09 12.18 0.69
-4.48 10.71 -2.26
-5.05 12.07 1.14
-5.15 12.33 -2.12
-5.29 12.64 1.68
-5.15 12.32 -1.64
-5.25 12.55 2.15
-5.16 12.34 -1.17
-5.48 13.1 2.76
-5.15 12.31 -0.7
-4.96 11.87 2.97
-5.1 12.2 -0.23
-5.13 12.38 0.23
-5.2 12.56 0.71
-4.44 10.71 -2.25
-5.2 12.57 1.19
-5.11 12.33 -2.11
-5.12 12.37 1.64
-5.12 12.36 -1.64
-5.13 12.38 -1.17
-4.81 11.62 2.44
-5.12 12.36 -0.7
-4.77 11.53 2.88
-5.07 12.24 -0.23
-5.06 12.34 0.23
-5.01 12.21 0.69
-4.4 10.72 -2.25
-5.11 12.47 1.18
-5.06 12.34 -2.11
-5.07 12.38 1.64
-5.06 12.34 -1.64
-5.76 14.05 2.4
-5.06 12.34 -1.17
-5.06 12.35 2.59
-5.06 12.35 -0.7
-5.22 12.74 3.18
-5.02 12.26 -0.23
-4.92 12 3.47
-5.55 13.67 0.26
-5.3 13.06 0.74
-4.36 10.73 -2.25
-5.08 12.52 1.18
-5 12.33 -2.11
-5.16 12.72 1.69
-5.01 12.35 -1.64
-5.01 12.36 -1.17
-4.8 11.82 2.48
-5.02 12.38 -0.7
-5.16 12.7 3.17
-4.96 12.23 -0.23
-4.92 12.12 3.5
-5.26 13.09 0.74
-4.31 10.74 -2.25
-6.19 15.41 1.45
-4.97 12.37 -2.11
-4.96 12.36 -1.63
-4.98 12.39 2.11
-4.96 12.33 -1.16
-4.91 12.22 2.56
-4.93 12.28 -0.69
-4.9 12.21 -0.23
-5.72 14.37 0.81
-4.27 10.73 -2.25
-5.78 14.53 1.37
-4.9 12.31 -2.1
-4.94 12.42 1.64
-4.91 12.35 -1.63
-4.86 12.23 2.08
-4.92 12.37 -1.16
-4.77 11.98 2.51
-4.88 12.27 -0.69
-4.77 12 2.98
-4.87 12.25 -0.23
-4.96 12.6 0.24
-4.23 10.73 -2.24
-4.96 12.58 1.18
-4.88 12.38 -2.11
-4.89 12.41 1.64
-4.88 12.39 -1.63
-4.75 12.06 2.05
-4.86 12.34 -1.16
-4.87 12.35 -0.7
-4.85 12.32 -0.23
-4.7 11.94 3.44
-5.57 14.29 0.27
-5.19 13.31 0.75
-4.19 10.74 -2.24
-4.89 12.53 1.18
-4.81 12.33 -2.1
-5.33 13.66 1.8
-4.82 12.37 -1.63
-4.87 12.48 2.12
-4.82 12.36 -1.16
-4.78 12.26 2.56
-4.78 12.26 -0.69
-4.8 12.3 3.05
-4.77 12.23 -0.23
-4.73 12.25 0.23
-5.09 13.19 0.74
-4.15 10.75 -2.24
-4.79 12.42 1.16
-4.77 12.36 -2.1
-4.65 12.04 1.58
-4.78 12.38 -1.63
-4.65 12.04 2.04
-4.77 12.36 -1.16
-4.6 11.92 2.48
-4.72 12.23 -0.69
-4.69 12.16 3.01
-4.73 12.25 -0.23
-4.67 12.22 0.23
-5.6 14.65 0.82
-4.11 10.74 -2.24
-4.78 12.5 1.17
-4.72 12.34 -2.09
-4.58 11.99 1.58
-4.72 12.35 -1.62
-4.74 12.39 2.1
-4.72 12.36 -1.16
-4.73 12.38 2.58
-4.66 12.19 -0.68
-4.67 12.22 3.02
-4.68 12.24 -0.23
-4.84 12.65 3.63
-4.61 12.19 0.23
-5.36 14.18 0.79
-4.06 10.75 -2.23
-4.73 12.53 1.17
-4.68 12.38 -2.1
-4.67 12.35 1.62
-4.69 12.42 -1.63
-4.61 12.21 2.07
-4.7 12.43 -1.16
-5.41 14.31 2.97
-4.66 12.33 -0.69
-4.72 12.5 3.08
-4.62 12.23 -0.23
-2.42 6.41 1.84
-4.57 12.21 0.23
-4.84 12.93 0.72
-4.03 10.77 -2.24
-5.11 13.66 1.28
-4.62 12.36 -2.09
-4.44 11.88 1.56
-4.63 12.39 -1.62
-5.1 13.65 2.31
-4.62 12.36 -1.15
-4.6 12.29 2.55
-4.62 12.36 -0.69
-4.63 12.38 3.05
-4.56 12.21 -0.23
-2.4 6.41 1.84
-4.5 12.16 0.23
-4.86 13.15 0.73
-3.99 10.78 -2.23
-4.52 12.21 1.14
-4.56 12.34 -2.08
-4.58 12.38 1.62
-4.59 12.4 -1.62
-4.62 12.48 2.11
-4.58 12.37 -1.15
-3.09 8.37 1.73
-4.56 12.33 -0.69
-4.45 12.04 2.96
-4.54 12.26 -0.23
-2.38 6.45 1.84
-4.51 12.33 0.23
-5.1 13.94 0.78
-3.95 10.78 -2.23
-4.87 13.29 1.24
-4.53 12.37 -2.09
-4.43 12.1 1.58
-4.54 12.41 -1.62
-4.42 12.07 2.04
-4.55 12.43 -1.16
-3.07 8.4 1.74
-4.55 12.42 -0.69
-4.94 13.5 3.32
-4.51 12.31 -0.23
-4.44 12.27 0.23
-4.97 13.73 0.77
-3.9 10.77 -2.23
-4.47 12.35 -2.08
-4.56 12.59 1.64
-4.48 12.36 -1.61
-4.93 13.61 2.29
-4.48 12.39 -1.15
-3 8.28 1.71
-4.47 12.34 -0.69
-4.52 12.49 3.07
-4.45 12.3 -0.23
-2.34 6.45 1.84
-4.39 12.27 0.23
-4.44 12.39 0.69
-3.85 10.76 -2.22
-4.9 13.69 1.27
-4.43 12.37 -2.08
-4.5 12.56 1.64
-4.45 12.41 -1.62
-4.36 12.17 2.05
-4.46 12.44 -1.16
-2.97 8.29 1.71
-4.32 12.07 -0.67
-4.46 12.46 3.06
-4.39 12.27 -0.23
-4.34 12.26 0.23
-4.37 12.32 0.69
-3.81 10.77 -2.22
-4.88 13.79 1.28
-4.39 12.39 -2.08
-4.51 12.74 1.66
-4.39 12.4 -1.61
-4.97 14.03 2.36
-4.38 12.37 -1.15
-4.43 12.5 2.58
-4.4 12.4 -0.69
-2.96 8.36 2.05
-4.33 12.21 -0.23
-4.4 12.41 3.53
-4.3 12.26 0.23
-4.68 13.34 0.74
-3.78 10.78 -2.22
-5.03 14.35 1.33
-4.33 12.36 -2.07
-4.37 12.45 1.62
-4.34 12.4 -1.61
-4.4 12.54 2.1
-4.35 12.4 -1.15
-4.7 13.4 2.76
-4.34 12.38 -0.69
-4.29 12.24 2.99
-4.29 12.24 -0.23
-4.26 12.29 0.23
-5.14 14.84 0.82
-3.73 10.79 -2.22
-4.65 13.42 1.24
-4.3 12.41 -2.08
-4.42 12.77 1.66
-4.3 12.43 -1.62
-4.77 13.79 2.31
-4.3 12.41 -1.15
-5.32 15.35 3.16
-4.29 12.4 -0.69
-15.4 44.48 10.87
-4.24 12.24 -0.23
-2.25 6.51 1.85
-4.23 12.34 0.23
-4.53 13.24 0.73
-3.69 10.79 -2.22
-4.54 13.25 1.23
-4.23 12.36 -2.07
-4.35 12.7 1.65
-4.24 12.39 -1.61
-4.32 12.61 2.11
-4.24 12.39 -1.15
-2.82 8.23 1.69
-4.25 12.42 -0.69
-2.87 8.37 2.04
-4.19 12.24 -0.23
-4.18 12.34 0.23
-4.47 13.19 0.73
-3.65 10.77 -2.21
-4.21 12.43 -2.08
-4.33 12.78 1.66
-4.22 12.45 -1.61
-4.46 13.17 2.2
-4.21 12.45 -1.15
-2.79 8.24 1.69
-4.18 12.35 -0.68
-4.18 12.35 3.01
-4.15 12.25 -0.23
-2.57 7.58 2.14
-4.15 12.38 0.23
-3.61 10.79 -2.21
-4.73 14.13 1.3
-4.15 12.39 -2.07
-4.27 12.74 1.65
-4.15 12.4 -1.61
-4.26 12.71 2.12
-4.15 12.38 -1.14
-4.54 13.57 2.78
-4.15 12.4 -0.69
-4.56 13.6 3.31
-4.11 12.26 -0.23
-2.46 7.35 2.08
-4.08 12.33 0.23
-3.58 10.81 -2.21
-4.45 13.45 1.24
-4.11 12.41 -2.07
-4.24 12.83 1.66
-4.12 12.44 -1.61
-4.38 13.23 2.21
-4.12 12.45 -1.15
-2.69 8.14 1.67
-4.12 12.44 -0.69
-2.72 8.22 2
-4.06 12.25 -0.23
-4.03 12.31 0.23
-4.4 13.46 0.74
-3.54 10.82 -2.21
-4.45 13.59 1.25
-4.05 12.39 -2.07
-4.18 12.77 1.65
-4.06 12.41 -1.6
-4.49 13.73 2.29
-4.05 12.39 -1.14
-2.66 8.14 1.66
-4.06 12.42 -0.69
-2.73 8.34 2.03
-4.02 12.29 -0.23
-2.45 7.48 2.11
-3.98 12.32 0.23
-4.5 13.91 0.77
-3.5 10.84 -2.21
-4.24 13.11 1.21
-4.01 12.41 -2.06
-4.59 14.2 1.83
-4 12.39 -1.6
-2.73 8.45 1.41
-4 12.37 -1.14
-2.64 8.16 1.67
-4 12.39 -0.68
-2.7 8.35 2.03
-3.98 12.32 -0.23
-2.15 6.65 1.87
-3.95 12.36 0.23
-12.72 39.81 2.19
-3.47 10.88 -2.22
-4.27 13.36 1.23
-3.94 12.34 -2.05
-4.16 13.02 1.68
-3.94 12.35 -1.59
-2.69 8.41 1.4
-3.94 12.35 -1.13
-2.62 8.21 1.67
-3.96 12.39 -0.68
-2.48 7.77 1.88
-3.95 12.36 -0.23
-3.91 12.4 0.23
-4.27 13.53 0.74
-3.43 10.87 -2.22
-5.01 15.87 1.46
-3.89 12.34 -2.05
-4.4 13.93 1.79
-3.9 12.36 -1.59
-4.2 13.33 2.21
-3.89 12.34 -1.13
-4.05 12.84 2.62
-3.91 12.4 -0.68
-4.34 13.75 3.33
-3.91 12.39 -0.23
-3.89 12.48 0.23
-4.45 14.26 0.78
-3.39 10.88 -2.22
-4.23 13.58 1.24
-3.86 12.38 -2.05
-4.31 13.82 1.78
-3.88 12.45 -1.6
-2.62 8.41 1.39
-3.89 12.46 -1.14
-2.56 8.22 1.67
-3.89 12.47 -0.68
-2.41 7.72 1.87
-3.88 12.43 -0.23
-2.1 6.74 1.89
-3.83 12.45 0.23
-4.41 14.31 0.78
-3.34 10.86 -2.21
-4.58 14.86 1.36
-3.82 12.41 -2.06
-3.82 12.42 -1.6
-2.58 8.37 1.39
-3.82 12.42 -1.14
-2.49 8.08 1.64
-3.83 12.44 -0.68
-3.82 12.41 -0.23
-2.09 6.78 1.9
-3.78 12.42 0.23
-4.15 13.65 0.75
-3.3 10.85 -2.2
-4.04 13.29 1.21
-3.78 12.42 -2.06
-4.14 13.6 1.75
-3.79 12.45 -1.6
-3.93 12.91 2.14
-3.8 12.5 -1.14
-2.49 8.19 1.66
-3.74 12.31 -0.67
-2.33 7.65 1.85
-3.76 12.38 -0.23
-2.31 7.58 2.12
-3.78 12.57 0.23
-4.5 14.99 0.82
-3.26 10.84 -2.2
-4.01 13.36 1.22
-3.74 12.44 -2.06
-4.14 13.78 1.77
-3.74 12.44 -1.6
-13.18 43.88 7.26
-3.73 12.43 -1.14
-2.47 8.22 1.67
-3.73 12.43 -0.68
-2.51 8.34 2.01
-3.72 12.39 -0.23
-3.74 12.63 0.23
-3.22 10.85 -2.2
-4.26 14.35 1.31
-3.69 12.43 -2.05
-4.05 13.67 1.75
-3.69 12.45 -1.59
-3.85 12.99 2.15
-3.7 12.46 -1.14
-2.44 8.22 1.67
-3.7 12.49 -0.68
-2.01 6.79 1.63
-3.68 12.41 -0.23
-2.17 7.33 2.05
-4.31 14.71 0.27
-4.39 14.98 0.82
-3.18 10.86 -2.2
-4.2 14.35 1.31
-3.65 12.46 -2.06
-4.04 13.81 1.77
-3.65 12.47 -1.6
-3.81 13.01 2.15
-3.64 12.44 -1.13
-4.15 14.18 2.87
-3.65 12.46 -0.68
-2 6.83 1.64
-3.64 12.44 -0.23
-2.15 7.34 2.05
-3.6 12.44 0.23
-4.27 14.79 0.81
-3.14 10.86 -2.2
-4.17 14.42 1.31
-3.59 12.43 -2.05
-4.13 14.28 1.82
-3.6 12.45 -1.59
-3.85 13.32 2.2
-3.59 12.44 -1.13
-2.34 8.09 1.64
-3.6 12.46 -0.68
-1.98 6.87 1.65
-3.59 12.41 -0.23
-2.12 7.34 2.05
-3.54 12.41 0.23
-3.78 13.26 0.72
-3.1 10.87 -2.2
-4.29 15.06 1.37
-3.56 12.47 -2.05
-3.88 13.61 1.74
-3.57 12.5 -1.6
-3.85 13.48 2.22
-3.57 12.51 -1.14
-2.34 8.21 1.66
-3.56 12.48 -0.68
-12 42.08 10.1
-3.55 12.43 -0.23
-2.1 7.37 2.05
-4.18 14.84 0.27
-3.91 13.89 0.76
-3.06 10.87 -2.19
-3.86 13.71 1.25
-3.51 12.45 -2.05
-3.83 13.62 1.74
-3.51 12.45 -1.59
-4.06 14.42 2.37
-3.5 12.45 -1.13
-2.31 8.22 1.66
-3.51 12.47 -0.68
-4.07 14.46 3.47
-3.5 12.43 -0.23
-2.36 8.4 2.34
-4.05 14.58 0.26
-3.84 13.84 0.75
-3.02 10.87 -2.19
-3.83 13.8 1.25
-3.46 12.45 -2.05
-4.19 15.1 1.92
-3.47 12.48 -1.59
-10.87 39.14 6.43
-3.47 12.51 -1.14
-2.28 8.21 1.66
-3.47 12.48 -0.68
-1.96 7.06 1.69
-3.45 12.43 -0.23
-2.34 8.43 2.34
-3.99 14.57 0.26
-3.8 13.88 0.75
-2.98 10.89 -2.19
-4.06 14.82 1.34
-3.42 12.49 -2.05
-3.76 13.72 1.75
-3.42 12.48 -1.59
-12.22 44.6 7.32
-3.41 12.46 -1.13
-2.25 8.22 1.66
-3.41 12.44 -0.68
-11.76 42.94 10.28
-3.41 12.46 -0.23
-2.31 8.42 2.34
-3.95 14.61 0.26
-3.88 14.34 0.78
-2.95 10.9 -2.2
-3.74 13.85 1.26
-3.36 12.43 -2.04
-10.54 39 4.96
-3.37 12.47 -1.59
-4.1 15.18 2.49
-3.37 12.47 -1.13
-2.21 8.19 1.65
-3.38 12.49 -0.68
-11.56 42.77 10.23
-3.36 12.45 -0.23
-2.07 7.67 2.13
-3.86 14.47 0.26
-3.78 14.18 0.77
-2.9 10.9 -2.19
-12.06 45.28 4.1
-3.33 12.49 -2.05
-3.67 13.76 1.75
-3.34 12.52 -1.59
-10.43 39.13 6.41
-3.33 12.5 -1.13
-1.91 7.15 1.44
-3.33 12.49 -0.68
-1.95 7.32 1.75
-3.31 12.41 -0.22
-2.36 8.86 2.46
-3.82 14.52 0.26
-11.84 45.02 2.44
-2.87 10.9 -2.19
-3.58 13.6 1.23
-3.28 12.47 -2.04
-3.9 14.81 1.88
-3.28 12.46 -1.58
-3.73 14.18 2.32
-3.28 12.46 -1.13
-1.89 7.17 1.44
-3.29 12.5 -0.68
-1.87 7.13 1.7
-3.29 12.5 -0.23
-2.27 8.62 2.39
-3.72 14.36 0.78
-2.83 10.91 -2.19
-10.9 42.01 3.8
-3.24 12.48 -2.04
-10.01 38.6 4.9
-3.24 12.51 -1.59
-10.23 39.42 6.45
-3.25 12.52 -1.13
-1.89 7.27 1.46
-3.25 12.54 -0.68
-1.89 7.3 1.74
-3.25 12.52 -0.23
-2 7.72 2.14
-3.85 15.08 0.82
-2.79 10.93 -2.19
-10.72 41.93 3.79
-3.19 12.47 -2.04
-3.82 14.94 1.89
-3.19 12.48 -1.58
-12.03 47.06 7.69
-3.19 12.48 -1.13
-1.87 7.3 1.47
-3.2 12.5 -0.68
-1.87 7.31 1.74
-3.19 12.47 -0.22
-2.14 8.39 2.32
-11.28 44.77 0.81
-11.45 45.45 2.46
-2.75 10.93 -2.19
-10.94 43.44 3.92
-3.14 12.45 -2.03
-9.68 38.42 4.86
-3.15 12.49 -1.58
-3.76 14.93 2.44
-3.15 12.51 -1.13
-2.14 8.48 1.7
-3.16 12.53 -0.68
-1.83 7.26 1.73
-3.15 12.51 -0.23
-1.94 7.7 2.13
-3.66 14.73 0.26
-10.75 43.32 2.34
-2.71 10.93 -2.19
-3.56 14.33 1.29
-3.11 12.52 -2.04
-9.53 38.39 4.86
-3.11 12.53 -1.58
-10.6 42.69 6.97
-3.1 12.5 -1.13
-2.1 8.47 1.7
-3.1 12.5 -0.67
-1.78 7.17 1.71
-3.1 12.5 -0.22
-2.04 8.22 2.27
-11.04 45.16 0.81
-3.56 14.58 0.79
-2.67 10.94 -2.19
-10.41 42.56 3.83
-3.05 12.47 -2.03
-10.47 42.83 5.41
-3.05 12.49 -1.58
-1.97 8.07 1.32
-3.06 12.5 -1.13
-2 8.16 1.63
-3.06 12.52 -0.68
-1.79 7.33 1.74
-3.06 12.53 -0.23
-2.07 8.47 2.34
-10.92 45.36 0.81
-10.51 43.65 2.35
-2.64 10.97 -2.19
-10.35 42.97 3.87
-3.01 12.51 -2.04
-11.71 48.61 6.14
-3.02 12.54 -1.58
-11 45.67 7.44
-3.02 12.53 -1.13
-1.97 8.2 1.64
-3.02 12.54 -0.68
-3.01 12.51 -0.22
-2.13 8.84 2.44
-10.75 45.33 0.81
-3.54 14.92 0.8
-2.6 10.96 -2.19
-10.24 43.18 3.88
-2.96 12.48 -2.03
-10.4 43.85 5.53
-2.96 12.5 -1.58
-1.94 8.18 1.33
-2.96 12.48 -1.12
-9.33 39.34 7.86
-2.97 12.53 -0.67
-1.75 7.4 1.76
-2.97 12.54 -0.22
-2 8.45 2.33
-10.62 45.49 0.82
-3.53 15.12 0.81
-2.56 10.96 -2.19
-10.08 43.2 3.88
-2.92 12.5 -2.03
-10.18 43.6 5.5
-2.93 12.53 -1.58
-10.79 46.21 7.52
-2.93 12.55 -1.13
-1.91 8.19 1.64
-2.93 12.54 -0.67
-2.08 8.89 2.11
-2.93 12.55 -0.22
-1.98 8.48 2.33
-10.42 45.37 0.81
-9.67 42.07 2.26
-2.52 10.95 -2.18
-2.88 12.53 -2.04
-9.13 39.72 5
-2.88 12.52 -1.58
-9.48 41.28 6.71
-2.87 12.51 -1.12
-1.89 8.22 1.64
-2.87 12.51 -0.67
-1.66 7.24 1.72
-2.88 12.53 -0.22
-10.24 45.29 0.81
-9.55 42.24 2.27
-2.48 10.95 -2.18
-2.83 12.5 -2.03
-8.92 39.43 4.96
-2.83 12.51 -1.57
-9.35 41.36 6.72
-2.84 12.54 -1.12
-1.64 7.27 1.45
-2.84 12.57 -0.68
-1.65 7.31 1.73
-2.82 12.49 -0.22
-1.6 7.08 1.95
-10.08 45.3 0.81
-9.82 44.16 2.37
-2.44 10.96 -2.18
-9.74 43.77 3.92
-2.79 12.54 -2.03
-8.74 39.28 4.94
-2.79 12.54 -1.58
-8.92 40.11 6.51
-2.79 12.53 -1.12
-1.64 7.37 1.47
-2.79 12.53 -0.67
-9.16 41.19 9.74
-2.79 12.52 -0.22
-1.63 7.33 2.01
-10.01 45.72 0.82
-9.18 41.94 2.25
-2.4 10.98 -2.19
-9.57 43.7 3.91
-2.73 12.49 -2.02
-8.63 39.39 4.95
-2.74 12.51 -1.57
-8.88 40.57 6.58
-2.74 12.51 -1.12
-1.6 7.31 1.45
-2.75 12.55 -0.67
-9.87 45.09 10.66
-2.75 12.56 -0.22
-9.82 45.59 0.81
-9.04 42 2.25
-2.35 10.94 -2.17
-9.41 43.7 3.91
-2.69 12.51 -2.03
-8.49 39.45 4.95
-2.71 12.57 -1.58
-1.62 7.53 1.22
-2.71 12.57 -1.13
-1.76 8.16 1.62
-2.7 12.55 -0.67
-2.7 12.53 -0.22
-1.92 8.92 2.44
-9.66 45.62 0.81
-9.77 46.17 2.47
-2.31 10.93 -2.17
-9.27 43.79 3.92
-2.65 12.51 -2.03
-8.37 39.53 4.96
-2.65 12.52 -1.57
-8.41 39.73 6.43
-2.65 12.52 -1.12
-9.31 44 8.74
-2.65 12.54 -0.67
-1.72 8.14 1.92
-2.65 12.53 -0.22
-1.59 7.52 2.06
-9.52 45.82 0.82
-9.59 46.14 2.47
-2.27 10.92 -2.17
-9.61 46.24 4.13
-2.6 12.52 -2.02
-8.27 39.78 4.99
-2.6 12.53 -1.57
-1.55 7.48 1.21
-2.61 12.55 -1.12
-8.47 40.77 8.09
-2.61 12.57 -0.67
-1.55 7.44 1.75
-2.61 12.54 -0.22
-1.54 7.4 2.03
-5.2 25.49 0.45
-8.85 43.4 2.32
-2.23 10.93 -2.17
-9.38 45.99 4.11
-2.56 12.56 -2.03
-8.12 39.79 4.99
-2.56 12.56 -1.57
-1.53 7.52 1.22
-2.56 12.53 -1.12
-2.56 12.56 -0.67
-2.56 12.53 -0.22
-5.08 25.36 0.45
-8.67 43.31 2.31
-2.19 10.94 -2.17
-2.5 12.49 -2.02
-8.01 40 5.01
-2.51 12.54 -1.57
-8.42 42.06 6.79
-2.51 12.52 -1.12
-8.1 40.48 8.02
-2.51 12.56 -0.67
-1.49 7.44 1.75
-2.52 12.58 -0.22
-4.98 25.27 0.45
-8.58 43.55 2.33
-2.16 10.94 -2.17
-8.64 43.84 3.91
-2.47 12.55 -2.03
-8.16 41.41 5.18
-2.48 12.58 -1.57
-2.48 12.56 -1.12
-2.47 12.56 -0.67
-1.76 8.92 2.1
-2.47 12.54 -0.22
-1.71 8.68 2.37
-4.89 25.28 0.45
-9.01 46.62 2.49
-2.12 10.94 -2.17
-2.42 12.52 -2.02
-2.42 12.53 -1.57
-2.42 12.53 -1.12
-7.98 41.3 8.18
-2.43 12.55 -0.67
-1.73 8.97 2.11
-2.43 12.58 -0.22
-1.68 8.71 2.38
-4.81 25.38 0.45
-2.07 10.94 -2.16
-2.38 12.54 -2.02
-2.38 12.58 -1.57
-8.16 43.08 6.94
-2.39 12.59 -1.12
-8.45 44.61 8.83
-2.39 12.6 -0.67
-1.6 8.44 1.98
-2.38 12.57 -0.22
-1.65 8.72 2.38
-4.75 25.57 0.45
-2.03 10.95 -2.16
-8.79 47.32 4.21
-2.34 12.58 -2.03
-9.15 49.28 6.15
-2.33 12.56 -1.57
-7.46 40.17 6.47
-2.33 12.52 -1.11
-2.33 12.57 -0.67
-1.39 7.49 1.76
-2.33 12.54 -0.22
-1.56 8.38 2.28
-4.67 25.55 0.45
-2 10.97 -2.17
-8.63 47.23 4.2
-2.29 12.52 -2.02
-7.87 43.06 5.38
-2.29 12.56 -1.57
-7.85 42.96 6.92
-2.29 12.56 -1.12
-1.49 8.16 1.61
-2.3 12.59 -0.67
-1.37 7.48 1.76
-2.31 12.63 -0.22
-1.23 6.75 1.84
-4.57 25.55 0.45
-1.97 10.99 -2.17
-8.53 47.67 4.24
-2.25 12.58 -2.02
-7.7 43.05 5.37
-2.25 12.6 -1.57
-7.7 43.07 6.93
-2.25 12.57 -1.12
-2.25 12.57 -0.67
-1.34 7.49 1.76
-2.24 12.52 -0.22
-1.51 8.43 2.3
-4.49 25.58 0.45
-1.93 10.99 -2.17
-8.31 47.38 4.21
-2.2 12.54 -2.02
-8.62 49.12 6.12
-2.2 12.54 -1.56
-7.57 43.15 6.94
-2.2 12.55 -1.11
-1.46 8.34 1.65
-2.21 12.57 -0.67
-1.3 7.41 1.74
-2.2 12.54 -0.22
-1.23 7.03 1.91
-4.46 25.99 0.46
-4.7 27.4 1.46
-1.89 10.98 -2.17
-8.16 47.55 4.22
-2.16 12.57 -2.02
-8.52 49.64 6.18
-2.16 12.6 -1.57
-1.29 7.49 1.2
-2.16 12.61 -1.12
-1.41 8.23 1.62
-2.17 12.61 -0.67
-1.28 7.48 1.75
-2.15 12.55 -0.22
-1.22 7.1 1.93
-4.37 25.98 0.46
-4.67 27.74 1.47
-1.85 11 -2.17
-2.12 12.59 -2.02
-2.11 12.57 -1.56
-7.77 46.18 7.42
-2.11 12.55 -1.11
-2.12 12.59 -0.67
-2.12 12.58 -0.22
-1.18 7 1.9
-4.27 25.98 0.46
-7.63 46.38 2.46
-1.81 11.03 -2.17
-2.84 17.26 1.53
-2.06 12.54 -2.01
-2.07 12.58 -1.57
-2.07 12.58 -1.12
-2.08 12.62 -0.67
-1.2 7.32 1.71
-2.08 12.64 -0.22
-1.15 7.01 1.9
-4.18 25.98 0.46
-1.58 9.83 -2.3
-1.78 11.05 -2.18
-7.35 45.7 4.05
-2.03 12.59 -2.02
-2.03 12.6 -1.57
-6.72 41.77 6.7
-2.02 12.57 -1.11
-2.02 12.58 -0.67
-2.02 12.58 -0.22
-1.1 6.86 1.86
-4.08 25.98 0.46
-1.54 9.81 -2.29
-1.76 11.2 -2.2
-7.18 45.72 4.05
-1.97 12.55 -2.01
-1.97 12.56 -1.56
-1.98 12.58 -1.11
-1.98 12.6 -0.67
-1.14 7.23 1.69
-1.98 12.63 -0.22
-1.05 6.67 1.81
-4 25.99 0.46
-1.51 9.81 -2.29
-2.35 15.26 0.81
-1.72 11.16 -2.19
-7.03 45.7 4.05
-1.94 12.6 -2.02
-7.36 47.8 5.94
-1.94 12.63 -1.57
-1.32 8.55 1.37
-1.94 12.63 -1.12
-1.18 7.65 1.5
-1.94 12.64 -0.67
-1.3 8.45 1.97
-1.94 12.62 -0.22
-1.21 7.87 2.13
-3.9 25.98 0.46
-1.47 9.81 -2.29
-2.31 15.36 0.81
-1.67 11.15 -2.19
-6.93 46.13 4.08
-1.89 12.59 -2.02
-6.69 44.56 5.53
-1.89 12.59 -1.56
-1.2 7.98 1.28
-1.89 12.56 -1.11
-1.15 7.66 1.51
-1.89 12.61 -0.67
-1.11 7.4 1.73
-1.89 12.59 -0.22
-1.18 7.88 2.14
-3.81 25.98 0.46
-1.27 8.68 -2.03
-1.63 11.12 -2.18
-6.81 46.47 4.11
-1.84 12.56 -2.01
-6.45 44.01 5.46
-1.85 12.6 -1.56
-1.17 7.97 1.28
-1.85 12.63 -1.12
-1.13 7.71 1.52
-1.85 12.65 -0.67
-1.86 12.66 -0.22
-3.71 25.98 0.46
-1.24 8.69 -2.03
-3.62 25.36 1.34
-1.58 11.06 -2.17
-2.48 17.35 1.53
-1.8 12.61 -2.02
-2.24 15.68 1.95
-1.8 12.63 -1.57
-1.14 7.95 1.27
-1.8 12.6 -1.11
-1.09 7.65 1.5
-1.8 12.6 -0.67
-1.06 7.42 1.73
-1.8 12.59 -0.22
-1.1 7.67 2.08
-3.63 25.98 0.46
-1.21 8.64 -2.01
-3.54 25.33 1.34
-1.54 11 -2.16
-2.4 17.16 1.52
-1.76 12.58 -2.01
-6.15 43.96 5.45
-1.76 12.58 -1.56
-1.12 7.98 1.28
-1.76 12.59 -1.11
-1.07 7.65 1.5
-1.76 12.62 -0.67
-1.06 7.58 1.77
-1.77 12.67 -0.22
-1.07 7.66 2.07
-3.54 26 0.46
-1.16 8.49 -1.98
-2.08 15.27 0.81
-1.5 10.99 -2.16
-2.07 15.22 1.34
-1.71 12.6 -2.01
-6.73 49.42 6.12
-1.72 12.66 -1.57
-5.87 43.15 6.9
-1.72 12.63 -1.12
-1.04 7.63 1.5
-1.72 12.63 -0.67
-1.05 7.69 1.79
-1.72 12.62 -0.22
-1.04 7.67 2.08
-2.13 16.09 0.28
-1.12 8.48 -1.98
-2.02 15.27 0.81
-1.46 11 -2.16
-1.96 14.78 1.3
-1.67 12.61 -2.01
-2.04 15.42 1.91
-1.67 12.59 -1.56
-1.03 7.75 1.24
-1.67 12.59 -1.11
-1.01 7.63 1.5
-1.67 12.63 -0.67
-1.02 7.68 1.79
-1.67 12.63 -0.22
-1.02 7.69 2.08
-3.35 25.99 0.46
-1.09 8.48 -1.97
-1.97 15.33 0.81
-1.42 11.03 -2.16
-1 7.76 0.68
-1.62 12.59 -2.01
-5.68 44.12 5.46
-1.63 12.64 -1.57
-0.99 7.71 1.23
-1.63 12.64 -1.12
-0.98 7.63 1.49
-1.63 12.67 -0.67
-0.99 7.69 1.79
-1.63 12.67 -0.22
-0.99 7.69 2.08
-2.02 16.06 0.28
-1.06 8.48 -1.97
-3.23 25.69 1.36
-1.39 11.06 -2.17
-0.97 7.73 0.68
-1.59 12.63 -2.02
-0.98 7.77 0.96
-1.59 12.63 -1.56
-0.96 7.68 1.23
-1.58 12.6 -1.11
-0.96 7.65 1.5
-1.58 12.62 -0.67
-0.96 7.67 1.78
-1.59 12.62 -0.22
-0.95 7.58 2.05
-3.17 25.98 0.46
-1.04 8.48 -1.97
-1.88 15.43 0.81
-1.35 11.05 -2.16
-0.94 7.71 0.68
-1.54 12.6 -2.01
-0.94 7.68 0.95
-1.54 12.6 -1.56
-0.94 7.68 1.23
-1.54 12.65 -1.12
-0.93 7.66 1.5
-1.54 12.65 -0.67
-0.94 7.68 1.79
-1.55 12.68 -0.22
-0.93 7.62 2.06
-3.08 26 0.46
-1 8.47 -1.97
-1.84 15.52 0.82
-1.31 11.03 -2.16
-0.91 7.69 0.68
-1.5 12.64 -2.02
-0.91 7.67 0.95
-1.5 12.67 -1.57
-0.91 7.7 1.23
-1.5 12.65 -1.11
-0.91 7.67 1.5
-1.5 12.64 -0.67
-0.92 7.73 1.8
-1.5 12.63 -0.22
-1.82 15.82 0.28
-0.97 8.45 -1.96
-0.89 7.73 0.41
-1.27 11.03 -2.16
-0.88 7.67 0.68
-1.45 12.62 -2.01
-0.88 7.68 0.95
-1.45 12.61 -1.56
-0.89 7.71 1.23
-1.45 12.61 -1.11
-0.88 7.67 1.5
-1.45 12.64 -0.67
-0.88 7.62 1.77
-1.46 12.66 -0.22
-0.88 7.61 2.05
-0.86 7.73 0.14
-0.93 8.4 -1.95
-0.85 7.68 0.4
-1.23 11.06 -2.16
-0.85 7.67 0.67
-1.4 12.61 -2.01
-0.86 7.7 0.95
-1.41 12.65 -1.56
-0.86 7.73 1.23
-1.4 12.58 -1.11
-0.85 7.67 1.5
-1.4 12.59 -0.66
-0.86 7.77 -0.14
-0.85 7.65 2.06
-0.83 7.71 0.14
-0.9 8.35 -1.94
-0.83 7.68 0.41
-1.19 11.05 -2.16
-0.83 7.69 0.68
-1.35 12.55 -2
-0.83 7.7 0.95
-1.35 12.56 -1.55
-1.35 12.56 -1.1
-0.85 7.91 1.55
-1.35 12.56 -0.66
-0.91 8.41 1.95
-0.83 7.73 -0.14
-0.8 7.71 0.14
-0.87 8.32 -1.93
-0.8 7.68 0.4
-1.16 11.08 -2.16
-0.81 7.71 0.68
-1.31 12.54 -2
-0.81 7.71 0.95
-0.81 7.73 -0.95
-1.61 15.39 2.45
-0.81 7.75 -0.68
-0.83 7.93 1.55
-0.81 7.75 -0.41
-0.79 7.55 1.75
-0.81 7.71 -0.14
-0.79 7.6 2.05
-0.78 7.72 0.14
-0.84 8.31 -1.93
-0.78 7.7 0.41
-1.11 11.03 -2.16
-0.78 7.74 0.68
-0.78 7.77 -1.24
-0.78 7.74 0.96
-0.78 7.71 -0.95
-1.59 15.73 2.5
-0.78 7.71 -0.68
-0.78 7.73 -0.41
-0.76 7.57 1.76
-0.78 7.7 -0.14
-0.83 8.21 2.21
-0.75 7.72 0.14
-0.77 7.89 -1.83
-0.75 7.73 0.41
-0.76 7.75 -1.51
-0.76 7.79 0.68
-0.75 7.71 -1.23
-1.46 14.99 1.85
-0.75 7.7 -0.95
-0.75 7.73 1.23
-0.75 7.7 -0.68
-1.62 16.62 3.25
-0.75 7.73 -0.41
-0.75 7.71 -0.14
-0.59 6.03 1.62
-0.73 7.73 0.14
-0.72 7.71 -1.79
-0.73 7.75 0.41
-0.72 7.67 -1.5
-0.72 7.69 -1.22
-1.45 15.42 1.9
-0.72 7.71 -0.95
-0.73 7.73 1.23
-0.72 7.7 -0.68
-0.73 7.72 -0.41
-0.68 7.24 1.68
-0.73 7.72 -0.14
-0.78 8.26 2.22
-0.7 7.74 0.14
-0.69 7.66 -1.78
-0.7 7.76 0.41
-0.69 7.66 -1.5
-1.37 15.12 1.33
-0.7 7.68 -1.22
-1.44 15.96 1.97
-0.7 7.7 -0.95
-0.7 7.71 -0.68
-1.45 16.04 3.13
-0.7 7.72 -0.41
-0.75 8.28 1.92
-0.7 7.75 -0.14
-0.76 8.36 2.25
-0.67 7.76 0.14
-0.67 7.65 -1.77
-0.67 7.65 -1.49
-1.29 14.78 1.3
-0.67 7.68 -1.22
-0.67 7.7 -0.95
-1.4 16.11 2.56
-0.67 7.72 -0.68
-0.67 7.75 -0.41
-0.67 7.74 1.79
-0.67 7.76 -0.14
-0.57 6.57 1.77
-1.09 13.09 0.23
-0.64 7.64 -1.77
-1.22 14.66 0.77
-0.64 7.64 -1.49
-1.33 15.95 1.4
-0.64 7.7 -1.22
-1.42 17.02 2.1
-0.64 7.73 -0.95
-1.3 15.63 2.48
-0.64 7.74 -0.68
-0.65 7.8 -0.41
-0.65 7.85 1.82
-1.04 12.54 -0.22
-0.5 5.98 1.61
-1.05 13.12 0.23
-0.61 7.65 -1.77
-1.25 15.67 0.82
-0.61 7.65 -1.49
-1.17 14.62 1.28
-0.61 7.7 -1.22
-0.62 7.75 -0.95
-0.64 7.98 1.27
-0.62 7.77 -0.68
-1.24 15.5 3.02
-1.01 12.69 -0.67
-1 12.58 -0.22
-0.48 5.99 1.61
-0.98 12.9 0.23
-0.58 7.66 -1.77
-1.11 14.53 0.76
-0.59 7.68 -1.5
-1.16 15.25 1.34
-0.59 7.72 -1.23
-1.19 15.65 1.93
-0.59 7.79 -0.96
-0.59 7.72 1.23
-0.97 12.7 -1.11
-0.59 7.7 1.5
-0.97 12.7 -0.67
-0.66 8.66 2
-0.97 12.68 -0.22
-0.46 6.08 1.63
-0.94 12.93 0.23
-0.56 7.67 -1.78
-1.34 18.47 0.97
-0.56 7.71 -1.5
-1.04 14.24 1.25
-0.92 12.64 -2.01
-1.02 14.05 1.73
-0.59 8.09 1.28
-0.92 12.66 -1.11
-0.56 7.67 1.5
-0.92 12.67 -0.67
-0.54 7.37 1.71
-0.92 12.67 -0.22
-0.46 6.32 1.7
-0.89 12.87 0.23
-0.53 7.7 -1.78
-1.01 14.6 0.77
-0.77 11.13 -2.17
-1.78 25.65 2.25
-0.88 12.63 -2.01
-1.19 17.14 2.11
-0.55 7.93 1.26
-0.88 12.71 -1.11
-0.53 7.71 1.5
-0.88 12.72 -0.67
-0.51 7.4 1.71
-0.88 12.69 -0.22
-0.42 6.04 1.62
-0.44 6.65 -1.79
-0.85 12.88 0.23
-0.54 8.22 -1.9
-1.72 26.14 1.37
-0.73 11.1 -2.16
-1.69 25.66 2.25
-0.84 12.7 -2.02
-1.12 17.07 2.1
-0.83 12.67 -1.56
-1.04 15.71 2.49
-0.84 12.68 -1.11
-0.54 8.16 1.59
-0.84 12.68 -0.67
-0.58 8.82 2.04
-0.83 12.65 -0.22
-0.39 5.98 1.61
-0.41 6.61 -1.77
-0.81 12.96 0.23
-0.51 8.17 -1.89
-1.63 26.16 1.37
-0.69 11.1 -2.16
-1.62 25.96 2.28
-0.79 12.66 -2.01
-1.07 17.1 2.1
-0.79 12.67 -1.56
-0.79 12.67 -1.11
-0.98 15.63 3.04
-0.79 12.7 -0.67
-0.98 15.64 3.62
-0.79 12.67 -0.22
-0.39 6.6 -1.77
-0.77 13.13 0.23
-0.48 8.15 -1.88
-0.97 16.54 0.87
-0.65 11.08 -2.16
-0.75 12.72 -2.02
-0.86 14.63 1.8
-0.75 12.74 -1.57
-0.95 16.18 2.57
-0.75 12.73 -1.12
-0.97 16.51 3.21
-0.75 12.74 -0.67
-0.5 8.43 1.95
-0.75 12.7 -0.22
-0.55 9.42 2.53
-0.37 6.62 -1.78
-0.73 13.09 0.23
-0.45 8.11 -1.87
-0.91 16.51 0.87
-0.61 11.08 -2.16
-0.92 16.68 1.46
-0.7 12.67 -2.01
-0.83 14.96 1.84
-0.7 12.68 -1.56
-0.81 14.6 2.32
-0.7 12.68 -1.11
-0.85 15.37 2.99
-0.7 12.68 -0.67
-0.42 7.66 1.77
-0.7 12.67 -0.22
-0.45 8.05 2.16
-0.34 6.64 -1.78
-0.68 13.08 0.23
-0.42 8.1 -1.87
-0.77 14.94 0.78
-0.58 11.09 -2.16
-0.76 14.67 1.29
-0.66 12.68 -2.01
-0.78 15.12 1.86
-0.66 12.67 -1.56
-0.75 14.41 2.29
-0.66 12.69 -1.11
-0.85 16.44 3.2
-0.66 12.7 -0.67
-0.4 7.68 1.77
-0.66 12.69 -0.22
-0.32 6.65 -1.78
-0.39 8.06 -1.86
-0.54 11.07 -2.15
-0.82 16.76 1.47
-0.62 12.71 -2.02
-0.71 14.5 1.78
-0.62 12.73 -1.56
-0.7 14.38 2.28
-0.62 12.72 -1.11
-0.81 16.54 3.22
-0.62 12.75 -0.67
-0.38 7.85 1.81
-0.62 12.74 -0.22
-0.37 7.52 2.02
-0.3 6.66 -1.79
-0.74 16.46 0.29
-0.37 8.12 -1.88
-0.69 15.36 0.81
-0.5 11.08 -2.16
-0.65 14.45 1.27
-0.58 12.73 -2.02
-0.58 12.73 -1.56
-0.68 14.94 2.37
-0.58 12.72 -1.11
-0.37 8.22 1.6
-0.58 12.75 -0.67
-0.38 8.35 1.93
-0.58 12.73 -0.22
-0.39 8.7 2.33
-0.28 6.66 -1.78
-0.54 12.99 0.23
-0.34 8.16 -1.89
-0.59 14.14 0.74
-0.46 11.09 -2.16
-0.6 14.59 1.28
-0.53 12.71 -2.02
-0.63 15.19 1.87
-0.53 12.71 -1.56
-0.52 12.68 -1.11
-0.66 15.83 3.08
-0.53 12.71 -0.67
-0.35 8.45 1.95
-0.53 12.71 -0.22
-0.36 8.64 2.32
-0.25 6.65 -1.78
-0.49 12.91 0.23
-0.31 8.13 -1.88
-0.55 14.42 0.76
-0.42 11.12 -2.16
-0.56 14.66 1.28
-0.48 12.68 -2.01
-0.56 14.78 1.82
-0.48 12.7 -1.56
-0.61 16.05 2.54
-0.48 12.72 -1.11
-0.62 16.28 3.17
-0.48 12.75 -0.67
-0.48 12.75 -0.22
-0.29 7.7 2.07
-0.23 6.65 -1.78
-0.44 12.86 0.22
-0.28 8.08 -1.87
-0.5 14.41 0.76
-0.38 11.1 -2.16
-0.51 14.95 1.31
-0.44 12.73 -2.02
-0.5 14.57 1.79
-0.44 12.74 -1.57
-0.55 16.05 2.54
-0.44 12.75 -1.12
-0.56 16.22 3.15
-0.44 12.74 -0.67
-0.43 12.63 -0.22
-0.22 6.36 1.71
-0.2 6.61 -1.77
-0.4 12.89 0.23
-0.25 8.08 -1.87
-0.51 16.53 0.87
-0.34 11.1 -2.16
-0.47 15.07 1.32
-0.39 12.7 -2.01
-0.45 14.61 1.79
-0.39 12.69 -1.56
-0.49 16.01 2.54
-0.39 12.69 -1.11
-0.5 16.25 3.16
-0.39 12.71 -0.67
-0.24 7.72 1.78
-0.39 12.49 -0.22
-0.24 7.67 2.06
-0.18 6.58 -1.76
-0.36 12.91 0.23
-0.22 7.99 -1.85
-0.4 14.52 0.76
-0.31 11.11 -2.16
-0.41 14.77 1.29
-0.35 12.69 -2.01
-0.42 15.05 1.85
-0.35 12.73 -1.56
-0.35 12.74 -1.11
-0.23 8.22 1.6
-0.35 12.77 -0.67
-0.22 7.99 1.85
-0.35 12.64 -0.22
-0.16 6.49 -1.74
-0.31 12.95 0.23
-0.2 8.25 -1.9
-0.63 26.03 1.36
-0.27 11.11 -2.16
-0.31 12.7 -2.01
-0.36 14.91 1.83
-0.31 12.71 -1.56
-0.39 15.97 2.53
-0.31 12.7 -1.11
-0.31 12.72 -0.67
-0.18 7.47 1.72
-0.31 12.69 -0.22
-0.18 7.37 1.98
-0.13 6.49 -1.74
-0.27 13.01 0.23
-0.17 8.36 -1.93
-0.54 26.03 1.36
-0.23 11.11 -2.16
-0.35 16.94 1.48
-0.26 12.69 -2.01
-0.29 14.05 1.73
-0.26 12.7 -1.56
-0.33 15.67 2.48
-0.26 12.74 -1.12
-0.33 15.77 3.07
-0.27 12.76 -0.67
-0.17 8.29 1.91
-0.26 12.72 -0.22
-0.15 7.36 1.97
-0.11 6.52 -1.75
-0.22 13.01 0.23
-0.14 8.37 -1.93
-0.45 26.02 1.36
-0.19 11.1 -2.16
-0.45 26.05 2.28
-0.22 12.73 -2.02
-0.26 14.89 1.83
-0.22 12.74 -1.56
-0.29 16.59 2.63
-0.22 12.74 -1.11
-0.14 8.17 1.59
-0.22 12.72 -0.67
-0.14 8.3 1.92
-0.22 12.67 -0.22
-0.13 7.67 2.06
-0.09 6.52 -1.75
-0.18 13.03 0.23
-0.11 8.12 -1.87
-0.2 14.74 0.77
-0.15 11.1 -2.16
-0.36 26.06 2.28
-0.18 12.71 -2.01
-0.35 25.37 3.11
-0.18 12.71 -1.56
-0.21 15.21 2.41
-0.18 12.7 -1.11
-0.17 12.68 -0.66
-0.17 12.63 -0.22
-0.11 7.71 2.07
-0.07 6.51 -1.74
-0.13 13.05 0.23
-0.09 8.39 -1.94
-0.15 14.91 0.78
-0.11 11.11 -2.16
-0.27 26.05 2.28
-0.13 12.66 -2
-0.16 15.31 1.88
-0.13 12.65 -1.55
-0.13 12.63 -1.11
-0.13 12.68 -0.66
-0.08 7.78 1.8
-0.13 12.66 -0.22
-0.08 7.86 2.11
-0.04 6.5 -1.74
-0.09 12.99 0.23
-0.06 8.37 -1.93
-0.13 18.48 0.97
-0.08 11.1 -2.16
-0.1 15.05 1.32
-0.09 12.63 -2
-0.09 12.66 -1.55
-0.11 15.49 2.45
-0.09 12.64 -1.11
-0.05 8.08 1.57
-0.09 12.67 -0.66
-0.09 12.67 -0.22
-0.05 7.28 1.95
-0.02 6.5 -1.74
-0.04 12.91 0.23
-0.03 8.39 -1.94
-0.09 26.04 1.36
-0.04 11.11 -2.16
-0.05 14.72 1.29
-0.04 12.61 -2
-0.05 16.54 2.03
-0.04 12.66 -1.55
-0.05 16.35 2.59
-0.04 12.69 -1.11
-0.03 8.06 1.57
-0.04 12.77 -0.67
-0.05 15.81 3.65
-0.04 12.68 -0.22
-0.02 7.28 1.95
0 6.51 -1.74
0 12.92 0.23
0 8.5 -1.96
0 26.02 1.36
0 11.11 -2.16
0 14.57 1.27
0 12.79 -2.03
0 14.22 1.75
0 12.83 -1.58
0 14.02 2.22
0 12.84 -1.12
0 12.81 -0.67
0 12.7 -0.22
0 7.27 1.95
0.02 6.52 -1.75
0.1 26.04 0.45
0.03 8.51 -1.96
0.1 26.04 1.36
0.04 11.17 -2.17
0.05 14.32 1.25
0.05 12.78 -2.02
0.05 13.91 1.71
0.05 12.79 -1.57
0.06 15.44 2.44
0.05 12.81 -1.12
0.05 12.85 -0.67
0.03 7.9 1.82
0.05 12.77 -0.22
0.05 6.53 -1.75
0.09 12.9 0.23
0.06 8.5 -1.96
0.13 18.13 0.95
0.08 11.78 -2.29
0.18 26.06 2.28
0.09 12.82 -2.03
0.1 14.86 1.83
0.09 12.86 -1.58
0.11 15.4 2.44
0.09 12.86 -1.13
0.09 12.86 -0.67
0.06 7.9 1.82
0.09 12.76 -0.22
0.05 7.45 2
0.07 6.54 -1.75
0.14 12.91 0.23
0.09 8.48 -1.96
0.18 16.79 0.88
0.13 11.99 -2.33
0.13 12.8 -2.03
0.17 15.98 1.96
0.13 12.82 -1.57
0.13 12.8 -1.12
0.13 12.86 -0.67
0.08 7.95 1.83
0.13 12.74 -0.22
0.09 6.55 -1.76
0.18 13.03 0.23
0.12 8.48 -1.96
0.24 16.95 0.89
0.17 12.06 -2.34
0.36 26.06 2.28
0.18 12.82 -2.03
0.18 12.85 -1.58
0.22 15.92 2.52
0.18 12.87 -1.13
0.18 12.88 -0.67
0.11 7.99 1.85
0.18 12.75 -0.22
0.11 6.54 -1.75
0.23 12.97 0.23
0.15 8.35 -1.93
0.27 15.75 0.83
0.21 12.21 -2.37
0.25 14.59 1.28
0.22 12.85 -2.03
0.32 18.5 2.27
0.22 12.84 -1.58
0.26 14.74 2.33
0.22 12.84 -1.12
0.14 8.21 1.6
0.22 12.84 -0.67
0.22 12.74 -0.22
0.14 6.52 -1.75
0.27 12.96 0.23
0.17 8.33 -1.92
0.55 26.22 1.37
0.26 12.23 -2.38
0.55 26.06 2.28
0.27 12.81 -2.03
0.34 16.33 2.01
0.27 12.83 -1.58
0.27 12.83 -1.12
0.27 12.88 -0.68
0.18 8.57 1.98
0.27 12.75 -0.22
0.16 6.51 -1.74
0.32 12.91 0.23
0.2 8.33 -1.92
0.38 15.63 0.82
0.3 12.24 -2.38
0.64 26.04 2.28
0.31 12.86 -2.04
0.4 16.26 2
0.31 12.88 -1.58
0.31 12.87 -1.13
0.32 12.89 -0.68
0.19 7.96 1.84
0.31 12.74 -0.22
0.18 6.5 -1.74
0.36 12.89 0.23
0.23 8.33 -1.92
0.73 26.22 1.37
0.35 12.47 -2.43
0.47 16.69 1.46
0.36 12.81 -2.03
0.92 32.9 4.04
0.36 12.85 -1.58
0.46 16.41 2.6
0.36 12.82 -1.12
0.23 8.23 1.6
0.36 12.87 -0.67
0.36 12.76 -0.22
0.2 6.51 -1.75
0.4 12.81 0.22
0.26 8.3 -1.92
0.48 15.29 0.8
0.39 12.54 -2.44
0.55 17.47 1.53
0.4 12.83 -2.03
0.4 12.88 -1.58
0.41 12.89 -1.13
0.26 8.28 1.61
0.41 12.91 -0.68
0.4 12.84 -0.22
0.25 8.02 2.15
0.23 6.53 -1.75
0.45 12.78 0.22
0.29 8.24 -1.9
0.61 17.4 0.91
0.44 12.48 -2.43
0.9 25.64 2.24
0.45 12.84 -2.04
0.45 12.84 -1.58
0.57 16.31 2.58
0.45 12.84 -1.12
0.29 8.28 1.61
0.45 12.87 -0.67
0.28 8.14 1.88
0.45 12.78 -0.22
0.28 8.08 2.17
0.25 6.55 -1.76
0.49 12.86 0.22
0.32 8.23 -1.9
0.67 17.52 0.92
0.48 12.41 -2.41
0.99 25.65 2.25
0.49 12.85 -2.04
0.62 16.04 1.97
0.49 12.86 -1.58
0.5 12.89 -1.13
0.32 8.31 1.62
0.5 12.91 -0.68
0.31 8.16 1.89
0.49 12.79 -0.22
0.3 7.85 2.1
0.27 6.54 -1.75
0.54 12.93 0.23
0.34 8.23 -1.9
0.52 12.47 -2.43
0.67 16.13 1.41
0.54 12.88 -2.04
0.61 14.71 1.81
0.54 12.89 -1.58
0.54 12.87 -1.13
0.54 12.9 -0.68
0.34 8.17 1.89
0.53 12.77 -0.22
0.33 7.84 2.1
0.3 6.58 -1.76
0.58 12.75 0.22
0.38 8.3 -1.92
0.78 17.17 0.9
0.57 12.49 -2.43
0.73 16.18 1.42
0.58 12.83 -2.03
0.58 12.84 -1.58
0.58 12.85 -1.13
0.38 8.33 1.62
0.58 12.89 -0.68
0.58 12.77 -0.22
0.36 8.01 2.15
0.32 6.55 -1.76
0.62 12.72 0.22
0.41 8.49 -1.96
1.27 26.12 1.37
0.61 12.43 -2.42
0.81 16.55 1.45
0.63 12.88 -2.04
0.81 16.53 2.03
0.63 12.92 -1.59
0.63 12.91 -1.13
0.41 8.36 1.63
0.63 12.9 -0.68
0.4 8.18 1.89
0.62 12.78 -0.22
0.34 6.57 -1.76
0.67 12.82 0.22
0.44 8.5 -1.96
1.36 26.03 1.37
0.64 12.31 -2.4
1.33 25.38 2.22
0.67 12.86 -2.04
0.87 16.6 2.04
0.67 12.85 -1.58
0.67 12.87 -1.13
0.43 8.32 1.62
0.67 12.88 -0.68
0.43 8.25 1.91
0.67 12.77 -0.22
0.41 7.8 2.09
0.37 6.55 -1.76
1.45 26.03 0.45
0.47 8.48 -1.96
1.45 26.04 1.37
0.68 12.27 -2.39
0.95 17.13 1.5
0.72 12.88 -2.04
0.91 16.34 2.01
0.72 12.91 -1.59
0.72 12.92 -1.13
0.46 8.33 1.62
0.72 12.95 -0.68
0.46 8.26 1.91
0.71 12.82 -0.22
0.46 8.18 2.2
0.38 6.49 -1.74
0.77 13 0.23
0.5 8.5 -1.97
1.54 26.04 1.37
0.72 12.08 -2.35
1.79 30.18 2.65
0.76 12.91 -2.05
0.76 12.88 -1.58
0.98 16.56 2.63
0.76 12.87 -1.13
0.49 8.35 1.63
0.76 12.89 -0.68
0.76 12.78 -0.22
0.49 8.29 2.22
0.41 6.48 -1.74
0.82 13.01 0.23
0.53 8.52 -1.97
1.63 26.04 1.37
0.76 12.06 -2.35
1.89 30.18 2.65
0.81 12.86 -2.04
1.06 16.95 2.09
0.81 12.88 -1.58
0.81 12.9 -1.13
0.52 8.35 1.63
0.81 12.95 -0.68
0.8 12.76 -0.22
0.53 8.4 2.26
0.43 6.42 -1.73
0.87 13.18 0.23
0.56 8.52 -1.97
1.73 26.05 1.37
0.8 12.02 -2.34
1.09 16.49 1.45
0.86 12.92 -2.05
1.09 16.45 2.02
0.86 12.94 -1.59
0.86 12.94 -1.13
0.86 12.94 -0.68
0.55 8.28 1.92
0.85 12.83 -0.22
0.48 7.32 1.96
0.45 6.41 -1.72
0.92 13.23 0.23
0.59 8.48 -1.96
1.82 26.03 1.37
0.84 12.02 -2.34
2.11 30.2 2.65
0.9 12.93 -2.05
0.9 12.86 -1.58
0.9 12.85 -1.13
0.61 8.73 1.7
0.9 12.84 -0.67
0.89 12.8 -0.22
0.59 8.4 2.26
0.47 6.39 -1.72
0.96 13.12 0.23
0.62 8.47 -1.96
1.91 26.03 1.37
0.87 11.93 -2.33
2.21 30.2 2.65
0.94 12.81 -2.03
0.94 12.81 -1.58
0.94 12.8 -1.12
0.62 8.51 1.66
0.94 12.84 -0.67
0.94 12.83 -0.22
0.6 8.16 2.19
0.49 6.36 -1.71
1 13.05 0.23
0.65 8.46 -1.96
2 26.03 1.37
0.9 11.79 -2.3
1.27 16.59 1.46
0.99 12.84 -2.04
0.99 12.86 -1.58
0.98 12.8 -1.12
0.68 8.8 1.72
0.98 12.81 -0.67
0.64 8.27 1.92
0.98 12.75 -0.22
0.63 8.17 2.2
0.51 6.37 -1.71
1.05 13.07 0.23
0.68 8.52 -1.97
2.09 26.03 1.37
0.94 11.77 -2.3
2.43 30.23 2.65
1.02 12.76 -2.03
1.02 12.77 -1.57
1.02 12.74 -1.12
0.71 8.83 1.72
1.02 12.75 -0.67
1.02 12.74 -0.22
0.54 6.39 -1.72
1.09 13 0.23
0.71 8.51 -1.97
1.4 16.73 0.88
0.94 11.25 -2.19
2.53 30.22 2.65
1.07 12.73 -2.02
1.07 12.75 -1.57
1.07 12.73 -1.12
0.74 8.85 1.73
1.07 12.75 -0.67
1.07 12.75 -0.22
0.72 8.65 2.33
0.56 6.39 -1.72
1.14 13.05 0.23
0.74 8.51 -1.97
2.27 26.03 1.37
0.98 11.21 -2.19
2.64 30.23 2.65
1.11 12.74 -2.03
1.11 12.76 -1.57
1.12 12.82 -1.13
1.12 12.83 -0.68
1.12 12.84 -0.22
0.73 8.4 2.26
0.58 6.4 -1.72
1.19 13.07 0.23
0.77 8.51 -1.97
2.34 25.79 1.36
1.02 11.19 -2.18
2.74 30.22 2.65
1.17 12.84 -2.04
1.16 12.82 -1.58
1.16 12.82 -1.13
1.17 12.84 -0.68
1.17 12.84 -0.23
0.73 8.05 2.17
0.6 6.39 -1.72
1.22 12.98 0.23
0.79 8.38 -1.94
1.55 16.38 0.86
1.06 11.18 -2.18
2.85 30.21 2.66
1.21 12.81 -2.04
1.21 12.85 -1.59
1.21 12.87 -1.13
1.22 12.89 -0.68
0.72 7.61 1.76
1.21 12.85 -0.23
0.81 8.57 2.31
0.63 6.4 -1.72
1.26 12.93 0.23
0.81 8.24 -1.91
2.5 25.61 1.35
1.09 11.19 -2.19
2.95 30.21 2.66
1.26 12.86 -2.05
1.26 12.87 -1.59
1.25 12.82 -1.13
1.25 12.84 -0.68
1.25 12.84 -0.23
0.83 8.47 2.28
0.65 6.4 -1.72
1.31 12.97 0.23
0.83 8.23 -1.91
2.59 25.63 1.35
1.13 11.2 -2.19
3.06 30.23 2.66
1.3 12.83 -2.04
1.3 12.83 -1.58
1.3 12.86 -1.13
1.3 12.89 -0.68
1.31 12.9 -0.23
0.67 6.4 -1.72
1.36 13.03 0.23
0.87 8.27 -1.92
2.68 25.63 1.35
1.17 11.18 -2.19
3.17 30.23 2.66
1.35 12.87 -2.05
1.35 12.87 -1.59
1.35 12.87 -1.13
1.35 12.85 -0.68
1.34 12.83 -0.23
0.84 8.01 2.16
0.69 6.4 -1.72
1.41 13.06 0.23
0.9 8.27 -1.92
2.75 25.4 1.34
1.21 11.17 -2.18
3.27 30.21 2.66
1.39 12.86 -2.05
1.39 12.82 -1.58
1.39 12.84 -1.13
1.39 12.86 -0.68
1.39 12.87 -0.23
0.71 6.38 -1.72
1.46 13.08 0.23
0.92 8.24 -1.92
2.83 25.35 1.34
1.25 11.17 -2.18
3.38 30.19 2.66
1.44 12.85 -2.05
1.44 12.89 -1.59
1.44 12.88 -1.13
1.44 12.88 -0.68
1.44 12.85 -0.23
0.89 7.97 2.15
0.73 6.37 -1.72
1.53 13.31 0.23
0.95 8.21 -1.91
2.92 25.35 1.34
1.29 11.17 -2.18
3.49 30.22 2.66
1.48 12.85 -2.05
1.48 12.85 -1.59
1.48 12.83 -1.13
1.48 12.86 -0.68
1.48 12.82 -0.23
0.92 7.96 2.15
0.76 6.36 -1.71
1.56 13.08 0.23
0.97 8.15 -1.9
3.02 25.41 1.34
1.33 11.16 -2.19
3.59 30.22 2.66
1.53 12.84 -2.05
1.53 12.88 -1.59
1.53 12.91 -1.14
1.53 12.91 -0.68
1.52 12.75 -0.22
0.95 7.97 2.15
0.78 6.36 -1.72
1.6 13.05 0.23
0.99 8.12 -1.89
3.12 25.52 1.35
1.37 11.17 -2.19
3.7 30.19 2.66
1.58 12.89 -2.06
1.58 12.88 -1.59
1.57 12.86 -1.13
1.57 12.86 -0.68
1.57 12.84 -0.23
0.8 6.37 -1.72
1.62 12.86 0.23
1.02 8.11 -1.89
3.65 28.94 1.53
1.41 11.16 -2.19
3.81 30.22 2.66
1.62 12.85 -2.05
1.62 12.84 -1.59
1.62 12.86 -1.13
1.63 12.9 -0.68
1.61 12.81 -0.23
0.82 6.32 -1.71
1.66 12.81 0.23
0.91 7.04 -1.64
3.75 28.94 1.53
1.45 11.17 -2.19
3.91 30.2 2.66
1.67 12.88 -2.06
1.67 12.92 -1.6
1.67 12.88 -1.14
1.67 12.89 -0.68
1.67 12.86 -0.23
0.84 6.32 -1.71
1.71 12.82 0.23
0.94 7.03 -1.64
3.85 28.94 1.53
1.49 11.17 -2.19
4.02 30.19 2.66
1.71 12.86 -2.05
1.71 12.86 -1.59
1.71 12.85 -1.13
1.72 12.89 -0.68
1.72 12.9 -0.23
0.86 6.32 -1.71
1.75 12.83 0.23
0.96 7 -1.63
3.95 28.94 1.53
1.53 11.17 -2.19
4.12 30.19 2.67
1.76 12.85 -2.05
1.76 12.91 -1.6
1.77 12.93 -1.14
1.76 12.89 -0.68
1.76 12.88 -0.23
0.89 6.31 -1.71
1.8 12.81 0.23
0.98 7 -1.63
1.87 13.37 0.71
1.56 11.16 -2.19
4.24 30.22 2.67
1.81 12.89 -2.06
1.8 12.87 -1.6
1.8 12.86 -1.14
1.81 12.88 -0.68
1.8 12.86 -0.23
0.91 6.31 -1.71
1.84 12.83 0.23
1 6.98 -1.63
1.92 13.38 0.71
1.6 11.16 -2.19
4.34 30.2 2.67
1.85 12.86 -2.06
1.85 12.89 -1.6
1.85 12.9 -1.14
1.86 12.92 -0.68
1.86 12.92 -0.23
0.93 6.3 -1.71
1.88 12.78 0.23
1.03 6.98 -1.63
1.98 13.45 0.71
1.64 11.15 -2.19
4.44 30.17 2.67
1.9 12.91 -2.07
1.9 12.92 -1.6
1.89 12.87 -1.14
1.9 12.91 -0.68
1.9 12.89 -0.23
0.95 6.3 -1.71
1.91 12.69 0.22
1.05 6.97 -1.63
4.36 28.94 1.53
1.68 11.16 -2.19
4.55 30.19 2.67
1.79 11.87 -1.9
1.94 12.88 -1.6
1.94 12.86 -1.14
1.95 12.91 -0.68
1.95 12.94 -0.23
0.97 6.29 -1.71
1.97 12.78 0.23
1.08 6.96 -1.63
4.47 28.94 1.53
1.73 11.17 -2.2
4.67 30.21 2.67
1.83 11.86 -1.9
2 12.93 -1.61
1.99 12.91 -1.14
1.99 12.91 -0.68
1.99 12.89 -0.23
0.99 6.27 -1.7
2.02 12.79 0.23
1.05 6.67 -1.56
4.57 28.93 1.54
1.05 6.67 -1.31
4.77 30.19 2.67
1.05 6.64 -1.07
2.03 12.87 -1.6
2.04 12.88 -1.14
2.04 12.9 -0.68
2.05 12.94 -0.23
1.01 6.27 -1.7
2.07 12.81 0.23
1.07 6.62 -1.55
4.67 28.94 1.54
4.87 30.18 2.67
1.07 6.62 -1.06
2.09 12.92 -1.61
2.09 12.94 -1.15
2.09 12.94 -0.69
2.08 12.91 -0.23
1.03 6.26 -1.7
2.11 12.79 0.23
1.09 6.6 -1.54
2.16 13.08 0.7
1.09 6.6 -1.3
4.98 30.21 2.68
1.09 6.61 -1.06
2.13 12.89 -1.6
2.13 12.88 -1.14
2.13 12.9 -0.69
2.13 12.9 -0.23
1.05 6.26 -1.7
2.17 12.87 0.23
1.11 6.59 -1.54
2.23 13.26 0.7
1.11 6.61 -1.3
1.12 6.63 -1.07
2.17 12.91 -1.61
2.18 12.92 -1.15
2.18 12.96 -0.69
2.18 12.95 -0.23
1.07 6.25 -1.7
2.19 12.7 0.22
1.18 6.88 -1.61
2.31 13.43 0.71
1.92 11.17 -2.2
2.22 12.9 -2.07
2.23 12.95 -1.61
2.22 12.9 -1.15
2.22 12.9 -0.69
2.22 12.9 -0.23
1.1 6.25 -1.7
2.23 12.71 0.23
1.22 6.94 -1.63
2.36 13.43 0.71
1.97 11.18 -2.21
2.27 12.9 -2.07
2.26 12.88 -1.61
2.27 12.9 -1.15
2.27 12.93 -0.69
2.28 12.97 -0.23
1.12 6.24 -1.7
2.28 12.73 0.23
1.25 6.95 -1.63
2.36 13.13 0.7
2.01 11.18 -2.21
2.32 12.91 -2.08
2.32 12.95 -1.62
2.32 12.93 -1.15
2.32 12.92 -0.69
2.31 12.9 -0.23
1.14 6.22 -1.69
2.33 12.75 0.23
1.27 6.95 -1.63
2.41 13.16 0.7
2.05 11.19 -2.21
2.36 12.91 -2.08
2.36 12.9 -1.61
2.36 12.88 -1.15
2.36 12.93 -0.69
2.37 12.95 -0.23
1.16 6.21 -1.69
2.37 12.72 0.23
1.29 6.93 -1.63
2.45 13.13 0.7
2.09 11.2 -2.22
2.4 12.89 -2.08
2.42 12.96 -1.62
2.41 12.95 -1.15
2.42 12.96 -0.69
2.41 12.92 -0.23
1.18 6.2 -1.69
2.43 12.76 0.23
1.32 6.96 -1.63
2.5 13.13 0.7
2.13 11.19 -2.21
2.46 12.92 -2.08
2.46 12.91 -1.61
2.45 12.89 -1.15
2.46 12.91 -0.69
2.46 12.93 -0.23
1.21 6.22 -1.7
2.46 12.68 0.23
1.35 6.97 -1.64
2.54 13.12 0.7
2.17 11.18 -2.21
2.5 12.9 -2.08
2.5 12.92 -1.62
2.51 12.97 -1.16
2.51 12.97 -0.69
2.51 12.97 -0.23
1.23 6.22 -1.7
2.53 12.81 0.23
1.42 7.17 -1.69
2.59 13.1 0.7
2.21 11.19 -2.22
2.56 12.95 -2.09
2.56 12.95 -1.62
2.55 12.91 -1.15
2.56 12.94 -0.69
2.55 12.91 -0.23
1.25 6.22 -1.7
2.58 12.82 0.23
1.45 7.2 -1.7
2.64 13.13 0.7
2.25 11.19 -2.22
2.59 12.9 -2.08
2.6 12.92 -1.62
2.6 12.91 -1.15
2.6 12.95 -0.69
2.6 12.95 -0.23
1.27 6.22 -1.7
2.61 12.76 0.23
1.44 7.05 -1.66
2.68 13.11 0.7
2.29 11.19 -2.22
2.64 12.92 -2.09
