# .PCD v0.7 - Point Cloud Data file format
VERSION 0.7
FIELDS x y z
SIZE 4 4 4
TYPE F F F
COUNT 1 1 1
WIDTH 2756
HEIGHT 1
VIEWPOINT 0 0 0 1 0 0 0
POINTS 2756
DATA ascii
-5.24 3.57 -1.7
-6.86 4.68 -1.92
-7.28 4.96 -1.71
-34.91 23.8 3.7
-0.85 0.58 -0.16
-7.26 4.95 -1.08
-23.54 16.05 -2.49
-28.26 19.26 -1.79
-29.09 19.83 -0.61
-5.22 3.59 -1.7
-35.01 24.04 0.74
-6.85 4.7 -1.92
-34.89 23.96 2.22
-0.85 0.58 -0.2
-0.85 0.58 -0.16
-7.17 4.92 -1.07
-23.51 16.15 -2.5
-27.67 19.01 -1.76
-28.52 19.58 -0.6
-5.25 3.63 -1.71
-6.84 4.73 -1.92
-0.83 0.57 -0.2
-0.84 0.58 -0.16
-7.15 4.95 -1.07
-23.5 16.26 -2.5
-27.59 19.09 -1.76
-28.66 19.83 -0.61
-5.24 3.65 -1.71
-29.59 20.63 0.63
-6.82 4.76 -1.92
-0.82 0.57 -0.2
-0.84 0.59 -0.16
-7.1 4.95 -1.06
-23.47 16.36 -2.5
-27.45 19.13 -1.75
-28.37 19.78 -0.6
-5.24 3.68 -1.72
-29.34 20.59 0.63
-6.81 4.78 -1.92
-0.82 0.58 -0.2
-0.82 0.58 -0.16
-7.06 4.95 -1.06
-23.47 16.47 -2.51
-27.96 19.62 -1.79
-28.79 20.21 -0.61
-5.28 3.73 -1.73
-6.79 4.8 -1.92
-0.82 0.58 -0.19
-32.63 23.07 3.5
-0.81 0.58 -0.16
-40.57 28.68 6.1
-6.99 4.94 -1.05
-23.47 16.59 -2.51
-27.91 19.73 -1.79
-28.83 20.38 -0.62
-5.32 3.79 -1.75
-28.37 20.22 0.61
-6.78 4.83 -1.92
-32.83 23.4 2.11
-0.82 0.58 -0.2
-40.61 28.95 4.36
-0.82 0.59 -0.16
-6.96 4.96 -1.05
-23.46 16.72 -2.52
-28.79 20.52 -0.62
-5.59 4.02 -1.84
-28.3 20.32 0.61
-6.76 4.85 -1.92
-40.5 29.08 2.61
-0.8 0.58 -0.19
-0.82 0.59 -0.16
-6.92 4.97 -1.05
-38.27 27.48 7.46
-23.44 16.83 -2.53
-28.38 20.38 -0.61
-5.71 4.13 -1.89
-28.02 20.26 0.6
-6.75 4.88 -1.92
-35.19 25.44 2.28
-0.81 0.58 -0.19
-35.02 25.33 3.78
-0.81 0.59 -0.16
-6.88 4.97 -1.04
-23.41 16.93 -2.53
-28.25 20.43 -0.61
-5.7 4.15 -1.89
-28.07 20.45 0.61
-6.73 4.9 -1.92
-45.58 33.2 2.96
-0.8 0.58 -0.19
-6.87 5 -1.04
-23.37 17.02 -2.53
-27.27 19.87 -1.77
-27.19 19.8 -0.59
-5.7 4.18 -1.89
-27.82 20.41 0.6
-6.71 4.92 -1.92
-0.8 0.59 -0.19
-0.8 0.59 -0.16
-6.82 5 -1.04
-23.47 17.21 -2.55
-26.98 19.79 -1.75
-26.38 19.35 -0.57
-5.68 4.2 -1.89
-27.74 20.5 0.6
-6.7 4.95 -1.92
-0.81 0.6 -0.16
-6.78 5.01 -1.03
-23.58 17.42 -2.56
-28.51 21.07 -1.86
-26.56 19.62 -0.58
-5.67 4.22 -1.89
-27.72 20.63 0.6
-6.69 4.98 -1.92
-0.8 0.6 -0.16
-30.6 22.77 4.68
-6.73 5.01 -1.03
-23.53 17.51 -2.57
-25.72 19.15 -1.68
-26.56 19.77 -0.58
-5.65 4.23 -1.89
-27.66 20.74 0.6
-6.67 5 -1.93
-0.82 0.61 -0.16
-30.95 23.21 4.75
-6.66 4.99 -1.02
-23.42 17.56 -2.56
-26.68 20 -1.75
-26.41 19.8 -0.58
-5.64 4.26 -1.89
-6.66 5.03 -1.93
-36.34 27.43 3.98
-0.8 0.6 -0.16
-36.26 27.37 5.58
-6.63 5.01 -1.02
-23.32 17.61 -2.56
-26.73 20.18 -1.76
-26.15 19.74 -0.57
-5.62 4.28 -1.89
-28.31 21.54 0.62
-6.64 5.05 -1.92
-31.22 23.75 2.06
-36.24 27.57 3.98
-0.79 0.6 -0.16
-30.84 23.46 4.76
-6.62 5.03 -1.02
-30.64 23.3 6.1
-23.24 17.68 -2.55
-26.4 20.08 -1.74
-26.57 20.21 -0.58
-5.62 4.3 -1.9
-6.62 5.07 -1.92
-36.14 27.7 2.39
-0.79 0.61 -0.16
-6.51 4.99 -1.01
-23.13 17.73 -2.55
-26.31 20.16 -1.74
-26.67 20.44 -0.59
-5.6 4.32 -1.89
-26.4 20.39 0.58
-6.6 5.1 -1.93
-29.15 22.52 1.93
-0.79 0.61 -0.16
-30.62 23.65 4.75
-6.49 5.01 -1.01
-23.02 17.78 -2.54
-26.26 20.28 -1.74
-26.33 20.33 -0.58
-5.57 4.33 -1.89
-26.5 20.6 0.59
-6.59 5.12 -1.93
-30.52 23.73 3.38
-6.43 5 -1
-22.95 17.84 -2.54
-26.48 20.59 -1.76
-5.56 4.36 -1.89
-25.99 20.37 0.58
-6.57 5.15 -1.93
-30.04 23.54 3.34
-30.18 23.65 4.71
-6.4 5.02 -1
-22.82 17.88 -2.54
-25.84 20.25 -1.72
-26.06 20.42 -0.58
-5.55 4.38 -1.89
-25.75 20.32 0.57
-6.55 5.16 -1.93
-35.65 28.13 2.38
-35.75 28.2 3.98
-6.37 5.02 -1
-22.75 17.95 -2.54
-25.85 20.39 -1.73
-25.88 20.41 -0.58
-5.54 4.41 -1.9
-25.91 20.6 0.58
-6.53 5.19 -1.93
-30.25 24.05 2.03
-30.29 24.07 3.38
-0.78 0.62 -0.16
-30.17 23.98 4.73
-6.31 5.02 -0.99
-30.32 24.1 6.13
-25.63 20.37 -1.72
-26.02 20.69 -0.58
-5.52 4.42 -1.9
-26.06 20.85 0.58
-6.51 5.21 -1.93
-30.27 24.21 3.39
-6.24 4.99 -1.26
-6.28 5.02 -0.99
-6.41 5.13 -0.72
-25.75 20.6 -1.73
-26.08 20.86 -0.58
-5.5 4.43 -1.89
-25.86 20.84 0.58
-6.5 5.24 -1.93
-30.11 24.27 2.03
-6.23 5.02 -1.27
-31.2 25.15 4.92
-6.25 5.04 -0.99
-6.37 5.13 -0.72
-25.78 20.78 -1.74
-5.49 4.45 -1.89
-25.53 20.71 0.57
-6.48 5.26 -1.93
-6.16 5 -1.26
-6.18 5.01 -0.98
-30.42 24.68 6.2
-6.35 5.15 -0.72
-25.71 20.86 -1.73
-25.76 20.9 -0.58
-5.47 4.47 -1.89
-25.61 20.93 0.58
-6.46 5.28 -1.93
-6.13 5.01 -1.25
-6.16 5.04 -0.98
-25.54 20.87 -1.73
-25.71 21.01 -0.58
-5.47 4.5 -1.9
-6.44 5.3 -1.93
-33.27 27.39 2.26
-34.76 28.61 3.94
-6.09 5.01 -1.25
-6.12 5.04 -0.97
-34.63 28.5 7.1
-25.35 20.87 -1.72
-25.68 21.14 -0.58
-5.45 4.52 -1.9
-25.92 21.5 0.59
-6.43 5.33 -1.93
-33.02 27.38 2.25
-34.66 28.74 3.94
-6.04 5.01 -1.24
-34.82 28.88 5.55
-6.08 5.04 -0.97
-29.38 24.37 6.05
-6.33 5.25 -0.72
-32.93 27.31 8.32
-26.08 21.63 -1.78
-25.59 21.22 -0.58
-5.43 4.53 -1.89
-25.48 21.27 0.58
-6.41 5.35 -1.93
-32.69 27.29 2.23
-6 5.01 -1.24
-6.02 5.03 -0.96
-35.39 29.54 7.3
-29.65 24.75 7.51
-23.91 19.96 -1.63
-35.15 29.34 10.57
-24.27 20.26 -0.55
-5.41 4.55 -1.89
-25.23 21.21 0.58
-6.39 5.37 -1.93
-32.55 27.37 2.23
-27.54 23.15 3.15
-5.95 5 -1.23
-6.01 5.05 -0.96
-34.36 28.89 7.11
-32.78 27.57 8.33
-23.75 19.97 -1.63
-34.89 29.34 10.52
-26.11 21.95 -0.6
-5.4 4.57 -1.9
-25.21 21.35 0.58
-6.36 5.39 -1.93
-32.71 27.69 2.25
-5.91 5 -1.23
-29.75 25.18 4.79
-5.94 5.03 -0.96
-30.46 25.79 6.32
-30.26 25.61 7.71
-23.67 20.04 -1.63
-34.68 29.36 10.49
-5.39 4.6 -1.9
-24.44 20.84 0.56
-6.35 5.42 -1.93
-32.49 27.71 2.24
-5.87 5.01 -1.22
-30.42 25.94 4.91
-5.91 5.04 -0.95
-30.03 25.61 6.25
-30.05 25.63 7.68
-23.35 19.91 -1.61
-30.58 26.08 9.28
-24.34 20.76 -0.56
-5.37 4.61 -1.9
-6.34 5.44 -1.93
-32.6 27.99 2.25
-30.22 25.95 3.48
-5.83 5 -1.22
-30.14 25.88 4.88
-5.87 5.04 -0.95
-28.65 24.6 5.98
-33.09 28.41 8.48
-23.17 19.9 -1.6
-34.44 29.58 10.48
-24.06 20.66 -0.55
-5.35 4.63 -1.9
-26.3 22.75 0.61
-6.32 5.47 -1.93
-27.41 23.71 1.9
-30.01 25.96 3.47
-5.79 5.01 -1.21
-28.78 24.9 4.67
-5.81 5.02 -0.94
-30.04 25.98 6.29
-23.14 20.02 -1.6
-34.3 29.67 10.47
-24.14 20.88 -0.56
-5.34 4.65 -1.9
-25.07 21.84 0.58
-6.3 5.49 -1.93
-29.85 26 2.07
-29.27 25.49 3.4
-5.75 5 -1.21
-31.87 27.75 5.19
-5.77 5.03 -0.94
-32.43 28.24 6.81
-33.06 28.79 8.52
-23.99 20.89 -1.67
-24.31 21.17 -0.56
-5.32 4.66 -1.9
-24.53 21.52 0.57
-6.27 5.5 -1.93
-5.72 5.02 -1.21
-26.49 23.24 4.33
-5.73 5.02 -0.94
-33.1 29.04 8.56
-23.98 21.04 -1.67
-34.58 30.33 10.62
-24.4 21.4 -0.57
-5.31 4.69 -1.9
-23.76 20.97 0.55
-6.26 5.53 -1.93
-5.68 5.02 -1.2
-31.78 28.06 5.21
-5.7 5.03 -0.93
-32.14 28.38 6.79
-29.45 26 7.64
-34.22 30.21 10.54
-23.05 20.35 -0.54
-5.3 4.71 -1.9
-6.24 5.55 -1.93
-5.66 5.04 -1.2
-31.72 28.21 5.21
-29.97 26.66 6.35
-29.62 26.35 7.71
-6.01 5.35 -0.42
-33.23 29.56 10.27
-5.27 4.72 -1.9
-23.88 21.37 0.56
-6.22 5.57 -1.93
-30.07 26.91 3.53
-5.6 5.01 -1.19
-31.82 28.48 5.24
-5.64 5.05 -0.93
-31.54 28.23 6.7
-31.77 28.43 8.29
-5.93 5.31 -0.42
-32.5 29.09 10.07
-23.44 20.98 -0.55
-33.55 30.03 12.06
-5.26 4.74 -1.9
-23.69 21.35 0.56
-6.21 5.6 -1.93
-31.89 28.75 2.25
-26.87 24.22 3.16
-5.56 5.01 -1.19
-27.47 24.76 4.54
-5.62 5.07 -0.93
-31.71 28.59 8.3
-5.89 5.31 -0.42
-32.29 29.11 10.04
-23.53 21.22 -0.55
-33.41 30.12 12.05
-5.24 4.76 -1.9
-6.19 5.62 -1.93
-25.81 23.44 3.05
-5.53 5.02 -1.18
-30.94 28.09 5.13
-5.58 5.07 -0.93
-29.23 26.54 6.25
-31.71 28.79 8.32
-5.84 5.3 -0.41
-32.32 29.34 10.08
-23.42 21.27 -0.55
-32.02 29.07 11.59
-5.23 4.79 -1.9
-23.34 21.34 0.55
-6.17 5.65 -1.93
-25.43 23.26 3.01
-5.5 5.03 -1.18
-30.65 28.03 5.1
-5.54 5.07 -0.92
-31.71 29 8.35
-5.77 5.28 -0.41
-32.24 29.48 10.09
-23.61 21.59 -0.56
-32.43 29.66 11.78
-5.21 4.8 -1.9
-23.1 21.27 0.55
-6.16 5.67 -1.93
-31.7 29.18 3.77
-5.47 5.03 -1.18
-24.72 22.75 4.12
-5.51 5.08 -0.92
-30.98 28.52 6.67
-32.77 30.17 8.66
-5.76 5.3 -0.41
-33 30.37 10.35
-22.79 20.98 -0.54
-32.41 29.84 11.8
-5.19 4.81 -1.9
-23.14 21.46 0.55
-31.33 29.05 2.24
-5.44 5.04 -1.18
-24.81 23 4.15
-5.46 5.07 -0.91
-30.89 28.64 6.67
-32.67 30.29 8.66
-5.72 5.3 -0.41
-31.43 29.14 9.89
-22.62 20.97 -0.54
-32.55 30.18 11.89
-5.18 4.83 -1.9
-23.32 21.77 0.56
-27.8 25.95 1.99
-31.16 29.09 3.73
-5.41 5.05 -1.17
-5.45 5.08 -0.91
-27.46 25.64 5.95
-32.28 30.13 8.58
-5.67 5.29 -0.41
-31.4 29.31 9.92
-23.57 22 -0.56
-32.46 30.3 11.9
-5.16 4.85 -1.9
-23.23 21.84 0.56
-27.61 25.96 1.99
-24.1 22.66 2.89
-5.37 5.05 -1.17
-27.83 26.16 4.69
-5.41 5.09 -0.91
-31.88 29.98 6.93
-5.57 5.23 -0.67
-5.62 5.28 -0.4
-31.23 29.36 9.9
-22.49 21.15 -0.54
-32.32 30.39 11.89
-5.15 4.88 -1.9
-23.11 21.88 0.56
-24.73 23.41 1.78
-24.16 22.87 2.91
-5.33 5.04 -1.16
-24.77 23.45 4.19
-5.37 5.08 -0.91
-25.2 23.85 5.5
-31.14 29.48 8.33
-5.6 5.3 -0.4
-23.1 21.87 -0.56
-31.51 29.83 11.63
-5.13 4.89 -1.9
-23.02 21.94 0.56
-27.42 26.14 1.99
-23.98 22.87 2.9
-5.3 5.05 -1.16
-24.78 23.62 4.2
-5.34 5.09 -0.91
-25.17 24 5.51
-5.46 5.2 -0.66
-31.12 29.67 8.36
-5.56 5.3 -0.4
-31.79 30.31 10.14
-22.91 21.85 -0.55
-31.41 29.95 11.63
-5.11 4.91 -1.9
-22.2 21.31 0.54
-25.73 24.7 3.12
-5.26 5.05 -1.16
-31.43 30.17 5.35
-5.31 5.1 -0.9
-25.55 24.53 5.61
-5.45 5.23 -0.66
-31 29.76 8.35
-5.54 5.32 -0.4
-31.74 30.47 10.16
-22.37 21.48 -0.54
-31.35 30.09 11.64
-5.1 4.93 -1.9
-31.42 30.38 3.82
-5.23 5.05 -1.15
-24.45 23.64 4.17
-5.28 5.1 -0.9
-31.62 30.58 6.97
-5.48 5.3 -0.67
-30.84 29.82 8.34
-5.49 5.31 -0.4
-31.46 30.42 10.1
-22.39 21.65 -0.54
-30.77 29.75 11.47
-5.09 4.95 -1.9
-31.35 30.5 3.83
-5.2 5.06 -1.15
-5.25 5.11 -0.9
-5.66 5.51 -0.69
-5.45 5.3 -0.4
-22.6 21.99 -0.55
-32.01 31.14 11.97
-5.08 4.97 -1.9
-22.22 21.77 0.54
-5.17 5.07 -1.15
-23.53 23.05 4.04
-5.2 5.1 -0.89
-24.01 23.53 5.32
-5.64 5.53 -0.69
-24.81 24.31 6.75
-5.41 5.3 -0.4
-32.26 31.61 10.43
-21.96 21.52 -0.54
-32 31.35 12
-5.05 4.99 -1.9
-22.16 21.88 0.54
-5.13 5.07 -1.14
-31.2 30.8 5.38
-5.17 5.11 -0.89
-24.57 24.25 5.47
-5.67 5.6 -0.7
-5.38 5.31 -0.4
-24.52 24.2 7.95
-22.02 21.73 -0.54
-32.75 32.33 12.33
-5.03 5 -1.9
-23.29 23.16 1.72
-23.11 22.98 2.85
-5.1 5.07 -1.14
-5.12 5.09 -0.89
-24.55 24.41 5.48
-6.55 6.51 -0.81
-5.35 5.32 -0.4
-22.08 21.95 -0.54
-32.8 32.62 12.4
-5.01 5.01 -1.9
-22.11 22.12 0.55
-29.43 29.44 2.18
-30.22 30.23 3.74
-5.06 5.06 -1.13
-5.11 5.11 -0.89
-6.55 6.55 -0.81
-5.33 5.33 -0.4
-30.4 30.41 9.93
-22.16 22.17 -0.55
-31.69 31.7 12.01
-5 5.03 -1.9
-29.91 30.13 2.22
-30.11 30.34 3.74
-5.03 5.07 -1.13
-30.89 31.12 5.38
-5.07 5.11 -0.88
-24.83 25.02 5.58
-24.93 25.12 6.88
-5.29 5.33 -0.39
-30.14 30.37 9.88
-21.97 22.14 -0.54
-31.5 31.74 11.98
-4.99 5.06 -1.9
-21.87 22.18 0.54
-24.77 25.12 1.85
-30.09 30.52 3.75
-4.99 5.06 -1.13
-24.89 25.25 4.35
-5.05 5.12 -0.88
-24.38 24.73 5.5
-5.26 5.33 -0.39
-30.04 30.48 9.88
-22.01 22.33 -0.55
-31.36 31.82 11.97
-4.97 5.07 -1.9
-24.89 25.43 0.62
-28.33 28.95 2.12
-24.68 25.21 3.09
-4.97 5.08 -1.13
-24.55 25.09 4.31
-5.02 5.13 -0.88
-5.22 5.33 -0.39
-29.76 30.4 9.82
-21.26 21.72 -0.53
-31.24 31.92 11.97
-4.94 5.09 -1.9
-24.8 25.51 0.62
-24.72 25.43 1.86
-24.7 25.41 3.1
-4.93 5.07 -1.12
-28.21 29.02 4.97
-4.98 5.12 -0.88
-24.21 24.91 5.5
-5.19 5.34 -0.39
-26.29 27.05 8.71
-24.89 25.6 -0.62
-31.11 32 11.96
-4.93 5.11 -1.9
-29.25 30.3 2.21
-30.39 31.49 3.83
-4.9 5.07 -1.12
-30.45 31.55 5.38
-25.83 26.77 5.89
-24.4 25.28 6.83
-5.17 5.36 -0.39
-24.39 25.27 8.11
-30.96 32.08 11.95
-4.91 5.12 -1.9
-21.71 22.65 0.55
-27.98 29.18 2.12
-30.41 31.72 3.84
-4.87 5.08 -1.12
-27.6 28.79 4.9
-4.91 5.13 -0.87
-28.24 29.46 6.46
-5.14 5.36 -0.39
-21.56 22.49 -0.54
-30.87 32.2 11.95
-4.9 5.15 -1.9
-25.85 27.15 1.96
-26.1 27.42 3.31
-4.84 5.09 -1.11
-25.58 26.88 4.56
-4.86 5.1 -0.87
-32.19 33.82 7.39
-24.05 25.27 6.78
-5.09 5.35 -0.39
-21.52 22.61 -0.54
-4.88 5.16 -1.9
-35.9 37.97 0.91
-28.98 30.64 2.21
-30.17 31.91 3.84
-4.81 5.09 -1.11
-25.85 27.33 4.62
-4.83 5.11 -0.86
-32.17 34.02 7.42
-25.45 26.91 7.2
-5.08 5.37 -0.39
-21.48 22.72 -0.55
-34.34 36.31 13.39
-4.86 5.17 -1.9
-36.73 39.11 0.94
-23.99 25.54 1.84
-25.74 27.41 3.29
-4.77 5.08 -1.1
-25.44 27.09 4.56
-4.8 5.11 -0.86
-25.44 27.09 5.89
-4.93 5.25 -0.63
-5.04 5.36 -0.39
-25.34 26.99 8.55
-20.76 22.11 -0.53
-4.84 5.19 -1.9
-25.6 27.45 1.97
-25.39 27.22 3.26
-4.74 5.08 -1.1
-25.49 27.33 4.59
-4.78 5.12 -0.86
-25.35 27.18 5.89
-23.16 24.83 6.6
-4.99 5.36 -0.38
-31.27 33.54 10.59
-21.14 22.67 -0.54
-4.82 5.21 -1.9
-25.5 27.53 0.65
-25.34 27.37 1.95
-24.96 26.95 3.21
-4.7 5.08 -1.1
-4.75 5.13 -0.86
-31.03 33.5 7.23
-4.98 5.37 -0.38
-31.08 33.56 10.56
-20.46 22.1 -0.53
-4.81 5.23 -1.9
-25.42 27.64 0.66
-30.64 33.33 3.96
-4.67 5.08 -1.09
-24.91 27.09 4.52
-4.73 5.15 -0.86
-4.95 5.38 -0.38
-31.05 33.77 10.59
-20.86 22.68 -0.54
-4.66 5.1 -1.85
-21.02 23.02 0.54
-30.59 33.51 3.97
-4.64 5.08 -1.09
-32.37 35.45 5.89
-4.71 5.16 -0.86
-4.91 5.38 -0.38
-33.42 36.6 11.44
-20.12 22.03 -0.52
-4.6 5.07 -1.84
-20.9 23.05 0.54
-23.27 25.66 1.82
-25.41 28.02 3.31
-4.62 5.09 -1.09
-22.79 25.14 4.17
-4.69 5.17 -0.86
-32.23 35.54 7.6
-32.56 35.91 9.42
-4.91 5.41 -0.38
-20.16 22.24 -0.52
-33.73 37.2 13.46
-4.57 5.08 -1.83
-20.6 22.88 0.54
-33.63 37.35 2.63
-30.45 33.81 3.98
-4.59 5.1 -1.09
-33.62 37.34 6.17
-4.66 5.17 -0.85
-24.33 27.02 5.76
-4.77 5.3 -0.62
-4.85 5.38 -0.38
-19.99 22.2 -0.52
-33.56 37.27 13.44
-4.55 5.09 -1.83
-20.67 23.12 0.54
-22.49 25.16 2.95
-4.56 5.1 -1.08
-31.12 34.8 5.73
-4.62 5.17 -0.85
-22.65 25.34 5.38
-4.73 5.29 -0.62
-4.84 5.42 -0.38
-32.85 36.74 11.38
-20.04 22.41 -0.52
-33.45 37.42 13.45
-4.51 5.08 -1.82
-19.92 22.44 0.52
-31.69 35.7 2.5
-31.02 34.94 4.09
-4.53 5.11 -1.08
-22 24.78 4.07
-4.59 5.17 -0.85
-22.59 25.44 5.39
-4.73 5.33 -0.62
-4.81 5.42 -0.38
-32.9 37.05 11.44
-33.35 37.57 13.46
-4.49 5.09 -1.82
-20.22 22.94 0.53
-22.81 25.87 3.02
-4.51 5.11 -1.08
-31.81 36.09 5.91
-4.57 5.18 -0.85
-4.72 5.36 -0.62
-4.77 5.42 -0.38
-31.79 36.06 11.1
-32.49 36.85 13.16
-4.45 5.09 -1.81
-19.38 22.14 0.51
-22.84 26.09 1.82
-28.69 32.77 3.81
-4.48 5.11 -1.08
-22.1 25.25 4.12
-4.54 5.18 -0.85
-21.65 24.73 5.2
-22.28 25.45 6.57
-4.76 5.43 -0.38
-25.49 29.12 8.93
-32.36 36.97 13.17
-4.42 5.09 -1.81
-20.69 23.8 0.55
-22.75 26.17 1.82
-22.8 26.23 3.04
-4.44 5.1 -1.07
-22.78 26.2 4.26
-4.52 5.2 -0.85
-30.28 34.83 7.31
-5.7 6.56 -0.76
-4.73 5.44 -0.38
-33.03 38 11.62
-18.18 20.91 -0.48
-32.86 37.8 13.42
-4.4 5.1 -1.8
-22.72 26.32 0.61
-22.27 25.8 1.79
-25.32 29.33 3.39
-4.41 5.1 -1.07
-25.35 29.37 4.76
-4.48 5.19 -0.84
-21.94 25.42 5.32
-30.58 35.43 9.1
-4.69 5.43 -0.38
-32.74 37.93 13.42
-4.37 5.1 -1.8
-19.14 22.33 0.51
-22.54 26.3 3.03
-4.38 5.11 -1.07
-22.38 26.11 4.22
-4.45 5.2 -0.84
-5.65 6.59 -0.76
-30.39 35.46 9.08
-4.68 5.45 -0.38
-32.78 38.25 11.63
-4.34 5.1 -1.79
-20.08 23.59 0.54
-29.61 34.8 2.39
-29.06 34.15 3.92
-4.36 5.12 -1.06
-30.47 35.81 5.77
-4.42 5.2 -0.84
-20.88 24.54 5.1
-5.61 6.59 -0.76
-4.66 5.48 -0.38
-4.31 5.1 -1.79
-29.45 34.84 2.39
-20.76 24.56 2.81
-4.32 5.12 -1.06
-22.25 26.32 4.23
-4.4 5.2 -0.84
-20.99 24.83 5.15
-5.59 6.62 -0.76
-4.61 5.46 -0.37
-19.06 22.54 -0.52
-4.29 5.11 -1.79
-20.03 23.86 0.54
-29.2 34.79 2.38
-28.71 34.2 3.91
-4.3 5.12 -1.06
-22.5 26.8 4.3
-4.38 5.22 -0.84
-4.61 5.49 -0.38
-31.67 37.73 11.37
-18.79 22.39 -0.51
-4.27 5.12 -1.79
-19.53 23.44 0.53
-19.6 23.52 1.6
-28.68 34.42 3.92
-4.27 5.13 -1.06
-4.35 5.22 -0.83
-21.9 26.28 5.42
-30.28 36.33 9.19
-4.59 5.5 -0.38
-31.47 37.76 11.35
-19.11 22.92 -0.52
-4.26 5.14 -1.79
-19.8 23.93 0.54
-22.06 26.65 1.81
-28.34 34.24 3.89
-4.25 5.14 -1.06
-29.32 35.43 5.65
-4.31 5.21 -0.83
-29.06 35.12 7.22
-4.54 5.49 -0.37
-33.24 40.16 12.04
-18.77 22.68 -0.51
-4.25 5.18 -1.8
-19.07 23.2 0.52
-28.24 34.37 3.89
-4.23 5.14 -1.05
-29.21 35.55 5.65
-4.29 5.22 -0.83
-32.02 38.96 9.8
-4.51 5.49 -0.37
-18.74 22.81 -0.52
-4.26 5.22 -1.81
-19.27 23.62 0.53
-24.68 30.24 3.41
-4.19 5.14 -1.05
-29.15 35.73 5.66
-4.27 5.23 -0.83
-29.01 35.55 7.27
-4.48 5.5 -0.37
-18.53 22.72 -0.51
-4.4 5.43 -1.87
-19.07 23.54 0.53
-19.75 24.38 1.64
-28.85 35.61 4.01
-4.17 5.15 -1.05
-29.26 36.12 5.71
-4.25 5.25 -0.83
-21.77 26.87 5.48
-4.34 5.36 -0.6
-31.74 39.19 9.8
-4.46 5.5 -0.37
-18.64 23 -0.52
-4.45 5.53 -1.9
-18.43 22.91 0.51
-30.61 38.05 4.27
-4.15 5.16 -1.05
-28.76 35.76 5.63
-4.22 5.25 -0.83
-21.74 27.03 5.49
-4.3 5.35 -0.6
-31.61 39.3 9.8
-4.42 5.5 -0.37
-18.44 22.92 -0.51
-4.43 5.55 -1.9
-22.19 27.79 1.86
-21.98 27.52 3.08
-4.12 5.16 -1.05
-28.7 35.94 5.65
-4.19 5.24 -0.82
-4.29 5.37 -0.6
-31.44 39.38 9.79
-4.39 5.5 -0.37
-18.29 22.91 -0.51
-4.41 5.56 -1.9
-18.28 23.05 0.51
-30.22 38.1 4.25
-4.11 5.18 -1.05
-29.21 36.84 5.77
-4.17 5.25 -0.82
-31.54 39.78 8.04
-4.26 5.37 -0.6
-31.34 39.53 9.81
-4.38 5.52 -0.37
-18.25 23.01 -0.51
-4.39 5.57 -1.9
-18.29 23.23 0.52
-29.4 37.33 4.16
-4.08 5.18 -1.04
-4.12 5.24 -0.82
-26.59 33.76 6.81
-4.23 5.37 -0.6
-31.19 39.61 9.8
-4.44 5.64 -0.38
-18.07 22.94 -0.51
-4.37 5.59 -1.9
-18.66 23.87 0.53
-18.94 24.22 1.61
-29.66 37.93 4.21
-4.05 5.18 -1.04
-29.44 37.65 5.87
-4.12 5.27 -0.82
-23.18 29.64 5.96
-4.21 5.38 -0.6
-31.13 39.8 9.82
-4.43 5.67 -0.38
-18.23 23.32 -0.52
-4.35 5.6 -1.9
-18.56 23.9 0.53
-29.66 38.22 4.23
-4.03 5.19 -1.04
-22.79 29.35 4.56
-4.1 5.28 -0.82
-21 27.05 5.42
-4.18 5.39 -0.6
-4.4 5.67 -0.38
-4.33 5.62 -1.9
-17.75 23.03 0.51
-22.77 29.54 1.95
-4 5.19 -1.27
-22.82 29.6 3.27
-4.01 5.2 -1.04
-22.74 29.5 4.57
-4.05 5.26 -0.81
-20.87 27.08 5.42
-4.16 5.39 -0.6
-30.87 40.05 9.83
-4.39 5.7 -0.38
-17.99 23.33 -0.51
-4.32 5.64 -1.9
-25.94 33.91 0.75
-26.05 34.05 2.25
-3.97 5.19 -1.27
-22.03 28.79 3.17
-3.99 5.21 -1.04
-4.03 5.27 -0.81
-20.5 26.8 5.34
-4.13 5.4 -0.59
-30.73 40.17 9.83
-4.36 5.7 -0.38
-17.81 23.28 -0.51
-4.29 5.65 -1.9
-24.18 31.83 0.7
-3.94 5.19 -1.27
-25.92 34.11 3.75
-3.97 5.22 -1.04
-20.54 27.04 4.17
-4.02 5.29 -0.82
-20.57 27.07 5.38
-4.11 5.41 -0.59
-4.37 5.75 -0.38
-17.82 23.46 -0.51
-4.27 5.67 -1.9
-3.92 5.19 -1.26
-28.84 38.24 4.19
-3.94 5.22 -1.04
-4 5.3 -0.82
-4.13 5.48 -0.6
-4.34 5.76 -0.38
-17.1 22.67 -0.5
-4.26 5.69 -1.9
-18.34 24.5 0.53
-3.91 5.22 -1.27
-28.64 38.26 4.18
-3.92 5.24 -1.04
-3.97 5.31 -0.81
-4.32 5.77 -0.38
-17.31 23.11 -0.5
-4.25 5.72 -1.91
-24 32.29 2.11
-3.89 5.23 -1.27
-3.89 5.24 -1.03
-22.43 30.18 4.62
-3.94 5.31 -0.81
-20.77 27.94 5.51
-4.31 5.8 -0.38
-20.5 27.58 7.93
-17.49 23.53 -0.51
-4.23 5.73 -1.91
-17.66 23.94 0.52
-3.86 5.22 -1.26
-19.08 25.85 2.81
-3.88 5.26 -1.04
-3.95 5.35 -0.82
-4.33 5.86 -0.38
-17.4 23.57 -0.51
-17.64 24.08 0.52
-20.32 27.74 1.8
-3.84 5.24 -1.26
-3.87 5.28 -1.04
-19.39 26.47 4.03
-3.94 5.38 -0.82
-19.91 27.18 5.34
-20.3 27.72 6.68
-4.3 5.87 -0.38
-17.29 23.61 -0.51
-17.81 24.49 0.53
-19.84 27.28 1.77
-3.83 5.26 -1.26
-19.78 27.2 2.94
-3.84 5.28 -1.03
-3.92 5.39 -0.82
-19.98 27.48 5.38
-4.01 5.51 -0.6
-4.29 5.89 -0.38
-17.77 24.44 -0.53
-17.5 24.22 0.52
-20.12 27.86 1.8
-3.81 5.27 -1.26
-3.83 5.3 -1.04
-20.53 28.42 4.3
-3.9 5.4 -0.82
-4.01 5.56 -0.6
-20.3 28.1 6.74
-4.27 5.91 -0.38
-17.33 24.17 0.52
-3.79 5.29 -1.26
-3.83 5.34 -1.04
-3.85 5.38 -0.81
-20.08 28 5.46
-4.01 5.59 -0.6
-4.26 5.94 -0.38
-16.9 23.56 -0.51
-17.89 25.15 0.54
-17.65 24.81 1.6
-3.77 5.31 -1.27
-3.81 5.36 -1.04
-19.94 28.04 4.22
-3.83 5.39 -0.81
-3.98 5.6 -0.6
-19.62 27.59 6.58
-4.26 5.98 -0.38
-16.69 23.46 -0.5
-20.08 28.44 0.61
-25.85 36.61 2.35
-3.76 5.33 -1.27
-22.71 32.17 3.44
-3.8 5.38 -1.04
-19.86 28.13 4.23
-3.83 5.42 -0.81
-20.32 28.78 5.58
-3.98 5.63 -0.6
-20.23 28.66 6.82
-4.25 6.03 -0.39
-16.54 23.43 -0.5
-16.95 24.18 0.52
-19.93 28.43 1.82
-3.76 5.36 -1.27
-19.93 28.44 3.04
-3.79 5.41 -1.05
-18.76 26.76 4.01
-3.82 5.45 -0.82
-19.02 27.13 5.25
-3.95 5.64 -0.6
-4.26 6.08 -0.39
-16.66 23.76 -0.51
-16.81 24.15 0.51
-20.02 28.76 1.84
-3.75 5.39 -1.28
-19.41 27.9 2.97
-3.79 5.44 -1.05
-20.06 28.83 4.31
-3.8 5.46 -0.82
-3.96 5.69 -0.61
-4.26 6.12 -0.39
-16.52 23.74 -0.5
-16.75 24.26 0.51
-3.74 5.42 -1.28
-19.28 27.92 2.97
-3.78 5.47 -1.05
-3.78 5.48 -0.82
-3.94 5.71 -0.61
-4.25 6.16 -0.39
-16.38 23.72 -0.5
-17.74 25.88 0.55
-3.73 5.45 -1.28
-19 27.73 2.94
-3.78 5.51 -1.06
-20.09 29.32 4.36
-3.78 5.51 -0.82
-19.48 28.43 5.46
-3.94 5.76 -0.61
-4.26 6.22 -0.4
-16.35 23.85 -0.5
-17.93 26.36 0.56
-3.72 5.46 -1.28
-18.73 27.52 2.91
-3.77 5.54 -1.06
-19.36 28.46 4.23
-3.78 5.55 -0.82
-18.48 27.16 5.2
-3.93 5.78 -0.61
-19.12 28.1 6.61
-4.28 6.29 -0.4
-16.21 23.83 -0.5
-17.12 25.35 0.53
-3.71 5.5 -1.29
-3.76 5.57 -1.06
-18.22 26.98 4
-3.77 5.58 -0.83
-18.43 27.29 5.22
-3.93 5.82 -0.61
-4.32 6.39 -0.4
-16.03 23.74 -0.5
-16.19 24.16 0.51
-18.06 26.95 1.7
-3.7 5.53 -1.29
-18.26 27.24 2.87
-3.76 5.61 -1.07
-3.76 5.61 -0.83
-3.93 5.86 -0.62
-16.36 24.42 -1.54
-16.37 24.42 -0.51
-16.94 25.46 0.53
-3.69 5.55 -1.3
-22.17 33.34 3.5
-3.76 5.66 -1.08
-18.26 27.46 4.05
-3.75 5.63 -0.83
-18.06 27.15 5.17
-3.92 5.89 -0.62
-16.56 24.89 -1.57
-16.02 24.09 -0.5
-16.68 25.27 0.53
-19.21 29.09 1.83
-3.68 5.58 -1.3
-19.16 29.03 3.04
-3.76 5.7 -1.08
-29.62 44.87 6.6
-3.74 5.67 -0.83
-3.92 5.94 -0.62
-18.98 28.75 6.7
-16.22 24.57 -1.54
-16.27 24.65 -0.52
-16.82 25.67 0.54
-19.15 29.23 1.83
-3.68 5.62 -1.31
-19.08 29.12 3.05
-3.76 5.74 -1.09
-19.09 29.14 4.28
-3.75 5.72 -0.84
-18.2 27.78 5.26
-3.92 5.99 -0.63
-18.5 28.24 6.56
-16.3 24.88 -1.56
-16.27 24.84 -0.52
-18.65 28.67 0.6
-17.78 27.33 1.71
-3.68 5.66 -1.31
-19.1 29.37 3.07
-3.75 5.77 -1.09
-18.68 28.72 4.21
-3.75 5.76 -0.84
-17.78 27.34 5.17
-3.92 6.03 -0.63
-16.28 25.03 -1.56
-17.4 26.75 -0.56
-16.53 25.61 0.53
-3.68 5.7 -1.32
-18.84 29.18 3.04
-3.77 5.83 -1.1
-3.74 5.79 -0.85
-3.92 6.08 -0.63
-15.21 23.56 -1.47
-16.11 24.96 -0.52
-20.91 32.67 0.68
-3.67 5.74 -1.32
-3.76 5.87 -1.1
-3.73 5.83 -0.85
-18.33 28.63 5.38
-3.93 6.13 -0.64
-18.2 28.43 6.56
-14.87 23.22 -1.45
-17.39 27.38 0.57
-19.81 31.18 1.94
-3.66 5.77 -1.33
-3.76 5.92 -1.11
-3.74 5.88 -0.86
-3.93 6.19 -0.64
-18.14 28.56 6.58
-14.83 23.34 -1.45
-15.98 25.14 -0.52
-17.43 27.64 0.57
-20.6 32.68 2.02
-3.66 5.81 -1.34
-18.97 30.1 3.11
-3.75 5.96 -1.12
-17.34 27.5 3.99
-3.74 5.94 -0.86
-3.92 6.21 -0.64
-16.2 25.7 -1.59
-15.79 25.04 -0.52
-3.67 5.86 -1.34
-24.33 38.88 4.01
-3.75 5.99 -1.12
-3.75 5.99 -0.87
-17.56 28.07 5.24
-3.96 6.32 -0.65
-16.08 25.7 -1.59
-15.72 25.13 -0.52
-16.63 26.79 0.55
-19.68 31.71 1.96
-3.67 5.91 -1.35
-3.75 6.05 -1.13
-3.75 6.03 -0.87
-3.96 6.38 -0.66
-16.27 26.22 -1.62
-15.7 25.3 -0.52
-3.67 5.96 -1.36
-17.72 28.77 2.96
-3.76 6.11 -1.14
-3.74 6.07 -0.88
-17.47 28.36 5.27
-3.97 6.44 -0.66
-14.47 23.5 -1.45
-15.65 25.4 -0.52
-3.68 6.02 -1.37
-19.59 32.03 3.28
-3.77 6.17 -1.14
-3.76 6.15 -0.89
-3.99 6.52 -0.67
-17.31 28.3 6.45
-14.36 23.48 -1.44
-15.6 25.51 -0.52
-21.1 34.77 0.71
-17.27 28.46 1.74
-3.68 6.07 -1.38
-3.78 6.22 -1.15
-20.38 33.58 4.82
-3.77 6.21 -0.89
-4.03 6.64 -0.68
-14.55 23.97 -1.47
-15.35 25.3 -0.52
-16.92 28.11 1.72
-3.69 6.12 -1.39
-3.78 6.28 -1.16
-33.25 55.23 7.92
-3.79 6.3 -0.9
-14.55 24.16 -2.47
-17.41 28.92 6.56
-14.33 23.81 -1.46
-15.38 25.54 -0.52
-19.57 32.77 0.67
-19.09 31.97 1.95
-3.7 6.19 -1.4
-3.79 6.35 -1.17
-33.06 55.35 7.92
-3.8 6.36 -0.91
-14.34 24.02 -2.45
-14.23 23.82 -1.45
-15.22 25.48 -0.52
-20.09 33.91 0.69
-18.06 30.49 1.86
-3.7 6.25 -1.41
-3.82 6.45 -1.19
-32.3 54.53 7.78
-3.81 6.44 -0.92
-14.17 23.92 -2.43
-14.14 23.87 -1.45
-15.14 25.56 -0.52
-3.71 6.31 -1.42
-3.86 6.57 -1.21
-17.94 30.53 4.35
-3.86 6.57 -0.94
-13.91 23.68 -2.4
-14.2 24.17 -1.47
-15.15 25.78 -0.52
-3.72 6.38 -1.43
-3.89 6.66 -1.22
-17.54 30.08 4.28
-3.89 6.67 -0.95
-32.34 55.45 10.17
-13.91 23.86 -2.42
-15.45 26.5 -1.61
-14.94 25.62 -0.52
-14.8 25.58 0.52
-3.75 6.47 -1.45
-19.63 33.93 3.43
-3.91 6.75 -1.24
-17.44 30.14 4.28
-9.19 15.88 -2.25
-32.37 55.95 10.24
-13.76 23.79 -2.4
-13.88 23.99 -1.45
-15.28 26.41 -0.53
-19.6 34.18 0.69
-19.85 34.61 2.09
-3.76 6.55 -1.47
-19.88 34.66 3.5
-6.39 11.13 -2.03
-31.92 55.65 7.88
-9.12 15.9 -2.25
-32.16 56.07 10.24
-13.73 23.93 -2.41
-15.22 26.54 -1.6
-15.01 26.16 -0.53
-19.27 33.87 0.68
-19.68 34.58 2.09
-5.03 8.84 -1.98
-6.35 11.15 -2.03
-31.62 55.58 7.85
-9.07 15.94 -2.25
-31.89 56.05 10.21
-13.53 23.78 -2.39
-15.23 26.77 -1.61
-14.68 25.79 -0.52
-19.67 34.84 2.1
-5 8.85 -1.98
-6.31 11.17 -2.03
-31.75 56.23 7.93
-9.02 15.97 -2.25
-13.68 24.23 -2.43
-13.79 24.42 -1.47
-14.53 25.73 -0.52
-19.04 34 0.68
-19.56 34.93 2.1
-4.97 8.87 -1.98
-21.27 37.99 3.81
-6.27 11.19 -2.03
-8.96 16 -2.25
-13.51 24.13 -2.42
-13.56 24.21 -1.45
-14.31 25.54 -0.51
-19 34.18 0.68
-28.19 50.73 3.04
-4.94 8.89 -1.98
-6.22 11.2 -2.03
-23.27 41.88 5.88
-8.91 16.03 -2.25
-13.33 23.98 -2.4
-14.38 25.87 -1.55
-14.25 25.64 -0.51
-18.97 34.42 0.69
-4.91 8.92 -1.98
-6.18 11.22 -2.03
-8.85 16.06 -2.25
-13.21 23.98 -2.4
-14.22 25.8 -1.54
-14.73 26.72 -0.53
-4.88 8.93 -1.98
-22.78 41.7 4.16
-6.14 11.24 -2.03
-22.54 41.26 5.77
-8.78 16.08 -2.25
-13.15 24.07 -2.4
-14.04 25.7 -1.53
-14.46 26.46 -0.53
-15.52 28.64 0.57
-4.84 8.94 -1.98
-6.09 11.25 -2.03
-8.73 16.11 -2.25
-13.09 24.17 -2.4
-13.25 24.47 -1.46
-18.64 34.68 0.69
-18.2 33.85 2.01
-4.81 8.96 -1.98
-6.06 11.27 -2.03
-22.59 42.02 5.86
-8.68 16.14 -2.25
-13.01 24.2 -2.4
-13.27 24.69 -1.47
-19.01 35.68 2.12
-4.79 8.98 -1.98
-6.02 11.29 -2.03
-22.44 42.11 5.86
-8.62 16.17 -2.25
-12.89 24.19 -2.4
-13.09 24.55 -1.46
-14.39 27 -0.53
-4.76 9 -1.98
-5.98 11.31 -2.03
-8.56 16.2 -2.25
-12.87 24.36 -2.41
-12.91 24.43 -1.45
-13.7 25.92 -0.51
-4.73 9.02 -1.98
-22.57 43.07 4.25
-5.94 11.34 -2.03
-8.5 16.21 -2.25
-12.81 24.44 -2.41
-12.84 24.51 -1.45
-13.86 26.46 -0.52
-4.69 9.02 -1.98
-5.91 11.36 -2.03
-8.45 16.24 -2.25
-22.05 42.42 7.57
-13.18 25.35 -2.5
-14.16 27.23 -1.61
-13.79 26.52 -0.52
-13.8 26.77 0.53
-4.66 9.05 -1.98
-22.86 44.37 4.37
-5.87 11.39 -2.03
-22.81 44.26 6.11
-8.39 16.27 -2.25
-22.23 43.14 7.69
-12.67 24.59 -2.42
-14.33 27.8 -1.64
-15.93 30.9 -0.61
-13.74 26.9 0.53
-4.63 9.07 -1.98
-5.83 11.4 -2.03
-8.32 16.29 -2.25
-22.02 43.1 7.67
-12.54 24.55 -2.41
-14.19 27.77 -1.63
-13.59 26.6 -0.52
-14.9 29.43 0.58
-18.08 35.71 2.1
-4.6 9.08 -1.98
-5.79 11.44 -2.03
-8.26 16.31 -2.25
-12.45 24.59 -2.41
-12.48 24.65 -1.45
-14.8 29.47 0.58
-4.57 9.1 -1.98
-21.54 42.88 4.2
-5.77 11.49 -2.04
-8.2 16.33 -2.24
-22.26 44.31 7.85
-12.37 24.62 -2.41
-13.09 26.05 -1.53
-13.5 26.87 -0.52
-14.67 29.47 0.57
-22.68 45.57 2.67
-4.53 9.1 -1.97
-5.72 11.5 -2.03
-22.23 44.65 6.12
-8.14 16.34 -2.24
-21.57 43.33 7.67
-12.31 24.72 -2.42
-12.33 24.76 -1.45
-13.25 26.84 0.52
-4.5 9.11 -1.97
-5.7 11.56 -2.04
-8.09 16.38 -2.24
-12.22 24.77 -2.42
-12.28 24.88 -1.45
-12.84 26.02 -0.51
-21.36 43.67 2.55
-4.46 9.12 -1.97
-5.65 11.54 -2.04
-8.02 16.4 -2.24
-12.18 24.91 -2.43
-12.26 25.06 -1.46
-13.04 26.89 0.52
-21.22 43.76 2.55
-4.43 9.14 -1.97
-20.3 41.87 4.07
-5.6 11.55 -2.03
-7.97 16.43 -2.24
-12.09 24.94 -2.42
-12.15 25.05 -1.46
-13.29 27.42 -0.53
-14.44 30.04 0.58
-20.26 42.17 2.45
-4.4 9.15 -1.97
-22.74 47.32 4.59
-5.58 11.61 -2.04
-20.04 41.71 5.68
-7.91 16.45 -2.24
-20.23 42.1 7.4
-12.27 25.53 -2.48
-12.1 25.18 -1.46
-13.93 29 -0.56
-4.36 9.15 -1.97
-20.54 43.12 4.18
-5.53 11.6 -2.04
-7.85 16.47 -2.24
-12.16 25.54 -2.47
-21.43 45 9.69
-12.07 25.34 -1.47
-13.21 27.73 -0.54
-13.81 29.27 0.56
-21.75 46.08 2.67
-4.33 9.17 -1.97
-5.5 11.65 -2.04
-7.79 16.5 -2.24
-11.92 25.26 -2.44
-11.96 25.35 -1.47
-13.68 28.99 -0.56
-12.78 27.31 0.53
-20.58 43.98 2.54
-4.3 9.18 -1.97
-5.45 11.64 -2.04
-14.13 30.19 4.09
-7.74 16.53 -2.24
-20.97 44.81 7.84
-11.83 25.28 -2.44
-11.85 25.33 -1.47
-12.37 26.43 -0.51
-14.14 30.51 0.59
-4.27 9.2 -1.97
-5.4 11.66 -2.03
-20.3 43.78 5.93
-7.67 16.53 -2.24
-20.53 44.27 7.73
-11.73 25.3 -2.44
-11.75 25.34 -1.46
-12.49 26.94 -0.52
-13.73 29.87 0.57
-4.23 9.21 -1.97
-20.49 44.58 4.29
-5.37 11.69 -2.04
-14.41 31.37 4.24
-7.6 16.55 -2.24
-11.64 25.32 -2.44
-12.3 26.77 -1.54
-12.36 26.89 -0.52
-13.93 30.6 0.59
-4.19 9.21 -1.97
-18.86 41.44 3.98
-5.29 11.62 -2.02
-14.13 31.04 4.19
-7.54 16.56 -2.23
-19.37 42.56 7.41
-11.56 25.4 -2.44
-11.47 25.19 -1.45
-12.31 27.05 -0.52
-20.06 44.47 0.85
-19.95 44.22 2.54
-4.16 9.22 -1.97
-25.19 55.84 5.36
-5.24 11.61 -2.02
-13.89 30.8 4.15
-7.48 16.59 -2.23
-20.32 45.06 7.83
-11.46 25.4 -2.44
-11.37 25.21 -1.45
-19.92 44.15 11.18
-11.93 26.45 -0.51
-20.21 45.22 2.6
-4.13 9.24 -1.97
-20.16 45.11 4.32
-5.19 11.61 -2.01
-20.19 45.17 6.08
-7.42 16.6 -2.23
-19.7 44.08 7.65
-11.44 25.61 -2.45
-11.48 25.69 -1.47
-12.18 27.26 -0.52
-19.97 45.11 0.86
-19.97 45.11 2.59
-4.1 9.26 -1.97
-19.58 44.23 4.23
-5.15 11.62 -2.01
-7.36 16.62 -2.23
-18.99 42.89 7.43
-11.28 25.47 -2.44
-11.23 25.36 -1.45
-12.11 27.36 -0.52
-14.78 33.71 0.64
-19.83 45.21 2.59
-4.06 9.26 -1.97
-5.1 11.62 -2.01
-13.34 30.41 4.08
-7.29 16.63 -2.23
-11.34 25.85 -2.47
-11.26 25.67 -1.47
-11.99 27.33 -0.52
-15.01 34.55 0.66
-16.17 37.23 2.13
-4.02 9.26 -1.96
-13.86 31.9 3.04
-5.06 11.66 -2.01
-12.74 29.34 3.93
-7.23 16.65 -2.23
-11.17 25.72 -2.45
-19.7 45.36 9.61
-11.18 25.73 -1.47
-13.08 30.11 -0.57
-11.73 27.26 0.52
-3.99 9.27 -1.96
-5.02 11.67 -2.01
-7.17 16.67 -2.23
-18.43 42.83 7.38
-11.1 25.8 -2.46
-11.19 26 -1.48
-12.38 28.76 -0.55
-19.5 45.75 0.87
-3.96 9.29 -1.96
-13.28 31.17 2.96
-4.98 11.68 -2.01
-12.6 29.57 3.95
-7.11 16.69 -2.23
-15.44 36.24 6.24
-11.04 25.91 -2.46
-11.03 25.89 -1.48
-11.87 27.85 -0.53
-14.34 33.97 0.64
-19.07 45.2 2.57
-3.92 9.3 -1.96
-13.32 31.56 3
-4.94 11.7 -2.01
-12.46 29.52 3.93
-7.05 16.7 -2.23
-10.91 25.85 -2.46
-19.35 45.85 9.67
-10.95 25.96 -1.48
-11.79 27.93 -0.53
-14.76 35.31 0.67
-13.25 31.71 1.8
-3.89 9.31 -1.96
-4.89 11.71 -2.01
-12.9 30.86 4.11
-6.98 16.71 -2.22
-12.37 29.6 5.08
-10.86 25.98 -2.46
-10.96 26.23 -1.49
-15.66 37.85 0.71
-13.03 31.48 1.79
-3.85 9.31 -1.96
-13.05 31.53 2.99
-4.85 11.72 -2.01
-12.31 29.76 3.95
-6.92 16.73 -2.22
-12.25 29.61 5.07
-10.8 26.09 -2.47
-10.89 26.31 -1.49
-11.56 27.95 -0.53
-13.94 34 0.64
-3.82 9.32 -1.96
-12.93 31.54 2.98
-4.81 11.73 -2.01
-11.88 28.97 3.84
-6.87 16.75 -2.22
-12.2 29.76 5.09
-10.69 26.09 -2.47
-10.74 26.19 -1.48
-15.42 38 0.72
-12.54 30.9 1.75
-3.79 9.33 -1.96
-18.37 45.26 4.27
-4.76 11.73 -2
-12.95 31.9 4.23
-6.81 16.78 -2.22
-17.79 43.83 7.49
-10.63 26.19 -2.47
-12.39 30.53 -1.73
-12.16 29.96 -0.56
-13.78 34.28 0.64
-12.45 30.99 1.75
-3.76 9.35 -1.96
-12.1 30.11 2.84
-4.72 11.74 -2
-12.87 32.03 4.24
-6.75 16.8 -2.22
-11.99 29.83 5.09
-10.63 26.46 -2.49
-14.56 36.24 7.59
-10.58 26.34 -1.49
-12.18 30.32 -0.57
-11.79 29.65 0.56
-12.34 31.02 1.75
-3.72 9.36 -1.96
-12.58 31.63 2.98
-4.68 11.76 -2
-6.69 16.82 -2.22
-11.94 30.01 5.12
-10.44 26.25 -2.47
-14.61 36.74 7.69
-10.54 26.49 -1.49
-12.1 30.42 -0.57
-13.36 33.94 0.64
-3.68 9.36 -1.96
-12.49 31.72 2.98
-4.64 11.78 -2
-11.83 30.04 3.96
-6.63 16.84 -2.22
-11.89 30.21 5.14
-10.34 26.25 -2.47
-10.47 26.6 -1.5
-11.97 30.41 -0.57
-12.45 31.94 0.6
-12.13 31.14 1.75
-3.65 9.37 -1.96
-11.5 29.51 2.77
-4.59 11.79 -2
-6.57 16.86 -2.22
-11.88 30.48 5.18
-10.27 26.35 -2.47
-14.18 36.39 7.59
-10.5 26.94 -1.52
-13.12 34.01 0.64
-3.62 9.38 -1.95
-12.93 33.52 3.14
-4.55 11.79 -2
-11.68 30.29 3.99
-6.51 16.87 -2.22
-11.48 29.77 5.05
-10.21 26.48 -2.48
-10.31 26.74 -1.5
-14.01 36.32 -0.68
-13.02 34.12 0.64
-11.76 30.81 1.73
-3.59 9.4 -1.96
-4.5 11.79 -2
-11.29 29.57 3.89
-6.45 16.89 -2.22
-12.21 31.99 5.42
-10.14 26.56 -2.49
-12.48 32.7 6.8
-10.18 26.66 -1.5
-11.72 30.71 -0.57
-11.79 31.23 1.75
-3.55 9.41 -1.96
-11.28 29.86 2.79
-4.46 11.82 -2
-11.68 30.93 4.06
-6.38 16.9 -2.22
-11.29 29.89 5.06
-10.05 26.61 -2.49
-12.42 32.88 6.83
-10.42 27.6 -1.55
-13.8 36.54 -0.68
-11.75 31.45 0.59
-3.52 9.41 -1.95
-11.2 29.98 2.8
-4.43 11.84 -2
-6.33 16.93 -2.22
-11.74 31.42 5.31
-9.97 26.68 -2.49
-10.64 28.48 -1.59
-13.7 36.66 -0.68
-11.6 31.35 0.58
-11.31 30.57 1.71
-3.49 9.42 -1.95
-10.92 29.52 2.75
-4.38 11.85 -2
-11.66 31.51 4.13
-6.27 16.94 -2.22
-13.6 36.75 6.21
-9.95 26.9 -2.51
-9.8 26.49 -1.48
-10.96 29.62 -0.55
-11.56 31.59 0.59
-11.5 31.42 1.75
-3.45 9.43 -1.95
-11.22 30.66 2.86
-4.34 11.86 -2
-11.44 31.26 4.09
-6.21 16.96 -2.22
-12.31 33.65 5.67
-9.91 27.07 -2.52
-10.62 29.03 -1.62
-11.18 30.55 -0.57
-11.43 31.59 0.59
-12.57 34.73 1.94
-3.42 9.44 -1.95
-10.85 29.98 2.79
-4.3 11.87 -2
-13.55 37.43 4.89
-6.14 16.97 -2.22
-10.97 30.29 5.1
-9.8 27.06 -2.52
-10.09 27.87 -1.55
-11.12 30.73 -0.57
-11.17 31.19 0.58
-11.45 31.99 1.78
-3.38 9.45 -1.95
-4.26 11.89 -2
-13.39 37.39 4.88
-6.08 16.98 -2.21
-10.89 30.43 5.12
-9.74 27.21 -2.53
-9.65 26.95 -1.5
-11.38 31.77 -0.59
-12.34 34.86 0.65
-11.2 31.61 1.76
-3.35 9.45 -1.95
-13.98 39.47 3.66
-4.22 11.91 -2
-10.78 30.45 3.97
-6.02 16.99 -2.21
-10.87 30.69 5.16
-9.65 27.26 -2.53
-9.51 26.86 -1.49
-12.31 34.77 8.52
-12.27 35.02 0.65
-10.93 31.21 1.73
-3.32 9.47 -1.95
-10.83 30.92 2.87
-4.17 11.92 -2
-10.27 29.31 3.81
-5.96 17.01 -2.21
-10.88 31.05 5.21
-9.57 27.33 -2.53
-12.18 34.78 7.16
-9.55 27.25 -1.51
-12.16 34.71 8.49
-11.05 31.53 -0.58
-10.92 31.53 0.58
-10.77 31.09 1.72
-3.28 9.48 -1.95
-10.87 31.37 2.9
-4.13 11.91 -2
-10.2 29.44 3.82
-5.9 17.03 -2.21
-10.7 30.87 5.17
-9.45 27.27 -2.53
-9.38 27.08 -1.5
-12.06 34.82 8.51
-10.66 30.77 -0.57
-10.86 31.68 0.58
-10.86 31.69 1.76
-3.25 9.49 -1.95
-10.79 31.47 2.91
-4.09 11.93 -2
-10.66 31.1 4.04
-5.84 17.05 -2.21
-10.27 29.97 5.02
-9.37 27.33 -2.53
-11.64 33.98 6.98
-9.26 27.01 -1.5
-10.87 31.72 -0.59
-10.7 31.61 0.58
-11.28 33.33 1.84
-3.22 9.5 -1.95
-10.62 31.38 2.9
-4.05 11.95 -2
-10.37 30.64 3.97
-5.76 17.01 -2.21
-10.42 30.78 5.15
-9.18 27.13 -2.51
-11.87 35.08 7.2
-9.79 28.94 -1.6
-10.62 31.36 -0.58
-10.85 32.41 0.6
-3.18 9.5 -1.95
-12.54 37.45 3.46
-4.01 11.97 -2
-10.61 31.71 4.11
-5.72 17.09 -2.21
-10.1 30.17 5.04
-9.14 27.29 -2.52
-10.15 30.34 6.22
-9.29 27.75 -1.53
-11.63 34.75 8.46
-10.09 30.14 -0.55
-20.97 63.36 1.16
-10.05 30.36 1.68
-3.15 9.51 -1.95
-10.18 30.75 2.83
-3.96 11.97 -2
-10.47 31.65 4.09
-5.66 17.1 -2.21
-11.69 35.32 5.89
-9.19 27.76 -2.56
-10.83 32.73 -1.81
-11.57 34.96 8.5
-10.11 30.56 -0.56
-10.16 31.06 0.57
-9.91 30.28 1.67
-3.12 9.52 -1.95
-10.32 31.55 2.9
-3.91 11.96 -1.99
-10.71 32.73 4.23
-5.59 17.08 -2.21
-9.98 30.52 5.09
-8.91 27.22 -2.51
-10.04 30.69 6.28
-9.66 29.52 -1.63
-12.06 36.87 8.96
-9.66 29.51 -0.54
-9.91 30.65 1.69
-3.08 9.53 -1.95
-10.47 32.39 2.98
-3.87 11.97 -1.99
-11.64 36.01 4.65
-5.52 17.06 -2.2
-9.03 27.91 -2.57
-12.08 37.35 7.63
-9.06 28.01 -1.54
-9.76 30.53 1.68
-3.05 9.54 -1.95
-11.72 36.68 3.37
-3.83 11.98 -1.99
-10.67 33.39 4.3
-5.45 17.04 -2.2
-10.47 32.75 5.45
-9.2 28.8 -2.65
-11.02 34.49 7.04
-9.39 29.38 -1.62
-11.89 37.19 9.01
-9.94 31.11 -0.57
-9.64 30.55 1.68
-3.01 9.54 -1.94
-3.79 12 -1.99
-18.5 58.65 7.55
-5.37 17.02 -2.19
-8.92 28.27 -2.59
-10.87 34.44 7.02
-8.97 28.43 -1.56
-12.09 38.32 9.28
-9.94 31.5 -0.58
-11.39 36.09 10.14
-9.84 31.56 1.73
-2.98 9.55 -1.95
-11.52 36.94 3.39
-3.74 12 -1.99
-5.3 17.02 -2.19
-12.5 40.1 6.65
-9.25 29.67 -2.72
-10.96 35.14 7.16
-8.82 28.28 -1.55
-9.2 29.51 -0.54
-9.73 31.6 1.73
-2.94 9.56 -1.94
-11.54 37.46 3.43
-3.7 12 -1.99
-18.32 59.48 7.64
-5.25 17.04 -2.19
-11.72 38.06 6.31
-8.8 28.58 -2.62
-12.04 39.08 7.95
-8.76 28.42 -1.56
-8.91 28.92 -0.53
-17.44 57.32 1.05
-17.24 56.64 3.1
-2.91 9.56 -1.94
-17.62 57.89 5.29
-3.65 12 -1.99
-17.67 58.07 7.45
-5.19 17.06 -2.19
-10.58 34.76 5.75
-8.65 28.43 -2.6
-11.78 38.71 7.87
-8.7 28.61 -1.57
-11.7 38.45 9.28
-8.84 29.05 -0.53
-2.88 9.57 -1.94
-10.08 33.56 3.07
-3.61 12.02 -1.99
-5.12 17.05 -2.19
-8.92 29.69 -2.71
-10.78 35.9 7.29
-8.76 29.17 -1.6
-10.77 35.85 8.64
-8.72 29.03 -0.53
-10.94 36.43 10.19
-6.53 21.99 0.4
-11.24 37.88 2.07
-2.84 9.57 -1.94
-16.91 57.01 5.2
-3.57 12.02 -1.99
-10.19 34.35 4.4
-5.05 17.01 -2.18
-11.47 38.64 6.38
-8.88 29.92 -2.73
-8.52 28.7 -1.57
-10.73 36.16 8.71
-9.31 31.37 -0.57
-10.78 36.33 10.16
-6.49 22.15 0.4
-10.53 35.95 1.96
-2.81 9.58 -1.94
-11.2 38.24 3.49
-3.52 12.01 -1.98
-10.04 34.27 4.39
-4.98 17.02 -2.18
-10.25 34.99 5.77
-6.46 22.07 -2.01
-6.47 22.1 -1.21
-10.55 36.05 8.67
-6.47 22.09 -0.4
-10.59 36.18 10.1
-6.38 22.08 0.4
-6.39 22.11 1.21
-2.77 9.59 -1.94
-11.11 38.41 3.5
-3.47 12.02 -1.98
-4.93 17.07 -2.18
-6.39 22.09 -2.01
-6.38 22.08 -1.2
-10.25 35.44 8.52
-6.39 22.1 -0.4
-11.32 39.14 10.92
-10.89 38.2 0.69
-2.74 9.6 -1.94
-11.76 41.22 3.75
-3.43 12.03 -1.98
-9.76 34.2 4.37
-4.87 17.09 -2.18
-9 31.56 -2.87
-11.25 39.44 7.97
-8.27 28.98 -1.58
-10.18 35.68 8.57
-6.31 22.13 -0.4
-10.43 36.58 10.19
-6.27 22.26 0.4
-6.24 22.15 1.21
-2.7 9.6 -1.94
-10.67 37.89 3.44
-3.39 12.03 -1.98
-10.77 38.24 4.88
-4.82 17.12 -2.18
-9.53 33.86 5.57
-9.13 32.44 -2.95
-10.39 36.9 7.45
-8.16 28.98 -1.58
-11.08 39.37 9.44
-6.23 22.12 -0.4
-6.17 22.21 0.4
-9.96 35.88 1.95
-2.66 9.6 -1.94
-9.95 35.82 3.25
-3.34 12.04 -1.98
-4.14 14.89 -1.9
-9.26 33.34 5.48
-10.76 38.74 -3.52
-10.26 36.96 7.46
-8.14 29.32 -1.59
-11.01 39.66 9.5
-8.08 29.1 -0.53
-6.09 22.21 0.4
-10.54 38.48 2.09
-2.63 9.6 -1.93
-9.82 35.85 3.25
-3.3 12.04 -1.98
-4.7 17.16 -2.18
-10.83 39.52 6.49
-8.05 29.36 -2.66
-8.03 29.3 -1.59
-9.71 35.42 8.48
-10.37 37.84 -0.68
-10.11 36.9 10.25
-10.4 38.45 2.09
-2.6 9.62 -1.94
-3.26 12.04 -1.98
-10.63 39.29 5
-4.04 14.93 -1.9
-7.96 29.4 -2.66
-7.82 28.89 -1.57
-10.63 39.28 9.39
-8.14 30.08 -0.54
-9.95 37.26 0.67
-10.31 38.63 2.1
-2.57 9.62 -1.94
-10.33 38.7 3.5
-3.21 12.04 -1.97
-10.47 39.24 4.99
-4.58 17.15 -2.18
-8.98 33.65 -3.05
-9.74 36.5 7.34
-7.82 29.3 -1.59
-9.52 35.68 8.53
-10.2 38.23 -0.69
-9.85 37.44 0.68
-10.11 38.44 2.08
-2.53 9.63 -1.94
-3.17 12.06 -1.97
-9.17 34.85 4.42
-4.51 17.15 -2.18
-9.87 37.52 6.14
-7.4 28.14 -2.55
-10.54 40.05 8.05
-7.68 29.21 -1.58
-9.43 35.85 8.56
-7.92 30.11 -0.54
-9.55 36.84 0.66
-9.56 36.88 2
-2.49 9.62 -1.93
-8.54 32.94 2.98
-3.13 12.07 -1.98
-8.56 33 4.19
-3.87 14.92 -1.89
-10.42 40.2 6.58
-7.73 29.82 -2.7
-10.33 39.84 8
-7.59 29.27 -1.58
-9.98 38.51 9.18
-9.6 37.04 -0.67
-9.28 35.79 9.91
-8.25 32.31 0.58
-9.36 36.66 1.98
-2.46 9.63 -1.93
-9.77 38.23 3.45
-3.09 12.08 -1.97
-9.01 35.26 4.47
-3.85 15.08 -1.91
-9.58 37.5 6.13
-7.58 29.66 -2.68
-10.51 41.14 8.25
-7.52 29.43 -1.59
-9.14 35.8 8.53
-7.68 30.06 -0.54
-9.15 35.81 9.9
-8.17 32.45 0.58
-8.23 32.7 1.77
-2.42 9.64 -1.93
-8.38 33.3 3
-3.04 12.07 -1.97
-9.58 38.09 4.82
-3.77 15 -1.9
-9.43 37.49 6.12
-7.07 28.09 -2.53
-9.15 36.35 7.29
-7.5 29.8 -1.61
-9.48 37.68 8.97
-9.09 36.14 9.99
-7.95 32.04 0.58
-8.23 33.15 1.79
-2.39 9.65 -1.93
-9.15 36.85 3.32
-3 12.07 -1.97
-9.1 36.66 4.64
-3.74 15.06 -1.91
-9.41 37.89 6.18
-6.95 28.02 -2.53
-9.19 37.03 7.42
-7.35 29.6 -1.6
-9.08 36.56 8.7
-7.77 31.28 -0.56
-8.92 35.94 9.92
-7.79 31.87 0.57
-8.22 33.64 1.82
-2.36 9.65 -1.93
-8.13 33.25 2.99
-2.95 12.09 -1.97
-8.41 34.43 4.35
-3.67 15.03 -1.9
-9.42 38.55 6.29
-6.87 28.1 -2.53
-9.25 37.85 7.57
-7.28 29.78 -1.61
-8.96 36.64 8.71
-8.92 36.51 10.07
-7.37 30.6 0.55
-7.81 32.42 1.75
-2.32 9.64 -1.93
-7.97 33.07 2.98
-2.91 12.09 -1.97
-3.64 15.09 -1.91
-8.81 36.56 5.96
-6.79 28.19 -2.54
-8.18 33.93 6.78
-7.22 29.94 -1.61
-8.82 36.61 8.7
-7.26 30.12 -0.54
-7.65 32.25 0.58
-7.7 32.45 1.75
-2.29 9.64 -1.93
-7.76 32.73 2.94
-2.87 12.09 -1.97
-7.76 32.7 4.13
-3.58 15.1 -1.91
-8.35 35.19 5.73
-6.7 28.26 -2.54
-8.08 34.04 6.8
-7.07 29.8 -1.61
-8.61 36.28 8.61
-7.26 30.6 -0.55
-8.66 36.52 10.06
-7.56 32.36 0.58
-7.63 32.67 1.76
-2.25 9.65 -1.93
-7.64 32.72 2.94
-2.82 12.08 -1.97
-3.54 15.14 -1.91
-9.02 38.6 6.28
-7.04 30.14 -2.71
-8.01 34.29 6.84
-7.03 30.08 -1.62
-8.64 37 8.77
-7.56 32.37 -0.58
-8.78 37.57 10.34
-7.18 31.22 0.56
-7.49 32.6 1.75
-2.22 9.65 -1.93
-7.41 32.24 2.89
-2.78 12.08 -1.96
-7.79 33.87 4.27
-3.48 15.12 -1.91
-7.54 32.78 5.33
-6.86 29.84 -2.68
-6.95 30.23 -1.63
-8.87 38.59 9.14
-6.96 30.27 -0.54
-8.39 36.48 10.03
-7.21 31.88 0.57
-7.23 31.94 1.72
-2.19 9.66 -1.92
-7.31 32.3 2.9
-2.74 12.09 -1.96
-8.93 39.45 4.97
-3.42 15.13 -1.91
-7.42 32.77 5.32
-6.9 30.47 -2.73
-8.66 38.28 7.63
-6.85 30.29 -1.63
-8.24 36.42 8.62
-6.84 30.23 -0.54
-7.13 32.04 0.57
-7.35 33.05 1.77
-2.15 9.66 -1.92
-7.19 32.29 2.89
-2.69 12.09 -1.96
-8.79 39.5 4.97
-3.37 15.14 -1.9
-6.67 29.99 -2.69
-8.51 38.27 7.62
-6.76 30.39 -1.63
-8.19 36.81 8.71
-6.9 31.02 -0.55
-8.51 38.26 10.5
-6.79 31 0.55
-1.77 8.07 -1.91
-7.11 32.49 1.74
-2.12 9.66 -1.92
-7.11 32.47 2.91
-2.65 12.1 -1.96
-7.76 35.44 4.45
-3.33 15.19 -1.91
-7.25 33.1 5.37
-6.53 29.82 -2.67
-7.69 35.12 6.99
-6.76 30.89 -1.66
-8.53 38.94 9.2
-6.76 30.86 -0.55
-6.93 32.19 0.57
-1.73 8.04 -1.9
-6.84 31.79 1.7
-2.08 9.67 -1.92
-7.03 32.68 2.92
-2.6 12.09 -1.96
-7.12 33.07 4.15
-3.28 15.26 -1.92
-9.9 46.01 7.45
-6.49 30.17 -2.7
-7.43 34.52 6.86
-6.63 30.82 -1.65
-8.39 39 9.21
-8.36 38.85 10.65
-6.64 31.37 0.56
-1.7 8.02 -1.89
-6.83 32.27 1.73
-2.05 9.68 -1.92
-7.01 33.12 2.96
-2.56 12.09 -1.96
-6.95 32.85 4.12
-3.22 15.23 -1.91
-7.47 35.28 5.71
-6.01 28.41 -2.54
-7.34 34.68 6.89
-6.54 30.88 -1.65
-8.17 38.58 9.1
-6.76 31.93 -0.57
-6.45 31.01 0.55
-1.67 8.03 -1.89
-6.6 31.75 1.7
-2.01 9.68 -1.92
-6.82 32.81 2.93
-2.52 12.1 -1.96
-3.17 15.23 -1.91
-5.91 28.42 -2.54
-6.4 30.76 -1.65
-6.51 31.31 -0.56
-6.6 32.33 0.58
-1.64 8.03 -1.89
-6.63 32.48 1.74
-1.98 9.68 -1.92
-6.94 33.98 3.03
-2.47 12.11 -1.96
-7.78 38.1 4.77
-3.11 15.21 -1.91
-4.73 23.15 -2.07
-6.83 33.46 6.64
-6.45 31.57 -1.69
-6.64 32.5 -0.58
-6.72 33.55 0.6
-1.61 8.04 -1.89
-1.94 9.68 -1.92
-6.64 33.13 2.96
-2.43 12.11 -1.96
-7.23 36.06 4.52
-3.06 15.26 -1.91
-4.63 23.11 -2.06
-7.12 35.5 7.04
-6.72 33.54 -1.79
-6.32 31.51 -0.56
-6.36 32.29 0.57
-1.58 8.04 -1.89
-6.38 32.36 1.73
-1.91 9.69 -1.92
-6.55 33.25 2.96
-2.38 12.09 -1.95
-7.53 38.19 4.78
-2.87 14.55 -1.82
-6.4 32.48 5.24
-3.05 15.5 -1.38
-6.09 30.88 -1.65
-6.29 31.9 -0.57
-6.51 33.66 0.6
-1.55 8.03 -1.89
-6.17 31.91 1.7
-1.87 9.69 -1.92
-6.4 33.1 2.95
-2.34 12.11 -1.95
-6.57 33.99 4.25
-2.95 15.23 -1.9
-6.31 32.64 5.27
-7.32 37.88 7.5
-6 31.04 -1.66
-6.26 32.37 -0.58
-6.31 33.18 0.59
-1.53 8.04 -1.89
-6.1 32.1 1.71
-1.84 9.69 -1.92
-6.16 32.43 2.89
-2.3 12.11 -1.95
-6.48 34.11 4.26
-2.9 15.28 -1.91
-6.24 32.86 5.3
-5.5 28.95 -2.58
-5.93 31.21 -1.67
-7.25 38.17 8.97
-6.05 31.85 -0.57
-1.5 8.05 -1.89
-5.98 32.08 1.71
-1.81 9.69 -1.92
-7.11 38.15 3.39
-2.26 12.11 -1.95
-6.22 33.36 4.17
-2.85 15.3 -1.91
-6.38 34.26 5.52
-5.41 29.01 -2.58
-6.67 35.79 7.08
-5.8 31.11 -1.66
-6.06 32.53 -0.58
-1.47 8.05 -1.89
-5.91 32.37 1.72
-1.77 9.69 -1.92
-6 32.86 2.92
-2.21 12.11 -1.95
-6.05 33.15 4.14
-2.79 15.27 -1.91
-6.19 33.9 5.46
-5.32 29.12 -2.59
-6.05 33.13 6.55
-5.68 31.11 -1.66
-5.82 31.89 -0.57
-5.76 32.17 0.57
-1.44 8.05 -1.89
-5.7 31.87 1.7
-1.74 9.7 -1.92
-5.96 33.32 2.96
-2.17 12.11 -1.95
-5.9 32.99 4.12
-2.73 15.26 -1.9
-5.9 32.98 5.31
-5.22 29.19 -2.59
-6.34 35.42 7
-5.68 31.77 -1.69
-6.1 34.07 7.99
-5.69 31.81 -0.56
-5.65 32.15 0.57
-1.41 8.05 -1.89
-5.89 33.56 1.79
-1.7 9.7 -1.91
-5.82 33.13 2.94
-2.13 12.11 -1.95
-5.83 33.19 4.14
-2.68 15.25 -1.9
-5.96 33.94 5.46
-5.12 29.18 -2.59
-5.78 32.9 6.49
-5.66 32.22 -1.71
-5.59 31.83 -0.56
-5.49 31.94 0.57
-1.38 8.05 -1.89
-5.71 33.21 1.77
-1.67 9.71 -1.91
-5.63 32.73 2.91
-2.08 12.12 -1.95
-5.65 32.83 4.09
-2.61 15.2 -1.89
-5.96 34.67 5.57
-5.01 29.1 -2.58
-5.67 32.95 6.5
-5.51 32.02 -1.7
-5.66 32.91 -0.58
-5.72 33.95 0.6
-1.36 8.06 -1.89
-5.48 32.55 1.73
-1.63 9.7 -1.91
-5.42 32.18 2.85
-2.04 12.13 -1.95
-5.51 32.73 4.08
-2.56 15.2 -1.89
-5.64 33.49 5.38
-4.88 28.99 -2.57
-5.57 33.1 6.52
-5.39 32.03 -1.7
-5.47 32.46 -0.57
-5.38 32.63 0.58
-1.33 8.07 -1.89
-5.31 32.21 1.71
-1.6 9.7 -1.91
-5.29 32.09 2.85
-2 12.13 -1.95
-5.44 33.03 4.11
-2.51 15.24 -1.9
-5.54 33.63 5.4
-4.77 28.95 -2.57
-5.28 32.06 -1.7
-5.44 33.02 -0.58
-5.45 33.83 0.6
-1.3 8.07 -1.89
-7.36 45.68 2.42
-1.56 9.71 -1.91
-5.31 32.97 2.92
-1.95 12.12 -1.95
-5.33 33.1 4.12
-2.46 15.28 -1.9
-5.37 33.35 5.35
-4.66 28.94 -2.56
-5.52 34.3 6.75
-5.22 32.43 -1.72
-5.33 33.09 -0.59
-5.16 32.74 0.58
-1.27 8.05 -1.88
-5.36 34.01 1.8
-1.53 9.71 -1.91
-5.17 32.85 2.91
-1.91 12.13 -1.95
-5.22 33.17 4.12
-2.4 15.27 -1.9
-7.08 44.94 7.21
-4.39 27.9 -2.47
-5.31 33.73 6.64
-5.11 32.47 -1.72
-5.34 33.89 -0.6
-5.4 35.07 0.62
-1.24 8.07 -1.88
-5.14 33.33 1.77
-1.5 9.72 -1.91
-4.84 31.43 2.78
-1.87 12.14 -1.94
-4.84 31.38 3.9
-2.64 17.11 -2.13
-5.03 32.65 5.23
-4.3 27.88 -2.47
-5.19 33.67 6.62
-5.01 32.51 -1.72
-5.1 33.12 -0.58
-1.21 8.07 -1.88
-4.97 33.03 1.75
-1.46 9.7 -1.91
-4.89 32.48 2.87
-1.83 12.14 -1.94
-4.88 32.45 4.03
-2.57 17.08 -2.12
-5.2 34.56 5.54
-3.99 26.48 -2.34
-4.88 32.43 -1.72
-8.28 56.33 0.99
-1.19 8.08 -1.88
-4.87 33.12 1.75
-1.43 9.7 -1.91
-4.9 33.36 2.95
-1.78 12.13 -1.94
-4.76 32.39 4.02
-2.51 17.1 -2.12
-4.89 33.3 5.33
-3.91 26.6 -2.35
-4.79 32.59 -1.73
-5.09 34.62 -0.61
-1.16 8.08 -1.88
-4.65 32.41 1.72
-1.39 9.71 -1.91
-4.58 31.93 2.82
-1.74 12.11 -1.94
-4.66 32.47 4.03
-2.45 17.07 -2.12
-4.75 33.1 5.3
-3.99 27.8 -2.46
-4.69 32.71 -1.73
-4.84 33.77 -0.6
-1.13 8.07 -1.88
-4.58 32.73 1.73
-1.36 9.72 -1.91
-4.69 33.54 2.96
-1.69 12.12 -1.94
-4.54 32.5 4.03
-2.39 17.06 -2.11
-4.61 33 5.28
-3.73 26.7 -2.36
-4.6 32.92 -1.74
-4.91 36 0.63
-1.1 8.08 -1.88
-1.32 9.72 -1.91
-4.27 31.31 2.76
-1.65 12.14 -1.94
-4.42 32.44 4.02
-2.32 17.04 -2.11
-4.55 33.41 5.34
-3.67 26.9 -2.37
-4.49 32.95 -1.74
-4.77 35.9 0.63
-1.08 8.09 -1.89
-4.88 36.7 1.94
-1.29 9.7 -1.9
-4.65 34.97 3.09
-1.61 12.15 -1.94
-4.39 33.05 4.09
-2.26 17.04 -2.11
-3.58 26.96 -2.38
-4.84 36.4 -1.92
-4.89 36.78 -0.65
-1.05 8.09 -1.88
-1.26 9.72 -1.9
-1.57 12.14 -1.94
-2.21 17.07 -2.11
-6.11 47.22 7.54
-3.48 26.9 -2.37
-4.55 35.18 -1.86
-4.53 35.02 -0.62
-4.44 35.37 0.62
-1.02 8.1 -1.88
-4.25 33.8 1.79
-1.22 9.72 -1.9
-4.26 33.89 2.99
-1.53 12.14 -1.94
-5.03 40.06 4.96
-2.14 17.04 -2.11
-4.17 33.21 5.3
-3.39 27 -2.38
-4.27 34.02 -1.8
-4.39 34.97 -0.62
-0.99 8.09 -1.88
-5.58 45.68 2.41
-1.19 9.72 -1.9
-4.09 33.5 2.95
-1.48 12.15 -1.94
-4.91 40.25 4.98
-2.08 17.05 -2.11
-4.18 34.24 5.46
-3.31 27.11 -2.39
-4.11 33.68 -1.78
-4.29 35.12 -0.62
-0.96 8.1 -1.88
-4.2 35.36 1.87
-1.15 9.72 -1.9
-4 33.73 2.97
-1.44 12.15 -1.94
-4.61 38.8 6.19
-3.23 27.18 -2.4
-4.09 35.51 0.62
-0.93 8.1 -1.88
-4.07 35.38 1.87
-1.12 9.71 -1.9
-3.92 34.04 3
-1.4 12.16 -1.94
-1.67 14.49 -1.79
-3.92 34.08 5.43
-3.13 27.21 -2.4
-3.87 33.59 -1.77
-4.09 35.52 -0.62
-4.18 37.44 0.66
-0.91 8.11 -1.88
-3.67 32.84 1.73
-1.08 9.71 -1.9
-1.36 12.16 -1.94
-3.83 34.31 4.24
-1.63 14.6 -1.8
-3.68 33 5.26
-3.04 27.22 -2.4
-3.76 33.71 -1.78
-3.91 36.19 0.64
-0.88 8.1 -1.88
-4.99 46.13 2.43
-1.05 9.72 -1.9
-1.31 12.14 -1.93
-4.48 41.46 5.12
-3.5 32.37 5.16
-2.94 27.23 -2.4
-3.59 33.19 -1.75
-6 57.14 1
-0.85 8.09 -1.88
-3.77 35.91 1.89
-1.02 9.73 -1.9
-3.34 31.79 2.8
-1.27 12.14 -1.93
-3.63 34.61 4.27
-3.62 34.47 5.49
-2.86 27.29 -2.4
-3.56 33.97 -1.79
-3.72 35.46 -0.62
-3.57 35.24 0.62
-0.82 8.09 -1.88
-3.66 36.08 1.9
-0.99 9.73 -1.9
-4.21 41.57 3.66
-1.23 12.15 -1.93
-3.44 33.91 4.18
-1.47 14.52 -1.79
-3.92 38.69 6.16
-2.76 27.26 -2.4
-3.45 33.98 -1.79
-3.53 36.02 0.63
-0.79 8.1 -1.88
-4.08 41.64 2.19
-0.95 9.72 -1.9
-1.19 12.15 -1.93
-1.38 14.07 -1.74
-2.66 27.22 -2.39
-3.34 34.14 -1.8
-3.43 35.07 -0.62
-3.94 41.75 0.73
-0.76 8.1 -1.88
-3.95 41.91 2.21
-0.92 9.72 -1.9
-3.92 41.5 3.65
-1.14 12.13 -1.93
-3.69 39.06 4.82
-1.35 14.33 -1.77
-4.37 46.29 7.36
-2.58 27.31 -2.4
-3.24 34.32 -1.81
-3.3 35.03 -0.61
-3.3 36.36 0.64
-0.74 8.1 -1.88
-0.88 9.73 -1.9
-3.07 33.75 2.96
-1.1 12.12 -1.93
-3.12 34.38 4.24
-1.33 14.67 -1.81
-3.54 39 6.2
-2.48 27.32 -2.4
-3.3 36.36 7.1
-3.13 34.49 -1.82
-3.28 36.16 -0.63
-3.16 36.22 0.63
-0.71 8.1 -1.88
-3.08 35.26 1.85
-0.85 9.73 -1.9
-1.06 12.13 -1.93
-1.25 14.29 -1.76
-3.44 39.37 6.26
-2.39 27.4 -2.41
-3.02 34.61 6.75
-3.01 34.49 -1.81
-3.18 36.47 -0.64
-3.05 36.35 0.64
-0.68 8.1 -1.88
-2.93 34.95 1.84
-0.82 9.73 -1.9
-2.9 34.6 3.04
-1.02 12.13 -1.93
-2.88 34.35 4.23
-1.22 14.5 -1.79
-3.1 37.01 5.88
-2.96 35.27 6.88
-2.89 34.48 -1.81
-3.03 36.13 -0.63
-2.92 36.4 0.64
-0.65 8.1 -1.88
-2.81 34.98 1.84
-0.78 9.72 -1.9
-2.79 34.77 3.05
-0.97 12.13 -1.93
-2.76 34.36 4.23
-2.94 36.61 5.82
-2.92 36.39 7.1
-2.77 34.56 -1.82
-2.87 35.71 -0.63
-2.74 35.65 0.62
-0.62 8.1 -1.88
-0.75 9.72 -1.9
-2.67 34.81 3.05
-0.93 12.12 -1.93
-2.8 36.48 4.49
-3.06 39.92 6.34
-2.69 34.98 6.82
-2.66 34.66 -1.82
-2.8 36.48 8.45
-2.58 35.26 0.62
-0.59 8.1 -1.87
-0.71 9.73 -1.9
-2.56 34.94 3.06
-0.89 12.11 -1.92
-2.67 36.51 4.49
-2.66 36.27 5.76
-2.04 27.78 -2.44
-2.72 37.14 7.24
-2.56 34.89 -1.83
-2.65 36.2 8.38
-2.63 35.91 -0.63
-2.46 35.24 0.62
-0.57 8.1 -1.87
-2.47 35.25 1.85
-0.68 9.73 -1.9
-2.55 36.48 3.2
-0.85 12.11 -1.92
-2.56 36.62 4.51
-2.44 34.92 5.54
-1.94 27.8 -2.44
-2.5 35.78 6.97
-2.45 34.98 -1.84
-2.56 36.66 8.48
-2.51 35.88 -0.63
-0.46 6.95 -1.87
-2.31 34.74 0.61
-0.54 8.1 -1.87
-2.41 36.23 1.9
-0.65 9.73 -1.9
-2.31 34.76 3.05
-0.8 12.12 -1.92
-2.92 43.92 6.97
