# .PCD v0.7 - Point Cloud Data file format
VERSION 0.7
FIELDS x y z
SIZE 4 4 4
TYPE F F F
COUNT 1 1 1
WIDTH 2898
HEIGHT 1
VIEWPOINT 0 0 0 1 0 0 0
POINTS 2898
DATA ascii
-16.8 31.41 4.37
-4.89 9.14 -1.27
-12.79 23.91 4.29
-4.87 9.1 -0.9
-16.81 31.42 -0.62
-16.72 31.52 0.62
-16.69 31.47 1.87
-4.13 7.78 -1.71
-16.71 31.5 3.12
-5.02 9.47 -1.7
-16.71 31.5 4.38
-4.86 9.17 -1.27
-12.76 24.05 4.31
-4.83 9.12 -0.9
-16.7 31.49 -0.62
-16.63 31.63 0.62
-16.59 31.56 1.87
-4.09 7.78 -1.71
-16.61 31.59 3.12
-4.99 9.48 -1.7
-16.6 31.57 4.38
-4.82 9.18 -1.27
-16.59 31.56 5.65
-4.81 9.15 -0.9
-12.1 23.01 -0.45
-13.17 25.28 0.5
-16.49 31.63 1.87
-4.06 7.79 -1.71
-12.85 24.65 2.43
-4.95 9.5 -1.7
-16.49 31.63 4.38
-4.8 9.21 -1.28
-16.48 31.61 5.65
-4.78 9.16 -0.9
-12.06 23.14 -0.46
-16.42 31.74 0.62
-16.41 31.73 1.87
-4.04 7.81 -1.71
-16.41 31.72 3.12
-4.93 9.53 -1.7
-12.45 24.07 3.33
-4.77 9.23 -1.28
-16.39 31.69 5.65
-4.75 9.18 -0.9
-16.39 31.7 -0.62
-11.95 23.3 0.46
-16.31 31.8 1.87
-4.01 7.82 -1.71
-16.31 31.79 3.13
-4.89 9.54 -1.7
-16.3 31.78 4.39
-4.75 9.26 -1.28
-16.29 31.77 5.66
-4.72 9.21 -0.91
-16.3 31.78 -0.62
-11.76 23.13 0.45
-16.19 31.86 1.87
-3.98 7.84 -1.71
-16.2 31.87 3.13
-4.86 9.56 -1.7
-16.19 31.85 4.39
-4.71 9.28 -1.28
-4.69 9.24 -0.91
-6.32 12.43 -0.24
-16.09 31.95 0.62
-16.09 31.93 1.87
-3.96 7.86 -1.71
-16.1 31.95 3.13
-4.82 9.57 -1.7
-16.09 31.94 4.39
-4.69 9.3 -1.28
-16.08 31.93 5.66
-4.66 9.26 -0.91
-6.22 12.34 -0.24
-11.87 23.76 0.46
-11.82 23.66 1.39
-3.93 7.86 -1.71
-16 32.02 3.13
-4.79 9.6 -1.7
-16 32.02 4.39
-4.66 9.32 -1.28
-15.98 31.98 5.66
-4.64 9.28 -0.91
-6.13 12.27 -0.24
-11.68 23.58 0.46
-11.69 23.59 1.38
-3.9 7.88 -1.71
-15.89 32.09 3.13
-4.76 9.61 -1.7
-15.89 32.09 4.4
-4.63 9.35 -1.28
-15.89 32.09 5.67
-4.61 9.3 -0.91
-5.28 10.66 -0.62
-6.06 12.24 -0.24
-11.75 23.93 0.47
-15.81 32.18 1.88
-3.88 7.9 -1.71
-11.97 24.36 2.37
-4.72 9.62 -1.7
-15.8 32.16 4.4
-4.61 9.38 -1.28
-15.79 32.14 5.67
-4.58 9.32 -0.91
-5.24 10.66 -0.62
-6 12.22 -0.24
-11.61 23.84 0.46
-15.69 32.22 1.88
-3.85 7.91 -1.71
-15.7 32.26 3.14
-4.69 9.64 -1.7
-15.69 32.22 4.4
-4.57 9.39 -1.28
-15.71 32.27 5.68
-4.55 9.35 -0.91
-5.2 10.67 -0.62
-5.95 12.23 -0.24
-15.6 32.33 0.63
-15.58 32.29 1.88
-3.83 7.93 -1.71
-15.61 32.34 3.14
-4.66 9.66 -1.7
-15.59 32.3 4.4
-4.54 9.41 -1.28
-15.6 32.32 5.68
-4.53 9.38 -0.91
-5.9 12.22 -0.24
-11.48 24 0.46
-15.48 32.37 1.88
-3.79 7.92 -1.71
-15.5 32.41 3.14
-4.63 9.68 -1.7
-15.48 32.38 4.41
-4.51 9.44 -1.28
-15.48 32.37 5.68
-4.49 9.4 -0.91
-4.58 9.57 -0.56
-5.86 12.24 -0.24
-11.27 23.79 0.46
-15.39 32.48 1.88
-3.77 7.94 -1.71
-15.39 32.48 3.14
-4.59 9.69 -1.7
-15.39 32.47 4.41
-4.48 9.46 -1.28
-15.38 32.44 5.69
-4.46 9.41 -0.91
-4.55 9.59 -0.56
-5.81 12.26 -0.24
-11.1 23.64 0.46
-15.29 32.54 1.88
-3.74 7.97 -1.71
-15.29 32.56 3.15
-4.56 9.7 -1.7
-15.28 32.53 4.41
-4.46 9.49 -1.29
-4.44 9.45 -0.91
-4.53 9.64 -0.56
-10.97 23.58 0.45
-15.19 32.63 1.89
-3.71 7.97 -1.71
-15.19 32.64 3.15
-4.52 9.71 -1.7
-15.18 32.62 4.42
-4.42 9.5 -1.29
-15.18 32.61 5.7
-4.41 9.47 -0.91
-4.49 9.64 -0.56
-10.92 23.68 0.46
-11.4 24.72 1.43
-3.68 7.99 -1.71
-15.09 32.72 3.15
-4.49 9.74 -1.7
-15.08 32.69 4.42
-4.39 9.52 -1.29
-15.07 32.68 5.7
-4.38 9.5 -0.92
-4.46 9.66 -0.56
-11.22 24.53 0.47
-11.26 24.63 1.42
-3.65 7.99 -1.71
-15 32.81 3.16
-4.46 9.76 -1.7
-11.55 25.27 3.41
-4.36 9.54 -1.29
-14.97 32.74 5.7
-4.35 9.51 -0.91
-4.48 9.79 -0.56
-14.88 32.85 0.63
-11.18 24.68 1.42
-3.63 8 -1.71
-12.07 26.64 2.56
-4.43 9.77 -1.7
-14.89 32.87 4.43
-4.34 9.58 -1.29
-11.54 25.48 4.43
-4.3 9.49 -0.91
-4.53 10 -0.58
-10.87 24.24 0.46
-14.77 32.92 1.89
-3.6 8.02 -1.71
-14.79 32.98 3.16
-4.39 9.78 -1.7
-14.77 32.93 4.43
-4.31 9.61 -1.29
-14.77 32.92 5.72
-4.27 9.51 -0.91
-10.77 24.25 0.46
-14.68 33.04 1.89
-3.57 8.04 -1.71
-11.41 25.66 2.46
-4.36 9.8 -1.7
-14.66 32.99 4.43
-4.28 9.63 -1.29
-11.38 25.62 4.44
-4.24 9.55 -0.91
-10.45 23.72 0.45
-14.57 33.09 1.89
-3.55 8.05 -1.71
-14.58 33.1 3.16
-4.32 9.82 -1.7
-14.57 33.08 4.44
-4.25 9.65 -1.3
-11.3 25.65 4.44
-4.23 9.6 -0.92
-7.32 16.77 0.32
-10.63 24.37 1.39
-3.51 8.05 -1.71
-10.97 25.14 2.4
-4.29 9.84 -1.7
-14.46 33.15 4.44
-4.23 9.69 -1.3
-14.45 33.12 5.72
-4.2 9.63 -0.92
-14.36 33.24 0.63
-14.36 33.22 1.9
-3.49 8.07 -1.71
-14.37 33.26 3.17
-4.26 9.85 -1.7
-14.37 33.25 4.45
-4.19 9.7 -1.3
-14.34 33.2 5.73
-4.17 9.66 -0.92
-11.17 26.1 0.5
-10.4 24.3 1.39
-3.46 8.09 -1.71
-10.88 25.41 2.42
-4.21 9.85 -1.7
-10.9 25.47 3.4
-4.16 9.72 -1.3
-10.87 25.39 4.37
-4.14 9.67 -0.92
-5.38 12.57 -0.24
-11.05 26.06 0.49
-10.98 25.9 1.47
-3.43 8.1 -1.71
-10.67 25.17 2.39
-4.19 9.88 -1.7
-10.55 24.89 3.32
-4.13 9.74 -1.3
-10.41 24.56 4.22
-4.11 9.7 -0.92
-5.35 12.62 -0.24
-10.34 24.63 0.47
-11.06 26.36 1.5
-3.4 8.11 -1.71
-10.74 25.59 2.43
-4.15 9.9 -1.7
-10.55 25.14 3.35
-10.32 24.58 4.22
-4.08 9.73 -0.92
-10.74 25.58 5.39
-5.3 12.62 -0.24
-10.22 24.56 0.46
-10.8 25.97 1.47
-3.37 8.11 -1.71
-10.74 25.81 2.45
-4.12 9.9 -1.7
-10.4 24.99 3.32
-4.09 9.84 -1.31
-10.66 25.63 4.4
-4.06 9.75 -0.92
-5.28 12.69 -0.24
-10.08 24.46 0.46
-13.85 33.62 1.91
-3.35 8.12 -1.71
-10.49 25.46 2.41
-4.09 9.92 -1.7
-13.88 33.68 4.47
-4.03 9.79 -1.3
-10.45 25.37 4.35
-4.02 9.77 -0.92
-5.27 12.79 -0.24
-10 24.53 0.46
-13.75 33.72 1.91
-3.32 8.14 -1.71
-10.89 26.69 2.52
-4.05 9.92 -1.7
-13.76 33.74 4.47
-3.99 9.77 -1.3
-10.29 25.22 4.31
-3.99 9.79 -0.93
-10.32 25.3 5.31
-5.25 12.88 -0.24
-10.64 26.34 0.5
-10.55 26.12 1.48
-3.29 8.15 -1.71
-10.78 26.7 2.52
-4.01 9.93 -1.7
-13.65 33.8 4.48
-3.95 9.79 -1.3
-13.63 33.75 5.76
-3.97 9.83 -0.93
-5.26 13.01 -0.24
-9.77 24.44 0.46
-13.54 33.87 1.91
-3.26 8.17 -1.71
-9.85 24.63 2.32
-3.97 9.94 -1.7
-10.68 26.71 3.53
-3.92 9.81 -1.3
-13.53 33.84 5.77
-3.94 9.86 -0.93
-9.76 24.65 0.46
-13.43 33.94 1.91
-3.23 8.17 -1.71
-10.34 26.13 2.46
-3.92 9.91 -1.69
-10.21 25.81 3.41
-3.9 9.86 -1.3
-10.11 25.54 4.35
-3.91 9.88 -0.93
-9.65 24.63 0.46
-9.96 25.42 1.43
-3.2 8.18 -1.71
-13.34 34.05 3.2
-3.88 9.91 -1.69
-10.13 25.86 3.41
-3.91 9.98 -1.32
-13.32 33.99 5.78
-3.88 9.9 -0.93
-10.3 26.3 -0.49
-9.61 24.79 0.46
-9.87 25.47 1.43
-3.18 8.2 -1.71
-10.06 25.94 2.43
-3.85 9.93 -1.69
-13.2 34.05 4.48
-3.85 9.92 -1.31
-13.2 34.06 5.78
-3.85 9.94 -0.93
-9.53 24.58 -0.46
-9.52 24.79 0.46
-13.11 34.15 1.92
-3.16 8.22 -1.71
-10.09 26.29 2.46
-3.83 9.97 -1.69
-9.94 25.91 3.41
-3.84 10 -1.31
-10.42 27.14 4.6
-3.82 9.96 -0.93
-9.45 24.62 -0.46
-9.54 25.11 0.47
-13.02 34.29 1.92
-3.12 8.22 -1.71
-9.76 25.69 2.4
-3.81 10.02 -1.7
-12.97 34.15 4.49
-3.79 9.99 -1.31
-9.84 25.91 4.39
-3.8 9.99 -0.94
-9.36 24.63 -0.46
-9.51 25.31 0.47
-12.9 34.31 1.92
-3.09 8.22 -1.71
-9.54 25.39 2.37
-3.77 10.03 -1.7
-12.86 34.22 4.49
-3.8 10.1 -1.32
-9.62 25.59 4.33
-3.77 10.02 -0.94
-12.9 34.31 -0.64
-9.41 25.31 0.47
-12.79 34.4 1.92
-3.06 8.23 -1.71
-9.55 25.68 2.4
-3.73 10.04 -1.7
-12.76 34.3 4.49
-3.74 10.06 -1.32
-12.8 34.41 5.81
-3.73 10.04 -0.94
-9.72 26.13 5.42
-9.3 25.02 -0.47
-9.3 25.26 0.47
-12.68 34.47 1.92
-3.03 8.25 -1.71
-9.45 25.69 2.39
-3.7 10.06 -1.7
-12.65 34.37 4.5
-3.72 10.12 -1.32
-9.46 25.7 4.34
-3.71 10.07 -0.94
-9.7 26.38 5.46
-9.12 24.79 -0.46
-9.5 26.11 0.48
-9.72 26.7 1.49
-3.01 8.26 -1.71
-9.45 25.97 2.42
-3.67 10.07 -1.7
-12.53 34.43 4.5
-3.7 10.16 -1.33
-12.57 34.53 5.82
-3.68 10.1 -0.94
-9.08 24.95 -0.46
-9.38 26.05 0.48
-12.47 34.64 1.93
-2.98 8.28 -1.71
-12.5 34.72 3.23
-3.63 10.09 -1.7
-12.43 34.52 4.51
-3.69 10.26 -1.34
-12.46 34.6 5.82
-3.66 10.15 -0.94
-9.03 25.08 -0.47
-12.36 34.72 0.64
-9.45 26.53 1.48
-2.95 8.27 -1.71
-9.33 26.21 2.43
-3.6 10.1 -1.7
-12.32 34.61 4.51
-3.63 10.18 -1.33
-12.35 34.69 5.83
-3.63 10.2 -0.95
-9.7 27.23 -0.5
-9.11 25.86 0.48
-12.26 34.81 1.93
-2.92 8.29 -1.71
-9.47 26.9 2.49
-3.56 10.11 -1.7
-12.21 34.68 4.51
-3.59 10.19 -1.33
-12.24 34.77 5.84
-3.61 10.25 -0.95
-12.27 34.83 -0.64
-8.89 25.53 0.47
-12.15 34.89 1.94
-2.89 8.3 -1.71
-9.25 26.56 2.46
-3.52 10.11 -1.7
-12.11 34.76 4.52
-3.56 10.23 -1.33
-12.13 34.84 5.84
-3.63 10.43 -0.97
-8.76 25.14 -0.46
-12.05 34.97 0.65
-12.04 34.95 1.94
-2.87 8.33 -1.71
-9.08 26.36 2.44
-3.49 10.12 -1.7
-12 34.83 4.52
-3.54 10.28 -1.33
-12.03 34.92 5.85
-3.61 10.48 -0.97
-9.02 26.19 5.39
-8.68 25.2 -0.47
-8.68 25.5 0.47
-11.93 35.02 1.94
-2.84 8.33 -1.71
-3.46 10.15 -1.7
-11.9 34.93 4.53
-3.52 10.33 -1.34
-11.93 35.04 5.86
-4.42 12.96 -1.2
-8.94 26.23 5.39
-8.64 25.36 -0.47
-11.82 35.12 0.65
-11.82 35.1 1.94
-2.8 8.33 -1.71
-3.42 10.14 -1.7
-11.79 35 4.54
-3.54 10.5 -1.36
-11.82 35.09 5.87
-4.35 12.91 -1.19
-8.81 26.17 5.37
-8.59 25.51 -0.47
-8.52 25.61 0.47
-11.71 35.19 1.94
-2.77 8.33 -1.71
-3.38 10.17 -1.7
-11.68 35.09 4.54
-4.4 13.22 -1.71
-11.71 35.18 -0.65
-11.6 35.25 0.65
-11.61 35.28 1.95
-2.75 8.35 -1.71
-11.65 35.43 3.26
-3.34 10.16 -1.69
-11.57 35.16 4.54
-4.36 13.24 -1.71
-11.6 35.25 5.88
-4.23 12.87 -1.19
-8.36 25.4 -0.47
-11.49 35.34 0.65
-11.49 35.34 1.95
-2.72 8.36 -1.71
-11.51 35.41 3.26
-3.31 10.17 -1.69
-11.46 35.25 4.55
-4.31 13.26 -1.71
-11.49 35.34 5.89
-11.5 35.38 -0.65
-8.29 25.8 0.47
-11.39 35.42 1.95
-2.69 8.37 -1.71
-3.28 10.19 -1.7
-11.36 35.33 4.56
-4.27 13.27 -1.71
-11.38 35.42 5.89
-4.18 12.99 -1.19
-4.19 13.02 -0.72
-8.31 25.84 -0.47
-8.38 26.4 0.48
-11.28 35.5 1.95
-2.66 8.37 -1.71
-3.24 10.2 -1.69
-11.24 35.4 4.56
-4.22 13.3 -1.71
-11.27 35.49 5.9
-4.14 13.05 -0.72
-11.29 35.55 -0.65
-8.54 27.21 0.5
-11.17 35.61 1.96
-2.63 8.38 -1.71
-11.94 38.05 3.49
-3.21 10.22 -1.7
-11.14 35.49 4.57
-4.18 13.32 -1.71
-11.16 35.58 5.91
-4.11 13.09 -0.72
-8.22 26.21 -0.48
-8.4 27.11 0.5
-11.06 35.68 1.96
-2.6 8.4 -1.71
-3.17 10.22 -1.69
-11.03 35.57 4.57
-4.13 13.34 -1.71
-11.05 35.65 5.91
-4.07 13.13 -0.72
-8.13 26.22 -0.48
-7.97 26.05 0.48
-10.94 35.74 1.96
-2.57 8.41 -1.71
-8.7 28.41 2.6
-3.13 10.24 -1.7
-10.91 35.64 4.58
-4.09 13.35 -1.71
-10.94 35.75 5.92
-4.06 13.27 -0.73
-8 26.15 -0.48
-7.88 26.08 0.48
-8.44 27.91 1.53
-2.54 8.41 -1.71
-8.79 29.09 2.66
-3.1 10.25 -1.7
-10.8 35.72 4.58
-4.04 13.36 -1.71
-10.83 35.83 5.93
-4.02 13.29 -0.73
-7.92 26.2 -0.48
-7.82 26.19 0.48
-7.98 26.72 1.46
-2.51 8.41 -1.71
-3.06 10.27 -1.7
-10.69 35.81 4.59
-3.99 13.38 -1.71
-10.72 35.91 5.94
-5.22 17.49 -0.96
-7.84 26.28 -0.48
-7.73 26.24 0.48
-10.62 36.02 1.97
-2.48 8.42 -1.71
-8.26 28.03 2.56
-3.03 10.28 -1.7
-10.57 35.87 4.59
-3.95 13.4 -1.72
-10.6 35.99 5.94
-5.18 17.57 -0.96
-10.62 36.02 -0.66
-7.83 26.89 0.49
-10.51 36.08 1.97
-2.46 8.44 -1.71
-10.51 36.08 3.29
-2.99 10.28 -1.7
-8.25 28.34 3.62
-3.91 13.42 -1.72
-8.3 28.51 4.7
-4.82 16.53 -1.51
-5.12 17.59 -0.96
-7.96 27.31 -0.5
-8.15 28.35 1.55
-2.43 8.45 -1.71
-7.92 27.56 2.51
-2.96 10.29 -1.7
-8.22 28.58 3.65
-3.86 13.44 -1.72
-8.17 28.41 4.68
-4.75 16.53 -1.5
-5.06 17.59 -0.96
-10.37 36.06 -0.65
-10.31 36.36 0.66
-10.31 36.33 1.98
-2.4 8.45 -1.71
-8.12 28.6 2.6
-2.93 10.31 -1.7
-10.32 36.36 4.64
-3.82 13.45 -1.72
-9.99 35.21 5.8
-4.69 16.55 -1.5
-5.05 17.79 -0.97
-10.31 36.35 -0.66
-7.8 27.86 0.51
-7.97 28.48 1.55
-2.37 8.45 -1.71
-10.21 36.47 3.31
-2.89 10.33 -1.7
-10.21 36.46 4.65
-3.77 13.47 -1.72
-8.12 29.01 4.77
-4.63 16.53 -1.5
-4.99 17.81 -0.97
-10.2 36.44 -0.66
-7.32 26.53 0.48
-7.68 27.84 1.51
-2.34 8.46 -1.71
-7.82 28.35 2.57
-2.85 10.34 -1.7
-10.09 36.54 4.65
-3.72 13.48 -1.72
-4.59 16.64 -1.51
-7.01 25.41 -1.38
-10.09 36.54 -0.66
-7.64 28.05 0.51
-7.62 28 1.52
-2.31 8.48 -1.71
-7.43 27.3 2.48
-2.81 10.34 -1.7
-7.55 27.73 3.53
-3.68 13.5 -1.72
-7.87 28.91 4.75
-4.56 16.75 -1.52
-6.93 25.47 -1.38
-7.48 27.46 -0.5
-9.86 36.69 0.66
-7.71 28.71 1.56
-2.28 8.49 -1.71
-2.78 10.35 -1.7
-9.21 34.27 4.36
-3.63 13.51 -1.72
-7.77 28.91 4.74
-4.53 16.86 -1.53
-6.86 25.51 -1.38
-7.63 28.4 -0.51
-9.03 34.09 0.62
-7.22 27.23 1.48
-2.25 8.49 -1.71
-7.21 27.2 2.46
-2.75 10.37 -1.7
-7.3 27.54 3.5
-3.58 13.52 -1.72
-9.04 34.11 5.59
-4.48 16.9 -1.53
-6.78 25.58 -1.39
-7.58 28.63 -0.52
-7.5 28.74 0.52
-8.93 34.2 1.85
-2.22 8.49 -1.7
-8.95 34.27 3.1
-2.71 10.37 -1.7
-7.23 27.69 3.51
-3.53 13.53 -1.72
-8.93 34.2 5.6
-4.42 16.94 -1.53
-6.69 25.63 -1.39
-7.07 27.07 -0.49
-8.81 34.25 0.62
-8.81 34.26 1.85
-2.19 8.5 -1.71
-8.83 34.32 3.1
-2.67 10.39 -1.7
-8.82 34.28 4.35
-3.49 13.56 -1.72
-8.82 34.29 5.61
-4.37 16.99 -1.53
-6.61 25.7 -1.39
-7.03 27.32 -0.49
-7.14 28.15 0.51
-6.91 27.26 1.47
-2.16 8.51 -1.71
-8.72 34.39 3.1
-2.63 10.37 -1.69
-8.71 34.36 4.35
-3.44 13.57 -1.72
-8.71 34.36 5.61
-3.14 12.37 -1.12
-6.53 25.76 -1.39
-7 27.59 -0.5
-7.02 28.06 0.5
-6.83 27.32 1.48
-2.13 8.52 -1.71
-8.61 34.46 3.11
-2.6 10.38 -1.7
-7.14 28.57 3.62
-3.4 13.58 -1.72
-8.61 34.43 5.62
-3.07 12.26 -1.11
-6.45 25.8 -1.39
-8.6 34.42 -0.62
-6.83 27.72 0.5
-6.71 27.23 1.47
-2.1 8.52 -1.71
-8.51 34.53 3.11
-2.57 10.41 -1.7
-8.5 34.5 4.36
-3.35 13.59 -1.72
-8.5 34.51 5.63
-3 12.18 -1.1
-6.37 25.87 -1.4
-7.03 28.52 -0.51
-8.39 34.58 0.62
-6.52 26.86 1.45
-2.07 8.52 -1.7
-7.03 28.97 2.61
-2.53 10.42 -1.7
-8.4 34.58 4.37
-3.3 13.61 -1.72
-8.39 34.58 5.64
-2.94 12.13 -1.09
-6.29 25.93 -1.4
-6.48 26.69 -0.48
-6.5 27.17 0.49
-8.3 34.7 1.87
-2.04 8.53 -1.7
-6.91 28.87 2.6
-2.49 10.43 -1.7
-8.29 34.68 4.38
-3.26 13.62 -1.72
-8.3 34.69 5.65
-2.89 12.09 -1.09
-2.98 12.44 -0.67
-6.61 27.65 -0.5
-6.39 27.11 0.49
-6.26 26.58 1.43
-2.01 8.55 -1.71
-6.83 29 2.61
-2.46 10.43 -1.7
-8.19 34.75 4.38
-3.21 13.65 -1.72
-8.19 34.76 5.66
-2.84 12.04 -1.08
-2.9 12.31 -0.66
-6.52 27.7 -0.5
-6.28 27.12 0.49
-6.14 26.51 1.43
-1.98 8.55 -1.71
-6.69 28.9 2.6
-2.42 10.44 -1.7
-8.07 34.84 4.39
-2.99 12.9 -1.63
-8.07 34.84 5.66
-2.77 11.97 -1.07
-2.83 12.21 -0.66
-6.53 28.21 -0.51
-6.3 27.63 0.49
-6.43 28.22 1.52
-1.95 8.56 -1.71
-7.96 34.92 3.13
-2.38 10.46 -1.7
-7.96 34.92 4.4
-2.31 10.11 -1.27
-7.97 34.94 5.68
-2.71 11.89 -1.07
-2.76 12.12 -0.65
-6.17 27.06 -0.48
-6.29 27.99 0.5
-7.86 34.99 1.88
-1.92 8.55 -1.7
-7.86 35 3.14
-2.35 10.46 -1.7
-7.86 34.99 4.4
-2.23 9.95 -1.25
-7.86 35.01 5.68
-2.66 11.83 -1.06
-2.71 12.07 -0.65
-6.09 27.09 -0.48
-6.17 27.93 0.5
-7.75 35.06 1.88
-1.89 8.56 -1.7
-7.75 35.06 3.14
-2.31 10.47 -1.7
-7.75 35.07 4.41
-2.18 9.84 -1.24
-7.75 35.08 5.69
-2.65 12.01 -0.64
-6.06 27.43 -0.49
-5.96 27.45 0.49
-7.64 35.15 1.88
-1.86 8.58 -1.71
-7.64 35.15 3.15
-2.28 10.48 -1.7
-7.64 35.14 4.42
-2.12 9.76 -1.23
-7.64 35.15 5.7
-2.18 10.03 -0.9
-2.21 10.15 -0.54
-5.97 27.5 -0.49
-5.96 27.88 0.5
-6.03 28.2 1.51
-1.84 8.59 -1.71
-7.53 35.24 3.15
-2.24 10.49 -1.7
-7.53 35.22 4.42
-2.07 9.67 -1.21
-7.53 35.23 5.71
-2.14 10 -0.89
-2.14 10.01 -0.54
-5.78 27.02 -0.48
-7.41 35.33 0.63
-1.54 7.35 -1.73
-6.22 29.63 1.59
-1.8 8.59 -1.71
-7.42 35.34 3.16
-2.2 10.5 -1.7
-7.41 35.3 4.43
-2.02 9.62 -1.21
-7.41 35.32 5.72
-2.07 9.88 -0.88
-2.08 9.91 -0.53
-2.16 10.28 -0.18
-5.79 28.07 0.5
-7.3 35.39 1.89
-1.77 8.59 -1.7
-7.3 35.41 3.16
-2.17 10.51 -1.7
-7.3 35.39 4.44
-1.97 9.56 -1.2
-7.3 35.4 5.73
-2.02 9.82 -0.88
-2.03 9.83 -0.53
-2.08 10.06 -0.18
-7.19 35.46 0.63
-5.79 28.56 1.53
-1.74 8.6 -1.71
-7.19 35.48 3.17
-2.13 10.51 -1.7
-7.2 35.49 4.45
-1.93 9.52 -1.19
-7.2 35.5 5.74
-1.98 9.75 -0.87
-1.97 9.72 -0.52
-2.02 9.99 -0.18
-7.09 35.58 0.63
-5.68 28.5 1.52
-1.71 8.6 -1.71
-7.09 35.58 3.17
-2.09 10.51 -1.7
-7.09 35.57 4.45
-1.89 9.49 -1.19
-7.09 35.58 5.75
-1.93 9.67 -0.86
-1.92 9.65 -0.52
-1.97 9.89 -0.18
-6.97 35.62 0.63
-5.52 28.23 1.51
-1.69 8.62 -1.71
-6.98 35.66 3.18
-2.06 10.52 -1.7
-6.97 35.63 4.46
-1.85 9.44 -1.18
-6.98 35.66 5.75
-1.88 9.62 -0.86
-1.87 9.58 -0.51
-1.92 9.83 -0.17
-6.86 35.72 0.63
-6.86 35.71 1.91
-1.66 8.62 -1.71
-6.87 35.77 3.19
-2.02 10.53 -1.7
-6.87 35.74 4.47
-1.81 9.4 -1.18
-6.86 35.73 5.76
-1.84 9.57 -0.85
-1.83 9.52 -0.51
-1.87 9.73 -0.17
-6.74 35.79 0.64
-6.74 35.78 1.91
-1.62 8.61 -1.7
-6.75 35.83 3.19
-1.99 10.54 -1.7
-6.75 35.82 4.48
-1.77 9.38 -1.17
-6.75 35.82 5.77
-1.8 9.54 -0.85
-1.79 9.48 -0.51
-1.82 9.68 -0.17
-6.64 35.89 0.64
-6.64 35.92 1.91
-1.59 8.62 -1.7
-6.64 35.91 3.2
-1.95 10.55 -1.7
-6.64 35.9 4.48
-1.73 9.36 -1.17
-6.64 35.9 5.78
-1.75 9.48 -0.84
-1.75 9.45 -0.5
-1.78 9.65 -0.17
-6.51 35.97 0.64
-6.51 35.98 1.92
-1.56 8.63 -1.7
-6.51 35.98 3.2
-1.91 10.55 -1.7
-6.51 35.98 4.49
-1.69 9.36 -1.17
-6.52 36 5.79
-1.7 9.4 -0.84
-1.7 9.42 -0.5
-1.74 9.62 -0.17
-6.4 36.04 0.64
-5.06 28.51 1.52
-1.53 8.64 -1.71
-6.4 36.06 3.2
-1.87 10.56 -1.7
-6.4 36.06 4.5
-1.66 9.35 -1.17
-6.41 36.09 5.81
-1.66 9.34 -0.83
-1.67 9.39 -0.5
-1.7 9.56 -0.17
-6.29 36.14 0.64
-5.1 29.31 1.56
-1.5 8.64 -1.7
-6.29 36.16 3.21
-1.84 10.57 -1.7
-6.29 36.13 4.5
-1.62 9.32 -1.16
-6.29 36.16 5.81
-1.62 9.3 -0.83
-1.62 9.34 -0.5
-1.65 9.49 -0.17
-4.84 28.38 0.5
-6.18 36.22 1.93
-1.47 8.64 -1.7
-6.18 36.23 3.22
-1.8 10.58 -1.7
-6.18 36.24 4.51
-1.58 9.27 -1.15
-6.18 36.24 5.82
-1.58 9.26 -0.82
-1.59 9.31 -0.49
-1.61 9.44 -0.17
-4.85 29.05 0.51
-4.96 29.76 1.58
-1.44 8.64 -1.7
-6.06 36.35 3.22
-1.76 10.58 -1.7
-6.06 36.35 4.53
-1.54 9.24 -1.15
-6.06 36.33 5.83
-1.54 9.21 -0.82
-1.55 9.28 -0.49
-1.57 9.43 -0.17
-5.94 36.35 0.64
-1.2 7.36 -1.72
-5.96 36.47 1.94
-1.41 8.65 -1.7
-5.95 36.41 3.23
-1.73 10.58 -1.7
-5.95 36.4 4.53
-1.5 9.21 -1.15
-5.95 36.41 5.84
-1.51 9.22 -0.82
-1.51 9.26 -0.49
-1.53 9.36 -0.17
-4.59 28.66 0.51
-1.17 7.34 -1.72
-5.83 36.47 1.94
-1.39 8.66 -1.7
-5.84 36.48 3.23
-1.69 10.59 -1.7
-5.84 36.5 4.54
-1.47 9.19 -1.14
-5.84 36.5 5.85
-1.48 9.23 -0.82
-1.48 9.23 -0.49
-1.5 9.36 -0.17
-4.55 29.03 0.51
-1.15 7.36 -1.72
-5.72 36.56 1.94
-1.36 8.67 -1.71
-4.6 29.36 2.6
-1.66 10.6 -1.7
-5.73 36.6 4.55
-1.44 9.17 -1.14
-5.73 36.58 5.87
-1.44 9.19 -0.81
-1.44 9.21 -0.49
-1.46 9.31 -0.16
-4.68 30.66 0.54
-1.12 7.37 -1.72
-5.6 36.68 1.94
-1.32 8.66 -1.7
-5.6 36.71 3.25
-1.62 10.61 -1.7
-5.6 36.68 4.56
-1.4 9.18 -1.14
-4.7 30.76 4.93
-1.4 9.16 -0.81
-1.41 9.22 -0.49
-1.42 9.29 -0.16
-5.49 36.77 0.65
-1.1 7.37 -1.72
-4.52 30.3 1.61
-1.29 8.67 -1.7
-5.49 36.77 3.25
-1.58 10.61 -1.7
-4.44 29.74 3.69
-1.37 9.18 -1.14
-4.66 31.23 5
-1.37 9.17 -0.81
-1.38 9.24 -0.49
-1.39 9.29 -0.16
-4.03 27.73 0.49
-1.07 7.36 -1.72
-4.18 28.72 1.52
-1.26 8.68 -1.7
-4.35 29.91 2.64
-1.54 10.61 -1.7
-4.32 29.7 3.69
-1.34 9.19 -1.14
-5.37 36.87 5.9
-1.33 9.17 -0.81
-1.34 9.22 -0.49
-1.35 9.3 -0.16
-3.94 27.75 0.49
-1.05 7.36 -1.72
-4.21 29.65 1.57
-1.24 8.69 -1.71
-1.51 10.61 -1.7
-5.25 36.95 4.58
-1.31 9.21 -1.14
-5.25 36.93 5.91
-1.31 9.18 -0.81
-1.31 9.23 -0.49
-1.33 9.32 -0.16
-3.86 27.86 0.49
-1.02 7.35 -1.71
-4.12 29.74 1.57
-1.2 8.68 -1.7
-4.1 29.6 2.61
-1.47 10.61 -1.7
-5.13 37.04 4.59
-1.28 9.22 -1.14
-5.12 37.01 5.92
-1.28 9.22 -0.81
-1.28 9.24 -0.49
-1.29 9.34 -0.16
-3.77 27.92 0.49
-1 7.37 -1.72
-4.07 30.14 1.59
-1.17 8.68 -1.7
-4 29.65 2.62
-1.43 10.62 -1.7
-5.01 37.11 4.6
-1.25 9.25 -1.15
-5.01 37.12 5.93
-1.25 9.22 -0.81
-1.25 9.27 -0.49
-1.26 9.35 -0.16
-3.67 27.98 0.49
-0.97 7.38 -1.72
-3.93 29.93 1.58
-1.14 8.69 -1.7
-3.93 29.92 2.64
-1.39 10.62 -1.7
-3.86 29.41 3.64
-1.22 9.26 -1.15
-4.88 37.19 5.94
-1.21 9.24 -0.82
-1.22 9.29 -0.49
-1.23 9.36 -0.16
-3.58 28.02 0.49
-0.94 7.38 -1.72
-4.76 37.24 1.97
-1.11 8.7 -1.71
-4.07 31.84 2.81
-1.36 10.61 -1.69
-3.8 29.67 3.67
-1.19 9.29 -1.15
-4.77 37.27 5.95
-1.18 9.25 -0.82
-1.19 9.3 -0.49
-1.2 9.39 -0.17
-0.92 7.37 -1.71
-4.65 37.38 1.97
-1.08 8.71 -1.71
-3.96 31.87 2.81
-1.32 10.62 -1.69
-3.7 29.71 3.68
-1.16 9.3 -1.15
-5 40.17 6.41
-1.15 9.28 -0.82
-1.16 9.31 -0.49
-3.4 28.11 0.49
-0.89 7.39 -1.72
-3.54 29.24 1.54
-1.05 8.72 -1.71
-3.99 32.99 2.91
-1.29 10.63 -1.7
-4.88 40.3 4.98
-1.12 9.29 -1.15
-4.87 40.26 6.42
-1.13 9.3 -0.82
-0.87 7.41 -1.72
-4.41 37.58 1.98
-1.02 8.71 -1.7
-3.5 29.88 2.63
-1.25 10.64 -1.7
-3.54 30.14 3.73
-1.09 9.3 -1.15
-4.73 40.34 6.43
-1.09 9.31 -0.82
-1.13 9.88 0.17
-0.84 7.39 -1.72
-4.29 37.67 1.99
-0.99 8.71 -1.7
-4.61 40.47 3.56
-1.08 9.47 -1.51
-3.57 31.29 3.87
-1.06 9.33 -1.15
-4.61 40.43 6.44
-1.06 9.34 -0.82
-0.82 7.4 -1.72
-3.26 29.5 1.56
-0.96 8.72 -1.7
-3.44 31.16 2.74
-1.04 9.41 -1.5
-4.48 40.58 5.01
-4.47 40.52 6.46
-1.03 9.36 -0.82
-1.06 9.89 0.17
-0.79 7.39 -1.72
-3.16 29.48 1.55
-0.93 8.73 -1.71
-4.35 40.66 3.58
-1 9.37 -1.49
-4.35 40.68 5.02
-1.02 9.54 -1.18
-4.35 40.61 6.47
-1 9.37 -0.82
-1.02 9.89 0.17
-0.76 7.4 -1.72
-3.92 37.9 2
-0.9 8.73 -1.71
-3.4 32.93 2.9
-0.97 9.38 -1.49
-4.22 40.8 5.04
-0.98 9.47 -1.17
-4.21 40.71 6.48
-0.97 9.4 -0.83
-0.99 9.89 0.17
-0.74 7.4 -1.72
-3.26 32.58 1.72
-0.87 8.73 -1.7
-4.09 40.89 3.6
-0.94 9.39 -1.49
-4.09 40.86 5.04
-0.94 9.44 -1.17
-4.08 40.82 6.5
-0.94 9.42 -0.83
-0.71 7.41 -1.72
-3.67 38.1 2.01
-0.84 8.72 -1.7
-3.94 40.97 3.6
-0.91 9.41 -1.5
-3.95 40.98 5.05
-0.91 9.45 -1.17
-3.94 40.92 6.51
-0.91 9.42 -0.83
-0.92 9.9 0.17
-0.69 7.41 -1.72
-3.55 38.18 2.01
-0.81 8.73 -1.7
-3.82 41.07 3.61
-0.88 9.42 -1.5
-3.81 41.04 5.06
-0.88 9.47 -1.17
-3.81 41.02 6.52
-0.88 9.44 -0.83
-0.66 7.4 -1.71
-3.42 38.27 2.01
-0.78 8.74 -1.7
-3.68 41.15 3.61
-0.85 9.54 -1.52
-3.68 41.16 5.07
-0.85 9.49 -1.17
-3.68 41.13 6.54
-0.85 9.46 -0.83
-0.64 7.41 -1.72
-2.81 32.63 1.72
-0.75 8.73 -1.7
-3.55 41.27 3.62
-0.81 9.45 -1.5
-3.55 41.25 5.08
-0.82 9.49 -1.17
-3.55 41.23 6.55
-0.82 9.48 -0.83
-0.61 7.41 -1.72
-2.58 31.32 1.65
-0.72 8.73 -1.7
-3.41 41.36 3.63
-0.78 9.5 -1.51
-3.41 41.36 5.1
-0.58 7.41 -1.72
-3.05 38.56 2.03
-0.69 8.73 -1.7
-3.27 41.45 3.64
-0.75 9.53 -1.51
-3.28 41.48 5.11
-0.56 7.4 -1.71
-2.5 33.09 1.74
-0.66 8.74 -1.7
-3.14 41.57 3.65
-0.72 9.53 -1.51
-3.14 41.58 5.12
-0.53 7.41 -1.72
-2.28 31.64 1.66
-0.63 8.75 -1.71
-3 41.67 3.65
-0.69 9.58 -1.52
-3.01 41.67 5.13
-0.69 9.57 -0.84
-0.44 6.47 -1.74
-0.51 7.42 -1.72
-2.66 38.84 2.04
-0.6 8.74 -1.7
-2.86 41.79 3.66
-0.66 9.57 -1.52
-2.86 41.77 5.14
-0.66 9.61 -0.84
-0.42 6.44 -1.73
-0.48 7.44 -1.72
-2.53 38.93 2.04
-0.57 8.74 -1.7
-2.73 41.9 3.67
-0.63 9.63 -1.53
-2.73 41.87 5.15
-0.63 9.62 -0.84
-0.4 6.44 -1.73
-0.46 7.43 -1.72
-2.4 39.06 2.05
-0.54 8.75 -1.7
-2.58 41.98 3.68
-0.59 9.63 -1.53
-2.58 41.98 5.16
-0.37 6.45 -1.73
-0.43 7.42 -1.72
-1.86 32.09 1.68
-0.51 8.75 -1.7
-2.45 42.11 3.69
-0.56 9.64 -1.53
-2.44 42.07 5.17
-0.58 9.92 -1.22
-0.35 6.46 -1.73
-0.41 7.41 -1.71
-1.72 31.43 1.65
-0.48 8.77 -1.71
-2.31 42.21 3.7
-0.53 9.7 -1.54
-2.31 42.18 5.19
-0.54 9.87 -1.21
-0.33 6.46 -1.73
-0.38 7.43 -1.72
-2.02 39.32 2.06
-0.45 8.77 -1.71
-1.57 30.68 2.69
-0.55 10.71 -1.7
-2.17 42.3 5.2
-0.5 9.79 -1.2
-0.31 6.45 -1.73
-1.46 30.56 0.53
-0.35 7.43 -1.72
-1.52 31.98 1.68
-0.42 8.76 -1.7
-1.46 30.55 2.68
-0.51 10.72 -1.7
-2.02 42.4 5.21
-0.46 9.74 -1.2
-0.29 6.45 -1.73
-1.34 30.36 0.53
-0.33 7.44 -1.72
-1.75 39.52 2.07
-0.39 8.76 -1.7
-1.88 42.53 3.72
-0.47 10.71 -1.7
-1.88 42.5 5.22
-0.43 9.75 -1.2
-0.43 9.76 -0.85
-0.26 6.46 -1.73
-1.28 31.33 0.55
-0.3 7.43 -1.72
-1.62 39.62 2.08
-0.36 8.77 -1.71
-1.74 42.6 3.73
-0.44 10.71 -1.7
-1.74 42.58 5.23
-0.4 9.8 -1.2
-0.4 9.78 -0.86
-0.24 6.46 -1.73
-1.15 30.72 0.54
-0.28 7.43 -1.72
-1.49 39.71 2.08
-0.33 8.78 -1.71
-1.6 42.69 3.74
-0.4 10.72 -1.7
-1.6 42.7 5.25
-0.37 9.83 -1.21
-0.37 9.8 -0.86
-0.22 6.47 -1.73
-1.08 31.75 0.55
-0.25 7.43 -1.72
-1.09 32.02 1.68
-0.3 8.78 -1.71
-1.46 42.82 3.75
-0.36 10.72 -1.7
-1.46 42.82 5.26
-0.34 9.84 -1.21
-0.33 9.82 -0.86
-0.34 10.04 -0.18
-0.2 6.46 -1.73
-0.98 32 0.56
-0.23 7.44 -1.72
-1.22 39.89 2.09
-0.27 8.76 -1.7
-1.32 42.93 3.76
-0.33 10.72 -1.7
-1.32 42.93 5.27
-0.3 9.88 -1.21
-0.3 9.85 -0.86
-0.17 6.46 -1.73
-0.86 31.8 0.56
-0.2 7.44 -1.72
-1.08 40.05 2.1
-0.24 8.76 -1.7
-1.16 43.02 3.77
-0.29 10.72 -1.7
-1.16 43.04 5.29
-0.27 9.9 -1.22
-0.26 9.85 -0.86
-0.15 6.45 -1.73
-0.75 31.94 0.56
-0.17 7.44 -1.72
-1.02 43.25 2.27
-0.21 8.76 -1.7
-1.01 43.17 3.78
-0.25 10.72 -1.7
-1.01 43.15 5.3
-0.23 9.91 -1.22
-0.23 9.89 -0.87
-0.13 6.47 -1.73
-0.64 31.95 0.56
-0.15 7.43 -1.72
-0.66 33.02 1.73
-0.18 8.78 -1.71
-0.87 43.26 3.79
-0.22 10.72 -1.7
-0.87 43.23 5.31
-0.2 9.94 -1.22
-0.2 9.91 -0.87
-0.11 6.47 -1.73
-0.54 32.27 0.56
-0.12 7.44 -1.72
-0.72 43.31 2.27
-0.15 8.77 -1.71
-0.72 43.35 3.79
-0.18 10.72 -1.7
-0.72 43.36 5.32
-0.17 9.95 -1.22
-0.17 9.94 -0.87
-0.08 6.47 -1.73
-0.57 43.47 0.76
-0.1 7.45 -1.72
-0.43 33.22 1.74
-0.11 8.76 -1.7
-0.57 43.49 3.81
-0.14 10.73 -1.7
-0.57 43.5 5.34
-0.13 9.99 -1.23
-0.13 9.96 -0.87
-0.06 6.46 -1.73
-0.42 43.54 0.76
-0.07 7.46 -1.72
-0.42 43.55 2.28
-0.08 8.76 -1.7
-0.42 43.58 3.81
-0.1 10.73 -1.7
-0.42 43.61 5.36
-0.1 10.01 -1.23
-0.1 9.97 -0.87
-0.04 6.46 -1.73
-0.27 43.63 0.76
-0.05 7.43 -1.72
-0.22 35.25 1.85
-0.06 8.76 -1.7
-0.22 34.29 3
-0.07 10.72 -1.7
-0.27 43.71 5.37
-0.06 10.04 -1.23
-0.06 10 -0.87
-0.02 6.46 -1.73
-0.13 43.77 0.76
-0.02 7.44 -1.72
-0.13 43.81 2.3
-0.03 8.77 -1.71
-0.13 43.82 3.83
-0.03 10.72 -1.7
-0.13 43.8 5.38
-0.03 10.06 -1.24
-0.03 10.03 -0.88
0 6.47 -1.73
0.02 35.31 0.62
0.01 7.44 -1.72
0.03 43.91 2.3
0.01 8.76 -1.7
0.03 43.92 3.84
0.01 10.73 -1.7
0.03 43.87 5.39
0.01 10.08 -1.24
0.01 10.05 -0.88
0.03 6.47 -1.73
0.15 35.23 0.62
0.03 7.44 -1.72
0.18 44.06 2.31
0.04 8.76 -1.7
0.18 44.05 3.85
0.04 10.72 -1.7
0.18 43.99 5.4
0.04 10.1 -1.24
0.04 10.07 -0.88
0.05 6.46 -1.73
0.34 44.15 0.77
0.06 7.44 -1.72
0.27 34.58 1.81
0.07 8.76 -1.7
0.26 34.33 3
0.08 10.73 -1.7
0.34 44.12 5.42
0.08 10.13 -1.24
0.08 10.09 -0.88
0.07 6.46 -1.73
0.39 34.69 0.61
0.08 7.44 -1.72
0.39 35.22 1.85
0.1 8.76 -1.7
0.49 44.29 3.87
0.12 10.72 -1.7
0.49 44.24 5.43
0.11 10.16 -1.25
0.11 10.12 -0.89
0.09 6.46 -1.73
0.51 34.73 0.61
0.11 7.43 -1.72
0.65 44.38 2.33
0.13 8.76 -1.7
0.5 33.94 2.97
0.16 10.73 -1.7
0.65 44.32 5.44
0.15 10.18 -1.25
0.15 10.15 -0.89
0.12 6.47 -1.73
0.63 34.8 0.61
0.13 7.44 -1.72
0.63 34.77 1.82
0.16 8.76 -1.7
0.63 34.59 3.03
0.19 10.72 -1.7
0.81 44.43 5.46
0.18 10.19 -1.25
0.18 10.17 -0.89
0.14 6.46 -1.73
0.74 34.6 0.6
0.16 7.43 -1.72
0.75 34.89 1.83
0.19 8.75 -1.7
0.96 44.67 3.91
0.23 10.73 -1.7
0.96 44.55 5.47
0.22 10.22 -1.26
0.22 10.2 -0.89
0.16 6.46 -1.73
0.88 35.14 0.61
0.19 7.44 -1.72
0.86 34.27 1.8
0.22 8.75 -1.7
1.12 44.73 3.91
0.27 10.73 -1.7
1.12 44.7 5.49
0.26 10.26 -1.26
0.26 10.22 -0.89
0.26 10.38 -0.18
0.18 6.46 -1.73
0.97 34 0.59
0.21 7.44 -1.72
0.93 32.51 1.7
0.25 8.75 -1.7
0.96 33.59 2.94
0.3 10.71 -1.7
1.27 44.8 5.5
0.29 10.29 -1.26
0.29 10.23 -0.9
0.29 10.31 -0.54
0.3 10.42 -0.18
0.21 6.46 -1.73
1.44 44.98 0.79
0.24 7.43 -1.72
1.02 32.01 1.68
0.28 8.76 -1.7
1.07 33.54 2.94
0.34 10.72 -1.7
1.43 44.91 5.52
0.33 10.31 -1.27
0.33 10.27 -0.9
0.33 10.3 -0.54
0.33 10.46 -0.18
0.23 6.46 -1.73
0.26 7.43 -1.72
1.14 32.07 1.68
0.31 8.75 -1.7
1.26 35.44 3.1
0.38 10.72 -1.7
1.6 45.02 5.53
0.37 10.32 -1.27
0.36 10.3 -0.9
0.37 10.34 -0.54
0.37 10.5 -0.18
0.25 6.46 -1.73
1.31 33.53 0.59
0.29 7.43 -1.72
1.33 34.06 1.79
0.34 8.75 -1.7
1.34 34.37 3.01
0.42 10.72 -1.7
1.76 45.14 5.55
0.4 10.35 -1.27
0.4 10.33 -0.9
0.4 10.37 -0.54
0.41 10.56 -0.18
0.27 6.45 -1.73
1.43 33.92 0.59
0.31 7.45 -1.72
1.48 35.13 1.84
0.37 8.74 -1.7
1.42 33.65 2.95
0.45 10.71 -1.7
1.91 45.27 5.56
0.44 10.38 -1.28
0.44 10.35 -0.91
0.44 10.42 -0.55
0.29 6.46 -1.73
1.52 33.38 0.58
0.34 7.43 -1.72
2.07 45.51 2.39
0.4 8.75 -1.7
2.07 45.5 3.98
0.49 10.71 -1.7
2.07 45.37 5.58
0.47 10.41 -1.28
0.47 10.38 -0.91
0.48 10.47 -0.55
0.32 6.46 -1.73
1.64 33.32 0.58
0.36 7.43 -1.72
1.59 32.36 1.7
0.43 8.76 -1.7
1.62 33.1 2.9
0.53 10.71 -1.7
2.23 45.5 5.59
0.51 10.44 -1.28
0.51 10.4 -0.91
0.51 10.47 -0.55
0.34 6.46 -1.73
0.39 7.43 -1.72
1.74 33.1 1.74
0.46 8.75 -1.7
2.4 45.71 4
0.56 10.71 -1.7
2.4 45.63 5.61
0.55 10.45 -1.29
0.55 10.43 -0.91
0.36 6.45 -1.73
2.57 45.78 0.8
0.42 7.43 -1.72
1.83 32.56 1.71
0.49 8.73 -1.7
2.57 45.84 4.02
0.6 10.71 -1.7
2.57 45.75 5.63
0.59 10.49 -1.29
0.59 10.45 -0.92
0.38 6.45 -1.73
2.08 34.98 0.61
0.44 7.43 -1.72
1.94 32.62 1.71
0.52 8.74 -1.7
1.92 32.18 2.82
0.64 10.71 -1.7
2.73 45.89 5.64
0.63 10.52 -1.29
0.62 10.47 -0.92
0.41 6.45 -1.73
0.47 7.44 -1.72
2.05 32.49 1.71
0.55 8.75 -1.7
2.91 46.08 4.04
0.68 10.7 -1.7
2.9 46 5.66
0.67 10.55 -1.3
0.66 10.5 -0.92
0.43 6.45 -1.73
0.49 7.42 -1.72
2.19 32.9 1.73
0.58 8.74 -1.7
3.08 46.21 4.05
0.71 10.7 -1.7
3.07 46.11 5.67
0.7 10.57 -1.3
0.7 10.54 -0.92
0.45 6.45 -1.73
2.39 34.23 0.6
0.52 7.43 -1.72
0.61 8.74 -1.7
3.24 46.34 4.06
0.75 10.7 -1.7
3.23 46.25 5.69
0.74 10.59 -1.3
0.74 10.57 -0.93
0.76 10.84 -0.19
0.47 6.45 -1.73
2.51 34.22 0.6
0.55 7.43 -1.72
2.37 32.29 1.7
0.64 8.73 -1.7
3.41 46.44 4.07
0.79 10.7 -1.7
3.41 46.38 5.71
0.78 10.62 -1.31
0.78 10.59 -0.93
0.79 10.82 -0.19
0.5 6.44 -1.73
2.76 35.89 0.63
0.57 7.43 -1.72
2.51 32.57 1.71
0.67 8.74 -1.7
3.58 46.56 4.09
0.82 10.69 -1.7
3.58 46.51 5.73
0.82 10.65 -1.31
0.82 10.62 -0.93
0.83 10.83 -0.19
0.52 6.44 -1.73
2.88 35.83 0.63
0.6 7.44 -1.72
2.64 32.76 1.72
0.7 8.73 -1.7
3.76 46.67 4.1
0.86 10.69 -1.7
3.75 46.63 5.74
0.86 10.68 -1.32
0.86 10.63 -0.93
0.88 10.88 -0.19
0.54 6.44 -1.73
3.92 46.74 0.82
0.62 7.41 -1.72
3.94 46.89 2.47
0.73 8.74 -1.71
3.93 46.84 4.11
0.9 10.69 -1.7
3.93 46.77 5.76
0.9 10.71 -1.32
0.9 10.67 -0.94
0.92 10.92 -0.19
0.56 6.45 -1.73
4.1 46.92 0.82
0.65 7.42 -1.72
4.1 46.87 2.47
0.76 8.73 -1.7
4.1 46.94 4.12
0.93 10.68 -1.7
4.1 46.89 5.78
0.94 10.73 -1.32
0.94 10.71 -0.94
0.59 6.44 -1.73
0.67 7.42 -1.72
3.23 35.53 1.87
0.79 8.72 -1.7
4.27 47.04 4.13
0.97 10.69 -1.7
4.27 47.02 5.8
0.98 10.75 -1.33
0.97 10.73 -0.94
0.61 6.43 -1.73
0.7 7.42 -1.72
4.44 47.14 2.48
0.82 8.73 -1.7
4.45 47.21 4.15
1.01 10.68 -1.7
4.45 47.16 5.82
1.02 10.79 -1.33
1.01 10.76 -0.95
0.63 6.43 -1.73
4.63 47.27 0.83
0.73 7.42 -1.72
4.64 47.3 2.49
0.86 8.73 -1.71
4.64 47.33 4.16
1.05 10.67 -1.7
4.64 47.29 5.83
1.06 10.82 -1.33
1.06 10.79 -0.95
0.65 6.43 -1.73
4.81 47.39 0.83
0.75 7.41 -1.72
4.81 47.41 2.5
0.89 8.73 -1.71
4.82 47.47 4.17
1.08 10.67 -1.7
4.81 47.42 5.85
1.1 10.84 -1.34
1.1 10.81 -0.95
0.68 6.44 -1.73
4.99 47.54 0.83
0.78 7.41 -1.72
4.99 47.53 2.5
0.92 8.73 -1.71
5 47.61 4.19
1.12 10.67 -1.7
4.99 47.55 5.87
1.14 10.86 -1.34
1.14 10.86 -0.96
1.14 10.89 -0.57
0.7 6.43 -1.73
5.17 47.7 0.84
0.8 7.4 -1.72
5.17 47.7 2.51
0.94 8.72 -1.7
5.17 47.75 4.2
1.16 10.66 -1.7
5.17 47.69 5.89
1.18 10.9 -1.35
1.18 10.88 -0.96
1.16 10.7 -0.56
0.72 6.42 -1.73
5.36 47.84 0.84
0.83 7.41 -1.72
5.36 47.82 2.52
0.98 8.72 -1.7
5.36 47.87 4.21
1.19 10.66 -1.7
5.36 47.84 5.91
1.22 10.93 -1.35
1.22 10.9 -0.96
1.2 10.71 -0.56
0.74 6.42 -1.73
5.54 47.98 0.84
0.85 7.4 -1.72
5.54 47.97 2.53
1.01 8.72 -1.71
5.54 48.01 4.23
1.23 10.65 -1.7
5.54 47.97 5.93
1.27 10.97 -1.36
1.26 10.95 -0.96
1.24 10.76 -0.57
0.76 6.43 -1.73
5.73 48.16 0.85
0.88 7.4 -1.72
5.72 48.11 2.54
1.04 8.73 -1.71
5.72 48.14 4.24
1.27 10.64 -1.7
5.72 48.08 5.95
1.31 11 -1.36
1.3 10.97 -0.97
1.33 11.16 -0.59
0.79 6.42 -1.73
4.47 36.57 0.64
0.9 7.39 -1.72
5.9 48.24 2.55
1.07 8.71 -1.71
5.91 48.31 4.26
1.3 10.64 -1.7
5.9 48.21 5.96
1.35 11.01 -1.36
1.35 11.01 -0.97
1.37 11.17 -0.59
0.81 6.42 -1.73
6.09 48.37 0.85
0.93 7.4 -1.72
6.1 48.41 2.56
1.1 8.7 -1.71
6.1 48.41 4.27
1.34 10.64 -1.7
6.09 48.37 5.99
1.4 11.08 -1.37
1.39 11.03 -0.97
1.4 11.13 -0.59
0.83 6.4 -1.73
4.81 37.13 0.65
0.96 7.39 -1.72
6.28 48.5 2.56
1.13 8.7 -1.71
6.28 48.53 4.28
1.38 10.63 -1.7
6.28 48.51 6.01
1.44 11.1 -1.37
1.43 11.07 -0.98
1.45 11.19 -0.59
0.85 6.41 -1.73
6.47 48.64 0.86
0.98 7.4 -1.72
6.48 48.66 2.57
1.16 8.7 -1.71
6.48 48.72 4.3
1.41 10.62 -1.7
6.47 48.64 6.03
1.48 11.1 -1.37
1.48 11.09 -0.98
3.26 24.47 -1.29
0.87 6.41 -1.73
4.95 36.25 0.64
1.01 7.39 -1.72
6.66 48.78 2.58
1.19 8.7 -1.71
6.67 48.83 4.31
1.45 10.62 -1.7
6.66 48.79 6.05
1.52 11.13 -1.38
1.52 11.1 -0.98
3.31 24.26 -1.28
0.9 6.41 -1.73
5.1 36.35 0.64
1.03 7.38 -1.72
6.86 48.97 2.59
1.22 8.69 -1.71
6.87 48.99 4.33
1.49 10.62 -1.7
6.86 48.93 6.07
1.57 11.17 -1.39
1.56 11.14 -0.98
3.38 24.13 -1.28
0.92 6.4 -1.73
5.59 38.95 0.69
1.06 7.38 -1.72
1.25 8.68 -1.71
7.06 49.11 4.34
1.52 10.62 -1.7
7.05 49.08 6.09
1.61 11.17 -1.39
1.6 11.16 -0.99
3.45 24.05 -1.27
0.94 6.39 -1.73
3.69 25.02 0.44
1.09 7.39 -1.72
1.28 8.68 -1.71
7.26 49.29 4.36
1.56 10.61 -1.7
7.25 49.21 6.11
1.65 11.22 -1.39
1.67 11.37 -1.01
3.52 23.89 -1.27
0.96 6.39 -1.73
1.11 7.38 -1.72
1.31 8.69 -1.71
7.45 49.39 4.37
1.6 10.59 -1.7
7.44 49.36 6.13
1.7 11.27 -1.4
1.74 11.55 -1.02
3.59 23.81 -1.26
0.99 6.4 -1.73
1.13 7.37 -1.72
5.95 38.61 2.05
1.34 8.69 -1.71
7.65 49.62 4.39
1.63 10.59 -1.7
7.63 49.51 6.15
1.74 11.29 -1.4
1.78 11.54 -1.02
3.66 23.75 -1.26
3.87 25.13 -0.44
1.01 6.4 -1.74
1.16 7.38 -1.72
1.37 8.68 -1.71
7.83 49.67 4.4
1.67 10.59 -1.7
7.83 49.67 6.17
1.78 11.3 -1.4
1.81 11.5 -1.02
3.74 23.71 -1.26
1.03 6.39 -1.74
4.05 25.13 0.44
1.19 7.37 -1.72
8.03 49.8 2.64
1.4 8.68 -1.71
8.05 49.9 4.42
1.71 10.59 -1.7
8.03 49.82 6.2
1.83 11.35 -1.41
1.83 11.36 -1.01
3.81 23.65 -1.26
1.05 6.38 -1.73
1.22 7.38 -1.73
8.23 49.97 2.65
1.43 8.67 -1.71
8.24 50 4.43
1.74 10.58 -1.7
8.23 49.97 6.22
1.88 11.38 -1.42
1.87 11.35 -1.01
3.89 23.63 -1.26
1.08 6.38 -1.73
1.24 7.37 -1.72
6.6 39.22 2.08
1.46 8.66 -1.71
8.46 50.23 4.46
1.78 10.56 -1.7
8.44 50.12 6.24
1.93 11.44 -1.42
1.93 11.45 -1.02
3.97 23.58 -1.25
1.1 6.38 -1.73
6.47 37.62 0.67
1.26 7.34 -1.72
6.8 39.57 2.1
1.49 8.67 -1.71
1.82 10.56 -1.7
8.64 50.27 6.26
1.99 11.55 -1.44
1.98 11.5 -1.02
4.04 23.51 -1.25
1.12 6.38 -1.74
1.29 7.34 -1.72
7.02 40 2.13
1.52 8.66 -1.71
7.05 40.18 3.57
1.85 10.56 -1.7
8.84 50.4 6.28
2.01 11.49 -1.43
2.03 11.57 -1.03
4.12 23.47 -1.25
1.14 6.38 -1.74
7.08 39.56 0.7
1.31 7.34 -1.72
1.55 8.65 -1.71
7.06 39.47 3.51
1.89 10.55 -1.7
9.05 50.56 6.31
3.62 20.23 -1.8
4.19 23.43 -1.25
6.56 36.64 -0.65
1.16 6.36 -1.73
1.34 7.35 -1.72
1.58 8.65 -1.71
1.93 10.55 -1.7
9.28 50.73 6.33
2.53 13.83 -1.73
3.69 20.18 -1.79
4.28 23.4 -1.25
6.69 36.58 -0.65
1.19 6.36 -1.73
1.37 7.34 -1.72
1.61 8.65 -1.71
9.51 50.99 4.54
1.97 10.54 -1.7
9.49 50.88 6.35
2.58 13.84 -1.73
3.76 20.16 -1.79
4.36 23.37 -1.25
6.85 36.71 -0.65
1.21 6.36 -1.74
1.39 7.33 -1.72
1.65 8.65 -1.71
9.71 51.02 4.54
2 10.54 -1.7
9.7 51.02 6.38
2.63 13.82 -1.73
3.83 20.16 -1.8
4.43 23.31 -1.24
7.02 36.88 -0.66
1.23 6.37 -1.74
1.42 7.33 -1.72
1.67 8.64 -1.71
9.93 51.26 4.57
2.04 10.54 -1.7
9.92 51.18 6.4
2.67 13.8 -1.73
3.91 20.16 -1.8
4.52 23.35 -1.25
1.25 6.36 -1.74
1.45 7.33 -1.72
1.7 8.63 -1.71
10.13 51.35 4.58
2.08 10.52 -1.7
10.13 51.35 6.43
2.72 13.79 -1.73
3.97 20.13 -1.79
4.62 23.4 -1.25
1.27 6.35 -1.74
7.82 38.93 0.69
1.47 7.33 -1.73
1.73 8.63 -1.71
10.35 51.55 4.6
2.11 10.52 -1.7
10.35 51.52 6.45
2.77 13.79 -1.73
4.04 20.11 -1.79
4.71 23.47 -1.25
1.3 6.35 -1.74
1.5 7.32 -1.73
1.76 8.62 -1.71
10.58 51.74 4.62
2.15 10.51 -1.7
10.57 51.66 6.47
2.82 13.78 -1.73
4.11 20.1 -1.79
4.8 23.48 -1.26
7.92 38.74 -0.69
1.32 6.35 -1.74
7.95 38.22 0.68
1.52 7.3 -1.72
1.8 8.63 -1.71
2.18 10.48 -1.7
2.87 13.77 -1.73
4.18 20.09 -1.79
4.88 23.43 -1.25
1.34 6.35 -1.74
8.12 38.39 0.68
1.54 7.31 -1.72
1.82 8.62 -1.71
11.01 52.08 4.66
2.22 10.49 -1.7
2.91 13.75 -1.73
4.25 20.08 -1.8
4.95 23.42 -1.25
8.08 38.2 -0.68
1.36 6.34 -1.74
8.38 38.96 0.7
1.57 7.31 -1.73
1.85 8.61 -1.71
2.26 10.49 -1.7
2.95 13.74 -1.73
4.31 20.06 -1.8
5.02 23.36 -1.25
8.35 38.81 -0.69
1.38 6.33 -1.74
1.6 7.3 -1.72
1.88 8.61 -1.71
2.29 10.48 -1.7
3 13.73 -1.73
4.38 20.03 -1.79
5.1 23.33 -1.25
1.41 6.32 -1.74
8.59 38.63 0.69
1.62 7.3 -1.73
1.91 8.61 -1.71
11.71 52.65 4.72
2.33 10.47 -1.7
3.05 13.73 -1.73
4.45 20.03 -1.8
5.19 23.34 -1.25
1.43 6.33 -1.74
1.65 7.28 -1.72
9.12 40.32 2.17
1.95 8.6 -1.71
2.37 10.46 -1.7
3.1 13.71 -1.73
4.53 20.01 -1.8
5.29 23.39 -1.26
8.65 38.24 -0.68
1.45 6.33 -1.74
1.67 7.29 -1.73
1.98 8.6 -1.71
12.17 52.95 4.75
2.4 10.46 -1.7
3.15 13.69 -1.72
4.6 19.99 -1.79
5.38 23.39 -1.26
8.86 38.56 -0.69
1.48 6.32 -1.74
1.7 7.28 -1.73
2 8.58 -1.71
2.44 10.46 -1.7
3.19 13.68 -1.72
4.67 19.98 -1.8
5.47 23.43 -1.26
9.35 40.06 -0.72
1.5 6.31 -1.74
1.73 7.29 -1.73
2.03 8.57 -1.71
2.48 10.45 -1.7
3.24 13.67 -1.72
4.73 19.95 -1.79
5.55 23.42 -1.26
1.52 6.31 -1.74
1.75 7.28 -1.73
2.07 8.58 -1.72
2.51 10.43 -1.7
3.29 13.67 -1.73
4.8 19.95 -1.8
5.61 23.33 -1.26
1.54 6.31 -1.74
1.77 7.26 -1.73
2.1 8.59 -1.72
2.55 10.42 -1.7
3.33 13.65 -1.72
4.87 19.94 -1.8
5.67 23.2 -1.25
9.7 39.7 -0.71
1.57 6.32 -1.74
1.8 7.26 -1.73
2.13 8.58 -1.72
2.58 10.42 -1.7
3.38 13.63 -1.72
4.94 19.92 -1.8
5.72 23.07 -1.25
9.82 39.59 -0.71
1.59 6.3 -1.74
1.83 7.26 -1.73
2.15 8.56 -1.71
11.17 44.39 4
2.62 10.42 -1.7
3.42 13.61 -1.72
5.01 19.91 -1.8
5.77 22.95 -1.24
9.94 39.51 -0.71
1.61 6.3 -1.74
7.04 27.55 0.5
1.85 7.26 -1.73
2.19 8.56 -1.72
13.84 54.18 4.89
2.66 10.4 -1.7
3.48 13.61 -1.72
5.08 19.89 -1.8
5.83 22.81 -1.23
1.63 6.29 -1.74
1.88 7.25 -1.73
2.22 8.57 -1.72
10.93 42.19 3.81
2.69 10.39 -1.7
3.53 13.6 -1.73
5.15 19.88 -1.8
5.89 22.71 -1.23
10.37 40.02 -0.72
1.65 6.29 -1.74
10.6 40.33 0.73
1.9 7.23 -1.73
10.85 41.26 2.24
2.25 8.56 -1.72
2.73 10.38 -1.7
3.57 13.59 -1.73
5.22 19.86 -1.8
5.96 22.68 -1.23
1.68 6.29 -1.74
11.53 43.23 0.78
1.93 7.23 -1.73
2.28 8.56 -1.72
2.77 10.38 -1.7
3.62 13.57 -1.72
5.29 19.85 -1.8
6.05 22.7 -1.23
1.7 6.27 -1.74
1.95 7.23 -1.73
2.3 8.52 -1.72
2.8 10.37 -1.7
3.67 13.57 -1.73
5.36 19.83 -1.8
6.15 22.74 -1.23
9.06 33.5 -0.61
1.72 6.26 -1.74
11.46 41.8 0.76
1.98 7.23 -1.73
2.34 8.52 -1.72
2.84 10.36 -1.7
3.72 13.55 -1.73
5.43 19.79 -1.8
6.24 22.77 -1.24
9.17 33.44 -0.61
1.74 6.26 -1.74
2.01 7.23 -1.73
2.37 8.53 -1.72
2.87 10.34 -1.7
3.76 13.54 -1.73
5.49 19.78 -1.8
6.33 22.8 -1.24
9.29 33.47 -0.61
1.76 6.26 -1.74
2.03 7.21 -1.73
2.4 8.52 -1.72
2.91 10.34 -1.7
3.81 13.53 -1.73
5.56 19.75 -1.8
6.42 22.83 -1.24
9.42 33.47 -0.61
1.78 6.25 -1.74
2.05 7.19 -1.73
2.43 8.51 -1.72
2.95 10.33 -1.7
3.85 13.51 -1.72
5.63 19.73 -1.8
6.53 22.88 -1.25
9.59 33.6 -0.61
1.81 6.25 -1.74
2.08 7.19 -1.73
2.45 8.49 -1.72
2.98 10.33 -1.7
3.9 13.5 -1.73
5.69 19.7 -1.79
6.62 22.9 -1.25
1.83 6.24 -1.74
2.1 7.17 -1.73
2.48 8.48 -1.72
3.02 10.31 -1.7
3.95 13.5 -1.73
5.75 19.67 -1.79
6.71 22.92 -1.25
1.85 6.23 -1.74
2.12 7.16 -1.72
2.51 8.48 -1.72
16.68 56.29 5.14
3.05 10.3 -1.7
4 13.48 -1.73
5.83 19.66 -1.79
6.82 23.01 -1.26
1.87 6.23 -1.74
2.15 7.14 -1.72
2.55 8.48 -1.72
3.09 10.29 -1.7
4.05 13.47 -1.73
5.9 19.63 -1.79
6.91 22.99 -1.26
1.89 6.23 -1.74
12.68 41.69 0.76
2.17 7.14 -1.72
2.58 8.47 -1.72
3.13 10.28 -1.7
4.09 13.45 -1.73
5.96 19.6 -1.79
6.97 22.93 -1.26
1.92 6.22 -1.74
12.78 41.48 0.76
2.2 7.14 -1.72
2.6 8.45 -1.72
3.16 10.27 -1.7
4.14 13.44 -1.73
6.02 19.56 -1.79
7.03 22.81 -1.25
1.94 6.22 -1.74
2.23 7.14 -1.73
2.63 8.44 -1.72
3.2 10.26 -1.7
4.19 13.43 -1.73
6.09 19.52 -1.79
7.1 22.78 -1.25
1.96 6.21 -1.75
2.25 7.13 -1.73
2.66 8.44 -1.72
3.23 10.24 -1.7
4.23 13.42 -1.73
6.15 19.49 -1.79
7.2 22.81 -1.25
1.98 6.21 -1.75
2.27 7.11 -1.72
2.69 8.44 -1.72
3.27 10.24 -1.7
4.28 13.41 -1.73
6.21 19.46 -1.79
7.27 22.75 -1.25
2 6.2 -1.75
2.3 7.11 -1.72
2.72 8.42 -1.72
3.31 10.23 -1.7
4.33 13.38 -1.73
6.28 19.42 -1.79
7.35 22.75 -1.25
2.02 6.19 -1.74
2.33 7.11 -1.73
2.74 8.39 -1.72
3.34 10.22 -1.7
4.37 13.37 -1.73
6.35 19.41 -1.79
7.44 22.76 -1.25
2.04 6.17 -1.74
2.35 7.11 -1.73
2.77 8.39 -1.72
3.38 10.21 -1.7
4.42 13.36 -1.73
6.4 19.36 -1.78
7.52 22.73 -1.25
2.06 6.16 -1.74
2.37 7.1 -1.73
2.81 8.38 -1.72
3.41 10.19 -1.7
4.47 13.35 -1.73
6.47 19.35 -1.78
7.62 22.77 -1.26
2.08 6.15 -1.74
2.4 7.08 -1.73
2.83 8.37 -1.72
3.45 10.19 -1.7
4.51 13.34 -1.73
6.54 19.33 -1.79
7.71 22.78 -1.26
2.11 6.15 -1.74
2.42 7.08 -1.73
2.86 8.36 -1.72
20.13 58.78 5.44
3.48 10.18 -1.7
4.56 13.32 -1.73
6.61 19.31 -1.79
7.8 22.78 -1.26
2.12 6.13 -1.74
2.45 7.08 -1.73
2.89 8.34 -1.72
20.41 58.96 5.46
3.52 10.16 -1.7
4.6 13.3 -1.73
6.67 19.28 -1.78
7.89 22.79 -1.26
2.14 6.12 -1.74
2.48 7.07 -1.73
2.92 8.33 -1.72
20.71 59.2 5.49
3.55 10.15 -1.7
4.65 13.28 -1.73
6.73 19.24 -1.78
7.98 22.81 -1.27
2.16 6.11 -1.74
2.5 7.06 -1.73
2.95 8.33 -1.72
21.02 59.44 5.52
3.59 10.14 -1.7
4.7 13.29 -1.73
6.8 19.22 -1.78
8.08 22.83 -1.27
2.18 6.1 -1.74
2.52 7.05 -1.73
2.98 8.32 -1.72
21.34 59.67 5.54
3.62 10.13 -1.7
4.74 13.27 -1.73
6.86 19.18 -1.78
8.16 22.82 -1.27
2.21 6.1 -1.74
21.61 59.76 1.11
2.55 7.04 -1.73
3 8.3 -1.72
21.67 59.93 5.58
3.66 10.12 -1.7
4.79 13.24 -1.73
6.93 19.15 -1.78
8.25 22.83 -1.27
2.23 6.09 -1.74
2.57 7.04 -1.73
3.03 8.29 -1.72
21.98 60.14 5.6
3.69 10.11 -1.7
4.83 13.22 -1.73
6.99 19.12 -1.78
8.35 22.85 -1.27
2.25 6.07 -1.74
2.6 7.03 -1.73
3.06 8.28 -1.72
22.32 60.36 5.63
3.73 10.1 -1.7
4.88 13.21 -1.73
7.06 19.09 -1.78
8.48 22.94 -1.28
2.27 6.08 -1.74
2.62 7.02 -1.73
3.09 8.28 -1.72
22.63 60.59 5.66
3.76 10.08 -1.7
4.93 13.2 -1.73
7.13 19.07 -1.78
8.61 23.04 -1.29
2.3 6.08 -1.74
2.64 7 -1.73
3.12 8.28 -1.72
22.97 60.85 5.69
3.8 10.07 -1.7
4.97 13.17 -1.73
7.19 19.05 -1.78
8.72 23.11 -1.29
2.31 6.07 -1.74
2.67 7 -1.73
3.15 8.27 -1.72
23.29 61.08 5.72
3.84 10.06 -1.71
5.02 13.15 -1.73
7.26 19.03 -1.78
8.85 23.22 -1.3
2.33 6.06 -1.74
2.69 6.99 -1.73
3.18 8.25 -1.72
23.63 61.33 5.75
3.87 10.06 -1.71
5.06 13.14 -1.73
7.33 19.01 -1.78
13.53 35.13 -1.97
2.35 6.05 -1.74
2.72 6.98 -1.73
3.21 8.25 -1.72
23.96 61.57 5.78
3.91 10.04 -1.71
5.11 13.12 -1.73
7.39 18.99 -1.78
13.68 35.15 -1.98
2.37 6.04 -1.74
18.26 46.46 0.87
2.74 6.97 -1.73
3.24 8.25 -1.72
24.3 61.81 5.81
3.94 10.03 -1.71
5.15 13.11 -1.73
7.47 18.99 -1.79
8.99 22.87 -1.29
18.31 46.59 -0.87
2.4 6.03 -1.74
18.38 46.29 0.87
2.76 6.96 -1.73
3.28 8.25 -1.73
24.65 62.08 5.84
3.97 10.01 -1.71
5.2 13.09 -1.73
7.52 18.94 -1.78
9.06 22.82 -1.29
18.4 46.33 -0.87
2.42 6.02 -1.74
18.53 46.2 0.87
2.79 6.96 -1.73
3.3 8.23 -1.72
25.04 62.43 5.88
4.02 10.02 -1.71
5.24 13.07 -1.73
7.59 18.91 -1.78
9.14 22.78 -1.29
2.44 6.02 -1.74
18.69 46.13 0.87
2.02 4.99 -1.24
3.33 8.22 -1.72
25.36 62.59 5.91
4.05 10 -1.71
5.3 13.08 -1.73
7.65 18.89 -1.78
9.21 22.74 -1.29
19.24 47.48 -0.89
2.45 6 -1.74
18.83 46.01 0.87
2.02 4.94 -1.23
3.36 8.21 -1.72
25.73 62.9 5.95
4.09 10 -1.71
5.34 13.06 -1.73
7.71 18.85 -1.78
9.31 22.75 -1.29
19.46 47.56 -0.9
2.05 4.97 -1.44
18.95 45.88 0.87
2.02 4.9 -1.22
3.39 8.2 -1.72
4.12 9.98 -1.71
5.39 13.06 -1.73
7.78 18.82 -1.78
14.55 35.23 -2
19.75 47.81 -0.9
2.05 4.92 -1.43
19.08 45.73 0.87
2.03 4.86 -1.22
3.42 8.19 -1.72
4.16 9.97 -1.71
5.45 13.06 -1.74
7.84 18.78 -1.78
14.8 35.46 -2.01
20.04 48.01 -0.91
2.05 4.87 -1.42
19.21 45.59 0.86
2.04 4.84 -1.21
3.44 8.17 -1.72
26.89 63.82 6.06
4.2 9.96 -1.71
5.48 13.02 -1.73
7.9 18.76 -1.78
14.93 35.44 -2.02
20.32 48.22 -0.91
2.06 4.84 -1.41
19.34 45.45 0.86
2.05 4.81 -1.21
2.14 5.04 -1.06
4.23 9.95 -1.71
5.53 13.01 -1.74
7.96 18.7 -1.78
15.06 35.39 -2.02
20.6 48.42 -0.92
2.06 4.8 -1.4
19.45 45.28 0.86
2.06 4.79 -1.2
2.15 5.01 -1.06
27.57 64.18 6.11
4.27 9.93 -1.71
5.58 12.98 -1.73
8.01 18.66 -1.78
15.18 35.34 -2.02
20.89 48.63 -0.92
2.07 4.77 -1.39
19.58 45.11 0.86
2.07 4.77 -1.2
2.14 4.94 -1.05
28.01 64.54 6.15
4.3 9.91 -1.71
5.63 12.97 -1.74
8.09 18.65 -1.78
15.33 35.32 -2.02
21.2 48.85 -0.93
2.09 4.77 -1.39
19.7 44.97 0.86
2.07 4.73 -1.19
2.15 4.9 -1.04
4.33 9.9 -1.71
5.67 12.94 -1.74
8.16 18.63 -1.78
15.49 35.37 -2.02
21.5 49.09 -0.94
2.1 4.75 -1.39
19.82 44.82 0.86
2.08 4.71 -1.19
2.15 4.86 -1.03
4.37 9.88 -1.71
5.71 12.91 -1.73
8.23 18.6 -1.78
15.66 35.41 -2.03
21.83 49.35 -0.94
2.1 4.71 -1.38
19.94 44.67 0.85
2.1 4.69 -1.19
2.15 4.82 -1.03
5.75 12.89 -1.73
8.29 18.57 -1.78
2.11 4.69 -1.38
20.04 44.5 0.85
2.1 4.67 -1.18
2.17 4.81 -1.03
2.28 5.07 -0.88
5.8 12.88 -1.73
8.35 18.54 -1.78
16.06 35.67 -2.05
2.12 4.66 -1.37
20.15 44.37 0.85
2.11 4.65 -1.18
2.18 4.79 -1.02
2.29 5.04 -0.88
5.84 12.87 -1.74
8.41 18.51 -1.78
9.06 19.95 -1.15
2.13 4.63 -1.37
20.29 44.2 0.85
2.12 4.62 -1.17
2.18 4.74 -1.01
2.3 5.01 -0.87
5.89 12.84 -1.73
8.48 18.48 -1.78
9.11 19.85 -1.14
2.14 4.62 -1.37
20.4 44.07 0.85
2.13 4.61 -1.17
2.18 4.72 -1.01
2.3 4.96 -0.87
5.94 12.84 -1.74
8.54 18.46 -1.78
9.11 19.67 -1.14
2.15 4.59 -1.36
20.51 43.9 0.85
2.14 4.59 -1.17
2.19 4.69 -1.01
2.32 4.96 -0.87
5.98 12.8 -1.74
8.61 18.42 -1.78
9.17 19.62 -1.14
2.13 4.53 -1.34
20.62 43.77 0.84
2.16 4.58 -1.17
2.2 4.68 -1.01
2.33 4.94 -0.87
6.02 12.78 -1.74
8.67 18.39 -1.78
9.23 19.59 -1.14
20.74 43.59 0.84
2.17 4.56 -1.16
2.22 4.66 -1
2.34 4.91 -0.86
6.07 12.76 -1.73
8.73 18.36 -1.78
9.25 19.46 -1.13
20.85 43.46 0.84
2.17 4.53 -1.16
2.23 4.64 -1
2.35 4.89 -0.86
6.11 12.73 -1.73
8.8 18.34 -1.78
9.3 19.37 -1.13
20.96 43.31 0.84
2.19 4.52 -1.16
2.23 4.61 -1
2.36 4.88 -0.86
6.15 12.7 -1.73
8.86 18.31 -1.78
9.33 19.28 -1.12
20.99 42.99 0.83
2.2 4.5 -1.16
2.24 4.59 -0.99
2.37 4.86 -0.86
2.76 5.65 -0.77
8.92 18.28 -1.78
9.38 19.21 -1.12
20.95 42.91 -0.83
2.18 4.42 -1.32
21.07 42.76 0.83
2.21 4.48 -1.15
2.25 4.56 -0.99
2.38 4.83 -0.85
2.63 5.33 -0.73
8.99 18.25 -1.78
9.44 19.16 -1.12
21.07 42.75 -0.83
2.18 4.4 -1.32
21.17 42.61 0.83
2.22 4.46 -1.15
2.26 4.55 -0.99
2.39 4.81 -0.85
2.64 5.32 -0.73
9.06 18.23 -1.78
9.49 19.1 -1.12
21.17 42.6 -0.83
2.2 4.39 -1.31
21.29 42.46 0.83
2.22 4.43 -1.14
2.27 4.53 -0.98
2.4 4.78 -0.85
2.67 5.33 -0.73
9.12 18.2 -1.78
9.55 19.04 -1.12
2.22 4.38 -1.32
21.39 42.31 0.83
2.24 4.42 -1.14
2.28 4.5 -0.98
2.41 4.77 -0.85
2.65 5.25 -0.72
9.19 18.18 -1.78
9.6 19 -1.12
2.22 4.35 -1.31
21.52 42.18 0.83
2.25 4.41 -1.14
2.28 4.48 -0.98
2.42 4.75 -0.84
2.67 5.23 -0.72
9.26 18.15 -1.78
9.77 19.16 -1.13
2.23 4.33 -1.3
21.6 42 0.82
2.26 4.39 -1.14
2.29 4.46 -0.98
2.43 4.72 -0.84
2.68 5.21 -0.72
9.32 18.13 -1.78
2.24 4.32 -1.3
21.71 41.87 0.82
2.26 4.35 -1.13
2.31 4.45 -0.97
2.43 4.69 -0.84
2.69 5.18 -0.72
9.38 18.1 -1.78
9.9 19.09 -1.13
2.25 4.3 -1.3
21.82 41.74 0.82
2.27 4.33 -1.13
2.32 4.44 -0.97
2.44 4.67 -0.83
2.71 5.18 -0.72
9.45 18.08 -1.78
9.88 18.91 -1.12
2.27 4.3 -1.3
21.93 41.57 0.82
2.28 4.32 -1.13
2.33 4.41 -0.97
2.45 4.65 -0.83
2.71 5.14 -0.71
9.52 18.04 -1.78
9.96 18.88 -1.12
2.27 4.28 -1.3
22.04 41.46 0.82
2.28 4.29 -1.12
2.34 4.39 -0.97
2.47 4.64 -0.83
2.72 5.11 -0.71
2.9 5.46 -0.54
10.05 18.91 -1.12
2.28 4.25 -1.29
22.16 41.31 0.82
2.31 4.3 -1.13
2.35 4.38 -0.97
2.48 4.62 -0.83
2.73 5.09 -0.71
2.92 5.44 -0.54
10.16 18.95 -1.13
2.3 4.24 -1.29
22.24 41.14 0.82
2.32 4.29 -1.12
2.36 4.37 -0.96
2.48 4.59 -0.83
2.74 5.08 -0.71
2.95 5.46 -0.54
10.28 19.01 -1.13
2.3 4.23 -1.29
22.36 41.02 0.82
2.31 4.24 -1.12
2.37 4.35 -0.96
2.5 4.58 -0.83
2.75 5.04 -0.7
2.98 5.46 -0.54
10.41 19.09 -1.14
2.32 4.22 -1.29
22.46 40.86 0.81
2.33 4.23 -1.12
2.39 4.34 -0.96
2.51 4.56 -0.82
2.75 5 -0.7
2.99 5.45 -0.54
10.59 19.27 -1.15
2.33 4.2 -1.29
22.57 40.72 0.81
2.34 4.23 -1.12
2.39 4.32 -0.96
2.52 4.55 -0.82
2.75 4.97 -0.7
3.02 5.45 -0.54
10.74 19.37 -1.16
2.33 4.18 -1.28
22.68 40.58 0.81
2.36 4.22 -1.12
2.41 4.3 -0.96
2.53 4.53 -0.82
2.76 4.95 -0.7
3.04 5.44 -0.55
10.89 19.48 -1.17
2.35 4.17 -1.28
22.76 40.4 0.81
2.38 4.22 -1.12
2.42 4.3 -0.96
2.54 4.51 -0.82
2.76 4.9 -0.69
3.03 5.38 -0.54
11.05 19.61 -1.18
2.36 4.15 -1.28
22.89 40.29 0.81
2.41 4.24 -1.13
2.43 4.28 -0.96
2.55 4.49 -0.82
2.8 4.93 -0.7
11.21 19.73 -1.19
2.37 4.14 -1.28
22.99 40.14 0.81
2.44 4.26 -1.13
2.44 4.27 -0.96
2.57 4.49 -0.82
2.82 4.92 -0.7
11.36 19.84 -1.2
2.38 4.12 -1.27
23.1 40.01 0.81
2.48 4.3 -1.15
2.47 4.28 -0.96
2.58 4.48 -0.82
2.85 4.93 -0.7
11.54 19.98 -1.21
23.09 39.99 -0.81
2.39 4.1 -1.27
23.21 39.87 0.81
2.48 4.27 -1.14
2.48 4.27 -0.96
2.59 4.46 -0.82
2.88 4.96 -0.7
11.73 20.15 -1.22
23.21 39.87 -0.81
2.4 4.08 -1.27
2.5 4.27 -1.14
2.5 4.26 -0.96
2.6 4.43 -0.81
2.9 4.95 -0.7
11.87 20.23 -1.23
2.41 4.07 -1.27
2.46 4.16 -1.12
2.52 4.26 -0.96
2.61 4.42 -0.81
2.92 4.94 -0.7
3.33 5.63 -0.34
2.42 4.06 -1.27
2.47 4.14 -1.11
2.53 4.24 -0.96
2.63 4.41 -0.81
2.94 4.93 -0.7
3.36 5.64 -0.34
2.43 4.05 -1.27
2.47 4.12 -1.11
2.51 4.18 -0.95
2.65 4.41 -0.81
2.95 4.92 -0.7
3.36 5.6 -0.34
2.44 4.04 -1.26
2.49 4.11 -1.11
2.53 4.18 -0.95
2.66 4.39 -0.81
3.37 5.57 -0.34
2.46 4.03 -1.27
2.49 4.09 -1.11
2.55 4.18 -0.95
2.66 4.37 -0.81
3.66 5.99 -0.86
3.65 5.99 -0.61
3.38 5.55 -0.34
2.47 4.02 -1.26
2.5 4.07 -1.1
2.56 4.16 -0.95
2.68 4.36 -0.81
3.39 5.51 -0.34
2.49 4.01 -1.27
2.51 4.05 -1.1
2.57 4.14 -0.95
2.7 4.35 -0.81
3.7 5.96 -0.61
3.4 5.49 -0.34
2.5 4 -1.26
2.53 4.05 -1.1
2.58 4.13 -0.95
2.71 4.34 -0.81
3.7 5.93 -0.61
3.41 5.46 -0.34
2.51 3.98 -1.26
2.55 4.05 -1.1
2.6 4.13 -0.95
2.72 4.32 -0.81
3.74 5.94 -0.61
3.43 5.45 -0.34
2.51 3.96 -1.26
2.56 4.04 -1.1
2.61 4.11 -0.95
2.73 4.3 -0.81
3.77 5.95 -0.62
3.44 5.42 -0.34
2.53 3.96 -1.26
2.57 4.01 -1.1
2.63 4.11 -0.95
2.74 4.29 -0.81
3.44 5.38 -0.33
2.54 3.95 -1.26
2.58 4.01 -1.1
2.64 4.1 -0.95
2.76 4.28 -0.81
3.45 5.36 -0.33
2.55 3.93 -1.26
2.6 4 -1.1
2.65 4.08 -0.94
2.78 4.28 -0.81
3.47 5.34 -0.33
2.56 3.92 -1.25
2.61 4 -1.1
2.66 4.07 -0.95
2.79 4.26 -0.81
3.08 4.72 -0.69
3.48 5.33 -0.33
2.58 3.91 -1.26
2.63 3.99 -1.1
2.68 4.06 -0.95
2.79 4.24 -0.8
3.09 4.68 -0.69
3.49 5.29 -0.33
2.59 3.9 -1.25
29.34 44.19 0.93
2.63 3.97 -1.1
2.7 4.06 -0.95
2.81 4.24 -0.81
3.1 4.67 -0.69
3.5 5.27 -0.33
