# .PCD v0.7 - Point Cloud Data file format
VERSION 0.7
FIELDS x y z
SIZE 4 4 4
TYPE F F F
COUNT 1 1 1
WIDTH 2805
HEIGHT 1
VIEWPOINT 0 0 0 1 0 0 0
POINTS 2805
DATA ascii
-13.25 10.91 -1.5
-15.96 13.15 4.02
-15.88 13.07 -1.08
-16.03 13.2 4.79
-16.3 13.43 -0.37
-7.74 6.37 2.69
-5.64 4.68 -1.96
-14.06 11.66 0.32
-6.53 5.41 -1.96
-15.91 13.19 1.08
-15.62 12.96 1.78
-11.69 9.7 -2.41
-15.78 13.08 2.52
-13.15 10.9 -2.1
-15.74 13.05 3.24
-13.16 10.91 -1.5
-16.04 13.3 4.05
-13.79 11.44 -0.94
-9.69 8.04 2.91
-15.56 12.9 -0.35
-7.73 6.41 2.69
-5.63 4.7 -1.96
-13.96 11.65 0.32
-6.49 5.42 -1.95
-15.9 13.27 1.09
-15.67 13.08 1.79
-11.67 9.74 -2.41
-15.76 13.16 2.52
-13.05 10.89 -2.09
-15.58 13.01 3.22
-13.04 10.89 -1.49
-9.48 7.92 2.4
-14.13 11.8 -0.96
-15.7 13.11 4.72
-15.48 12.92 -0.35
-6.48 5.41 2.26
-5.61 4.71 -1.96
-15.97 13.42 0.36
-6.46 5.43 -1.95
-15.87 13.34 1.09
-15.58 13.09 1.78
-11.63 9.77 -2.41
-15.73 13.22 2.52
-12.97 10.9 -2.08
-15.52 13.05 3.21
-12.96 10.89 -1.48
-8.64 7.27 2.2
-8.25 6.94 2.49
-14.02 11.79 -0.32
-7.7 6.47 2.69
-5.59 4.73 -1.96
-15.65 13.24 0.36
-6.4 5.42 -1.94
-16.02 13.56 1.1
-15.27 12.92 1.75
-11.6 9.82 -2.41
-15.61 13.21 2.51
-12.91 10.93 -2.08
-15.55 13.16 3.23
-12.91 10.93 -1.48
-8.59 7.27 2.19
-12.95 10.96 -0.89
-8.2 6.94 2.48
-13.83 11.7 -0.32
-7.71 6.53 2.71
-3.51 2.99 -1.23
-15.65 13.34 0.36
-6.36 5.42 -1.93
-15.77 13.45 1.09
-15.52 13.23 1.78
-11.57 9.86 -2.41
-15.48 13.19 2.5
-12.81 10.92 -2.07
-15.61 13.31 3.25
-12.81 10.92 -1.47
-15.26 13.01 3.9
-13.04 11.12 -0.9
-8.16 6.96 2.48
-6.4 5.46 2.25
-3.46 2.97 -1.22
-15.38 13.2 0.35
-6.33 5.43 -1.93
-15.52 13.32 1.07
-15.42 13.23 1.78
-11.56 9.92 -2.41
-15.5 13.31 2.51
-12.72 10.92 -2.06
-12.71 10.91 -1.47
-15.4 13.22 3.95
-13.23 11.35 -0.91
-8.13 6.98 2.47
-13.36 11.47 -0.31
-6.4 5.49 2.26
-3.43 2.96 -1.21
-15.08 13.04 0.35
-6.32 5.46 -1.93
-15.47 13.38 1.07
-15.68 13.57 1.81
-11.51 9.96 -2.41
-15.46 13.37 2.51
-12.67 10.96 -2.06
-14.99 12.96 3.14
-12.66 10.95 -1.46
-15.27 13.21 3.92
-12.98 11.22 -0.9
-8.1 7.01 2.47
-13.33 11.53 -0.31
-6.37 5.51 2.26
-3.4 2.96 -1.21
-15.38 13.39 0.36
-6.31 5.49 -1.93
-15.39 13.4 1.07
-15.83 13.79 1.84
-8.49 7.39 -1.78
-15.46 13.46 2.52
-12.55 10.93 -2.04
-14.96 13.02 3.14
-12.56 10.94 -1.46
-15.31 13.33 3.95
-16.46 14.33 -1.14
-8.11 7.06 2.48
-13.44 11.7 -0.31
-6.42 5.59 2.28
-3.37 2.95 -1.2
-15.23 13.36 0.35
-15.16 13.3 1.06
-15.49 13.59 1.8
-11.45 10.04 -2.41
-13.58 11.91 2.22
-12.47 10.94 -2.04
-14.88 13.05 3.13
-12.45 10.92 -1.45
-8.2 7.2 2.12
-13.37 11.73 -0.93
-8.58 7.53 2.64
-12.93 11.35 -0.3
-3.33 2.94 -1.19
-14.89 13.15 0.35
-15.1 13.33 1.06
-15.55 13.73 1.81
-11.42 10.09 -2.41
-13.59 12 2.23
-8.15 7.2 -1.33
-14.92 13.18 3.15
-12.38 10.93 -1.45
-8.16 7.21 2.12
-12.5 11.04 -0.87
-15.54 13.72 4.79
-12.66 11.18 -0.29
-6.27 5.54 2.24
-3.3 2.93 -1.18
-14.87 13.22 0.35
-15.17 13.49 1.06
-15.61 13.88 1.83
-8.09 7.19 -1.71
-13.57 12.06 2.23
-8.08 7.18 -1.33
-15.01 13.34 3.18
-12.33 10.96 -1.44
-8.05 7.16 2.1
-16.39 14.58 -1.15
-9.67 8.6 2.99
-16.22 14.42 -0.38
-15.52 13.8 5.57
-3.26 2.91 -1.17
-12.8 11.45 0.3
-15.58 13.94 1.1
-15.59 13.95 1.83
-8.05 7.2 -1.71
-15.37 13.76 2.53
-8.03 7.18 -1.32
-8.07 7.22 1.72
-8.07 7.22 -0.95
-8.01 7.17 2.09
-8.09 7.24 -0.57
-9.82 8.79 3.04
-8.06 7.22 -0.19
-15.29 13.69 5.5
-3.21 2.9 -1.16
-7.98 7.2 0.19
-7.98 7.2 0.56
-7.98 7.2 0.94
-8 7.21 -1.71
-8 7.21 1.32
-8 7.21 -1.32
-8.07 7.27 1.72
-8.01 7.22 -0.94
-7.96 7.18 2.08
-8.02 7.23 -0.57
-7.92 7.14 2.46
-8.01 7.22 -0.19
-15.15 13.66 5.47
-3.19 2.9 -1.15
-7.94 7.21 0.19
-7.94 7.2 0.56
-7.94 7.2 0.94
-7.97 7.24 -1.71
-7.95 7.21 1.32
-7.99 7.25 -1.33
-7.97 7.24 1.71
-7.96 7.23 -0.94
-7.93 7.2 2.08
-7.96 7.22 -0.56
-7.91 7.18 2.47
-7.95 7.22 -0.19
-6.23 5.65 2.25
-3.16 2.89 -1.15
-7.91 7.24 0.19
-7.89 7.22 0.56
-7.9 7.23 0.94
-7.96 7.28 -1.71
-7.91 7.23 1.32
-7.95 7.28 -1.32
-7.94 7.26 1.7
-7.94 7.26 -0.94
-7.89 7.22 2.08
-7.93 7.25 -0.56
-7.93 7.26 2.48
-7.92 7.24 -0.19
-7.89 7.27 0.19
-7.86 7.24 0.56
-7.87 7.25 0.94
-7.95 7.32 -1.71
-7.87 7.25 1.31
-7.93 7.3 -1.32
-7.9 7.27 1.7
-7.91 7.29 -0.94
-7.88 7.26 2.08
-7.91 7.28 -0.56
-7.88 7.26 2.47
-7.9 7.28 -0.19
-7.93 7.3 2.89
-3.1 2.88 -1.13
-7.87 7.3 0.19
-7.86 7.29 0.56
-7.85 7.28 0.94
-7.95 7.37 -1.72
-7.85 7.29 1.32
-7.92 7.35 -1.33
-7.84 7.28 1.69
-7.9 7.33 -0.94
-7.86 7.29 2.08
-7.9 7.33 -0.56
-6.38 5.92 2.01
-7.87 7.3 -0.19
-6.37 5.91 2.33
-3.12 2.92 -1.15
-7.87 7.35 0.19
-7.85 7.33 0.56
-7.84 7.32 0.94
-7.97 7.44 -1.73
-7.83 7.31 1.31
-7.93 7.41 -1.33
-7.82 7.3 1.69
-7.89 7.37 -0.94
-7.83 7.31 2.08
-7.91 7.38 -0.57
-6.71 6.27 2.12
-7.89 7.37 -0.19
-7.77 7.26 2.85
-3.09 2.9 -1.13
-7.9 7.43 0.19
-7.86 7.39 0.94
-11 10.34 -2.39
-7.82 7.35 1.32
-11.7 10.99 -1.97
-7.79 7.33 1.69
-11.68 10.98 -1.4
-7.8 7.33 2.08
-7.8 7.33 2.47
-7.73 7.26 2.84
-3.08 2.91 -1.13
-12.26 11.61 0.29
-13.52 12.79 0.98
-10.95 10.37 -2.39
-7.83 7.41 1.32
-11.62 11 -1.96
-7.78 7.36 1.7
-11.64 11.01 -1.4
-7.8 7.38 2.09
-11.93 11.29 -0.86
-7.79 7.38 2.48
-12.22 11.56 -0.29
-7.69 7.28 2.84
-3.06 2.92 -1.13
-11.82 11.27 0.28
-13.49 12.86 0.98
-13.1 12.49 1.58
-10.88 10.37 -2.38
-13.38 12.76 2.27
-11.52 10.99 -1.96
-7.8 7.44 1.71
-11.54 11 -1.4
-7.74 7.38 2.08
-11.85 11.3 -0.86
-6.49 6.19 2.07
-14.07 13.42 -0.34
-7.66 7.3 2.83
-11.7 11.24 0.28
-13.53 12.99 0.98
-12.69 12.18 1.54
-10.82 10.39 -2.38
-13.25 12.72 2.26
-11.44 10.99 -1.95
-7.78 7.47 1.71
-11.46 11 -1.39
-7.73 7.42 2.08
-12.34 11.85 -0.9
-6.38 6.13 2.04
-11.71 11.24 -0.28
-7.63 7.33 2.84
-11.66 11.27 0.28
-13.59 13.14 0.99
-12.6 12.18 1.53
-10.77 10.41 -2.37
-13.41 12.97 2.29
-11.39 11.01 -1.95
-14.51 14.03 3.2
-11.4 11.02 -1.39
-13.41 12.96 3.62
-15.74 15.22 -1.15
-7.56 7.31 2.43
-11.75 11.36 -0.29
-7.63 7.38 2.84
-14.45 14.06 0.35
-13.57 13.2 0.99
-12.62 12.28 1.54
-10.71 10.42 -2.37
-13.61 13.24 2.33
-11.32 11.02 -1.94
-12.7 12.36 2.81
-11.31 11.01 -1.38
-15.63 15.21 -1.14
-13.37 13.01 4.31
-11.71 11.39 -0.29
-13.03 12.68 4.87
-14.34 14.05 0.35
-13.53 13.27 0.99
-13.06 12.8 1.6
-10.65 10.44 -2.36
-13.21 12.95 2.27
-11.22 10.99 -1.93
-12.68 12.43 2.81
-11.23 11.01 -1.38
-13.34 13.08 3.63
-13.64 13.37 -1
-7.63 7.48 2.47
-11.67 11.44 -0.29
-12.99 12.74 4.88
-13.98 13.8 0.34
-12.73 12.56 0.94
-12.65 12.49 1.56
-10.6 10.46 -2.36
-13.19 13.02 2.28
-11.35 11.2 -1.96
-12.59 12.43 2.8
-11.17 11.03 -1.37
-13.28 13.11 3.63
-13.54 13.37 -1
-6.98 6.89 2.26
-12.16 12 -0.3
-8.5 8.39 3.2
-13.86 13.77 0.34
-12.69 12.62 0.94
-13.27 13.19 1.64
-10.53 10.47 -2.35
-13.15 13.07 2.28
-11.08 11.02 -1.92
-7.24 7.2 1.62
-11.1 11.03 -1.37
-7.37 7.33 2.02
-11.82 11.75 -0.87
-6.88 6.84 2.24
-12.16 12.09 -0.3
-8.44 8.39 3.19
-11.54 11.56 0.29
-12.65 12.67 0.94
-13.17 13.18 1.63
-10.45 10.46 -2.34
-13 13.02 2.26
-11 11.01 -1.91
-12.53 12.54 2.81
-11 11.01 -1.36
-7.33 7.34 2.02
-13.35 13.36 -0.99
-6.82 6.83 2.23
-12.14 12.15 -0.3
-7.53 7.54 2.85
-11.48 11.57 0.28
-12.62 12.72 0.94
-12.95 13.05 1.61
-10.38 10.46 -2.33
-13 13.11 2.27
-10.95 11.04 -1.91
-12.51 12.61 2.81
-10.94 11.03 -1.36
-7.3 7.36 2.02
-12.1 12.19 -0.9
-12.65 12.75 4.15
-13.2 13.31 -0.33
-8.24 8.31 3.14
-2.87 2.91 -1.1
-11.31 11.48 0.28
-12.56 12.75 0.94
-13.04 13.24 1.63
-10.34 10.5 -2.33
-12.87 13.06 2.25
-10.93 11.1 -1.91
-12.61 12.8 2.85
-10.89 11.05 -1.36
-7.27 7.38 2.01
-12.11 12.29 -0.9
-12.25 12.43 4.03
-11.47 11.65 -0.29
-8.32 8.45 3.18
-2.85 2.91 -1.09
-11.39 11.65 0.28
-12.56 12.84 0.94
-12.66 12.94 1.58
-10.26 10.49 -2.32
-12.75 13.04 2.24
-10.79 11.03 -1.89
-12.64 12.92 2.86
-10.81 11.05 -1.35
-12.42 12.69 3.45
-14.39 14.71 -1.08
-8.06 8.24 2.66
-13.01 13.3 -0.32
-7.31 7.48 2.8
-2.83 2.92 -1.09
-11.16 11.48 0.28
-12.49 12.86 0.94
-12.65 13.03 1.59
-10.18 10.48 -2.31
-12.78 13.16 2.25
-10.79 11.1 -1.9
-12.64 13.01 2.87
-10.75 11.06 -1.35
-12.35 12.71 3.44
-14.28 14.7 -1.07
-6.63 6.83 2.2
-11.1 11.42 -0.28
-7.26 7.48 2.79
-2.81 2.91 -1.08
-11.5 11.91 0.29
-11.51 11.92 0.87
-12.74 13.2 1.6
-10.12 10.48 -2.31
-12.7 13.16 2.25
-10.67 11.05 -1.89
-12.58 13.04 2.87
-10.68 11.06 -1.35
-12.33 12.77 3.45
-11.43 11.84 -0.86
-12.01 12.45 3.99
-11.43 11.84 -0.29
-7.45 7.72 2.87
-2.8 2.92 -1.08
-11.47 11.97 0.29
-11.6 12.1 0.88
-12.84 13.4 1.62
-10.06 10.49 -2.3
-12.7 13.25 2.25
-10.58 11.04 -1.88
-12.56 13.1 2.87
-10.59 11.05 -1.34
-12.26 12.79 3.44
-11.19 11.67 -0.85
-8.9 9.29 2.97
-11.39 11.88 -0.29
-7.45 7.78 2.89
-2.78 2.92 -1.08
-11.33 11.9 0.86
-12.44 13.07 1.58
-10 10.51 -2.3
-12.66 13.3 2.25
-10.53 11.06 -1.87
-12.48 13.11 2.87
-10.54 11.08 -1.34
-7.89 8.29 2.22
-14.19 14.9 -1.08
-11.88 12.48 3.98
-10.76 11.31 -0.27
-7.64 8.03 2.97
-2.77 2.93 -1.08
-11.18 11.82 0.28
-12.32 13.03 1.57
-9.94 10.51 -2.29
-12.5 13.23 2.24
-10.45 11.06 -1.87
-12.47 13.19 2.87
-10.47 11.07 -1.33
-12.09 12.79 3.42
-11.12 11.76 -0.85
-12.53 13.25 4.21
-10.92 11.55 -0.28
-7.68 8.12 3
-2.75 2.93 -1.08
-11.11 11.83 0.28
-11.98 12.76 0.92
-12.25 13.05 1.57
-9.87 10.51 -2.28
-12.46 13.27 2.24
-10.37 11.04 -1.86
-12.6 13.42 2.92
-10.38 11.05 -1.33
-11.99 12.77 3.4
-14.7 15.66 -1.13
-7.91 8.42 2.67
-14.52 15.46 -0.37
-12.52 13.34 4.9
-2.73 2.93 -1.07
-11.28 12.1 0.29
-12.05 12.93 0.93
-12.21 13.09 1.57
-9.82 10.53 -2.28
-12.34 13.24 2.22
-10.33 11.09 -1.86
-12.55 13.47 2.92
-10.36 11.11 -1.33
-11.91 12.78 3.39
-14.41 15.46 -1.11
-8.39 9 2.84
-10.74 11.52 -0.27
-12.48 13.39 4.9
-2.71 2.93 -1.07
-10.48 11.31 0.27
-11.86 12.81 0.91
-12.14 13.11 1.56
-9.76 10.54 -2.28
-12.34 13.33 2.23
-10.25 11.07 -1.85
-12.54 13.54 2.92
-10.25 11.07 -1.32
-7.05 7.61 2.02
-11.09 11.98 -0.86
-6.92 7.48 2.35
-10.79 11.65 -0.28
-12.34 13.33 4.87
-2.71 2.95 -1.07
-10.48 11.39 0.27
-11.82 12.86 0.92
-12.06 13.11 1.56
-9.7 10.55 -2.27
-12.23 13.3 2.22
-10.17 11.06 -1.84
-12.44 13.53 2.91
-10.18 11.07 -1.32
-11.82 12.85 3.39
-14.59 15.86 -1.13
-6.88 7.48 2.35
-10.53 11.45 -0.27
-12.47 13.56 4.94
-2.7 2.95 -1.07
-10.37 11.36 0.27
-11.75 12.87 0.91
-11.95 13.09 1.55
-9.65 10.57 -2.27
-12.25 13.42 2.23
-10.12 11.09 -1.84
-12.34 13.52 2.9
-10.16 11.13 -1.32
-11.8 12.93 3.4
-12.79 14.01 -0.99
-6.84 7.5 2.34
-10.51 11.51 -0.27
-7.37 8.07 2.93
-2.67 2.95 -1.07
-10.52 11.61 0.27
-11.73 12.94 0.92
-11.89 13.11 1.55
-9.59 10.58 -2.26
-12.24 13.51 2.24
-10.04 11.08 -1.84
-12.24 13.51 2.89
-10.06 11.1 -1.31
-8.13 8.97 2.35
-10.66 11.76 -0.83
-6.82 7.52 2.34
-12.72 14.03 -0.33
-7.21 7.96 2.88
-2.65 2.94 -1.06
-10.64 11.82 0.28
-10.6 11.77 0.83
-11.78 13.08 1.54
-9.54 10.59 -2.26
-12.29 13.65 2.26
-9.98 11.08 -1.83
-12.12 13.46 2.87
-10 11.11 -1.31
-11.81 13.12 3.43
-10.12 11.24 -0.79
-6.77 7.52 2.34
-10.13 11.25 -0.26
-7.11 7.89 2.85
-2.63 2.95 -1.06
-10.52 11.77 0.28
-11.53 12.89 0.91
-11.66 13.04 1.53
-9.45 10.57 -2.25
-11.97 13.39 2.2
-9.93 11.11 -1.83
-11.38 12.72 2.7
-9.93 11.1 -1.3
-11.14 12.46 3.25
-12.65 14.15 -0.99
-6.78 7.58 2.35
-10.02 11.2 -0.26
-12.24 13.69 4.92
-2.62 2.95 -1.06
-10.28 11.58 0.27
-11.55 13.01 1.52
-9.39 10.58 -2.24
-11.87 13.37 2.19
-9.86 11.11 -1.82
-11.36 12.79 2.71
-9.86 11.11 -1.3
-11.1 12.5 3.25
-12.65 14.24 -1
-6.8 7.65 2.36
-10 11.27 -0.26
-12.12 13.65 4.89
-2.61 2.96 -1.06
-10.3 11.68 0.27
-10.38 11.78 0.82
-11.42 12.96 1.51
-9.34 10.59 -2.24
-11.93 13.54 2.22
-9.8 11.11 -1.82
-11.29 12.81 2.7
-9.81 11.12 -1.3
-11.1 12.6 3.26
-10.77 12.21 -0.85
-11.66 13.22 4.07
-10.2 11.57 -0.27
-6.69 7.58 2.71
-2.59 2.96 -1.05
-10.1 11.53 0.27
-11.42 13.05 0.91
-11.37 12.99 1.51
-9.29 10.61 -2.23
-11.88 13.57 2.21
-9.71 11.09 -1.81
-11.28 12.89 2.71
-9.71 11.09 -1.29
-11.04 12.62 3.26
-13.79 15.75 -1.1
-6.76 7.72 2.37
-9.92 11.33 -0.26
-6.62 7.56 2.69
-2.56 2.95 -1.05
-10.07 11.59 0.27
-11.38 13.09 0.91
-11.27 12.96 1.5
-9.23 10.62 -2.23
-11.86 13.65 2.22
-9.69 11.14 -1.81
-11.22 12.9 2.71
-9.71 11.18 -1.3
-10.99 12.64 3.26
-10.46 12.04 -0.84
-6.74 7.76 2.37
-9.92 11.41 -0.26
-11.38 13.1 4.65
-2.54 2.95 -1.04
-10 11.59 0.27
-11.34 13.13 0.91
-11.19 12.97 1.5
-9.16 10.61 -2.22
-11.78 13.65 2.21
-9.59 11.11 -1.8
-9.58 11.1 -1.28
-11.87 13.75 3.53
-10.08 11.68 -0.81
-11.54 13.37 4.08
-9.89 11.46 -0.26
-11.67 13.52 4.78
-2.54 2.96 -1.04
-10.47 12.21 0.28
-11.32 13.21 0.91
-11.14 12.99 1.5
-9.1 10.62 -2.22
-11.73 13.68 2.21
-9.55 11.14 -1.8
-11.7 13.65 2.85
-9.56 11.15 -1.28
-11.79 13.75 3.52
-9.96 11.63 -0.8
-11.74 13.7 4.16
-9.88 11.53 -0.26
-6.49 7.57 2.67
-2.52 2.96 -1.04
-11.28 13.25 0.91
-11.04 12.98 1.49
-9.06 10.64 -2.21
-11.64 13.68 2.21
-9.46 11.12 -1.79
-11.25 13.22 2.75
-9.47 11.12 -1.28
-11.8 13.87 3.54
-13.38 15.72 -1.08
-7.59 8.92 2.7
-9.73 11.43 -0.26
-11.59 13.62 4.79
-2.5 2.95 -1.04
-10.17 12.03 0.27
-11.22 13.28 0.91
-10.94 12.94 1.48
-9.03 10.68 -2.21
-11.6 13.72 2.21
-9.4 11.12 -1.79
-11.16 13.21 2.74
-9.38 11.1 -1.27
-11.88 14.06 3.58
-13.28 15.72 -1.08
-11.7 13.85 4.19
-9.89 11.7 -0.27
-11.51 13.62 4.78
-2.48 2.95 -1.03
-10.47 12.48 0.28
-11.17 13.31 0.91
-10.85 12.92 1.48
-9.01 10.74 -2.22
-11.54 13.74 2.2
-9.37 11.17 -1.79
-11.07 13.19 2.73
-11.43 13.62 -1.56
-11.67 13.9 3.53
-11.52 13.73 -0.94
-7.62 9.07 2.73
-9.86 11.74 -0.27
-6.95 8.28 2.9
-2.47 2.96 -1.03
-9.87 11.85 0.27
-11.13 13.35 0.91
-10.98 13.17 1.5
-8.96 10.74 -2.22
-11.58 13.9 2.22
-9.29 11.15 -1.78
-11.05 13.25 2.73
-9.28 11.13 -1.27
-11.66 13.99 3.54
-9.84 11.81 -0.81
-7.72 9.26 2.78
-11.33 13.59 -0.31
-11.32 13.58 4.74
-2.44 2.95 -1.03
-9.89 11.95 0.27
-11.05 13.36 0.91
-11.45 13.84 1.57
-8.93 10.79 -2.22
-10.68 12.9 2.06
-9.22 11.15 -1.78
-11.01 13.3 2.74
-9.23 11.15 -1.27
-11.91 14.39 3.63
-11.39 13.76 -0.94
-11.53 13.93 4.17
-11.28 13.63 -0.31
-11.27 13.62 4.74
-2.43 2.96 -1.03
-11.38 13.85 0.31
-11.01 13.4 0.91
-11.61 14.13 1.6
-8.93 10.86 -2.23
-10.67 12.98 2.06
-9.16 11.15 -1.77
-9.18 11.17 -1.27
-11.85 14.42 3.63
-9.19 11.18 -0.76
-11.5 13.99 4.18
-11.48 13.97 -0.32
-6.94 8.45 2.93
-2.42 2.96 -1.02
-11.1 13.6 0.31
-10.98 13.46 0.91
-11.84 14.51 1.64
-9.05 11.1 -2.27
-10.58 12.96 2.05
-9.09 11.14 -1.77
-10.86 13.32 2.72
-9.09 11.14 -1.26
-11.76 14.41 3.61
-10.05 12.32 -0.83
-6.21 7.61 2.27
-11.49 14.09 -0.32
-6.79 8.32 2.88
-2.39 2.95 -1.02
-11.06 13.65 0.31
-10.93 13.5 0.91
-11.62 14.34 1.61
-2.54 3.13 -0.64
-10.52 12.99 2.05
-11.63 14.35 2.93
-11.17 13.79 -1.55
-11.72 14.47 3.62
-11.44 14.12 -0.95
-11.4 14.07 4.18
-11.47 14.16 -0.32
-11.13 13.74 4.74
-2.38 2.96 -1.02
-11.04 13.72 0.31
-10.88 13.53 0.91
-11.28 14.03 1.58
-2.51 3.12 -0.63
-10.47 13.02 2.05
-8.98 11.17 -1.76
-11.66 14.49 2.95
-8.97 11.16 -1.25
-11.62 14.45 3.6
-11.44 14.22 -0.96
-7.45 9.26 2.74
-11.41 14.19 -0.32
-11.09 13.79 4.74
-2.36 2.96 -1.01
-11.03 13.81 0.31
-10.81 13.53 0.91
-11.25 14.09 1.58
-2.49 3.12 -0.63
-10.49 13.13 2.06
-8.97 11.23 -1.76
-11.56 14.48 2.94
-10.89 13.64 -1.53
-11.61 14.53 3.62
-11.39 14.26 -0.96
-7.43 9.31 2.75
-12.03 15.06 -0.34
-6.12 7.67 2.63
-2.35 2.97 -1.02
-11.09 13.99 0.31
-10.76 13.57 0.91
-11.42 14.4 1.61
-2.48 3.12 -0.63
-10.47 13.2 2.07
-8.85 11.16 -1.75
-11.48 14.48 2.93
-8.86 11.18 -1.25
-11.53 14.54 3.61
-8.87 11.19 -0.75
-6.16 7.77 2.29
-11.92 15.03 -0.33
-6.35 8.01 2.74
-2.33 2.96 -1.01
-9.59 12.19 0.27
-10.71 13.61 0.91
-2.47 3.14 -0.63
-10.99 13.96 -2.18
-11.67 14.82 2.99
-8.82 11.21 -1.25
-11.49 14.59 3.61
-11.27 14.31 -0.95
-6.18 7.84 2.3
-11.94 15.17 -0.34
-6.06 7.7 2.63
-2.31 2.96 -1.01
-11.18 14.3 0.32
-2.45 3.14 -0.63
-10.92 13.97 2.18
-8.75 11.19 -1.74
-11.82 15.12 3.04
-8.73 11.16 -1.24
-11.41 14.59 3.6
-12.32 15.76 -1.05
-6.29 8.05 2.36
-9.65 12.34 -0.27
-6.03 7.71 2.62
-2.3 2.96 -1
-8.91 11.48 0.25
-2.42 3.12 -0.63
-10.93 14.08 2.19
-11 14.17 -2.2
-11.87 15.3 3.07
-8.68 11.18 -1.24
-11.43 14.73 3.62
-9.49 12.22 -0.81
-9.49 12.22 -0.27
-6.53 8.41 2.85
-2.28 2.96 -1
-11.17 14.49 0.32
-11.48 14.9 0.99
-10.85 14.08 2.18
-8.62 11.19 -1.73
-8.62 11.18 -1.24
-8.63 11.2 -0.74
-5.83 7.57 2.21
-9.51 12.34 -0.27
-6.52 8.46 2.86
-2.27 2.97 -1
-11.15 14.57 0.32
-11.44 14.95 0.99
-2.19 2.87 -0.7
-10.8 14.12 2.18
-8.55 11.17 -1.73
-8.56 11.18 -1.23
-8.58 11.21 -0.74
-9.49 12.41 -0.27
-6.5 8.5 2.87
-2.26 2.97 -1
-11.05 14.55 0.32
-36.69 48.3 3.18
-2.16 2.85 -0.69
-2.42 3.19 -0.63
-10.76 14.16 2.18
-8.5 11.19 -1.73
-8.51 11.2 -1.23
-8.59 11.31 -0.74
-6.18 8.13 2.36
-9.42 12.4 -0.27
-6.46 8.51 2.86
-2.24 2.96 -0.99
-36.63 48.58 1.06
-36.69 48.66 3.19
-2.15 2.85 -0.69
-2.38 3.16 -0.63
-8.44 11.19 -1.72
-8.43 11.18 -1.23
-8.54 11.33 -0.74
-6.15 8.16 2.36
-9.43 12.51 -0.27
-6.45 8.55 2.87
-2.22 2.97 -0.99
-8.78 11.73 0.26
-36.69 49.01 3.21
-2.4 3.2 -0.63
-8.43 11.26 -1.73
-8.38 11.19 -1.22
-8.99 12 -0.79
-8.69 11.61 -0.25
-6.43 8.58 2.87
-2.22 2.99 -1
-8.7 11.7 0.25
-36.68 49.36 3.22
-10.14 13.64 -2.09
-8.31 11.19 -1.22
-17.78 23.92 -1.56
-8.65 11.64 -0.25
-6.4 8.61 2.87
-8.71 11.8 0.26
-36.66 49.69 3.24
-2.24 3.04 -0.73
-8.27 11.21 -1.71
-8.28 11.22 -1.22
-17.65 23.92 -1.56
-8.66 11.73 -0.25
-6.37 8.64 2.88
-36.88 50.36 3.27
-8.2 11.19 -1.7
-8.23 11.24 -1.22
-17.52 23.93 -1.55
-17.54 23.95 -0.52
-6.34 8.66 2.88
-17.76 24.43 0.53
-8.16 11.22 -1.7
-8.16 11.22 -1.21
-17.4 23.94 -1.55
-6.01 8.26 2.36
-17.42 23.96 -0.52
-6.32 8.69 2.88
-17.62 24.42 0.53
-18.21 25.23 1.63
-2.28 3.16 -0.62
-2.33 3.23 -0.49
-8.12 11.24 -1.21
-17.27 23.92 -1.55
-8.66 12 -0.26
-8.69 12.12 0.26
-18.14 25.32 1.63
-9.13 12.74 1.92
-2.31 3.22 -0.49
-9.78 13.64 2.66
-8.06 11.24 -1.21
-9.33 13.02 3.11
-17.13 23.91 -1.54
-17.16 23.95 -0.51
-9.29 12.96 4.27
-8.62 12.12 0.26
-18 25.31 1.63
-10 14.06 2.12
-2.28 3.21 -0.48
-9.64 13.56 2.63
-8.01 11.26 -1.21
-9.27 13.03 3.11
-8.05 11.31 -0.73
-17.04 23.95 -0.51
-5.86 8.25 2.71
-8.53 12.07 0.26
-17.89 25.32 1.62
-2.2 3.12 -0.61
-9.99 14.14 2.13
-2.26 3.2 -0.48
-9.55 13.52 2.62
-7.94 11.23 -1.2
-9.22 13.05 3.11
-7.95 11.25 -0.72
-8.07 11.42 -0.24
-9.16 12.96 4.25
-8.5 12.12 0.26
-8.23 11.74 0.75
-2.2 3.14 -0.61
-9.89 14.1 2.11
-2.25 3.21 -0.48
-9.56 13.63 2.64
-7.86 11.21 -1.2
-9.22 13.14 3.12
-7.99 11.4 -0.73
-8.07 11.51 -0.25
-6.23 8.89 2.91
-8.2 11.79 0.25
-8.45 12.14 0.78
-9.76 14.02 1.49
-2.25 3.23 -0.62
-9.82 14.11 2.11
-2.23 3.21 -0.48
-9.45 13.58 2.62
-7.81 11.22 -1.2
-9.12 13.1 3.1
-7.87 11.31 -0.72
-5.8 8.34 2.35
-8.71 12.51 -0.27
-6.17 8.87 2.9
-16.84 24.39 0.52
-9.26 13.41 0.85
-9.7 14.05 1.49
-2.22 3.22 -0.62
-9.74 14.1 2.1
-2.21 3.21 -0.48
-9.44 13.67 2.63
-16.51 23.9 -2.54
-9.08 13.15 3.11
-7.81 11.31 -0.72
-8.89 12.87 3.61
-8.01 11.6 -0.25
-9.01 13.05 4.25
-8.05 11.75 0.25
-9.14 13.34 0.85
-9.6 14.01 1.49
-2.24 3.27 -0.63
-9.67 14.11 2.1
-2.19 3.2 -0.48
-9.41 13.73 2.64
-7.71 11.25 -1.19
-9.31 13.58 3.2
-7.78 11.35 -0.72
-8.87 12.95 3.62
-9.01 13.15 -0.28
-5.78 8.43 2.74
-7.96 11.7 0.25
-9.12 13.41 0.85
-9.51 13.98 1.48
-8.87 13.04 1.94
-9.36 13.75 2.63
-16.26 23.9 -2.53
-9.29 13.66 3.21
-7.74 11.37 -0.72
-8.99 13.22 3.69
-9.04 13.29 -0.28
-7.96 11.78 0.25
-9.04 13.39 0.85
-9.47 14.03 1.48
-8.83 13.07 1.94
-2.2 3.26 -0.48
-7.6 11.25 -1.19
-9.2 13.62 3.2
-16.16 23.93 -1.51
-8.95 13.25 3.69
-9.01 13.35 -0.28
-8.85 13.11 4.24
-7.92 11.82 0.25
-8.89 13.27 0.84
-9.45 14.1 1.49
-8.79 13.11 1.94
-2.15 3.21 -0.48
-9.24 13.79 2.63
-10.78 16.09 -1.69
-9.13 13.62 3.19
-16.04 23.94 -1.51
-5.64 8.42 2.34
-8.96 13.36 -0.28
-5.71 8.51 2.75
-8.01 12.04 0.25
-17.27 25.97 2.73
-8.73 13.13 1.94
-2.14 3.22 -0.47
-9.05 13.61 2.59
-7.49 11.26 -1.18
-9.04 13.58 3.17
-7.93 11.92 -0.75
-8.66 13.03 3.61
-7.96 11.96 -0.25
-5.84 8.78 2.83
-7.96 12.06 0.25
-8.02 12.14 0.76
-9.54 14.45 1.51
-8.69 13.16 1.94
-9.04 13.69 2.6
-7.45 11.29 -1.18
-8.98 13.6 3.17
-9.38 14.2 -0.89
-5.64 8.55 2.37
-7.93 12.01 -0.25
-8.92 13.51 4.34
-7.92 12.08 0.25
-9.14 13.95 0.87
-9.51 14.52 1.52
-2.88 4.4 -0.83
-8.64 13.18 1.93
-2.18 3.32 -0.49
-8.95 13.66 2.59
-7.38 11.27 -1.18
-8.98 13.71 3.19
-9.32 14.22 -0.89
-8.87 13.54 3.74
-7.52 11.48 -0.24
-5.95 9.09 2.91
-8.82 13.56 0.28
-8.96 13.78 0.86
-8.93 13.73 1.43
-2.85 4.38 -0.83
-8.62 13.25 1.94
-2.15 3.3 -0.48
-8.93 13.74 2.6
-7.34 11.28 -1.18
-8.66 13.33 3.09
-9.1 13.99 -0.87
-8.75 13.46 3.71
-7.49 11.52 -0.24
-8.69 13.36 4.27
-7.58 11.74 0.24
-8.76 13.58 0.85
-8.84 13.7 1.43
-2.85 4.41 -0.83
-8.59 13.32 1.95
-2.13 3.3 -0.48
-8.76 13.57 2.56
-7.27 11.26 -1.17
-8.46 13.11 3.03
-7.26 11.26 -0.7
-8.81 13.66 3.75
-7.47 11.58 -0.24
-8.61 13.35 4.26
-7.5 11.72 0.24
-8.78 13.71 1.42
-8.62 13.47 1.96
-2.14 3.35 -0.49
-8.68 13.56 2.55
-7.23 11.29 -1.17
-8.37 13.07 3.02
-9 14.05 -0.87
-8.74 13.65 3.74
-7.48 11.69 -0.24
-5.45 8.51 2.71
-7.8 12.27 0.25
-7.59 11.94 0.74
-8.74 13.75 1.43
-2.82 4.44 -0.83
-8.68 13.66 1.99
-2.84 4.47 -0.65
-8.61 13.53 2.54
-7.18 11.29 -1.17
-8.31 13.07 3.01
-8.75 13.75 -0.85
-8.64 13.59 3.72
-8.54 13.43 4.26
-7.73 12.25 0.25
-8.58 13.6 0.84
-8.55 13.55 1.4
-2.28 3.61 -0.68
-8.59 13.62 1.98
-2.82 4.47 -0.65
-8.6 13.64 2.55
-7.13 11.3 -1.17
-8.3 13.16 3.02
-7.82 12.39 -0.77
-8.56 13.57 3.7
-5.39 8.54 2.7
-7.38 11.8 0.24
-7.48 11.95 0.74
-8.47 13.53 1.4
-2.28 3.65 -0.68
-8.6 13.75 1.99
-2.81 4.49 -0.65
-8.47 13.54 2.53
-7.1 11.35 -1.17
-8.26 13.2 3.03
-7.8 12.47 -0.77
-8.48 13.56 3.69
-7.44 11.89 -0.24
-8.48 13.56 4.29
-7.45 12 0.25
-8.42 13.57 0.84
-8.53 13.74 1.42
-2.76 4.44 -0.83
-8.45 13.61 1.97
-2.78 4.48 -0.65
-8.36 13.47 2.51
-7.01 11.29 -1.16
-5.3 8.54 1.95
-7.45 12.01 -0.74
-8.54 13.76 3.74
-8.9 14.34 -0.29
-8.51 13.72 4.33
-7.2 11.69 0.24
-8.37 13.58 0.84
-8.43 13.68 1.41
-2.74 4.45 -0.83
-8.54 13.87 2
-8.24 13.37 2.49
-5.3 8.6 1.96
-6.99 11.34 -0.7
-8.41 13.65 3.7
-7.3 11.85 -0.24
-8.41 13.64 4.29
-8.54 13.97 0.29
-8.3 13.58 0.83
-8.48 13.87 1.42
-2.72 4.46 -0.83
-8.49 13.89 2
-8.22 13.44 2.5
-2.06 3.37 -0.35
-8.22 13.44 3.06
-8.46 13.84 -0.85
-8.39 13.73 3.71
-7.26 11.88 -0.24
-8.35 13.66 4.29
-7.14 11.77 0.24
-7.08 11.67 0.72
-8.42 13.89 1.42
-2.71 4.47 -0.83
-8.38 13.81 1.98
-8.14 13.43 2.49
-2 3.3 -0.34
-8.01 13.21 3
-7.65 12.61 -0.77
-8.28 13.65 3.69
-8.51 14.03 -0.29
-8.44 13.92 4.36
-7.07 11.75 0.24
-7.02 11.67 0.71
-2.05 3.41 -0.77
-8.35 13.87 1.42
-2.7 4.48 -0.83
-8.39 13.95 2
-7.81 12.98 2.4
-2 3.32 -0.34
-7.93 13.18 2.99
-6.84 11.36 -0.7
-8.17 13.58 3.66
-8.43 14 -0.29
-8.21 13.64 4.26
-8.17 13.68 0.28
-8.29 13.89 0.85
-2.13 3.57 -0.81
-8.29 13.88 1.41
-8.25 13.82 1.98
-8.01 13.41 2.47
-1.97 3.31 -0.34
-7.86 13.17 2.98
-7.57 12.67 -0.77
-8.2 13.73 3.69
-7.24 12.12 -0.25
-8.26 13.84 4.32
-7.15 12.08 0.24
-8.23 13.9 0.85
-2.13 3.6 -0.81
-8.22 13.88 1.41
-8.22 13.87 1.98
-7.97 13.46 2.48
-1.95 3.29 -0.33
-7.82 13.19 2.98
-7.51 12.67 -0.77
-8.15 13.76 3.69
-8.2 13.85 4.31
-7.13 12.13 0.25
-8.2 13.94 0.85
-2.12 3.61 -0.81
-8.16 13.88 1.41
-8.12 13.82 1.97
-8.16 13.89 2.55
-1.93 3.28 -0.33
-7.75 13.18 2.97
-8.78 14.94 -0.91
-8.13 13.83 3.7
-8.13 13.84 -0.28
-4.96 8.44 2.62
-8.03 13.76 0.28
-8.11 13.91 0.84
-2.09 3.59 -0.81
-8.02 13.75 1.39
-6.63 11.36 -2.08
-8.07 13.83 1.97
-8.01 13.73 2.52
-1.93 3.3 -0.33
-7.68 13.17 2.96
-8.75 15.01 -0.91
-8.29 14.21 3.8
-6.75 11.58 -0.23
-4.94 8.48 2.63
-7.98 13.79 0.28
-8.06 13.92 0.84
-2.08 3.59 -0.81
-7.92 13.68 1.38
-6.59 11.39 -2.08
-8.1 14 1.99
-2.57 4.44 -0.63
-7.77 13.42 2.46
-1.91 3.3 -0.33
-7.69 13.29 2.98
-8.75 15.12 -0.92
-8.26 14.27 3.81
-6.74 11.65 -0.23
-8.13 14.05 4.35
-8.17 14.23 0.29
-6.57 11.44 0.69
-2.07 3.61 -0.81
-7.81 13.6 1.37
-6.55 11.41 -2.08
-8 13.93 1.97
-2.54 4.42 -0.63
-7.69 13.4 2.45
-1.89 3.29 -0.33
-7.74 13.47 3.02
-8.76 15.26 -0.92
-8.1 14.12 3.76
-8.53 14.85 -0.3
-7.98 13.9 4.29
-6.66 11.69 0.23
-7.82 13.73 0.83
-2.06 3.61 -0.81
-7.75 13.61 1.37
-6.51 11.43 -2.08
-7.98 14.01 1.98
-2.51 4.41 -0.62
-7.65 13.43 2.45
-1.88 3.29 -0.33
-7.69 13.5 3.02
-8.59 15.09 -0.91
-8 14.06 3.73
-6.63 11.64 -0.23
-7.92 13.91 4.29
-6.63 11.73 0.24
-7.88 13.96 0.84
-2.04 3.62 -0.81
-7.67 13.58 1.36
-8 14.16 2
-2.49 4.41 -0.62
-7.75 13.72 2.5
-1.87 3.3 -0.33
-7.62 13.49 3.01
-6.5 11.51 -0.69
-8.01 14.17 3.76
-6.59 11.66 -0.23
-7.89 13.96 4.3
-7.84 13.99 0.28
-7.82 13.96 0.84
-2.02 3.6 -0.8
-7.64 13.63 1.37
-7.93 14.16 1.99
-2.48 4.42 -0.62
-7.87 14.05 2.55
-1.85 3.3 -0.33
-7.53 13.43 2.99
-8.51 15.19 -0.91
-7.9 14.09 3.73
-6.56 11.71 -0.23
-7.8 13.92 4.28
-7.91 14.24 0.28
-7.68 13.82 0.83
-2.01 3.61 -0.8
-8.01 14.41 1.44
-7.91 14.24 2
-2.46 4.43 -0.62
-7.87 14.16 2.57
-1.83 3.29 -0.33
-7.47 13.45 2.99
-6.47 11.64 -0.7
-7.84 14.11 3.73
-6.49 11.67 -0.23
-4.79 8.62 2.64
-7.5 13.61 0.27
-6.51 11.81 0.71
-1.99 3.62 -0.8
-7.49 13.6 1.36
-2.48 4.5 -0.81
-7.81 14.17 1.99
-2.45 4.44 -0.62
-7.69 13.95 2.52
-1.81 3.29 -0.33
-7.43 13.49 2.99
-8.26 14.99 -0.9
-5 9.07 2.39
-8.09 14.67 -0.29
-7.64 13.87 4.24
-6.76 12.37 0.25
-6.44 11.78 0.7
-1.98 3.62 -0.8
-7.79 14.25 1.42
-2.45 4.48 -0.81
-7.71 14.11 1.97
-2.43 4.45 -0.62
-7.63 13.96 2.52
-1.8 3.3 -0.33
-7.41 13.55 3
-8.22 15.03 -0.9
-4.96 9.08 2.39
-8.1 14.82 -0.29
-7.57 13.85 4.23
-7.62 14.06 0.84
-1.97 3.63 -0.8
-7.71 14.22 1.42
-2.42 4.47 -0.81
-7.62 14.07 1.96
-2.41 4.45 -0.62
-7.59 14 2.52
-1.79 3.31 -0.33
-7.33 13.52 2.99
-8.01 14.77 -0.88
-7.73 14.26 3.74
-6.47 11.93 -0.24
-7.5 13.84 4.22
-6.69 12.44 0.25
-7.8 14.51 0.86
-1.95 3.63 -0.8
-7.71 14.34 1.42
-2.41 4.49 -0.81
-7.52 13.98 1.95
-2.39 4.45 -0.62
-7.51 13.98 2.51
-1.78 3.3 -0.33
-7.29 13.56 2.99
-6.28 11.68 -0.7
-7.73 14.37 3.77
-6.65 12.38 -0.25
-4.71 8.76 2.67
-7.48 14.03 0.83
-1.93 3.62 -0.8
-7.63 14.3 1.42
-7.52 14.1 1.96
-2.37 4.44 -0.62
-7.51 14.09 2.53
-1.76 3.3 -0.33
-7.23 13.57 2.99
-6.25 11.72 -0.7
-7.62 14.29 3.74
-6.64 12.46 -0.25
-4.68 8.78 2.67
-6.34 11.99 0.24
-6.26 11.85 0.7
-1.66 3.13 -0.69
-7.58 14.34 1.42
-7.42 14.04 1.95
-2.35 4.44 -0.62
-7.44 14.08 2.52
-1.74 3.3 -0.33
-7.13 13.48 2.96
-6.19 11.71 -0.69
-7.62 14.41 3.76
-6.38 12.07 -0.24
-7.3 13.8 4.18
-6.55 12.49 0.25
-7.35 14.02 0.83
-1.65 3.14 -0.69
-7.55 14.4 1.42
-7.35 14.02 1.94
-2.32 4.43 -0.61
-7.4 14.11 2.52
-1.73 3.31 -0.33
-7.13 13.6 2.98
-6.31 12.04 -0.71
-4.82 9.19 2.4
-6.3 12.02 -0.24
-4.63 8.84 2.67
-6.23 11.98 0.24
-7.27 13.98 0.83
-7.47 14.36 1.42
-7.3 14.04 1.94
-2.3 4.42 -0.61
-7.38 14.19 2.53
-1.72 3.31 -0.33
-7.58 14.59 -0.86
-4.78 9.2 2.39
-7.33 14.11 -0.28
-7.45 14.46 0.28
-7.27 14.11 0.83
-7.43 14.41 1.42
-7.15 13.88 1.92
-2.37 4.59 -0.63
-7.3 14.15 2.52
-1.71 3.31 -0.33
-7.57 14.69 3.21
-7.69 14.91 -0.88
-4.75 9.22 2.4
-8.05 15.61 -0.31
-7.3 14.28 0.28
-7.21 14.11 0.83
-7.32 14.33 1.41
-1.63 3.18 -0.57
-7.08 13.85 1.91
-7.25 14.19 2.52
-1.69 3.3 -0.32
-7.68 15.03 -0.88
-7.47 14.61 3.79
-6.13 12 -0.24
-4.56 8.93 2.69
-7.12 14.04 0.27
-7.16 14.13 0.83
-7.26 14.32 1.4
-7 13.81 1.9
-14.16 27.94 4.96
-1.67 3.3 -0.32
-7.41 14.62 3.79
-6.09 12.01 -0.23
-7.67 15.26 0.3
-7.09 14.11 0.83
-1.57 3.13 -0.68
-7.17 14.27 1.4
-13.52 26.91 3.7
-14.04 27.93 4.95
-1.66 3.31 -0.32
-7.65 15.22 -0.89
-7.38 14.69 3.8
-6.12 12.18 -0.24
-6 12.04 0.23
-7.45 14.95 0.88
-7.12 14.29 1.4
-13.4 26.91 3.69
-1.63 3.28 -0.45
-13.9 27.92 4.94
-1.65 3.31 -0.32
-7.45 14.97 -0.88
-15 30.13 7.77
-7.22 14.5 -0.28
-6.06 12.27 0.24
-5.88 11.91 0.7
-7.05 14.27 1.39
-13.29 26.91 3.68
-1.62 3.27 -0.45
-13.78 27.9 4.93
-1.63 3.31 -0.32
-5.66 11.46 -0.67
-14.92 30.22 7.78
-5.96 12.06 -0.23
-6.02 12.29 0.24
-5.9 12.05 0.7
-6.99 14.28 1.39
-1.59 3.24 -0.57
-13.16 26.87 3.67
-13.66 27.89 4.92
-1.61 3.3 -0.32
-5.63 11.49 -0.67
-14.82 30.27 7.78
-5.81 11.87 -0.23
-6.93 14.28 0.28
-5.8 11.95 0.7
-6.92 14.26 1.39
-13.05 26.87 3.67
-13.54 27.89 4.91
-1.6 3.29 -0.32
-5.91 12.16 -0.71
-7 14.41 -0.28
-5.67 11.8 0.23
-7.17 14.92 0.87
-1.53 3.17 -0.68
-6.86 14.26 1.38
-7.13 14.83 2.02
-12.81 26.63 4.68
-1.59 3.3 -0.32
-12.81 26.64 5.75
-7.35 15.29 -0.89
-6 12.47 -0.24
-7.17 15.05 0.87
-1.5 3.14 -0.68
-6.81 14.29 1.38
-7.14 14.98 2.04
-1.56 3.26 -0.44
-12.7 26.65 4.68
-1.58 3.3 -0.32
-12.7 26.64 5.74
-5.57 11.68 -0.68
-7.03 14.74 -0.29
-5.68 12.02 0.23
-5.52 11.68 0.68
-1.48 3.14 -0.67
-6.76 14.31 1.38
-12.55 26.57 3.61
-12.57 26.62 4.66
-1.56 3.3 -0.32
-12.58 26.63 5.72
-6.81 14.42 -0.84
-6.6 13.97 -0.27
-5.62 12.01 0.23
-7.14 15.25 0.88
-6.72 14.36 1.39
-1.5 3.2 -0.56
-12.43 26.55 3.6
-12.47 26.63 4.66
-1.54 3.29 -0.32
-12.48 26.65 5.72
-6.67 14.24 -0.82
-5.61 11.99 -0.23
-5.59 12.05 0.23
-7.05 15.21 0.88
-1.55 3.35 -0.72
-6.66 14.35 1.38
-1.48 3.2 -0.56
-12.32 26.58 3.6
-12.35 26.64 4.65
-1.53 3.3 -0.32
-12.35 26.64 5.71
-6.65 14.35 -0.83
-5.57 12.01 -0.23
-5.48 11.91 0.23
-6.75 14.68 0.85
-1.54 3.36 -0.72
-6.92 15.06 1.45
-12.21 26.57 3.59
-1.5 3.26 -0.44
-12.24 26.63 4.64
-1.52 3.3 -0.32
-12.24 26.62 5.7
-5.55 12.07 -0.7
-6.46 14.05 -0.27
-5.5 12.07 0.23
-5.47 11.99 0.69
-1.53 3.37 -0.72
-6.69 14.67 1.41
-1.58 3.48 -0.61
-6.6 14.49 1.96
-1.5 3.29 -0.44
-12.16 26.69 4.65
-1.51 3.3 -0.32
-12.19 26.74 5.71
-5.5 12.06 -0.69
-5.5 12.07 -0.23
-5.45 12.07 0.23
-5.37 11.88 0.68
-1.53 3.39 -0.72
-6.6 14.62 1.4
-1.58 3.5 -0.61
-12.13 26.86 3.62
-12.18 26.97 4.69
-1.49 3.3 -0.32
-12.18 26.97 5.75
-5.46 12.08 -0.69
-5.47 12.1 -0.23
-5.4 12.09 0.23
-5.24 11.74 0.67
-1.53 3.41 -0.73
-6.57 14.7 1.41
-1.55 3.47 -0.6
-6.57 14.69 1.98
-1.59 3.55 -0.48
-12.15 27.19 4.72
-1.47 3.3 -0.32
-12.17 27.23 5.8
-6.51 14.57 -0.84
-6.55 14.65 -0.28
-6.35 14.33 0.27
-5.14 11.61 0.67
-1.52 3.43 -0.73
-11.07 24.99 2.39
-1.54 3.48 -0.6
-6.51 14.69 1.97
-12.22 27.59 4.78
-1.46 3.3 -0.32
-5.53 12.49 -0.72
-5.37 12.12 -0.23
-6.42 14.63 0.28
-5.01 11.42 0.65
-1.51 3.44 -0.73
-6.44 14.69 1.4
-1.54 3.52 -0.61
-11.75 26.77 3.59
-12.11 27.59 4.77
-1.45 3.31 -0.32
-6.35 14.48 -0.83
-5.47 12.47 -0.24
-6.28 14.45 0.27
-1.5 3.45 -0.73
-6.39 14.7 1.4
-11.6 26.67 3.57
-12.07 27.76 4.79
-1.44 3.31 -0.32
-5.29 12.17 -0.7
-5.5 12.66 -0.24
-5.32 12.24 3.58
-5.35 12.43 0.24
-5.32 12.36 0.71
-1.49 3.47 -0.73
-11.05 25.67 2.44
-1.49 3.47 -0.6
-11.51 26.74 3.57
-11.91 27.67 4.77
-1.43 3.31 -0.32
-5.34 12.41 -0.71
-5.34 12.4 -0.24
-5.3 12.42 0.24
-5.3 12.42 0.71
-1.51 3.54 -0.75
-6.32 14.82 1.41
-1.47 3.44 -0.59
-6.32 14.81 1.98
-11.84 27.76 4.78
-1.41 3.31 -0.31
-5.28 12.37 -0.7
-5.29 12.4 -0.24
-5.24 12.4 0.23
-5.26 12.45 0.71
-1.5 3.54 -0.75
-10.92 25.84 2.45
-1.46 3.45 -0.59
-11.28 26.7 3.56
-11.71 27.71 4.76
-1.4 3.31 -0.31
-5.29 12.53 -0.71
-5.24 12.39 -0.23
-5.05 11.96 3.48
-5.91 14.12 0.27
-6.35 15.16 0.86
-10.81 25.83 2.45
-1.44 3.43 -0.59
-11.17 26.7 3.55
-11.6 27.71 4.76
-1.39 3.32 -0.31
-5.21 12.46 -0.71
-6 14.33 -0.27
-5.02 11.99 3.48
-5.32 12.84 0.24
-10.33 24.94 1.41
-10.67 25.77 2.44
-1.43 3.44 -0.59
-11.01 26.59 3.53
-11.49 27.73 4.75
-1.38 3.32 -0.31
-5.15 12.44 -0.71
-5.95 14.35 -0.27
-4.96 11.98 3.47
-5.19 12.65 0.24
-4.69 11.44 0.65
-10.6 25.82 2.44
-1.42 3.45 -0.59
-10.95 26.69 3.54
-11.36 27.69 4.74
-1.36 3.33 -0.31
-5.13 12.5 -0.71
-4.84 11.8 -0.22
-4.4 10.72 3.1
-4.68 11.54 0.22
-4.7 11.56 0.65
-10.48 25.81 2.44
-1.4 3.45 -0.59
-10.84 26.7 3.54
-11.24 27.68 4.73
-1.35 3.32 -0.31
-5.11 12.59 -0.71
-5.72 14.08 -0.27
-4.36 10.73 3.1
-4.68 11.63 0.22
-4.72 11.73 0.66
-4.68 11.63 1.1
-1.39 3.46 -0.59
-10.7 26.6 3.52
-11.13 27.68 4.73
-1.34 3.32 -0.31
-6.09 15.14 -0.86
-5.38 13.38 3.33
-5.81 14.45 -0.27
-4.91 12.21 3.53
-4.62 11.6 0.22
-4.67 11.73 0.66
-10.28 25.82 2.43
-10.62 26.69 3.53
-11.01 27.67 4.72
-1.32 3.32 -0.31
-6.26 15.72 -0.89
-4.46 11.2 2.78
-4.82 12.11 -0.23
-4.68 11.77 3.39
-4.77 12.1 0.23
-4.73 12.01 0.68
-5.54 14.07 1.32
-10.51 26.69 3.52
-10.9 27.68 4.71
-1.31 3.33 -0.31
-4.47 11.34 2.37
-4.65 11.81 -0.66
-4.41 11.18 2.77
-5.62 14.26 -0.27
-4.81 12.21 3.52
-4.39 11.25 0.21
-4.39 11.27 0.63
-4.4 11.28 1.06
-4.41 11.3 1.49
-4.41 11.31 1.92
-1.3 3.33 -0.31
-4.42 11.33 2.36
-4.38 11.23 -0.63
-4.38 11.23 2.78
-4.37 11.22 -0.21
-4.65 11.93 3.43
-4.34 11.25 0.21
-4.35 11.27 0.63
-4.36 11.29 1.06
-4.37 11.33 1.49
-1.73 4.47 -0.59
-4.37 11.34 1.92
-1.28 3.32 -0.31
-4.38 11.35 2.37
-4.33 11.23 -0.63
-4.81 12.47 3.09
-4.33 11.23 -0.21
-4.61 11.95 3.43
-4.31 11.27 0.21
-4.32 11.3 0.63
-5.4 14.15 1.32
-1.71 4.48 -0.59
-1.27 3.33 -0.31
-4.3 11.26 -0.63
-4.74 12.4 3.07
-4.3 11.26 -0.21
-4.72 12.35 3.54
-5.32 14.06 0.79
-5.37 14.21 1.33
-1.68 4.44 -0.75
-10.08 26.65 3.5
-1.57 4.16 -0.55
-10.45 27.64 4.68
-1.26 3.34 -0.31
-4.57 12.1 -0.68
-4.7 12.44 3.07
-4.56 12.07 -0.23
-4.64 12.28 3.52
-5.34 14.28 0.8
-1.49 3.98 -0.83
-1.66 4.45 -0.75
-9.97 26.65 3.49
-1.54 4.13 -0.54
-10.33 27.61 4.67
-1.25 3.34 -0.31
-4.41 11.78 -0.66
-4.69 12.54 3.09
-5.26 14.06 -0.26
-4.61 12.32 3.52
-4.35 11.74 0.22
-5.28 14.26 0.8
-1.47 3.97 -0.82
-9.55 25.78 2.4
-1.68 4.52 -0.76
-9.86 26.63 3.49
-1.53 4.13 -0.54
-10.22 27.6 4.66
-1.24 3.34 -0.31
-5.23 14.13 2.93
-4.36 11.78 -0.66
-4.64 12.53 3.08
-5.31 14.33 -0.27
-4.55 12.28 3.51
-4.3 11.76 0.22
-5.26 14.37 0.8
-1.46 3.98 -0.82
-9.43 25.77 2.4
-1.65 4.51 -0.76
-9.75 26.64 3.48
-1.52 4.16 -0.54
-10.11 27.61 4.66
-1.22 3.33 -0.31
-4.3 11.74 -0.66
-4.52 12.36 3.04
-8.78 23.99 -0.45
-4.58 12.5 3.57
-5.3 14.62 0.27
-5.2 14.36 0.8
-1.45 4.01 -0.83
-9.34 25.78 2.4
-1.63 4.5 -0.76
-9.65 26.64 3.48
-1.5 4.15 -0.54
-10 27.6 4.65
-1.21 3.34 -0.31
-4.21 11.62 -0.65
-5.13 14.17 -0.26
-4.7 12.97 3.69
-5.22 14.57 0.27
-5.29 14.76 0.82
-1.45 4.05 -0.84
-9.23 25.78 2.4
-9.54 26.62 3.47
-1.49 4.16 -0.54
-9.88 27.57 4.64
-1.2 3.34 -0.31
-5.08 14.19 2.93
-5.55 15.5 -0.86
-4.51 12.58 3.09
-5.07 14.16 -0.26
-4.41 12.31 3.5
-5.12 14.46 0.27
-5.13 14.48 0.8
-1.48 4.18 -0.86
-9.13 25.78 2.39
-9.42 26.59 3.46
-9.77 27.58 4.63
-1.19 3.35 -0.31
-5.03 14.19 2.93
-5.5 15.52 -0.86
-4.67 13.17 3.23
-5.29 14.92 -0.28
-3.64 10.26 2.92
-5.08 14.49 0.27
-5.24 14.94 0.83
-1.48 4.22 -0.87
-9.03 25.78 2.39
-9.32 26.59 3.46
-9.66 27.58 4.63
-1.17 3.35 -0.31
-17.89 51.07 10.52
-5.4 15.4 -0.86
-4.64 13.24 3.24
-5.15 14.7 -0.27
-3.63 10.35 2.94
-4.15 11.97 0.22
-5.19 14.99 0.83
-1.49 4.3 -0.89
-8.92 25.75 2.38
-9.22 26.6 3.46
-9.55 27.58 4.62
-1.16 3.34 -0.31
-4.9 14.15 2.91
-5.35 15.43 -0.86
-4.77 13.77 3.36
-4.14 11.95 -0.22
-3.61 10.42 2.95
-4.01 11.71 0.22
-5.13 14.96 0.83
-1.5 4.38 -0.9
-8.83 25.76 2.38
-9.12 26.6 3.45
-9.45 27.58 4.62
-1.15 3.34 -0.31
-4.63 13.5 2.77
-8.22 23.97 -1.33
-4.51 13.15 3.21
-4.29 12.5 -0.23
-4.05 11.83 3.35
-4.97 14.68 0.27
-5.07 14.95 0.83
-1.52 4.48 -0.92
-8.73 25.76 2.38
-9.01 26.59 3.45
-9.34 27.57 4.61
-1.14 3.35 -0.31
-4.35 12.85 2.64
-5 14.76 -0.82
-4.69 13.83 3.37
-3.54 10.44 2.95
-4.07 12.16 0.22
-5.01 14.96 0.83
-8.63 25.76 2.38
-8.9 26.56 3.44
-9.23 27.56 4.6
-1.12 3.35 -0.31
-4.32 12.91 2.65
-4.13 12.32 -0.68
-4.48 13.36 3.25
-4.03 12.02 -0.22
-4.62 13.78 3.89
-3.85 11.63 0.21
-4.93 14.89 0.82
-8.53 25.75 2.37
-8.78 26.51 3.43
-9.12 27.56 4.6
-1.11 3.35 -0.31
-4.61 13.92 2.85
-4.1 12.37 -0.68
-4.08 12.31 2.99
-3.86 11.65 -0.21
-3.47 10.49 2.96
-3.84 11.73 0.22
-4.86 14.84 0.82
-8.43 25.74 2.37
-8.69 26.53 3.43
-9.02 27.55 4.59
-1.09 3.34 -0.31
-3.89 11.89 2.43
-4.79 14.64 -0.81
-4 12.21 2.97
-3.84 11.73 -0.22
-3.47 10.59 2.99
-3.95 12.2 0.22
-4.82 14.89 0.82
-8.33 25.74 2.37
-8.6 26.58 3.43
-8.91 27.53 4.58
-1.08 3.35 -0.31
-4.35 13.43 2.74
-4.76 14.7 -0.81
-3.94 12.19 2.96
-3.96 12.24 -0.22
-3.77 11.65 3.28
-4.76 14.87 0.27
-4.74 14.84 0.82
-4.78 14.95 1.37
-8.49 26.57 3.42
-4.8 15.03 2.5
-1.07 3.35 -0.31
-4.09 12.81 2.61
-3.9 12.2 -0.67
-3.92 12.26 2.97
-4.78 14.96 -0.27
-3.43 10.72 3.02
-3.92 12.42 0.23
-4.71 14.9 0.82
-8.13 25.74 2.36
-8.39 26.55 3.42
-4.73 14.96 2.48
-1.06 3.36 -0.31
-3.86 12.21 -0.67
-4.51 14.29 3.46
-4.69 14.84 -0.27
-3.84 12.29 0.22
-8.03 25.72 2.36
-8.28 26.52 3.41
-8.59 27.5 4.56
-1.05 3.35 -0.31
-4.16 13.32 2.71
-4.66 14.92 -0.82
-3.83 12.28 -0.22
-3.31 10.62 2.98
-4.64 15.05 0.27
-3.62 11.73 0.64
-7.92 25.66 2.35
-8.18 26.52 3.41
-8.48 27.49 4.56
-1.03 3.35 -0.31
-3.96 12.84 2.61
-4.6 14.92 -0.82
-4.57 14.82 -0.27
-3.32 10.78 3.02
-3.72 12.2 0.22
-3.61 11.86 0.65
-8.22 27 2.47
-8.08 26.52 3.4
-8.37 27.49 4.55
-1.02 3.36 -0.31
-4.54 14.9 -0.82
-3.99 13.1 3.16
-3.92 12.86 -0.23
-3.94 12.94 3.63
-3.72 12.35 0.23
-8.3 27.58 1.51
-8.18 27.2 2.49
-7.96 26.46 3.39
-4.58 15.21 2.52
-1.01 3.36 -0.31
-4.48 14.9 -0.82
-3.94 13.09 3.16
-3.6 12.1 0.22
-8.25 27.76 1.52
-8.19 27.56 2.52
-8.29 27.89 3.57
-0.99 3.33 -0.43
-4.37 14.72 2.43
-1 3.36 -0.31
-3.91 13.16 2.67
-3.75 12.62 -0.69
-3.76 12.66 -0.23
-3.54 11.92 3.33
-3.59 12.23 0.22
-8.15 27.77 1.52
-8.19 27.92 2.55
-8.27 28.19 3.61
-0.97 3.29 -0.42
-4.48 15.26 2.52
-0.99 3.36 -0.31
-3.86 13.15 2.66
-4.82 16.41 -0.9
-4.16 14.18 3.41
-3.77 12.84 -0.23
-3.48 11.85 3.31
-3.68 12.72 0.23
-8.13 28.08 1.53
-8.19 28.29 2.58
-8.28 28.6 3.66
-4.29 14.8 2.44
-0.97 3.35 -0.31
-3.73 12.89 2.61
-4.79 16.55 -0.9
-4.12 14.24 3.42
-3.72 12.84 -0.23
-3.55 12.25 3.42
-8.12 28.4 0.52
-3.33 11.64 0.63
-8.2 28.67 2.61
-4.47 15.63 2
-0.94 3.3 -0.42
-8.27 28.94 4.77
-0.96 3.35 -0.31
-3.72 13.01 2.63
-4.68 16.36 -0.89
-3.67 12.83 -0.23
-4 13.98 3.9
-3.41 12.1 0.22
-3.34 11.84 0.64
-0.9 3.19 -0.64
-8.2 29.07 2.64
-8.25 29.25 3.73
-0.93 3.3 -0.42
-4.15 14.72 2.42
-0.95 3.36 -0.31
-4.13 14.65 2.96
-4.62 16.37 -0.89
-3.47 12.29 2.95
-3.62 12.83 -0.23
-3.93 13.94 3.88
-3.38 12.16 0.22
-3.31 11.89 0.65
-0.89 3.19 -0.64
-3.34 11.98 1.09
-0.92 3.3 -0.54
-8.25 29.63 3.78
-0.92 3.29 -0.42
-4.24 15.25 2.51
-0.94 3.37 -0.31
-3.4 12.21 2.93
-3.56 12.81 -0.23
-3.44 12.36 3.44
-3.3 12.06 0.22
-3.3 12.03 0.65
-0.87 3.18 -0.64
-8.19 29.89 2.71
-0.89 3.24 -0.53
-8.14 29.68 3.78
-0.9 3.29 -0.42
-4.19 15.29 2.51
-0.92 3.36 -0.3
-3.53 12.87 2.59
-3.58 13.07 -0.71
-3.34 12.19 2.92
-3.38 12.33 -0.22
-3.3 12.22 0.22
-3.32 12.26 0.67
-0.86 3.19 -0.64
-3.21 11.87 1.08
-0.87 3.22 -0.53
-8.03 29.7 3.78
-0.89 3.3 -0.42
-3.65 13.5 2.22
-0.91 3.35 -0.3
-3.26 12.06 2.43
-3.36 12.42 -0.67
-3.45 12.74 3.05
-3.26 12.07 -0.22
-2.91 10.77 2.99
-3.25 12.16 0.22
-3.3 12.36 0.67
-0.85 3.19 -0.64
-3.17 11.86 1.07
-0.86 3.22 -0.53
-4.09 15.32 1.95
-0.88 3.3 -0.42
-4.3 16.09 2.64
-0.9 3.36 -0.3
-4.13 15.47 3.11
-3.13 11.73 -0.64
-4.1 15.34 3.66
-3.27 12.25 -0.22
-3.31 12.39 3.44
-8.12 30.81 0.56
-8.15 30.96 1.68
-0.84 3.2 -0.64
-3.12 11.84 1.07
-0.85 3.24 -0.53
-3.66 13.89 1.76
-0.87 3.3 -0.42
-0.89 3.37 -0.3
-3.4 12.92 2.6
-3.35 12.74 3.04
-3.08 11.68 -0.21
-3.2 12.16 3.37
-8.11 31.26 0.56
-0.83 3.2 -0.64
-7.92 30.52 2.76
-0.84 3.25 -0.53
-0.85 3.29 -0.42
-4.15 16 2.62
-0.88 3.38 -0.31
-3.36 12.94 2.6
-3.38 13.01 -0.7
-3.43 13.23 3.16
-3.04 11.7 -0.21
-3.07 11.84 3.28
-3.11 12.15 0.22
-3.03 11.85 0.64
-0.82 3.19 -0.64
-3.16 12.35 1.12
-0.83 3.25 -0.53
-3.68 14.4 1.82
-0.84 3.3 -0.42
-3.45 13.5 2.21
-0.86 3.37 -0.3
-3.84 15.03 3.02
-3.33 13 -0.7
-3.94 15.41 3.67
-3.27 12.77 -0.23
-2.91 11.4 3.15
-2.96 11.72 0.21
-3.03 12 0.65
-0.8 3.19 -0.64
-9.11 36.11 3.26
-0.82 3.26 -0.53
-3.64 14.42 1.83
-0.83 3.3 -0.42
-3.36 13.3 2.17
-0.85 3.36 -0.3
-3.83 15.18 3.04
-3.22 12.74 3.03
-3.22 12.75 -0.23
-2.88 11.42 3.16
-2.91 11.71 0.21
-9.15 36.79 1.99
-0.8 3.2 -0.64
-0.81 3.25 -0.53
-3.6 14.48 1.83
-0.82 3.31 -0.42
-3.34 13.43 2.19
-0.84 3.37 -0.3
-3.11 12.52 2.51
-3.22 12.96 -0.7
-3.87 15.56 3.7
-3.18 12.77 -0.23
-3.08 12.39 3.42
-2.86 11.67 0.21
-8.77 35.83 1.93
-0.78 3.2 -0.64
-8.73 35.66 3.21
-0.8 3.25 -0.53
-3.55 14.48 1.83
-0.81 3.3 -0.42
-3.46 14.11 2.3
-0.83 3.37 -0.3
-3.06 12.5 2.5
-3.17 12.93 -0.7
-3.03 12.38 2.94
-3.12 12.73 -0.23
-2.76 11.28 3.11
-9.02 37.37 0.67
-2.9 12 0.65
-0.77 3.2 -0.64
-2.87 11.89 1.07
-0.78 3.25 -0.53
-3.31 13.71 1.73
-0.8 3.31 -0.42
-3.55 14.71 2.4
-0.82 3.38 -0.3
-3.51 14.56 2.91
-3.12 12.93 -0.7
-2.9 12.01 2.85
-3.06 12.69 -0.23
-3.3 13.67 3.77
-8.69 36.58 0.66
-2.84 11.94 0.64
-0.76 3.2 -0.64
-0.77 3.25 -0.53
-3.25 13.7 1.73
-3.49 14.71 2.39
-0.8 3.38 -0.3
-3.07 12.92 -0.7
-2.85 12 2.85
-3.02 12.72 -0.23
-2.85 11.99 3.3
-8.54 36.53 0.65
-2.8 11.98 0.64
-0.75 3.2 -0.64
-0.76 3.25 -0.53
-3.21 13.72 2.23
-0.79 3.37 -0.3
-3.04 13.01 2.6
-3.02 12.91 -0.69
-2.76 11.8 2.8
-2.98 12.74 -0.23
-2.75 11.74 3.23
-8.43 36.63 0.66
-2.74 11.9 0.64
-0.74 3.2 -0.64
-0.75 3.25 -0.53
-3.2 13.91 1.75
-3 13.05 2.12
-0.78 3.38 -0.3
-2.96 12.88 -0.69
-3.37 14.66 3.47
-2.93 12.74 -0.23
-2.71 11.76 3.23
-8.37 36.96 0.66
-2.68 11.84 0.64
-0.73 3.21 -0.64
-8.12 35.85 3.22
-0.74 3.24 -0.53
-3.1 13.7 1.72
-2.96 13.06 2.12
-0.77 3.38 -0.3
-3.33 14.7 2.93
-2.91 12.85 -0.69
-2.84 12.55 2.97
-2.88 12.73 -0.23
-2.6 11.47 3.15
-8.3 37.27 0.67
-2.62 11.78 0.63
-0.71 3.2 -0.64
-7.95 35.7 3.2
-0.73 3.25 -0.53
-3.01 13.51 1.7
-3.06 13.71 2.23
-0.76 3.39 -0.3
-2.81 12.63 2.51
-2.86 12.83 -0.69
-2.73 12.24 2.9
-2.85 12.8 -0.23
-3.36 15.07 4.14
-8.42 38.42 0.69
-8.03 36.62 1.96
-0.7 3.2 -0.64
-8.13 37.09 3.32
-0.71 3.26 -0.53
-3.21 14.66 1.84
-0.74 3.39 -0.3
-2.68 12.25 2.44
-2.82 12.87 -0.69
-2.6 11.86 2.8
-2.83 12.91 -0.23
-2.59 11.84 3.25
-8.29 38.46 0.69
-7.96 36.93 1.98
-0.69 3.21 -0.64
-0.71 3.28 -0.53
-3.24 15.05 1.89
-2.96 13.72 2.22
-0.73 3.38 -0.3
-2.65 12.28 2.44
-2.77 12.86 -0.69
-2.6 12.07 2.85
-2.79 12.96 -0.23
-2.3 10.69 2.93
-7.87 37.11 0.66
-7.8 36.8 1.97
-0.68 3.21 -0.64
-8.1 38.23 3.42
-2.9 13.67 1.72
-2.91 13.73 2.22
-0.72 3.39 -0.3
-2.58 12.17 2.42
-2.72 12.84 -0.69
-2.75 12.99 -0.23
-2.56 12.08 3.31
-7.79 37.4 0.67
-7.97 38.25 2.05
-0.67 3.22 -0.64
-2.84 13.64 1.71
-2.72 13.06 2.11
-0.71 3.4 -0.3
-2.65 12.71 2.52
-0.82 3.93 -0.21
-2.47 11.87 2.8
-2.77 13.31 -0.24
-2.76 13.24 3.63
-8.21 40.1 0.71
-7.89 38.53 2.06
-0.66 3.21 -0.64
-2.82 13.78 1.23
-2.73 13.31 1.67
-0.92 4.52 -0.57
-2.67 13.02 2.11
-0.7 3.41 -0.3
-2.42 11.81 2.78
-2.72 13.3 -0.24
-2.45 11.95 3.27
-8.06 40.13 0.71
-7.73 38.48 2.06
-0.64 3.21 -0.64
-2.79 13.88 1.24
-2.66 13.23 1.66
-0.91 4.53 -0.57
-2.54 12.63 2.04
-0.68 3.41 -0.3
-2.43 12.09 2.4
-2.57 12.81 -0.68
-2.67 13.29 -0.24
-2.38 11.87 3.24
-0.63 3.21 -0.64
-2.73 13.81 1.23
-2.61 13.22 1.65
-0.9 4.54 -0.57
-2.49 12.64 2.04
-0.67 3.41 -0.3
-2.39 12.11 2.4
-2.5 12.69 -0.68
-2.41 12.19 -0.22
-2.22 11.22 3.07
-2.45 12.63 0.22
-0.62 3.22 -0.64
-2.66 13.72 1.22
-2.56 13.21 1.65
-0.88 4.54 -0.57
-2.52 13.01 2.1
-0.66 3.42 -0.31
-2.34 12.07 2.39
-2.4 12.37 -0.66
-2.37 12.2 -0.22
-2.19 11.28 3.08
-2.47 13 0.23
-7.11 37.34 1.99
-2.61 13.69 1.22
-2.51 13.2 1.65
-0.86 4.53 -0.57
-2.47 12.97 2.09
-0.65 3.42 -0.3
-2.43 12.76 2.52
-2.43 12.77 -0.68
-2.29 12.03 -0.21
-2.08 10.93 2.98
-7.14 38.24 2.04
-2.53 13.58 1.21
-2.43 13 1.62
-0.85 4.53 -0.57
-2.42 12.96 2.09
-0.64 3.43 -0.31
-2.38 12.75 2.52
-2.25 12.05 -0.64
-2.27 12.19 -0.22
-2.25 12.03 3.28
-2.41 13.17 0.23
-2.49 13.58 0.72
-2.44 13.35 1.19
-2.39 13.03 1.63
-2.39 13.05 2.1
-0.63 3.43 -0.31
-2.34 12.77 2.52
-2.21 12.06 -0.64
-2.19 11.97 2.81
-2.23 12.16 -0.22
-2.13 11.64 3.17
-2.37 13.23 0.23
-2.42 13.47 0.72
-2.39 13.31 1.18
-2.34 13.06 1.63
-2.37 13.2 2.12
-0.62 3.44 -0.31
-2.16 12.03 -0.64
-2.07 11.53 2.7
-2.48 13.83 -0.25
-2.07 11.57 3.15
-2.34 13.28 0.24
-2.34 13.3 0.71
-2.34 13.33 1.18
-2.3 13.08 1.63
-2.36 13.41 2.16
-0.61 3.44 -0.31
-2.56 14.55 2.87
-2.31 13.13 -0.7
-2.08 11.85 2.78
-2.02 11.48 3.12
-2.3 13.35 0.24
-0.55 3.19 -0.75
-2.29 13.32 0.71
-2.31 13.39 1.19
-2.3 13.33 1.66
-0.6 3.46 -0.31
-2.28 13.23 -0.7
-2.56 14.84 3.48
-2.15 12.46 -0.22
-2.29 13.32 3.62
-2.26 13.39 0.24
-0.54 3.2 -0.75
-2.25 13.33 0.71
-2.23 13.2 1.17
-0.77 4.55 -0.73
-2.25 13.35 1.66
-2.3 13.63 2.19
-0.58 3.47 -0.31
-2.77 16.45 3.24
-2.25 13.36 -0.71
-2.36 13.99 3.28
-2.25 13.34 -0.24
-2.18 12.94 3.52
-2.22 13.41 0.24
-0.53 3.2 -0.75
-2.21 13.38 0.71
-2.17 13.15 1.17
-0.76 4.58 -0.73
-2.25 13.61 1.69
-2.44 14.73 2.37
-0.58 3.48 -0.31
-2.55 15.44 3.04
-2.21 13.34 -0.71
-1.95 11.81 2.76
-2.2 13.33 -0.24
-1.98 11.98 3.25
-2.18 13.48 0.24
-0.52 3.2 -0.75
-2.18 13.45 0.71
-2.14 13.22 1.17
-0.75 4.61 -0.74
-2.43 14.98 1.86
-2.43 14.99 2.41
-0.57 3.49 -0.31
-2.02 12.45 2.45
-2.16 13.35 -0.71
-1.91 11.8 2.76
-2.16 13.36 -0.24
-1.96 12.11 3.29
-0.51 3.2 -0.75
-2.09 13.21 1.17
-2.2 13.91 2.23
-0.56 3.51 -0.31
-2.11 13.34 2.63
-1.86 11.73 -0.62
-1.88 11.89 2.78
-2.12 13.42 -0.24
-2.21 14 3.8
-1.83 11.84 0.21
-0.49 3.19 -0.74
-5.21 33.66 2.98
-2.33 15.06 1.87
-2.16 13.99 2.24
-0.55 3.55 -0.31
-1.92 12.38 2.44
-1.81 11.7 -0.62
-2.17 14.04 3.28
-2.2 14.23 -0.25
-1.95 12.92 0.23
-0.48 3.19 -0.74
-4.78 31.65 2.8
-4.8 31.8 3.95
-2.23 14.78 2.37
-0.55 3.61 -0.32
-1.77 11.74 -0.62
-2.11 13.94 3.25
-2.16 14.33 -0.25
-2.49 16.5 4.47
-1.91 12.92 0.23
-0.47 3.19 -0.74
-1.88 12.76 0.68
-4.62 31.29 2.77
-2.32 15.73 1.95
-1.92 13.03 2.09
-0.54 3.67 -0.32
-1.98 13.4 2.63
-1.73 11.7 -0.62
-1.66 11.22 2.62
-1.95 13.2 -0.23
-1.83 12.38 3.35
-1.99 13.84 0.24
-0.46 3.2 -0.75
-1.84 12.8 0.68
-2.16 15 1.33
-2.05 14.22 1.76
-0.5 3.45 -0.43
-1.88 13.04 2.09
-0.54 3.76 -0.33
-1.94 13.47 2.65
-1.68 11.68 -0.62
-1.95 13.57 -0.24
-1.92 13.32 3.61
-1.94 13.81 0.24
-0.45 3.21 -0.75
-1.81 12.85 0.68
-1.96 13.98 1.23
-1.99 14.14 1.75
-1.98 14.07 2.25
-0.57 4.07 -0.36
-1.96 13.93 2.73
-1.92 13.7 -0.72
-1.59 11.32 2.64
-1.93 13.76 -0.24
-2.01 14.29 3.87
-1.89 13.8 0.24
-0.44 3.21 -0.75
-1.9 13.87 0.73
-1.9 13.91 1.23
-1.9 13.92 1.72
-1.9 13.85 2.21
-1.67 12.2 -1.08
-1.94 14.17 2.78
-1.88 13.73 -0.73
-1.53 11.15 2.6
-1.88 13.77 -0.24
-1.82 13.31 3.6
-1.85 13.84 0.24
-0.43 3.21 -0.75
-1.85 13.87 0.73
-1.86 13.92 1.23
-1.86 13.93 1.73
-1.85 13.87 2.22
-1.94 14.53 2.85
-1.83 13.75 -0.73
-1.66 12.42 2.89
-1.71 12.83 -0.23
-1.78 13.34 3.6
-0.42 3.24 -0.75
-1.81 13.93 0.74
-1.81 13.94 1.23
-1.81 13.97 1.73
-1.58 12.15 -1.07
-1.78 13.73 2.69
-1.91 14.69 -0.78
-1.67 12.84 -0.23
-1.91 14.71 3.97
-1.53 12.11 0.21
-0.41 3.24 -0.75
-1.77 14.01 0.74
-1.82 14.44 1.79
-1.84 14.59 2.33
-1.51 11.96 -1.06
-1.63 12.9 2.53
-1.87 14.83 -0.78
-1.58 12.51 2.91
-1.64 12.99 -0.23
-1.53 12.09 3.27
-0.4 3.29 -0.77
-1.73 14.05 0.74
-1.78 14.5 1.79
-1.76 14.35 2.29
-1.47 12.01 -1.06
-1.59 12.98 2.54
-1.84 14.97 -0.79
-1.37 11.18 2.6
-1.58 12.86 -0.23
-1.58 12.9 3.48
-5.34 44.76 0.79
-1.68 14.07 0.74
-3.67 30.77 2.71
-1.73 14.53 1.8
-1.69 14.16 2.26
-1.44 12.06 -1.06
-1.55 12.97 2.54
-1.41 11.79 -0.62
-1.64 13.79 3.21
-1.33 11.17 3.01
-1.5 12.99 0.23
-3.66 31.63 2.79
-3.71 32.1 3.97
-1.63 14.07 2.24
-1.36 11.74 -1.03
-1.46 12.65 2.47
-1.37 11.83 -0.62
-1.79 15.46 -0.27
-1.6 13.85 3.74
-3.75 33.46 1.76
-3.52 31.42 2.77
-3.57 31.85 3.94
-1.58 14.13 2.25
-1.35 12 -1.06
-1.42 12.64 2.47
-1.73 15.39 -0.81
-1.5 13.35 3.1
-1.74 15.52 -0.27
-1.76 15.71 4.24
-4.72 43.45 0.76
-3.57 32.82 2.89
-3.46 31.87 3.94
-1.61 14.79 2.36
-1.68 15.45 -1.36
-1.29 11.88 2.32
-1.69 15.55 -0.82
-1.4 12.86 2.99
-1.72 15.82 -0.28
-1.52 14 3.77
-1.28 12.19 0.21
-3.45 32.78 1.73
-3.45 32.78 2.88
-3.32 31.6 3.9
-1.23 11.72 -1.45
-1.56 14.8 2.36
-1.23 11.72 -1.03
-1.4 13.28 2.6
-1.65 15.72 -0.83
-1.26 11.96 2.78
-1.68 15.97 -0.28
-1.38 13.14 3.54
-4.55 44.75 0.79
-0.34 3.32 -0.77
-4.07 40.12 2.11
-1.4 13.79 1.21
-1.51 14.9 1.84
-1.19 11.74 -1.45
-1.6 15.77 -1.39
-1.19 11.76 2.3
-1.61 15.85 -0.83
-1.65 16.29 3.78
-1.29 12.66 -0.22
-1.25 12.33 3.32
-0.33 3.36 -0.78
-3.13 31.94 1.68
-0.33 3.38 -0.66
-1.35 13.76 1.21
-1.15 11.75 -1.45
-1.5 15.33 2.44
-1.56 15.92 -1.4
-1.14 11.67 2.28
-1.57 16 -0.84
-1.17 11.93 2.77
-1.24 12.66 -0.22
-1.52 15.47 4.16
-1.18 12.47 0.22
-0.32 3.36 -0.78
-3.79 40.07 2.11
-1.3 13.75 1.21
-3.06 32.31 3.98
-1.11 11.73 -1.45
-1.35 14.21 2.26
-1.52 16.06 -1.41
-4.22 44.57 8.7
-1.53 16.16 -0.85
-1.13 11.9 2.76
-1.2 12.63 -0.22
-1.14 12.51 0.22
-0.31 3.36 -0.78
-3.55 38.9 2.05
-1.25 13.76 1.21
-2.89 31.66 3.9
-1.07 11.75 -1.45
-1.3 14.31 2.28
-1.16 12.75 -1.12
-1.16 12.77 -0.67
-1.08 11.89 2.76
-1.16 12.74 -0.22
-1.3 14.23 3.83
-1.1 12.55 0.22
-0.3 3.37 -0.78
-2.96 33.73 1.77
-2.71 30.96 3.82
-1.03 11.75 -1.45
-1.24 14.12 2.25
-1.12 12.75 -1.12
-1.01 11.52 2.25
-1.12 12.74 -0.67
-1.04 11.9 2.76
-1.12 12.75 -0.22
-1.11 12.61 3.39
-1.06 12.55 0.22
-0.28 3.36 -0.78
-2.73 32.47 1.71
-2.65 31.44 2.76
-1.2 14.3 1.76
-1.07 12.77 -1.57
-2.7 32.09 5.1
-1.07 12.73 -1.12
-1.07 12.71 -0.67
-1.26 14.97 3.47
-1.07 12.69 -0.22
-1.01 12.55 0.22
-0.27 3.38 -0.78
-1.03 12.81 0.67
-0.29 3.55 -0.69
-2.54 31.48 2.76
-1.02 12.63 -2.01
-1.15 14.31 1.76
-1.02 12.62 -1.55
-1.16 14.37 2.28
-1.02 12.64 -1.11
-1.13 13.96 2.72
-1.02 12.64 -0.66
-1.2 14.88 3.45
-1.02 12.63 -0.22
-0.96 11.89 3.2
-0.97 12.57 0.22
-3.04 39.38 2.07
-0.28 3.57 -0.7
-2.43 31.47 2.76
-0.97 12.63 -2.01
-2.48 32.12 3.96
-1.12 14.49 2.3
-0.97 12.56 -1.1
-0.97 12.6 -0.66
-0.94 12.13 2.81
-0.97 12.57 -0.22
-0.9 11.67 3.14
-0.93 12.58 0.22
-0.25 3.38 -0.78
-2.51 34.09 1.79
-0.27 3.62 -0.71
-2.33 31.71 2.78
-0.93 12.58 -2
-2.38 32.33 3.98
-1.07 14.56 2.31
-0.93 12.61 -1.11
-1.04 14.09 2.75
-0.93 12.62 -0.66
-1.16 15.78 3.65
-0.93 12.63 -0.22
-0.86 11.67 3.14
-0.88 12.57 0.22
-0.24 3.42 -0.79
-2.39 34.03 1.79
-0.26 3.71 -0.72
-2.2 31.39 2.75
-0.88 12.62 -2
-2.81 40.05 4.93
-1.02 14.53 2.31
-0.88 12.6 -1.11
-0.98 14.04 2.74
-0.89 12.63 -0.66
-0.86 12.26 2.84
-0.88 12.58 -0.22
-0.82 11.67 3.13
-0.23 3.38 -0.91
-0.23 3.45 -0.8
-0.93 13.91 0.73
