# .PCD v0.7 - Point Cloud Data file format
VERSION 0.7
FIELDS x y z
SIZE 4 4 4
TYPE F F F
COUNT 1 1 1
WIDTH 2597
HEIGHT 1
VIEWPOINT 0 0 0 1 0 0 0
POINTS 2597
DATA ascii
2.41 -18.76 2.32
2.21 -17.25 -2.14
1.43 -11.17 1.78
1.98 -15.44 -1.36
1.25 -9.72 1.9
1.41 -11.01 -0.58
1.4 -10.91 2.54
1.49 -11.58 -0.2
1.19 -9.3 2.51
1.16 -9.26 -2.5
1.31 -10.45 0.18
1.31 -10.45 -2.43
1.28 -10.25 0.54
1.57 -12.59 -2.47
1.3 -10.43 0.92
1.87 -14.96 -2.39
1.3 -10.38 1.28
2.14 -17.13 -2.12
1.69 -13.5 2.15
2.04 -16.35 -1.44
2.03 -16.24 3.18
1.39 -11.17 -0.59
1.17 -9.35 2.52
1.13 -9.27 -2.5
1.27 -10.46 0.18
1.27 -10.46 -2.43
1.26 -10.37 0.55
1.53 -12.62 -2.47
1.47 -12.07 1.06
1.82 -15.01 -2.39
2.26 -18.59 2.3
2.08 -17.12 -2.12
1.64 -13.49 2.15
2.44 -20.05 -1.77
1.19 -9.77 1.91
1.36 -11.19 -0.59
2.04 -16.79 3.9
1.44 -11.84 -0.21
1.22 -10.01 2.7
1.09 -9.29 -2.51
1.34 -11.37 0.2
1.24 -10.51 -2.44
1.49 -12.62 -2.47
3.38 -28.7 2.53
1.77 -15.06 -2.4
1.23 -10.47 1.29
2.02 -17.14 -2.12
1.88 -15.97 2.55
2.05 -17.43 -1.54
2 -16.96 3.32
1.35 -11.46 -0.6
1.98 -16.82 3.91
1.91 -16.28 4.39
1.06 -9.31 -2.51
1.37 -11.97 0.21
1.2 -10.54 -2.45
1.17 -10.2 0.54
1.44 -12.64 -2.47
1.2 -10.49 0.92
1.72 -15.06 -2.4
1.15 -10.05 1.24
1.99 -17.44 -2.16
1.56 -13.65 2.18
2.55 -22.37 -1.97
2.2 -19.22 3.76
1.33 -11.61 -0.61
3.35 -29.34 6.82
1.36 -11.89 -0.21
1.03 -9.31 -2.51
1.32 -11.89 0.21
1.02 -9.24 -2.15
1.12 -10.13 0.53
1.4 -12.65 -2.47
1.17 -10.57 0.93
1.67 -15.09 -2.4
1.12 -10.12 1.25
1.95 -17.57 -2.17
1.76 -15.91 2.53
1.26 -11.36 -1
1.1 -9.9 1.94
1.29 -11.64 -0.61
1.88 -16.97 3.94
1.34 -12.06 -0.21
1.85 -16.67 4.49
1 -9.32 -2.51
1.28 -11.94 0.21
1.15 -10.68 -2.48
1.12 -10.41 0.55
1.36 -12.65 -2.47
1.73 -16.14 1.42
1.62 -15.08 -2.4
1.12 -10.42 1.29
1.89 -17.61 -2.17
2.65 -24.67 3.93
1.21 -11.29 -0.99
2.07 -19.32 3.78
1.82 -16.96 3.94
2.39 -22.29 6.01
0.97 -9.33 -2.51
1.25 -12.1 0.21
1.11 -10.66 -2.47
1.08 -10.42 0.55
1.3 -12.52 -2.45
1.1 -10.62 0.93
1.56 -15.08 -2.4
1.05 -10.15 1.25
1.84 -17.74 -2.19
1.39 -13.44 2.14
1.17 -11.32 -1
1.99 -19.16 3.74
2.21 -21.3 -1.12
1.76 -16.98 3.94
1.24 -11.93 -0.21
2.38 -22.96 6.19
0.93 -9.29 -2.5
1.22 -12.21 0.21
1.07 -10.67 -2.48
1.27 -12.65 -2.47
1.92 -19.15 1.68
1.51 -15.07 -2.4
1.06 -10.6 1.31
1.79 -17.85 -2.2
2.28 -22.75 -2
2.05 -20.42 3.99
1.18 -11.79 -0.62
1.7 -16.97 3.94
1.69 -16.86 4.54
0.9 -9.3 -2.5
1.17 -12.06 0.21
1.03 -10.67 -2.48
1.17 -12.09 0.64
1.23 -12.72 -2.48
1.02 -10.57 0.93
1.46 -15.11 -2.4
1.03 -10.65 1.31
1.73 -17.92 -2.21
1.33 -13.72 2.18
2.21 -22.86 -2.01
1.88 -19.48 3.8
1.14 -11.81 -0.62
1.9 -19.61 4.55
1.07 -11.11 -0.19
1.63 -16.89 4.55
0.87 -9.31 -2.51
1.13 -12.11 0.21
1 -10.68 -2.48
1.88 -20.2 1.06
1.18 -12.7 -2.48
0.99 -10.59 0.93
1.42 -15.18 -2.42
1 -10.72 1.32
1.68 -17.97 -2.22
1.8 -19.35 3.08
1.77 -18.97 -1.67
2.26 -24.26 4.74
1.09 -11.72 -0.62
1.79 -19.24 4.46
1.07 -11.53 -0.2
1.59 -17.06 4.59
0.84 -9.34 -2.51
1.09 -12.18 0.21
0.96 -10.68 -2.48
1.78 -19.89 1.05
1.14 -12.75 -2.49
1.36 -15.2 -2.42
1.45 -16.18 1.99
1.61 -18.01 -2.22
1.74 -19.37 3.08
2.05 -22.89 -2.01
2.5 -27.95 5.45
2.23 -24.84 -1.31
1.57 -17.51 4.06
1.09 -12.12 -0.21
1.43 -15.91 4.28
0.8 -9.33 -2.51
0.92 -10.69 -2.48
1 -11.62 0.61
1.1 -12.76 -2.49
1.06 -12.33 1.08
1.31 -15.19 -2.41
0.92 -10.65 1.31
1.55 -18.02 -2.22
1.23 -14.29 2.27
1.97 -22.9 -2.01
2.08 -24.16 4.71
1.01 -11.72 -0.62
1.51 -17.47 4.05
1.01 -11.78 -0.21
1.5 -17.45 4.69
0.77 -9.31 -2.5
1.01 -12.15 0.21
0.99 -11.93 0.63
1.02 -12.31 1.08
1.27 -15.26 -2.42
0.89 -10.71 1.32
1.48 -17.91 -2.21
1.35 -16.24 2.58
1.91 -23.06 -2.02
2.01 -24.2 4.72
1.98 -23.87 -1.26
0.99 -11.92 -0.21
1.59 -19.12 5.14
0.74 -9.26 -2.49
0.97 -12.15 0.21
0.95 -11.98 0.63
0.99 -12.46 1.09
1.22 -15.28 -2.43
0.85 -10.63 1.31
1.43 -18.01 -2.22
1.3 -16.33 2.59
1.52 -19.06 -1.67
1.93 -24.29 4.74
2.03 -25.5 -1.34
1.29 -16.28 3.77
0.95 -11.96 -0.21
1.81 -22.83 6.14
0.7 -9.25 -2.49
0.91 -12.03 0.63
1.4 -18.38 1.61
1.16 -15.28 -2.43
1.23 -16.21 2
1.37 -18.02 -2.22
0.81 -10.73 1.7
1.46 -19.24 -1.69
1.8 -23.77 -1.25
1.23 -16.25 3.76
0.91 -12.03 -0.21
1.34 -17.62 4.74
0.67 -9.27 -2.49
1.44 -19.87 1.04
1.33 -18.36 1.61
1.79 -24.64 3.03
1.3 -17.97 -2.21
1.37 -18.89 3
1.4 -19.39 -1.7
1.94 -26.82 5.23
1.81 -24.93 -1.31
1.16 -16.01 3.71
0.87 -12.02 -0.21
1.28 -17.68 4.75
0.64 -9.23 -2.48
0.91 -13.2 0.23
1.37 -19.89 1.04
0.88 -12.81 -2.5
1.73 -25.01 2.19
1.06 -15.36 -2.44
1.04 -15.11 1.86
1.24 -17.99 -2.21
1.6 -23.11 -2.03
1.54 -22.34 4.35
1.74 -25.19 -1.32
1.1 -15.86 3.67
0.85 -12.26 -0.21
1.3 -18.84 5.06
0.61 -9.22 -2.48
0.88 -13.42 0.23
1.31 -20 1.05
1.64 -24.98 2.19
1.01 -15.4 -2.44
1.05 -15.95 1.96
1.19 -18.11 -2.23
1.24 -18.89 3
1.31 -19.97 -1.75
1.48 -22.61 4.4
1.24 -18.83 -0.99
1.06 -16.11 3.73
1.53 -23.25 -0.41
1.24 -18.83 5.06
0.57 -9.25 -2.48
0.83 -13.37 0.23
1.29 -20.87 1.1
1.49 -23.98 2.1
0.96 -15.43 -2.45
0.96 -15.41 1.9
1.12 -18.11 -2.23
0.99 -15.91 2.52
1.44 -23.15 -2.03
1.5 -24.1 4.69
1.17 -18.85 -0.99
1.02 -16.47 3.81
1.43 -23 -0.4
1.17 -18.86 5.06
0.79 -13.41 0.23
1.16 -19.87 1.04
1.4 -23.87 2.09
0.91 -15.51 1.91
1.07 -18.2 -2.24
1.1 -18.8 2.98
1.14 -19.41 -1.7
1.41 -24.13 4.7
1.47 -25.06 -1.32
0.97 -16.46 3.81
1.34 -22.91 -0.4
1.03 -17.64 4.73
1.1 -20.06 1.05
1.01 -18.29 1.6
0.85 -15.42 -2.45
0.96 -17.37 2.14
1 -18.21 -2.24
1.04 -18.88 3
1.27 -23.12 -2.03
1.34 -24.3 4.73
1.37 -24.89 -1.31
0.91 -16.45 3.8
1.87 -34.06 -0.6
1.31 -23.72 6.36
1.41 -27.32 0.48
1.04 -20.21 1.06
0.94 -18.29 1.6
0.8 -15.47 -2.45
0.78 -15.25 1.88
0.94 -18.24 -2.24
0.97 -18.91 3
1 -19.37 -1.7
1.12 -21.79 4.24
1.74 -33.89 -1.78
0.75 -14.65 3.39
1.26 -24.52 -0.43
0.77 -14.99 4.02
1.06 -22.1 0.39
0.97 -20.23 1.06
0.74 -15.48 -2.45
0.74 -15.36 1.89
0.88 -18.36 -2.26
0.9 -18.89 3
0.92 -19.25 -1.69
1.17 -24.4 4.75
1.62 -33.8 -1.77
0.7 -14.61 3.38
1.72 -35.97 -0.63
1.01 -21.1 5.66
1.07 -24.22 0.42
0.58 -13.04 0.68
0.73 -16.58 1.45
0.69 -15.49 -2.46
0.68 -15.36 1.89
0.82 -18.43 -2.27
0.84 -18.91 3
0.85 -19.21 -1.68
1.07 -24.2 4.71
1.49 -33.65 -1.77
0.65 -14.59 3.37
1.62 -36.62 -0.64
0.94 -21.32 5.72
1.15 -27.99 0.49
0.53 -12.93 0.68
0.68 -16.52 1.45
0.64 -15.5 -2.46
0.77 -18.7 2.3
0.76 -18.43 -2.27
0.78 -18.94 3
0.77 -18.85 -1.65
0.89 -21.75 4.23
0.81 -19.71 -1.03
1.17 -28.47 6.58
1.04 -25.3 -0.44
1.39 -33.85 9.08
1.06 -28.18 0.49
0.49 -13.03 0.68
0.62 -16.5 1.44
0.58 -15.55 -2.46
0.57 -15.19 1.87
0.69 -18.5 -2.27
0.61 -16.41 2.6
0.73 -19.51 -1.71
1.17 -31.18 6.07
1.32 -35.37 -1.86
0.54 -14.51 3.35
0.7 -18.7 5.01
0.97 -28.38 0.5
0.44 -13 0.68
0.56 -16.44 1.44
0.53 -15.56 -2.47
0.93 -27.14 3.33
0.64 -18.56 -2.28
0.65 -19 3.01
0.74 -21.49 -1.88
0.79 -22.95 -1.2
0.63 -18.51 4.28
0.72 -20.97 5.62
1.12 -36.45 0.64
0.4 -13.08 0.69
0.46 -15.12 1.32
0.48 -15.56 -2.47
0.47 -15.3 1.88
0.57 -18.56 -2.28
0.49 -16 2.54
0.65 -21.22 -1.86
0.94 -30.77 5.98
1.05 -34.27 -1.8
0.57 -18.44 4.26
0.64 -20.89 5.6
0.65 -23.91 0.42
0.35 -12.84 0.67
0.81 -29.67 2.6
0.42 -15.57 -2.47
0.42 -15.26 1.87
0.51 -18.62 -2.29
0.51 -18.77 2.97
0.6 -22.01 -1.93
0.83 -30.61 5.95
0.93 -34.26 -1.8
0.5 -18.4 4.25
0.68 -25.14 -0.44
0.6 -22.09 5.92
0.63 -26.59 0.46
0.3 -12.85 0.67
0.3 -12.88 -2.5
0.66 -27.85 2.44
0.37 -15.6 -2.47
0.36 -15.41 1.89
0.44 -18.62 -2.29
0.44 -18.76 2.97
0.55 -23.19 -2.03
0.84 -35.48 -1.86
0.44 -18.54 4.28
1 -42.14 -0.74
0.74 -31.2 8.36
0.76 -37.66 0.66
0.26 -12.83 -2.49
0.57 -27.93 2.44
0.32 -15.63 -2.48
0.31 -15.19 1.87
0.38 -18.62 -2.29
0.38 -18.78 2.98
0.47 -23.38 -2.05
0.36 -17.87 3.47
0.73 -36.09 -1.89
0.41 -20.38 4.71
0.51 -25.07 -0.44
0.45 -22.07 5.92
0.46 -27.74 0.48
0.61 -36.43 1.91
0.21 -12.87 -2.5
0.25 -15.21 1.33
0.26 -15.65 -2.48
0.25 -15.25 1.87
0.31 -18.64 -2.29
0.31 -18.79 2.98
0.39 -23.62 -2.07
0.32 -19.04 3.7
0.6 -36 -1.89
0.3 -18.27 4.22
0.42 -24.96 -0.44
0.56 -33.59 9
0.37 -27.68 0.48
0.27 -20.24 1.06
0.17 -12.9 -2.51
0.21 -16.01 1.4
0.21 -15.69 -2.48
0.2 -15.37 1.89
0.25 -18.66 -2.29
0.25 -18.72 2.97
0.31 -23.74 -2.08
0.48 -35.98 -1.89
0.24 -18.27 4.22
0.39 -29.09 7.79
0.3 -31.07 0.54
0.2 -20.34 1.07
0.13 -12.93 -2.51
0.16 -16.93 1.48
0.15 -15.68 -2.48
0.18 -18.28 2.24
0.18 -18.7 -2.3
0.16 -16.38 2.6
0.23 -23.76 -2.08
0.29 -30.31 5.89
0.26 -26.87 -1.41
0.31 -31.68 7.31
0.44 -45.69 -0.8
0.22 -22.36 5.99
0.2 -31.02 0.54
0.21 -32.89 1.72
0.08 -12.94 -2.52
0.1 -15.93 1.39
0.1 -15.74 -2.49
0.11 -17.2 2.11
0.12 -18.73 -2.3
0.15 -22.92 3.63
0.15 -23.83 -2.08
0.23 -36.3 -1.9
0.2 -30.51 7.05
0.26 -40.3 -0.7
0.11 -17.11 4.58
0.04 -15.58 0.82
0.04 -12.93 -2.51
0.05 -15.81 1.38
0.04 -15.62 -2.47
0.05 -17.21 2.11
0.05 -18.75 -2.3
0.05 -18.78 2.97
0.07 -23.9 -2.09
0.05 -16.8 3.27
0.1 -36.41 -1.91
0.05 -18.24 4.21
0.14 -48.99 -0.86
0.05 -17.18 4.6
-0.02 -37.03 0.65
-0.01 -15.69 0.82
-0.01 -12.88 -2.5
-0.02 -34.29 3
-0.01 -15.71 -2.49
-0.01 -17.41 2.14
-0.01 -18.72 -2.3
-0.01 -17.89 2.83
-0.01 -23.87 -2.09
-0.01 -16.86 3.28
-0.02 -36.52 -1.91
-0.01 -19.24 4.44
-0.03 -49.59 -0.87
-0.01 -17.13 4.59
-0.15 -37.04 0.65
-0.04 -10.9 -2.52
-0.06 -15.77 0.83
-0.05 -12.89 -2.51
-0.14 -34.33 3
-0.06 -15.74 -2.49
-0.07 -17.22 2.11
-0.08 -18.79 -2.31
-0.07 -17.95 2.84
-0.1 -23.89 -2.09
-0.15 -36.63 -1.92
-0.08 -18.64 4.3
-0.07 -16.98 4.55
-0.28 -37 0.65
-0.08 -10.9 -2.52
-0.13 -17.57 0.92
-0.1 -12.89 -2.51
-0.15 -20.45 1.79
-0.12 -15.81 -2.5
-0.13 -17.18 2.11
-0.14 -18.79 -2.31
-0.18 -23.98 -2.1
-0.16 -21.3 4.14
-0.27 -36.63 -1.92
-0.14 -18.59 4.29
-0.12 -16.45 4.41
-0.41 -36.94 0.64
-0.12 -10.87 -2.51
-0.17 -15.53 0.81
-0.14 -12.9 -2.51
-0.17 -15.6 1.37
-0.18 -15.83 -2.51
-0.19 -17.19 2.11
-0.21 -18.81 -2.31
-0.2 -17.95 2.84
-0.27 -23.93 -2.09
-0.2 -18.26 3.55
-0.41 -36.64 -1.92
-0.21 -18.84 4.35
-0.18 -16.37 4.39
-0.16 -10.87 -2.51
-0.48 -33.3 1.75
-0.19 -12.85 -2.5
-0.29 -20.24 1.77
-0.23 -15.84 -2.51
-0.29 -19.85 2.44
-0.27 -18.81 -2.31
-0.26 -17.94 2.84
-0.35 -23.98 -2.1
-0.23 -15.96 3.1
-0.53 -36.69 -1.92
-0.27 -18.84 4.35
-0.73 -50.29 -0.88
-0.23 -15.98 4.28
-0.2 -10.9 -2.52
-0.28 -15.48 0.81
-0.23 -12.83 -2.49
-0.28 -15.5 1.36
-0.29 -15.82 -2.51
-0.32 -17.8 2.19
-0.34 -18.82 -2.31
-0.33 -18.02 2.85
-0.43 -24.04 -2.1
-0.29 -16.02 3.11
-0.66 -36.67 -1.92
-0.33 -18.13 4.19
-0.36 -19.66 5.27
-0.23 -10.92 -2.52
-0.69 -32.1 1.68
-0.27 -12.8 -2.49
-0.34 -15.81 -2.5
-0.36 -16.76 2.06
-0.4 -18.8 -2.31
-0.39 -18.14 2.87
-0.52 -24.08 -2.11
-0.43 -19.88 3.86
-0.79 -36.69 -1.92
-0.42 -19.53 5.23
-0.27 -10.93 -2.53
-0.39 -15.52 0.81
-0.32 -12.8 -2.49
-0.8 -32.13 2.81
-0.4 -15.79 -2.5
-0.43 -17.08 2.1
-0.47 -18.87 -2.32
-0.45 -18.03 2.86
-0.6 -24.11 -2.11
-0.49 -19.44 3.78
-0.92 -36.7 -1.92
-1.84 -73.52 16.98
-0.49 -19.53 5.23
-0.47 -16.58 0.29
-0.31 -10.91 -2.52
-0.91 -31.93 1.67
-0.36 -12.79 -2.49
-0.56 -19.62 1.72
-0.45 -15.83 -2.51
-0.49 -17.08 2.1
-0.54 -18.91 -2.32
-0.51 -17.97 2.85
-0.69 -24.13 -2.11
-0.49 -17.1 3.33
-1.05 -36.77 -1.93
-0.6 -21.04 4.86
-0.45 -15.83 4.24
-1.79 -56.24 0.98
-0.35 -10.89 -2.52
-0.55 -17.23 0.9
-0.41 -12.8 -2.49
-0.62 -19.64 1.72
-0.5 -15.85 -2.51
-0.54 -17.08 2.1
-0.6 -18.9 -2.32
-0.6 -18.73 2.97
-0.77 -24.09 -2.11
-1.17 -36.81 -1.93
-0.67 -21.1 4.87
-0.5 -15.79 4.23
-1.95 -55.56 0.97
-0.38 -10.9 -2.52
-0.55 -15.6 0.82
-0.45 -12.78 -2.49
-1.95 -55.44 4.85
-0.56 -15.83 -2.51
-0.6 -17.23 2.12
-0.66 -18.93 -2.33
-0.65 -18.45 2.92
-0.85 -24.14 -2.11
-0.54 -15.37 2.99
-1.29 -36.85 -1.93
-0.74 -21.17 4.89
-0.69 -19.56 5.25
-2.14 -55.69 0.97
-0.42 -10.89 -2.52
-1.22 -31.81 1.67
-0.49 -12.77 -2.48
-0.75 -19.51 1.71
-0.61 -15.84 -2.51
-0.78 -20.35 2.5
-0.73 -18.96 -2.33
-0.71 -18.57 2.94
-0.93 -24.12 -2.11
-0.59 -15.31 2.98
-1.42 -36.86 -1.93
-0.82 -21.25 4.91
-0.79 -20.46 5.49
-2.35 -55.78 0.97
-0.46 -10.91 -2.52
-1.34 -31.76 1.67
-0.54 -12.76 -2.48
-0.82 -19.5 1.71
-0.67 -15.83 -2.51
-0.72 -17.06 2.1
-0.8 -18.97 -2.33
-0.78 -18.57 2.94
-1.02 -24.14 -2.11
-0.66 -15.7 3.05
-1.55 -36.86 -1.93
-0.72 -17.14 3.96
-2.34 -55.69 -0.97
-0.68 -16.07 4.31
-0.49 -10.88 -2.52
-1.45 -31.87 1.67
-0.58 -12.74 -2.48
-0.89 -19.5 1.71
-0.72 -15.85 -2.51
-0.79 -17.3 2.13
-0.86 -18.98 -2.33
-0.83 -18.36 2.91
-1.1 -24.19 -2.12
-0.71 -15.66 3.05
-1.67 -36.87 -1.93
-0.76 -16.83 3.89
-2.55 -56.12 -0.98
-0.93 -20.45 5.49
-2.7 -55.06 0.96
-0.53 -10.9 -2.52
-1.55 -31.53 1.65
-0.63 -12.75 -2.48
-0.95 -19.38 1.7
-0.78 -15.84 -2.51
-1.55 -31.51 3.87
-0.93 -18.97 -2.33
-1.52 -30.99 4.91
-1.19 -24.15 -2.12
-0.77 -15.63 3.04
-1.81 -36.88 -1.94
-0.78 -15.89 3.67
-0.77 -15.79 4.23
-2.89 -55.06 0.96
-0.57 -10.9 -2.52
-2.91 -55.55 2.92
-0.67 -12.76 -2.48
-0.99 -18.98 1.66
-0.83 -15.88 -2.52
-1.07 -20.45 2.51
-0.99 -18.98 -2.33
-1.63 -31.01 4.92
-1.27 -24.17 -2.12
-2.96 -56.5 11
-1.95 -37.12 -1.95
-0.88 -16.76 3.87
-2.86 -54.61 -0.95
-0.83 -15.79 4.24
-3.09 -55.16 0.96
-0.61 -10.9 -2.52
-3.08 -54.96 2.89
-0.72 -12.78 -2.49
-1.07 -19.02 1.67
-0.89 -15.91 -2.52
-1.82 -32.44 3.99
-1.07 -19 -2.34
-1.74 -31.09 4.93
-1.37 -24.34 -2.13
-0.89 -15.84 3.08
-2.08 -37.01 -1.94
-0.94 -16.74 3.87
-3.07 -54.8 -0.96
-1.13 -20.08 5.39
-3.27 -54.98 0.96
-0.65 -10.89 -2.52
-3.28 -55.16 2.9
-0.76 -12.8 -2.49
-3.29 -55.34 4.85
-0.95 -16.02 -2.54
-2.09 -35.25 4.34
-1.13 -19.03 -2.34
-1.11 -18.63 2.96
-1.46 -24.5 -2.15
-0.95 -15.97 3.11
-2.21 -37.15 -1.95
-1.23 -20.75 4.8
-3.24 -54.59 -0.95
-3.46 -54.94 0.96
-0.69 -10.91 -2.52
-1.98 -31.5 1.65
-0.8 -12.78 -2.49
-3.48 -55.37 4.85
-1.01 -16.02 -2.54
-1.22 -19.38 2.38
-1.2 -19.05 -2.34
-3.61 -57.42 9.11
-1.53 -24.36 -2.14
-2.34 -37.24 -1.96
-1.05 -16.75 3.87
-3.43 -54.5 -0.95
-3.7 -55.92 0.98
-0.72 -10.89 -2.52
-3.65 -55.13 2.9
-0.85 -12.78 -2.49
-3.7 -55.83 4.9
-1.06 -15.99 -2.54
-1.24 -18.7 2.3
-1.26 -19.05 -2.34
-3.81 -57.54 9.13
-1.63 -24.67 -2.16
-2.47 -37.24 -1.96
-1.05 -15.79 3.65
-3.6 -54.28 -0.95
-3.93 -56.17 0.98
-0.76 -10.94 -2.53
-2.13 -30.48 1.6
-0.89 -12.77 -2.49
-1.12 -16.04 -2.55
-1.33 -19.08 -2.35
-3.99 -57.07 9.06
-1.72 -24.65 -2.16
-2.61 -37.28 -1.96
-1.17 -16.76 3.88
-3.79 -54.17 -0.95
-4.12 -56.19 0.98
-0.8 -10.93 -2.53
-4.07 -55.5 2.92
-0.93 -12.74 -2.48
-4.12 -56.18 4.93
-1.18 -16.05 -2.55
-2.42 -32.98 4.06
-1.4 -19.08 -2.35
-4.17 -56.97 9.05
-1.81 -24.71 -2.17
-1.32 -18.06 3.52
-2.73 -37.25 -1.96
-1.49 -20.38 4.72
-3.97 -54.14 -0.95
-4.2 -57.37 15.41
-0.84 -10.87 -2.52
-4.29 -55.79 2.93
-0.98 -12.74 -2.48
-4.55 -59.15 5.19
-1.24 -16.07 -2.55
-2.7 -35.08 4.32
-1.47 -19.08 -2.35
-4.38 -56.97 9.05
-1.89 -24.62 -2.16
-2.87 -37.29 -1.96
-4.36 -56.63 13.11
-4.18 -54.26 -0.95
-4.43 -57.6 15.48
-4.41 -54.97 0.96
-0.87 -10.9 -2.52
-4.46 -55.55 2.92
-1.02 -12.75 -2.49
-4.48 -55.8 4.9
-1.29 -16.07 -2.55
-2.64 -32.88 4.05
-1.53 -19.06 -2.35
-4.54 -56.56 8.99
-1.98 -24.62 -2.16
-2.99 -37.3 -1.96
-4.55 -56.64 13.12
-4.36 -54.34 -0.95
-4.62 -57.5 15.46
-2.71 -32.33 0.57
-0.91 -10.87 -2.52
-4.63 -55.08 2.9
-1.07 -12.77 -2.49
-4.65 -55.35 4.86
-1.35 -16.04 -2.55
-2.81 -33.51 4.13
-1.6 -19.03 -2.34
-4.67 -55.6 8.84
-2.07 -24.66 -2.17
-4.79 -57.05 11.13
-3.13 -37.3 -1.96
-4.77 -56.77 13.15
-4.58 -54.59 -0.96
-4.83 -55.28 0.97
-0.95 -10.87 -2.52
-4.84 -55.45 2.92
-1.12 -12.79 -2.49
-1.4 -16.01 -2.55
-4.82 -55.26 6.81
-1.66 -19.04 -2.35
-4.87 -55.78 8.87
-2.15 -24.65 -2.16
-3.26 -37.36 -1.97
-4.95 -56.75 13.15
-0.99 -10.89 -2.52
-2.76 -30.42 1.6
-1.16 -12.78 -2.49
-1.46 -16.05 -2.55
-5.03 -55.35 6.82
-1.73 -19.05 -2.35
-5.09 -56 8.91
-2.24 -24.67 -2.17
-5.18 -57.06 11.14
-3.4 -37.38 -1.97
-1.46 -16.09 3.73
-5.1 -56.18 -0.98
-5.24 -57.67 15.52
-1.02 -10.88 -2.52
-5.16 -54.74 2.88
-1.2 -12.77 -2.49
-5.55 -58.92 5.18
-1.51 -16.03 -2.55
-3.21 -34.07 4.2
-1.79 -19.06 -2.35
-6.65 -70.58 11.23
-2.33 -24.69 -2.17
-3.53 -37.44 -1.97
-5.56 -59.02 13.69
-5.29 -56.13 -0.98
-5.42 -57.51 15.48
-5.51 -56.25 0.99
-1.06 -10.86 -2.52
-5.4 -55.19 2.91
-1.25 -12.75 -2.49
-5.75 -58.78 5.17
-1.57 -16.04 -2.55
-5.46 -55.77 6.88
-1.86 -19.05 -2.35
-2.41 -24.63 -2.17
-5.45 -55.73 10.88
-3.66 -37.43 -1.97
-5.79 -59.12 13.72
-5.49 -56.13 -0.98
-5.63 -57.54 15.49
-5.7 -56.31 0.99
-1.1 -10.84 -2.52
-1.29 -12.76 -2.49
-1.62 -16.04 -2.55
-1.93 -19.06 -2.35
-5.76 -56.86 9.05
-2.49 -24.64 -2.17
-3.79 -37.46 -1.97
-5.82 -57.48 13.34
-1.14 -10.86 -2.52
-5.93 -56.51 2.98
-1.34 -12.75 -2.49
-6.08 -57.98 5.1
-1.68 -16.04 -2.55
-3.56 -33.94 4.19
-2 -19.08 -2.36
-5.98 -57.01 9.08
-2.59 -24.64 -2.17
-5.84 -55.61 10.87
-3.94 -37.52 -1.98
-6.03 -57.49 13.35
-5.9 -56.27 -0.99
-1.18 -10.86 -2.52
-6.05 -55.9 2.95
-1.38 -12.78 -2.5
-1.73 -16.01 -2.55
-2.07 -19.1 -2.36
-6.24 -57.63 9.18
-2.67 -24.62 -2.17
-4.08 -37.67 -1.99
-7.18 -66.34 15.41
-6.11 -56.43 -0.99
-6.23 -55.59 2.93
-1.43 -12.77 -2.5
-1.79 -16 -2.55
-6.4 -57.17 7.06
-2.14 -19.08 -2.36
-6.34 -56.63 9.02
-2.76 -24.63 -2.17
-4.23 -37.8 -1.99
-6.47 -57.76 13.42
-6.34 -56.6 -0.99
-6.52 -56.52 0.99
-6.43 -55.69 2.94
-1.48 -12.8 -2.5
-1.85 -15.98 -2.55
-6.59 -57.12 7.06
-2.2 -19.07 -2.36
-6.63 -57.42 9.15
-2.85 -24.7 -2.18
-4.36 -37.81 -1.99
-7.53 -65.22 15.16
-1.52 -12.79 -2.5
-1.9 -16.01 -2.55
-6.77 -56.93 7.04
-2.27 -19.12 -2.36
-6.79 -57.14 9.11
-2.95 -24.79 -2.18
-6.82 -57.34 11.22
-4.49 -37.73 -1.99
-7.75 -65.17 17.59
-1.57 -12.81 -2.51
-1.96 -15.99 -2.55
-2.34 -19.1 -2.36
-7.04 -57.51 9.18
-3.04 -24.84 -2.19
-7.01 -57.3 11.22
-4.61 -37.72 -1.99
-7.99 -65.34 17.64
-6.97 -55.34 0.97
-6.92 -54.95 2.9
-1.61 -12.81 -2.51
-7.21 -57.23 5.05
-2.01 -15.97 -2.55
-7.07 -56.09 6.94
-2.41 -19.14 -2.37
-3.12 -24.8 -2.19
-4.77 -37.83 -2
-7.16 -55.34 0.97
-7.11 -54.95 2.9
-1.66 -12.79 -2.51
-2.06 -15.93 -2.54
-7.98 -61.63 7.63
-2.48 -19.14 -2.37
-8.22 -63.53 10.15
-3.21 -24.79 -2.19
-4.9 -37.89 -2
-8.02 -61.99 14.43
-7.35 -55.22 0.97
-7.31 -54.9 2.9
-1.7 -12.8 -2.51
-7.25 -54.52 4.81
-2.13 -15.99 -2.55
-2.55 -19.17 -2.37
-3.31 -24.88 -2.2
-5.03 -37.8 -2
-8.38 -62.98 14.67
-7.5 -54.94 0.97
-7.47 -54.74 2.9
-1.75 -12.8 -2.51
-2.19 -16.01 -2.56
-2.61 -19.14 -2.37
-7.6 -55.67 8.9
-3.4 -24.89 -2.2
-8.68 -63.57 12.47
-5.15 -37.73 -2
-8.61 -63.03 14.69
-8.68 -63.55 17.19
-7.56 -53.94 0.95
-1.79 -12.78 -2.51
-7.65 -54.55 4.82
-2.24 -15.99 -2.56
-2.68 -19.12 -2.37
-7.73 -55.13 8.82
-3.49 -24.87 -2.2
-5.3 -37.79 -2
-8.84 -63.06 14.7
-7.69 -53.55 0.94
-1.83 -12.74 -2.5
-7.84 -54.56 4.82
-2.3 -16 -2.56
-8.08 -56.23 6.97
-2.75 -19.14 -2.37
-7.92 -55.15 8.82
-3.57 -24.88 -2.2
-5.43 -37.81 -2
-9.09 -63.28 14.76
-7.99 -54.26 2.87
-1.88 -12.74 -2.5
-8.03 -54.49 4.82
-2.36 -16.03 -2.57
-8.03 -54.52 6.77
-2.82 -19.16 -2.38
-8.1 -55 8.8
-3.66 -24.86 -2.2
-8.3 -56.37 11.08
-5.57 -37.84 -2
-8.29 -56.31 13.14
-8.26 -56.06 15.18
-8.11 -53.77 0.95
-8.39 -55.66 2.95
-1.92 -12.74 -2.5
-8.24 -54.66 4.84
-2.42 -16.07 -2.57
-8.21 -54.45 6.76
-2.89 -19.14 -2.38
-8.29 -54.96 8.8
-3.74 -24.83 -2.2
-8.46 -56.12 11.03
-5.67 -37.59 -1.99
-8.47 -56.16 13.11
-8.22 -53.22 0.94
-8.57 -55.5 2.94
-1.97 -12.73 -2.5
-2.48 -16.06 -2.57
-8.41 -54.43 6.76
-2.96 -19.14 -2.38
-8.6 -55.68 8.92
-3.84 -24.85 -2.2
-8.67 -56.15 11.04
-5.79 -37.52 -1.99
-8.67 -56.12 13.11
-8.79 -56.93 15.44
-8.41 -53.26 0.94
-8.58 -54.32 2.88
-2.01 -12.74 -2.51
-8.65 -54.8 4.85
-2.54 -16.09 -2.58
-3.02 -19.1 -2.37
-8.58 -54.35 8.72
-3.92 -24.81 -2.2
-8.92 -56.47 11.11
-5.92 -37.48 -1.99
-8.84 -56 13.09
-8.98 -56.88 15.43
-8.57 -53.16 0.94
-2.06 -12.77 -2.51
-8.88 -55.09 4.88
-2.6 -16.13 -2.59
-8.79 -54.5 6.78
-3.08 -19.09 -2.37
-8.79 -54.51 8.74
-3.99 -24.75 -2.19
-6.03 -37.43 -1.99
-9.07 -56.24 13.15
-8.74 -54.19 -0.96
-9.15 -56.72 15.39
-8.75 -53.13 0.94
-9.02 -54.77 2.91
-2.11 -12.8 -2.52
-9.07 -55.08 4.88
-2.66 -16.14 -2.59
-3.16 -19.2 -2.39
-8.97 -54.44 8.74
-4.08 -24.8 -2.2
-9.33 -56.65 11.16
-6.16 -37.42 -1.99
-9.25 -56.17 13.14
-8.94 -53.06 0.94
-2.14 -12.73 -2.51
-2.72 -16.16 -2.6
-3.23 -19.17 -2.39
-9.2 -54.63 8.77
-4.18 -24.81 -2.2
-9.53 -56.59 11.16
-6.27 -37.25 -1.98
-9.45 -56.08 13.13
-9.66 -57.35 15.58
-9.12 -53.02 0.94
-9.79 -56.92 3.03
-2.19 -12.75 -2.51
-2.78 -16.19 -2.6
-9.81 -57.06 7.11
-3.29 -19.15 -2.39
-9.39 -54.61 8.78
-4.27 -24.82 -2.2
-9.67 -56.27 11.1
-6.38 -37.13 -1.97
-9.61 -55.89 13.09
-9.15 -53.21 -0.94
-9.74 -56.66 15.4
-9.4 -53.5 0.95
-9.99 -56.91 3.03
-2.24 -12.75 -2.52
-9.87 -56.21 4.99
-2.85 -16.23 -2.61
-10 -56.92 7.1
-3.36 -19.13 -2.38
-9.59 -54.6 8.78
-4.35 -24.76 -2.2
-6.53 -37.19 -1.98
-9.78 -55.69 13.05
-9.34 -53.19 -0.94
-9.97 -56.75 15.44
-9.59 -53.53 0.95
-9.66 -53.93 2.87
-2.28 -12.74 -2.52
-2.91 -16.26 -2.62
-3.42 -19.11 -2.38
-9.76 -54.47 8.76
-4.43 -24.75 -2.2
-9.91 -55.31 10.92
-6.67 -37.25 -1.98
-9.98 -55.72 13.07
-10.14 -56.63 15.41
-9.82 -53.67 0.95
-9.83 -53.72 2.86
-2.33 -12.72 -2.51
-2.98 -16.27 -2.62
-10.01 -54.7 6.83
-3.5 -19.13 -2.39
-4.53 -24.77 -2.2
-10.11 -55.26 10.92
-6.82 -37.27 -1.99
-10.22 -55.87 13.11
-9.75 -53.3 -0.95
-10.2 -55.72 15.18
-9.98 -53.53 2.85
-2.37 -12.69 -2.51
-3.03 -16.24 -2.62
-10.17 -54.53 6.81
-3.56 -19.09 -2.38
-10.63 -56.98 9.18
-4.62 -24.77 -2.2
-6.95 -37.28 -1.99
-10.45 -56.03 13.16
-10 -53.6 -0.95
-10.38 -55.64 15.17
-10.12 -53.3 0.95
-10.11 -53.27 2.84
-2.41 -12.69 -2.51
-10.4 -54.8 4.88
-3.09 -16.28 -2.62
-10.24 -53.94 6.74
-3.63 -19.11 -2.39
-10.51 -55.36 8.92
-4.71 -24.83 -2.21
-7.08 -37.29 -1.99
-10.28 -54.13 12.72
-10.15 -53.45 -0.95
-10.58 -55.74 15.2
-10.34 -53.49 0.95
-10.25 -53.01 2.83
-2.45 -12.67 -2.51
-10.6 -54.8 4.88
-3.15 -16.26 -2.62
-10.42 -53.88 6.74
-3.68 -19.06 -2.38
-10.66 -55.12 8.89
-4.8 -24.84 -2.21
-10.57 -54.67 10.82
-7.22 -37.33 -1.99
-10.48 -54.19 12.74
-10.33 -53.4 -0.95
-10.58 -53.65 0.95
-10.42 -52.88 2.82
-2.5 -12.69 -2.51
-10.76 -54.61 4.87
-3.2 -16.25 -2.62
-10.64 -53.99 6.76
-3.76 -19.08 -2.39
-10.87 -55.15 8.9
-4.9 -24.86 -2.22
-7.37 -37.42 -2
-11.1 -56.3 13.25
-11.21 -56.85 15.53
-10.74 -53.48 0.95
-10.76 -53.58 2.86
-2.55 -12.71 -2.52
-3.25 -16.2 -2.62
-10.86 -54.06 6.77
-3.83 -19.06 -2.39
-11.35 -56.54 9.13
-5 -24.9 -2.22
-10.97 -54.63 10.83
-7.52 -37.44 -2
-11.32 -56.38 13.28
-10.93 -53.45 0.95
-10.96 -53.56 2.87
-2.6 -12.69 -2.52
-3.31 -16.17 -2.61
-11.29 -55.19 6.92
-3.89 -19.01 -2.38
-11.57 -56.57 9.15
-5.09 -24.91 -2.22
-7.65 -37.42 -2
-11.57 -56.58 13.33
-11.14 -53.47 0.95
-11.16 -53.59 2.87
-2.64 -12.68 -2.52
-11.37 -54.61 4.88
-3.37 -16.19 -2.62
-11.24 -53.99 6.77
-3.95 -18.98 -2.38
-11.24 -53.95 8.73
-5.18 -24.89 -2.22
-11.26 -54.07 10.74
-7.78 -37.36 -2
-11.68 -56.06 15.34
-11.31 -53.38 0.95
-2.68 -12.66 -2.51
-3.44 -16.22 -2.63
-4.01 -18.95 -2.38
-11.75 -55.45 8.98
-5.28 -24.92 -2.23
-11.44 -54.01 10.73
-7.94 -37.49 -2.01
-11.97 -56.52 13.34
-11.54 -53.54 0.96
-11.85 -54.99 2.95
-2.73 -12.65 -2.51
-11.53 -53.5 4.79
-3.49 -16.21 -2.63
-12.05 -55.92 7.02
-4.08 -18.95 -2.38
-11.92 -55.29 8.96
-5.37 -24.9 -2.23
-11.65 -54.04 10.75
-8.1 -37.57 -2.01
-12.01 -55.7 13.16
-11.51 -53.38 -0.95
-11.74 -53.58 0.96
-12.03 -54.88 2.94
-2.77 -12.64 -2.52
-11.72 -53.49 4.79
-3.55 -16.2 -2.63
-12.21 -55.71 7
-4.15 -18.94 -2.38
-12.08 -55.12 8.94
-5.45 -24.89 -2.23
-12.15 -55.46 11.04
-8.22 -37.51 -2.01
-12.1 -55.21 13.05
-11.86 -54.14 -0.97
-12.32 -56.24 15.43
-11.99 -53.79 0.96
-2.81 -12.62 -2.51
-11.72 -52.6 4.71
-3.61 -16.19 -2.63
-4.21 -18.9 -2.38
-12.29 -55.13 8.95
-5.54 -24.87 -2.23
-8.33 -37.36 -2.01
-12.3 -55.18 13.05
-12.71 -57.02 -1.02
-12.86 -56.84 1.02
-12.37 -54.68 2.94
-2.85 -12.6 -2.51
-12.14 -53.64 4.81
-3.65 -16.15 -2.62
-4.27 -18.87 -2.38
-12.51 -55.27 8.98
-5.63 -24.87 -2.23
-8.42 -37.2 -2
-12.46 -55.08 13.04
-12.91 -57.04 -1.02
-12.87 -56.86 15.62
-12.26 -53.3 0.95
-13.02 -56.58 3.04
-2.89 -12.58 -2.51
-12.28 -53.38 4.79
-3.71 -16.12 -2.62
-13.04 -56.67 7.14
-4.34 -18.86 -2.38
-12.68 -55.13 8.96
-5.72 -24.86 -2.23
-12.95 -56.31 11.23
-8.53 -37.06 -1.99
-12.62 -54.85 12.99
-12.44 -53.26 0.95
-13.26 -56.76 3.05
-2.94 -12.58 -2.51
-12.24 -52.4 4.71
-3.77 -16.12 -2.62
-12.36 -52.92 6.67
-4.4 -18.85 -2.38
-12.88 -55.12 8.97
-5.79 -24.79 -2.23
-8.67 -37.12 -2
-12.82 -54.88 13.01
-13.23 -56.62 15.58
-12.62 -53.14 0.95
-2.98 -12.55 -2.51
-12.47 -52.54 4.72
-3.81 -16.03 -2.61
-12.83 -54.04 6.82
-4.47 -18.85 -2.38
-13.05 -54.96 8.95
-5.86 -24.7 -2.22
-12.99 -54.71 10.93
-8.85 -37.28 -2.01
-13.01 -54.79 13
-12.87 -53.42 0.96
-12.76 -52.93 2.85
-3.02 -12.52 -2.5
-3.85 -15.97 -2.6
-12.89 -53.49 6.76
-4.53 -18.82 -2.38
-13.74 -57.02 9.29
-5.93 -24.6 -2.21
-13.19 -54.74 10.95
-9.01 -37.4 -2.02
-13.38 -55.5 13.18
-13.78 -57.2 -1.03
-13.33 -55.3 15.24
-13.07 -53.41 0.96
-13 -53.12 2.87
-3.06 -12.49 -2.5
-14.06 -57.44 5.17
-3.91 -15.95 -2.6
-13.15 -53.71 6.79
-4.59 -18.77 -2.37
-13.41 -54.76 8.93
-6.01 -24.56 -2.21
-13.65 -55.75 11.16
-9.14 -37.35 -2.02
-13.57 -55.45 13.18
-14.01 -57.24 -1.03
-13.32 -53.67 0.97
-13.21 -53.22 2.87
-3.09 -12.46 -2.5
-3.94 -15.87 -2.59
-13.35 -53.78 6.8
-4.66 -18.77 -2.37
-13.47 -54.29 8.86
-6.09 -24.54 -2.21
-13.66 -55.03 11.02
-9.25 -37.27 -2.01
-13.88 -55.92 15.44
-13.37 -53.05 2.87
-3.13 -12.43 -2.49
-3.99 -15.83 -2.59
-13.57 -53.83 6.82
-4.73 -18.78 -2.38
-13.64 -54.14 8.84
-6.18 -24.53 -2.21
-13.86 -54.99 11.02
-9.39 -37.28 -2.01
-14.26 -56.59 13.47
-14.71 -58.38 -1.05
-14.94 -58.46 1.05
-3.17 -12.41 -2.49
-4.04 -15.8 -2.58
-14.07 -55.03 6.97
-4.79 -18.74 -2.38
-13.94 -54.54 8.92
-6.26 -24.48 -2.21
-9.54 -37.32 -2.02
-14.89 -58.26 -1.05
-13.83 -53.29 0.96
-3.21 -12.37 -2.48
-4.1 -15.78 -2.58
-14.05 -54.15 6.87
-4.86 -18.74 -2.38
-14.13 -54.45 8.91
-6.35 -24.48 -2.21
-14.5 -55.89 11.22
-9.68 -37.31 -2.02
-14.83 -57.17 13.64
-3.25 -12.35 -2.48
-4.15 -15.78 -2.58
-14.52 -55.18 7.01
-4.92 -18.72 -2.38
-6.46 -24.56 -2.22
-14.74 -56.01 11.26
-9.82 -37.32 -2.02
-15 -57 13.61
-15.62 -59.36 16.45
-14.05 -52.64 2.86
-3.3 -12.35 -2.48
-14.51 -54.37 4.92
-4.2 -15.73 -2.58
-5 -18.72 -2.38
-14.28 -53.49 8.77
-6.57 -24.6 -2.23
-14.98 -56.13 11.29
-9.94 -37.23 -2.02
-15.21 -56.98 13.62
-15.56 -58.29 16.16
-14.32 -52.97 2.88
-3.33 -12.3 -2.48
-14.84 -54.9 4.98
-4.26 -15.74 -2.58
-15.48 -57.25 7.28
-5.05 -18.67 -2.38
-15.16 -56.08 9.2
-6.63 -24.54 -2.22
-15.12 -55.92 11.26
-10.02 -37.07 -2.01
-15.34 -56.74 13.57
-15.88 -58.73 16.3
-14.51 -52.93 2.88
-3.38 -12.31 -2.48
-15.08 -54.99 4.99
-4.31 -15.72 -2.58
-15.03 -54.82 6.98
-5.12 -18.66 -2.38
-15.38 -56.09 9.21
-6.74 -24.57 -2.23
-15.18 -55.35 11.16
-10.16 -37.06 -2.01
-15.32 -55.85 -1.01
-15.94 -58.13 16.15
-14.69 -52.85 2.87
-3.43 -12.33 -2.49
-15.24 -54.84 4.98
-4.35 -15.65 -2.57
-15.25 -54.88 6.99
-5.18 -18.63 -2.37
-15.51 -55.83 9.18
-6.83 -24.57 -2.23
-15.55 -55.96 11.29
-10.26 -36.93 -2.01
-16.37 -58.91 14.12
-16.12 -57.99 16.13
-15.96 -56.64 1.03
-14.87 -52.78 2.87
-3.46 -12.3 -2.48
-15.35 -54.49 4.95
-4.41 -15.64 -2.57
-5.24 -18.6 -2.37
-15.84 -56.21 9.25
-6.92 -24.56 -2.23
-15.8 -56.09 11.33
-10.45 -37.1 -2.02
-16.46 -58.42 14.01
-16.25 -57.68 16.06
-15.46 -54.18 0.98
-3.49 -12.24 -2.47
-15.4 -53.95 4.91
-4.46 -15.63 -2.57
-5.3 -18.57 -2.37
-7.02 -24.58 -2.24
-16.34 -57.25 11.57
-10.6 -37.13 -2.02
-16.71 -58.55 14.06
-16.45 -57.64 16.06
-15.58 -53.92 0.98
-16.29 -56.37 3.08
-3.54 -12.26 -2.48
-15.18 -52.53 4.78
-4.52 -15.64 -2.58
-16.25 -56.22 7.19
-5.37 -18.56 -2.37
-16.14 -55.83 9.2
-7.11 -24.6 -2.24
-16.52 -57.17 11.57
-10.74 -37.16 -2.03
-17.19 -59.46 14.29
-16.63 -57.55 16.05
-15.94 -54.49 0.99
-16.48 -56.32 3.08
-3.58 -12.24 -2.48
-15.8 -54.01 4.92
-4.56 -15.59 -2.57
-16.55 -56.57 7.24
-5.43 -18.56 -2.37
-16.26 -55.58 9.17
-7.19 -24.57 -2.24
-10.86 -37.11 -2.03
-16.84 -57.55 13.84
-16.54 -56.51 -1.03
-16.29 -54.98 1
-16.6 -56.05 3.06
-3.62 -12.22 -2.48
-15.98 -53.96 4.92
-4.62 -15.59 -2.57
-16.65 -56.22 7.2
-5.5 -18.56 -2.38
-16.47 -55.6 9.18
-7.27 -24.53 -2.24
-16.83 -56.81 11.52
-10.95 -36.96 -2.02
-17.04 -57.52 13.85
-16.53 -55.04 1
-3.67 -12.22 -2.48
-4.68 -15.58 -2.58
-16.66 -55.47 7.11
-5.56 -18.52 -2.37
-17 -56.59 9.36
-7.36 -24.51 -2.24
-17.08 -56.84 11.54
-11.11 -36.99 -2.02
-16.27 -54.17 -0.99
-16.73 -55.03 1
-17.79 -58.53 3.21
-3.72 -12.23 -2.48
-17.62 -57.96 5.3
-4.73 -15.57 -2.58
-5.63 -18.51 -2.38
-17.55 -57.71 9.55
-7.44 -24.47 -2.24
-17.29 -56.88 11.56
-11.25 -37 -2.03
-18.57 -61.09 14.74
-21.1 -69.39 19.43
-17.06 -55.38 1.01
-3.76 -12.2 -2.48
-4.79 -15.57 -2.58
-5.69 -18.47 -2.37
-17.75 -57.64 9.55
-7.55 -24.5 -2.24
-11.37 -36.92 -2.02
-18.8 -61.05 14.75
-17.01 -55.22 -1.01
-17.28 -55.44 1.01
-3.8 -12.19 -2.48
-4.84 -15.54 -2.58
-5.75 -18.46 -2.37
-17.76 -56.99 9.45
-7.64 -24.51 -2.25
-18.83 -60.41 12.3
-11.52 -36.97 -2.03
-21.6 -69.29 19.45
-17.5 -55.43 1.01
-3.85 -12.18 -2.48
-18.26 -57.84 5.31
-4.91 -15.56 -2.58
-18.81 -59.59 7.67
-5.82 -18.44 -2.37
-18.27 -57.87 9.61
-7.73 -24.49 -2.25
-18.35 -58.11 11.85
-11.69 -37.04 -2.04
-18.96 -60.07 14.54
-17.72 -55.5 1.02
-3.88 -12.17 -2.48
-18.42 -57.68 5.3
-4.97 -15.57 -2.59
-18.26 -57.18 7.37
-5.87 -18.4 -2.37
-7.82 -24.49 -2.25
-11.82 -37 -2.04
-19.18 -60.07 14.56
-17.36 -54.38 -1
-18.01 -55.68 1.02
-18.07 -55.88 3.08
-3.93 -12.14 -2.48
-5.02 -15.53 -2.58
-18.46 -57.08 7.37
-5.94 -18.37 -2.37
-7.92 -24.49 -2.25
-18.71 -57.87 11.82
-11.97 -37.02 -2.04
-19.69 -60.9 14.78
-17.82 -54.48 1
-3.96 -12.11 -2.48
-18.36 -56.13 5.17
-5.06 -15.47 -2.58
-6 -18.36 -2.37
-18.88 -57.72 9.62
-8 -24.47 -2.25
-19.15 -58.56 11.98
-12.11 -37.03 -2.04
-17.81 -54.44 -1
-18.59 -56.18 3.1
-4 -12.1 -2.48
-5.1 -15.41 -2.57
-6.07 -18.36 -2.37
-8.09 -24.45 -2.25
-12.2 -36.86 -2.03
-18 -54.38 -1
-18.74 -55.99 1.03
-18.61 -55.62 3.07
-4.04 -12.08 -2.48
-5.15 -15.38 -2.57
-6.13 -18.33 -2.37
-8.18 -24.45 -2.26
-19.49 -58.24 11.94
-12.39 -37.04 -2.05
-18.33 -54.77 -1.01
-18.37 -54.25 3
-4.09 -12.07 -2.48
-18.58 -54.85 5.07
-5.21 -15.38 -2.57
-6.2 -18.32 -2.37
-19.13 -56.48 9.44
-8.28 -24.45 -2.26
-12.56 -37.08 -2.05
-20.74 -61.25 17.33
-18.62 -54.4 3.01
-4.12 -12.04 -2.47
-18.74 -54.72 5.06
-5.26 -15.38 -2.57
-19.02 -55.55 7.21
-6.26 -18.3 -2.37
-19.32 -56.43 9.45
-8.36 -24.43 -2.26
-12.74 -37.2 -2.06
-20.61 -60.18 14.69
-20.16 -58.87 -1.09
-18.84 -54.37 3.02
-4.17 -12.02 -2.47
-19.18 -55.35 5.13
-5.32 -15.35 -2.57
-19.25 -55.57 7.22
-6.33 -18.28 -2.37
-19.53 -56.37 9.45
-8.45 -24.4 -2.26
-12.96 -37.41 -2.08
-20.42 -58.92 14.4
-19.96 -57.6 -1.06
-20.17 -57.61 1.07
-19.25 -54.98 3.05
-4.21 -12.02 -2.48
-5.36 -15.31 -2.57
-19.49 -55.65 7.24
-6.39 -18.25 -2.37
-19.74 -56.37 9.46
-8.55 -24.41 -2.26
-13.06 -37.28 -2.07
-20.6 -58.83 14.39
-20.15 -57.54 -1.06
-25.11 -71.69 20.35
-19.19 -54.2 3.01
-4.26 -12.02 -2.48
-5.42 -15.3 -2.57
-6.47 -18.28 -2.38
-19.73 -55.72 9.36
-8.66 -24.44 -2.27
-13.23 -37.36 -2.08
-20.77 -58.65 14.36
-21.39 -60.4 -1.12
-19.64 -54.89 1.02
-4.3 -12.02 -2.48
-20.07 -56.08 5.21
-5.46 -15.26 -2.57
-19.93 -55.69 7.26
-6.55 -18.3 -2.39
-19.93 -55.7 9.37
-8.76 -24.48 -2.27
-13.34 -37.29 -2.08
-19.77 -55.25 -1.02
-20.15 -55.65 1.03
-4.35 -12.01 -2.48
-19.93 -55.05 5.12
-5.51 -15.23 -2.57
-19.87 -54.89 7.17
-6.63 -18.32 -2.39
-20.23 -55.89 9.41
-8.87 -24.51 -2.28
-13.47 -37.22 -2.07
-21.12 -58.35 14.33
-21.12 -58.35 16.63
-19.95 -54.55 3.04
-4.39 -12.01 -2.49
-20.19 -55.2 5.14
-5.56 -15.2 -2.56
-6.71 -18.35 -2.4
-20.54 -56.16 9.47
-8.95 -24.47 -2.28
-13.63 -37.27 -2.08
-21.2 -57.98 16.54
-20.99 -56.78 1.06
-20.11 -54.38 3.04
-4.44 -12 -2.49
-20.42 -55.22 5.15
-5.58 -15.1 -2.55
-6.79 -18.36 -2.4
-20.34 -55.01 9.29
-9.07 -24.52 -2.29
-21.23 -57.42 11.9
-13.65 -36.93 -2.06
-21.19 -57.32 14.11
-20.52 -54.94 3.07
-4.49 -12.02 -2.49
-5.65 -15.12 -2.56
-6.84 -18.33 -2.4
-21.11 -56.52 9.56
-9.14 -24.48 -2.29
-21.39 -57.28 11.89
-13.84 -37.06 -2.07
-21.4 -57.3 14.12
-21.81 -58.38 16.7
-22.31 -59.05 1.1
-20.52 -54.3 3.04
-4.54 -12.01 -2.5
-20.63 -54.6 5.11
-5.7 -15.08 -2.55
-20.77 -54.97 7.22
-6.91 -18.29 -2.4
-20.97 -55.5 9.4
-9.24 -24.46 -2.29
-14.02 -37.09 -2.08
-21.63 -57.23 14.12
-21.87 -57.88 -1.08
-22.01 -58.24 16.68
-22.02 -57.7 1.08
-22.05 -57.78 3.24
-4.57 -11.96 -2.49
-5.74 -15.04 -2.55
-21.04 -55.13 7.25
-6.98 -18.28 -2.4
-20.91 -54.8 9.29
-9.34 -24.46 -2.29
-14.16 -37.1 -2.08
-22.1 -57.9 14.31
-21.99 -57.62 -1.08
-22.18 -58.12 16.67
-21.04 -54.59 1.02
-22 -57.08 3.21
-4.61 -11.96 -2.49
-5.77 -14.96 -2.54
-21.26 -55.15 7.26
-7.04 -18.27 -2.4
-21.06 -54.64 9.27
-9.44 -24.48 -2.3
-14.32 -37.14 -2.09
-21.18 -54.94 -1.03
-22.12 -57.39 16.48
-21 -53.95 1.01
-22.37 -57.46 3.23
-4.66 -11.97 -2.5
-5.81 -14.92 -2.54
-21.33 -54.79 7.22
-7.12 -18.29 -2.41
-21.7 -55.74 9.47
-9.52 -24.45 -2.3
-14.43 -37.08 -2.09
-21.73 -55.83 13.83
-6.8 -17.46 5.02
-21.46 -54.51 1.02
-4.72 -11.99 -2.5
-5.86 -14.88 -2.53
-21.62 -54.91 7.25
-7.21 -18.32 -2.42
-21.48 -54.56 9.29
-9.63 -24.47 -2.3
-14.62 -37.12 -2.09
-21.52 -54.67 -1.03
-22.82 -57.95 16.69
-21.48 -54.03 1.01
-4.77 -11.99 -2.51
-21.65 -54.46 5.13
-5.92 -14.9 -2.54
-7.28 -18.31 -2.42
-21.97 -55.26 9.42
-9.73 -24.47 -2.3
-14.74 -37.08 -2.09
-22.96 -57.76 16.66
-4.81 -11.97 -2.51
-5.98 -14.89 -2.54
-21.95 -54.67 7.23
-7.35 -18.3 -2.42
-22.27 -55.46 9.47
-9.79 -24.39 -2.3
-14.9 -37.11 -2.1
-23.04 -57.37 16.57
-4.84 -11.93 -2.5
-6.01 -14.82 -2.53
-22.07 -54.44 7.21
-7.42 -18.31 -2.43
-22.4 -55.24 9.44
-9.87 -24.34 -2.3
-22.2 -54.77 11.49
-15.04 -37.09 -2.1
-22.66 -55.89 13.92
-22.01 -53.71 1.01
-4.88 -11.91 -2.5
-22.32 -54.47 5.15
-6.06 -14.8 -2.53
-22.49 -54.88 7.28
-7.5 -18.3 -2.43
-22.58 -55.1 9.43
-9.98 -24.37 -2.3
-15.19 -37.08 -2.1
-23.06 -56.28 14.04
-22.22 -53.73 1.01
-4.93 -11.91 -2.51
-6.12 -14.79 -2.53
-7.54 -18.22 -2.42
-22.69 -54.87 9.4
-10.07 -24.35 -2.31
-15.34 -37.09 -2.1
-23.52 -56.86 14.21
-22.28 -53.86 -1.02
-22.33 -53.43 1.01
-4.97 -11.9 -2.51
-6.18 -14.78 -2.54
-23.02 -55.09 7.33
-7.6 -18.18 -2.42
-23.04 -55.12 9.46
-10.19 -24.38 -2.31
-23.19 -55.49 11.69
-23.73 -56.77 14.21
-5.01 -11.87 -2.5
-22.77 -53.98 5.13
-6.23 -14.77 -2.54
-23.25 -55.13 7.35
-7.66 -18.17 -2.42
-23.21 -55.02 9.46
-10.27 -24.35 -2.31
-15.6 -36.99 -2.1
-23.86 -56.57 14.18
-5.05 -11.86 -2.51
-6.29 -14.77 -2.54
-7.73 -18.15 -2.42
-23.41 -55 9.47
-10.34 -24.28 -2.31
-15.8 -37.11 -2.11
-24.08 -56.56 14.19
-23.87 -55.57 1.06
-23.02 -53.59 3.06
-5.09 -11.84 -2.51
-23.18 -53.95 5.14
-6.32 -14.7 -2.53
-7.8 -18.15 -2.42
-23.69 -55.15 9.51
-10.43 -24.27 -2.31
-15.92 -37.06 -2.11
-24.3 -56.55 14.21
-23.4 -54.46 -1.03
-23.24 -53.54 1.02
-23.35 -53.81 3.07
-5.13 -11.82 -2.5
-23.32 -53.74 5.13
-6.37 -14.67 -2.53
-7.88 -18.16 -2.43
-23.79 -54.82 9.47
-10.53 -24.27 -2.31
-16.02 -36.92 -2.11
-24.5 -56.45 14.21
-7.34 -16.91 4.94
-23.47 -53.58 1.02
-5.18 -11.82 -2.51
-23.44 -53.52 5.11
-6.4 -14.62 -2.53
-7.97 -18.2 -2.44
-23.96 -54.71 9.46
-10.62 -24.26 -2.32
-16.3 -37.21 -2.13
-7.41 -16.92 4.95
-23.67 -53.48 1.02
-5.22 -11.79 -2.51
-23.76 -53.7 5.14
-6.46 -14.61 -2.53
-8.05 -18.2 -2.44
-24.16 -54.59 9.45
-10.72 -24.23 -2.32
-16.41 -37.08 -2.12
-28.21 -63.76 16.1
-24.25 -54.32 3.12
-5.26 -11.78 -2.51
-23.94 -53.62 5.14
-6.52 -14.59 -2.53
-8.11 -18.16 -2.44
-10.83 -24.26 -2.32
-16.63 -37.24 -2.14
-28.32 -63.42 16.03
-5.31 -11.79 -2.51
-6.58 -14.59 -2.53
-8.17 -18.12 -2.44
-10.92 -24.22 -2.32
-16.83 -37.33 -2.15
-24.64 -54.19 3.12
-5.37 -11.81 -2.52
-6.65 -14.63 -2.55
-8.24 -18.13 -2.45
-24.95 -54.88 9.55
-10.99 -24.18 -2.32
-16.9 -37.17 -2.14
-28.7 -63.11 16.01
-6.71 -14.61 -2.55
-8.33 -18.16 -2.45
-11.08 -24.15 -2.32
-27.25 -59.38 12.7
-17.06 -37.19 -2.14
-25.22 -54.49 1.05
-25.75 -55.62 5.36
-6.77 -14.62 -2.55
-8.39 -18.13 -2.45
-11.16 -24.11 -2.32
-17.21 -37.18 -2.15
-28.17 -60.21 3.48
-25.89 -55.34 5.35
-6.84 -14.63 -2.56
-29.16 -62.33 8.45
-8.48 -18.12 -2.46
-29.29 -62.61 10.95
-11.25 -24.06 -2.32
-28.38 -60.15 3.49
-6.88 -14.58 -2.55
-27.81 -58.93 8
-8.58 -18.18 -2.47
-29.34 -62.18 10.89
-11.35 -24.05 -2.33
-17.58 -37.25 -2.16
-28.64 -60.7 15.5
-27.36 -57.47 3.34
-6.9 -14.5 -2.54
-28.05 -58.92 8.01
-8.62 -18.1 -2.46
-29.63 -62.23 10.92
-11.46 -24.06 -2.33
-28.64 -60.15 15.38
-27.46 -57.18 3.32
-5.64 -11.74 -2.53
-27.29 -56.83 5.52
-6.98 -14.54 -2.55
-27.63 -57.53 7.84
-8.68 -18.08 -2.46
-11.57 -24.08 -2.34
-29.73 -61.9 13.35
-17.79 -37.05 -2.15
-28.69 -59.74 15.3
-29.52 -61.46 18.27
-5.68 -11.72 -2.53
-7.04 -14.52 -2.56
-8.77 -18.09 -2.47
-27.77 -57.32 10.09
-11.63 -24 -2.33
-17.97 -37.1 -2.16
-28.92 -59.7 15.32
-27.82 -56.93 3.32
-7.07 -14.46 -2.55
-8.83 -18.06 -2.47
-27.92 -57.13 10.07
-11.71 -23.97 -2.33
-18.15 -37.14 -2.17
-29.13 -59.6 15.32
-28.06 -56.89 3.32
-7.1 -14.41 -2.54
-28.69 -58.17 7.96
-8.88 -18 -2.46
-28.35 -57.49 10.15
-11.82 -23.98 -2.34
-17.94 -36.38 -2.13
-29.46 -59.74 15.38
-29.73 -59.78 3.5
-28.01 -56.32 5.5
-7.14 -14.36 -2.54
-8.94 -17.98 -2.47
-28.54 -57.38 10.15
-11.9 -23.92 -2.34
-18.5 -37.19 -2.18
-29.72 -59.74 15.41
-29.91 -59.62 3.5
-28.2 -56.21 5.5
-7.18 -14.32 -2.54
-28.64 -57.09 7.84
-8.99 -17.92 -2.46
-28.42 -56.66 10.04
-11.99 -23.9 -2.34
-18.64 -37.15 -2.18
-29.95 -59.71 15.42
-28.16 -56.14 -1.1
-28.49 -56.32 5.52
-7.23 -14.3 -2.54
-28.97 -57.26 7.88
-9.05 -17.88 -2.46
-28.48 -56.3 9.99
-12.07 -23.86 -2.34
-28.74 -56.81 12.38
-18.73 -37.02 -2.17
-30.58 -60.45 15.64
-28.21 -55.77 -1.09
-30.45 -59.66 1.17
-30.28 -59.32 3.49
-28.75 -56.33 5.53
-7.3 -14.3 -2.54
-9.14 -17.91 -2.47
-28.77 -56.37 10.02
-12.15 -23.8 -2.34
-18.91 -37.04 -2.18
-31.75 -62.21 16.12
-28.39 -55.62 -1.09
-30.68 -59.6 1.17
-30.58 -59.42 3.5
-7.35 -14.27 -2.54
-28.62 -55.6 7.68
-9.2 -17.88 -2.47
-28.89 -56.12 10
-12.23 -23.77 -2.34
-29.23 -56.78 12.41
-19.07 -37.04 -2.18
-29.05 -56.44 -1.11
-30.4 -58.54 1.15
-5.97 -11.5 -2.52
-30.34 -58.42 5.76
-7.4 -14.25 -2.54
-9.27 -17.85 -2.47
-12.32 -23.73 -2.34
-19.22 -37.01 -2.19
-30.57 -58.39 1.15
-30.24 -57.75 3.42
-30.32 -57.92 5.72
-7.44 -14.22 -2.54
-30.35 -57.98 8.04
-9.33 -17.82 -2.47
-32.06 -61.23 10.95
-12.41 -23.7 -2.34
-19.37 -37 -2.19
-30.49 -57.71 3.42
-7.48 -14.15 -2.54
-30.57 -57.86 8.03
-9.39 -17.78 -2.47
-29.36 -55.57 9.95
-12.49 -23.63 -2.34
-19.59 -37.07 -2.2
-9.37 -17.72 5.37
-32.33 -60.69 1.2
-31.23 -58.63 5.81
-7.54 -14.15 -2.54
-9.47 -17.78 -2.47
-29.62 -55.6 9.98
-12.57 -23.59 -2.34
-19.78 -37.12 -2.2
-30.86 -57.92 15.15
-30.53 -56.84 1.13
-31.46 -58.57 3.48
-7.58 -14.11 -2.54
-32.51 -60.52 8.44
-9.56 -17.79 -2.48
-12.69 -23.63 -2.35
-30.26 -56.35 12.43
-19.91 -37.06 -2.2
-30.65 -57.07 14.96
-30.07 -55.98 -1.11
-30.78 -56.84 1.13
-31.73 -58.6 3.49
-7.62 -14.08 -2.54
-9.61 -17.75 -2.48
-29.81 -55.05 9.92
-12.78 -23.61 -2.35
-20.01 -36.96 -2.2
-30.79 -56.87 14.93
-30.13 -55.64 -1.1
-30.98 -56.73 1.13
-31.14 -57.02 3.4
-7.69 -14.07 -2.54
-9.66 -17.69 -2.47
-12.88 -23.58 -2.35
-30.28 -55.45 12.28
-20.25 -37.08 -2.21
-30.99 -56.74 14.93
-30.26 -55.41 -1.1
-30.73 -55.82 1.11
-32.51 -59.05 3.53
-7.72 -14.03 -2.54
-9.72 -17.65 -2.47
-30.15 -54.76 9.9
-12.97 -23.56 -2.35
-20.43 -37.1 -2.22
-31.2 -56.67 14.94
-30.56 -55.52 -1.11
-30.96 -55.79 1.11
-32.17 -57.96 3.47
-7.78 -14.01 -2.54
-30.03 -54.11 7.6
-9.77 -17.6 -2.47
-13.09 -23.59 -2.36
-20.55 -37.02 -2.22
-31.43 -56.63 14.95
-31.56 -56.41 1.13
-31.89 -57.01 3.42
-31 -55.42 5.56
-7.84 -14.01 -2.54
-30.15 -53.89 7.58
-9.85 -17.61 -2.48
-30.88 -55.2 10.02
-13.16 -23.53 -2.36
-32.19 -57.53 12.81
-20.71 -37.03 -2.22
-31.89 -57.01 15.08
-4.52 -8.01 -2.46
-31.82 -56.41 1.13
-32.25 -57.17 3.44
-31.3 -55.49 5.57
-7.89 -13.98 -2.54
-30.33 -53.76 7.58
-9.94 -17.62 -2.48
-31.08 -55.1 10.02
-13.23 -23.45 -2.36
-20.86 -36.97 -2.22
-10.12 -17.93 4.75
-31.09 -54.67 1.1
-32.43 -57.04 3.44
-31.7 -55.74 5.61
-7.93 -13.94 -2.54
-30.47 -53.58 7.57
-10.03 -17.64 -2.49
-13.34 -23.46 -2.36
-20.99 -36.92 -2.23
-32.17 -56.57 -1.14
-4.59 -8.01 -2.47
-31.36 -54.69 1.1
-32.83 -57.25 5.77
-7.97 -13.89 -2.54
-30.72 -53.58 7.58
-10.12 -17.65 -2.5
-13.43 -23.42 -2.36
-21.15 -36.89 -2.23
-4.61 -7.97 -2.47
-33.02 -57.13 1.15
-33.8 -58.49 5.91
-7.99 -13.83 -2.53
-30.99 -53.62 7.6
-10.18 -17.62 -2.5
-31.7 -54.85 10.03
-13.59 -23.51 -2.38
-21.28 -36.82 -2.23
-4.64 -7.97 -2.47
-8.03 -13.79 -2.53
-31.28 -53.69 7.63
-10.25 -17.6 -2.5
-31.83 -54.62 10.01
-13.67 -23.47 -2.38
-33.04 -56.7 12.76
-21.47 -36.84 -2.23
-4.65 -7.92 -2.46
-32.62 -55.53 3.37
-8.09 -13.76 -2.53
-31.46 -53.56 7.63
-10.33 -17.58 -2.5
-32 -54.48 10.01
-13.75 -23.41 -2.38
-33.43 -56.9 12.83
-21.66 -36.88 -2.24
-4.68 -7.9 -2.46
-32.91 -55.58 5.65
-8.13 -13.74 -2.53
-31.68 -53.51 7.64
-10.4 -17.56 -2.51
-32.25 -54.46 10.02
-13.3 -22.47 -2.28
-33.69 -56.9 12.85
-21.85 -36.9 -2.25
-4.69 -7.85 -2.45
-35.28 -59.11 1.2
-33.22 -55.66 3.4
-32.96 -55.23 5.63
-8.17 -13.68 -2.52
-32.34 -54.19 7.75
-10.47 -17.54 -2.51
-13.91 -23.3 -2.37
-22.03 -36.91 -2.25
-4.71 -7.84 -2.45
-33.04 -54.97 1.12
-33.34 -55.46 3.39
-33.23 -55.29 5.64
-8.21 -13.66 -2.52
-32.59 -54.22 7.77
-10.49 -17.45 -2.5
-39.4 -65.55 12.11
-13.98 -23.26 -2.37
-22.18 -36.89 -2.26
-4.74 -7.82 -2.45
-6.84 -11.29 -2.57
-8.25 -13.62 -2.52
-32.76 -54.07 7.76
-10.54 -17.39 -2.5
-39.7 -65.53 12.13
-13.51 -22.3 -2.28
-22.39 -36.95 -2.26
-4.77 -7.8 -2.45
-40.12 -65.68 1.34
-6.88 -11.26 -2.56
-8.3 -13.59 -2.52
-33.02 -54.06 7.78
-10.59 -17.33 -2.49
-35.57 -58.22 10.81
-13.7 -22.42 -2.3
-22.46 -36.77 -2.26
-4.79 -7.78 -2.45
-8.37 -13.59 -2.53
-35.27 -57.29 8.26
-10.62 -17.25 -2.49
-35.44 -57.56 10.71
-14.27 -23.18 -2.38
-22.63 -36.75 -2.26
-34.57 -56.14 -1.15
-4.8 -7.74 -2.44
-36.45 -58.77 3.62
-35.54 -57.29 5.9
-8.44 -13.6 -2.54
-36.02 -58.07 8.39
-10.67 -17.19 -2.48
-35.63 -57.44 10.7
-14.34 -23.12 -2.38
-22.73 -36.64 -2.26
-34.76 -56.04 -1.15
-4.83 -7.72 -2.44
-35.72 -57.13 5.89
-8.49 -13.57 -2.54
-10.71 -17.14 -2.48
-35.85 -57.35 10.71
-14.43 -23.09 -2.38
-22.87 -36.59 -2.26
-34.99 -55.97 -1.15
-4.86 -7.71 -2.44
-37.56 -59.64 6.17
-8.51 -13.52 -2.53
-37.97 -60.3 8.75
-10.79 -17.13 -2.49
-14.09 -22.38 -2.31
-22.94 -36.43 -2.26
-4.88 -7.68 -2.44
-38.62 -60.86 1.26
-8.55 -13.48 -2.53
-38.22 -60.23 8.76
-10.88 -17.15 -2.49
-41.26 -65.02 12.2
-14.61 -23.02 -2.38
-23.12 -36.44 -2.26
-4.91 -7.68 -2.44
-37.64 -58.85 3.66
-37.72 -58.98 6.13
-8.6 -13.45 -2.53
-38.1 -59.57 8.68
-10.94 -17.1 -2.49
-14.69 -22.97 -2.39
-23.14 -36.19 -2.25
-36.78 -57.51 -1.19
-4.93 -7.65 -2.44
-36.69 -56.93 1.18
-8.64 -13.4 -2.53
-38.53 -59.79 8.73
-10.98 -17.04 -2.49
-38.98 -60.49 11.4
-14.74 -22.88 -2.38
-23.31 -36.18 -2.26
-4.29 -6.6 -2.11
-8.67 -13.35 -2.52
-11.02 -16.97 -2.48
-39.47 -60.78 11.48
-14.97 -23.05 -2.4
-23.5 -36.19 -2.26
-36.98 -56.51 1.18
-37.05 -56.61 3.55
-8.75 -13.37 -2.53
-38.23 -58.42 8.57
-11.08 -16.94 -2.49
-38.49 -58.83 11.13
-15.07 -23.04 -2.41
-23.77 -36.33 -2.28
-5.01 -7.59 -2.44
-8.79 -13.33 -2.53
-38.48 -58.35 8.58
-11.2 -16.99 -2.5
-38.63 -58.59 11.11
-15.18 -23.03 -2.41
-23.88 -36.22 -2.27
-12.46 -18.89 5.22
-5.03 -7.58 -2.44
-8.85 -13.32 -2.53
-11.25 -16.93 -2.5
-38.9 -58.56 11.13
-15.3 -23.03 -2.42
-38.65 -58.18 13.58
-24.1 -36.28 -2.28
-5.07 -7.57 -2.44
-38.17 -57.02 6
-8.9 -13.3 -2.53
-38.84 -58.02 8.57
-11.33 -16.92 -2.5
-39.01 -58.28 11.11
-15.4 -23 -2.42
-38.81 -57.98 13.56
-24.26 -36.24 -2.29
-5.1 -7.56 -2.44
-8.97 -13.29 -2.54
-39.15 -58.05 8.6
-11.43 -16.94 -2.51
-39.44 -58.48 11.17
-15.51 -23 -2.43
-38.95 -57.74 13.54
-24.48 -36.29 -2.29
-5.13 -7.55 -2.44
-38.79 -57.1 1.2
-38.67 -56.92 6.02
-9.01 -13.26 -2.54
-11.52 -16.96 -2.52
-39.55 -58.21 11.15
-15.65 -23.04 -2.44
-39.14 -57.61 13.54
-24.58 -36.19 -2.29
-39.47 -58.09 16.21
-5.12 -7.48 -2.43
-9.06 -13.23 -2.54
-39.26 -57.36 8.53
-11.55 -16.87 -2.51
-15.73 -22.99 -2.44
-24.67 -36.04 -2.29
-40.51 -59.18 16.56
-5.18 -7.52 -2.45
-40.99 -59.44 1.26
-40.97 -59.41 6.31
-9.1 -13.2 -2.54
-39.6 -57.42 8.56
-11.56 -16.77 -2.5
-40.51 -58.75 11.3
-15.83 -22.96 -2.44
-39.87 -57.82 13.65
-24.8 -35.96 -2.29
-40.69 -59 16.55
-40.99 -59.44 -1.26
-5.19 -7.47 -2.44
-9.15 -13.18 -2.54
-39.78 -57.26 8.56
-11.64 -16.76 -2.51
-39.59 -56.98 10.99
-15.96 -22.97 -2.45
-24.88 -35.81 -2.29
-40.88 -58.84 16.54
-41.35 -59.51 -1.26
-5.2 -7.43 -2.43
-9.18 -13.11 -2.53
-11.68 -16.69 -2.5
-16.03 -22.9 -2.45
-13.44 -19.2 4.55
-25.01 -35.73 -2.29
-41.17 -58.81 16.57
-41.67 -59.53 -1.27
-5.24 -7.43 -2.44
-9.22 -13.08 -2.53
-11.73 -16.63 -2.5
-39.93 -56.62 10.97
-16.16 -22.92 -2.45
-25.25 -35.81 -2.3
-5.26 -7.41 -2.44
-39.92 -56.19 1.2
-9.27 -13.05 -2.54
-40.93 -57.61 8.68
-11.83 -16.65 -2.51
-16.29 -22.93 -2.46
-25.37 -35.72 -2.3
-41.46 -58.37 16.53
-5.29 -7.39 -2.44
-40.33 -56.36 1.21
-40.92 -57.18 6.15
-9.32 -13.02 -2.54
-41.13 -57.48 8.68
-11.91 -16.64 -2.51
-42.41 -59.25 11.54
-16.42 -22.94 -2.47
-25.47 -35.59 -2.29
-40.85 -56.66 3.66
-41.12 -57.03 6.15
-9.38 -13.02 -2.54
-40.44 -56.1 8.49
-11.93 -16.55 -2.5
-16.47 -22.84 -2.46
-25.77 -35.75 -2.31
-42.84 -59.42 16.91
-40.94 -56.37 3.65
-9.46 -13.02 -2.55
-40.68 -56.01 8.5
-11.97 -16.48 -2.5
-16.51 -22.73 -2.46
-42.96 -59.16 14.21
-25.92 -35.69 -2.31
-43.22 -59.51 19.71
-40.16 -54.91 1.19
-9.47 -12.94 -2.54
-40.9 -55.92 8.51
-11.98 -16.37 -2.49
-41.8 -57.16 11.22
-16.66 -22.78 -2.47
-26.04 -35.61 -2.31
-43.3 -59.21 19.65
-9.51 -12.91 -2.54
-40.99 -55.63 8.48
-12.04 -16.34 -2.49
-26.1 -35.42 -2.31
-43.62 -59.21 19.71
-5.42 -7.3 -2.44
-40.13 -54.07 1.18
-40.81 -54.99 3.59
-9.58 -12.91 -2.55
-41.31 -55.67 8.51
-12.13 -16.34 -2.5
-41.74 -56.24 11.09
-16.92 -22.8 -2.48
-26.26 -35.38 -2.31
-42.43 -57.18 16.44
-5.42 -7.25 -2.43
-40.29 -53.9 1.17
-9.64 -12.89 -2.55
-41.66 -55.73 8.54
-12.2 -16.32 -2.5
-41.96 -56.12 11.1
-17.05 -22.81 -2.49
-26.47 -35.4 -2.32
-41.28 -55.22 -1.2
-5.45 -7.23 -2.43
-40.74 -54.11 1.18
-9.65 -12.82 -2.54
-12.29 -16.32 -2.51
-42.61 -56.59 11.22
-17.11 -22.72 -2.49
-26.62 -35.35 -2.32
-45.29 -60.15 17.38
-43.11 -57.25 -1.25
-5.48 -7.22 -2.43
-40.79 -53.78 1.18
-9.67 -12.74 -2.53
-46.91 -61.85 9.53
-12.35 -16.28 -2.51
-42.9 -56.57 11.24
-26.73 -35.24 -2.32
-43.31 -57.1 -1.25
-5.49 -7.2 -2.43
-9.68 -12.68 -2.53
-12.4 -16.24 -2.51
-43.92 -57.52 11.46
-17.39 -22.78 -2.51
-43.81 -57.39 14.03
-26.85 -35.17 -2.32
-5.54 -7.2 -2.43
-42.51 -55.28 1.22
-44.35 -57.67 3.81
-44.25 -57.55 6.35
-9.75 -12.67 -2.53
-12.42 -16.15 -2.5
-17.48 -22.74 -2.51
-26.96 -35.05 -2.32
-5.55 -7.17 -2.43
-41.76 -53.88 1.19
-9.84 -12.69 -2.54
-12.51 -16.14 -2.51
-43.63 -56.29 11.28
-17.56 -22.66 -2.51
-27.45 -35.41 -2.35
-5.54 -7.09 -2.41
-42.34 -54.23 1.2
-9.91 -12.69 -2.55
-12.64 -16.19 -2.52
-43.8 -56.1 11.27
-17.7 -22.67 -2.52
-27.5 -35.22 -2.34
-5.53 -7.04 -2.4
-46.92 -59.71 3.98
-47.81 -60.84 6.77
-9.93 -12.64 -2.55
-47.61 -60.59 9.46
-12.7 -16.16 -2.52
-44.81 -57.02 11.49
-17.79 -22.64 -2.52
-27.76 -35.32 -2.35
-46.88 -59.66 17.52
-5.57 -7.04 -2.4
-47.07 -59.47 6.64
-10 -12.64 -2.55
-12.79 -16.16 -2.53
-45.25 -57.18 11.55
-17.87 -22.58 -2.52
-28.01 -35.4 -2.37
-5.59 -7.02 -2.4
-47.52 -59.61 4
-46.18 -57.94 6.48
-10.07 -12.64 -2.56
-47.23 -59.25 9.3
-12.82 -16.09 -2.53
-17.93 -22.49 -2.52
-5.62 -7 -2.41
-47.26 -58.87 1.32
-47.44 -59.08 3.97
-10.11 -12.59 -2.56
-12.92 -16.1 -2.53
-17.96 -22.37 -2.51
-28.42 -35.4 -2.38
-48.37 -60.25 -1.35
-5.63 -6.96 -2.4
-47.62 -58.87 1.32
-10.15 -12.55 -2.56
-12.99 -16.06 -2.54
-18.03 -22.29 -2.51
-28.56 -35.31 -2.38
-5.68 -6.97 -2.41
-47.95 -58.86 1.33
-10.2 -12.53 -2.56
-47.73 -58.59 9.28
-13.06 -16.03 -2.54
-17.97 -22.05 -2.49
-28.79 -35.34 -2.39
-47.68 -58.52 17.43
-5.7 -6.95 -2.41
-45.89 -55.93 3.79
-10.24 -12.49 -2.56
-13.12 -15.99 -2.54
-18.21 -22.19 -2.51
-29.02 -35.37 -2.4
-5.75 -6.96 -2.42
-46.09 -55.77 3.79
-10.27 -12.43 -2.55
-53.07 -64.21 10.23
-13.17 -15.93 -2.54
-18.2 -22.03 -2.5
-29.23 -35.37 -2.4
-5.79 -6.96 -2.42
-47.67 -57.29 1.3
-10.34 -12.43 -2.56
-13.23 -15.9 -2.54
-46.89 -56.36 11.61
-18.23 -21.92 -2.49
-29.4 -35.34 -2.41
-49.59 -59.6 17.9
-5.81 -6.94 -2.42
-10.38 -12.38 -2.56
-46.5 -55.49 8.89
-13.27 -15.83 -2.54
-47.41 -56.57 11.69
-18.37 -21.92 -2.5
-29.56 -35.27 -2.41
-5.85 -6.92 -2.43
-48.53 -57.48 1.31
-47.66 -56.46 3.87
-10.43 -12.35 -2.56
-46.55 -55.14 8.86
-13.29 -15.74 -2.53
-47.77 -56.58 11.73
-18.48 -21.89 -2.51
-29.73 -35.21 -2.42
-5.91 -6.95 -2.44
-47.82 -56.24 3.87
-10.47 -12.31 -2.56
-46.71 -54.93 8.85
-13.3 -15.64 -2.52
-50.12 -58.94 12.25
-18.56 -21.82 -2.51
-29.55 -34.76 -2.39
-5.93 -6.92 -2.44
-48.09 -56.17 3.88
-10.54 -12.31 -2.57
-46.96 -54.84 8.87
-13.29 -15.52 -2.51
-18.61 -21.73 -2.5
-29.58 -34.55 -2.38
-5.95 -6.9 -2.44
-48.58 -56.33 6.51
-10.57 -12.25 -2.56
-13.31 -15.43 -2.5
-18.64 -21.61 -2.5
-29.77 -34.52 -2.39
-5.97 -6.88 -2.44
-48.73 -56.14 3.9
-10.61 -12.23 -2.56
-13.32 -15.34 -2.49
-49.32 -56.81 11.92
-18.73 -21.57 -2.5
-29.96 -34.51 -2.39
-6.01 -6.88 -2.45
-51.55 -58.96 1.37
-50.51 -57.77 4.02
-10.66 -12.19 -2.56
-48.37 -55.32 9.02
-13.34 -15.26 -2.49
-18.83 -21.54 -2.5
-30.12 -34.45 -2.4
-6.03 -6.85 -2.44
-51.04 -57.97 4.05
-48.32 -54.88 6.4
-10.7 -12.15 -2.56
-48.54 -55.14 9.02
-13.43 -15.25 -2.5
-18.87 -21.44 -2.5
-30.27 -34.38 -2.4
-6.05 -6.82 -2.44
-10.75 -12.13 -2.57
-48.82 -55.06 9.04
-13.51 -15.23 -2.5
-49.68 -56.02 11.86
-18.96 -21.38 -2.5
-30.42 -34.31 -2.4
-6.05 -6.78 -2.43
-48.95 -54.86 6.43
-10.81 -12.11 -2.57
-49.12 -55.06 9.06
-13.59 -15.23 -2.51
