# .PCD v0.7 - Point Cloud Data file format
VERSION 0.7
FIELDS x y z
SIZE 4 4 4
TYPE F F F
COUNT 1 1 1
WIDTH 2836
HEIGHT 1
VIEWPOINT 0 0 0 1 0 0 0
POINTS 2836
DATA ascii
9.31 -10.51 1.23
4.82 -5.44 -1.15
28.72 -32.43 5.32
7.74 -8.74 -1.43
28.67 -32.37 6.85
3.54 -4.02 -1.43
20.5 -23.3 0.54
3.96 -4.51 -1.39
20.47 -23.27 1.62
4.5 -5.11 -1.32
9.6 -10.91 1.27
4.78 -5.43 -1.15
9.52 -10.82 1.77
7.72 -8.77 -1.43
28.49 -32.39 6.83
3.52 -4.03 -1.43
20.37 -23.31 0.54
3.94 -4.51 -1.38
20.35 -23.29 1.62
4.46 -5.11 -1.32
20.3 -23.24 2.7
4.76 -5.45 -1.15
28.34 -32.44 5.29
7.68 -8.79 -1.43
28.32 -32.41 6.82
3.51 -4.05 -1.43
20.24 -23.34 0.54
3.92 -4.53 -1.38
20.19 -23.29 1.62
4.42 -5.1 -1.31
20.17 -23.26 2.69
4.73 -5.46 -1.14
28.17 -32.48 5.28
7.64 -8.81 -1.43
28.13 -32.44 6.8
29.1 -33.56 8.63
3.49 -4.05 -1.43
20.1 -23.34 0.54
3.91 -4.54 -1.38
20.07 -23.3 1.61
4.41 -5.12 -1.31
20.04 -23.27 2.69
4.65 -5.4 -1.13
27.98 -32.49 5.26
7.61 -8.84 -1.43
27.94 -32.45 6.78
28.86 -33.51 8.6
16.5 -19.16 -1.32
3.47 -4.06 -1.43
9.56 -11.18 0.26
3.89 -4.55 -1.38
19.94 -23.33 1.61
4.37 -5.12 -1.31
19.9 -23.28 2.68
4.64 -5.43 -1.13
27.8 -32.51 5.25
7.58 -8.87 -1.43
27.75 -32.46 6.76
3.46 -4.07 -1.43
19.83 -23.36 0.53
3.88 -4.57 -1.38
19.81 -23.33 1.6
4.36 -5.13 -1.31
19.77 -23.29 2.67
4.59 -5.4 -1.12
27.61 -32.52 5.24
7.56 -8.9 -1.43
27.59 -32.49 6.75
3.45 -4.08 -1.43
19.72 -23.37 0.53
3.85 -4.57 -1.38
19.69 -23.34 1.6
4.34 -5.14 -1.31
19.65 -23.3 2.67
4.57 -5.42 -1.12
27.44 -32.52 5.22
7.52 -8.92 -1.43
27.41 -32.49 6.73
28.26 -33.5 8.52
3.43 -4.09 -1.43
19.59 -23.39 0.53
3.84 -4.58 -1.38
19.55 -23.34 1.6
4.31 -5.15 -1.31
19.53 -23.32 2.66
4.58 -5.46 -1.13
27.26 -32.54 5.21
7.49 -8.94 -1.43
27.24 -32.51 6.72
19.62 -23.43 -0.53
3.42 -4.11 -1.43
19.46 -23.4 0.53
3.82 -4.6 -1.38
19.43 -23.36 1.59
4.29 -5.16 -1.3
19.4 -23.32 2.65
4.56 -5.48 -1.13
27.09 -32.57 5.2
7.45 -8.96 -1.43
27.05 -32.52 6.7
19.48 -23.43 -0.53
3.4 -4.12 -1.43
19.33 -23.41 0.53
3.81 -4.61 -1.38
19.3 -23.37 1.59
4.27 -5.17 -1.3
19.27 -23.33 2.65
4.53 -5.49 -1.13
26.91 -32.58 5.19
7.43 -8.99 -1.43
26.88 -32.55 6.69
27.66 -33.49 8.44
19.37 -23.45 -0.53
3.38 -4.12 -1.43
19.2 -23.41 0.53
3.79 -4.62 -1.38
19.18 -23.39 1.58
4.23 -5.16 -1.3
19.14 -23.35 2.64
4.51 -5.5 -1.13
26.74 -32.61 5.18
7.4 -9.02 -1.43
26.7 -32.56 6.67
19.23 -23.45 -0.53
3.37 -4.14 -1.43
19.08 -23.43 0.53
3.76 -4.62 -1.38
19.05 -23.39 1.58
4.22 -5.19 -1.3
19.02 -23.35 2.63
4.5 -5.52 -1.13
26.55 -32.61 5.16
7.37 -9.05 -1.43
26.53 -32.58 6.65
19.11 -23.47 -0.53
3.36 -4.15 -1.43
18.95 -23.45 0.53
3.75 -4.64 -1.38
18.92 -23.4 1.58
4.19 -5.18 -1.29
18.89 -23.37 2.63
4.47 -5.53 -1.13
26.38 -32.63 5.15
7.33 -9.07 -1.43
26.35 -32.59 6.64
27 -33.4 8.35
4.58 -5.66 1.68
18.98 -23.48 -0.53
3.35 -4.17 -1.43
18.83 -23.46 0.53
3.73 -4.65 -1.38
18.8 -23.42 1.57
4.15 -5.17 -1.29
18.77 -23.38 2.62
4.45 -5.55 -1.13
26.25 -32.7 5.15
7.3 -9.09 -1.43
26.18 -32.61 6.62
26.82 -33.42 8.33
4.56 -5.69 1.68
18.85 -23.48 -0.53
3.33 -4.18 -1.43
18.69 -23.46 0.52
3.72 -4.67 -1.38
18.66 -23.43 1.57
4.13 -5.18 -1.29
18.64 -23.39 2.62
4.43 -5.57 -1.13
26.18 -32.87 5.16
7.29 -9.16 -1.44
25.99 -32.63 6.61
26.6 -33.39 8.3
11.7 -14.68 -0.98
28.88 -36.25 10.7
18.72 -23.5 -0.52
3.31 -4.19 -1.43
18.57 -23.47 0.52
3.7 -4.67 -1.38
18.55 -23.45 1.57
4.1 -5.18 -1.28
18.52 -23.41 2.61
4.4 -5.57 -1.12
28.85 -36.47 5.71
7.3 -9.23 -1.45
25.83 -32.66 6.59
26.46 -33.45 8.29
11.61 -14.68 -0.98
28.63 -36.2 10.66
18.61 -23.52 -0.52
3.29 -4.19 -1.43
18.45 -23.49 0.52
3.67 -4.68 -1.37
18.42 -23.45 1.56
4.07 -5.19 -1.28
18.4 -23.42 2.61
4.36 -5.55 -1.12
4.18 -5.32 -0.83
25.66 -32.66 6.58
4.2 -5.35 -0.6
26.25 -33.41 8.26
28.51 -36.3 10.66
18.48 -23.53 -0.52
4.74 -6.03 2.06
3.28 -4.21 -1.43
18.33 -23.5 0.52
3.66 -4.69 -1.37
18.3 -23.46 1.56
4.03 -5.17 -1.27
18.28 -23.43 2.6
4.14 -5.31 -1.07
4.14 -5.3 -0.83
25.5 -32.69 6.57
4.14 -5.31 -0.59
4.43 -5.68 1.4
4.13 -5.3 -0.35
28.27 -36.24 10.61
18.36 -23.54 -0.52
4.77 -6.11 2.08
3.27 -4.22 -1.43
4.14 -5.35 0.12
3.64 -4.71 -1.37
4.13 -5.34 0.35
4.01 -5.18 -1.27
4.11 -5.31 0.59
4.13 -5.33 -1.07
4.14 -5.35 0.83
4.11 -5.31 -0.82
4.1 -5.3 1.06
4.11 -5.31 -0.59
4.17 -5.39 1.32
4.11 -5.31 -0.35
4.09 -5.28 1.54
4.11 -5.3 -0.12
4.08 -5.27 1.78
3.24 -4.22 -1.43
4.09 -5.32 0.12
3.63 -4.72 -1.37
4.08 -5.31 0.35
3.99 -5.19 -1.27
4.08 -5.3 0.59
4.11 -5.34 -1.07
4.08 -5.3 0.82
4.1 -5.33 -0.83
4.08 -5.3 1.06
4.08 -5.31 -0.59
4.06 -5.28 1.3
4.09 -5.32 -0.35
4.06 -5.27 1.54
4.09 -5.32 -0.12
4.04 -5.26 1.78
3.23 -4.23 -1.43
4.07 -5.32 0.12
3.61 -4.73 -1.37
4.07 -5.33 0.35
3.96 -5.19 -1.27
4.07 -5.33 0.59
4.08 -5.35 -1.07
4.07 -5.33 0.82
4.09 -5.36 -0.83
4.06 -5.32 1.06
4.07 -5.33 -0.59
4.04 -5.29 1.29
4.07 -5.33 -0.35
4.06 -5.32 1.54
4.08 -5.34 -0.12
4.04 -5.29 1.78
3.22 -4.24 -1.43
17.84 -23.53 0.52
3.59 -4.73 -1.37
17.81 -23.49 1.55
3.92 -5.17 -1.26
17.79 -23.47 2.58
4.09 -5.4 -1.07
24.83 -32.75 5.05
4.09 -5.39 -0.83
24.81 -32.73 6.51
4.07 -5.36 -0.59
4.05 -5.34 -0.35
17.91 -23.63 -0.52
4.01 -5.29 1.78
3.21 -4.26 -1.43
17.72 -23.55 0.51
3.57 -4.74 -1.37
17.69 -23.52 1.54
3.88 -5.16 -1.25
17.43 -23.17 2.54
4.28 -5.69 -1.13
17.38 -23.09 3.55
7.37 -9.79 -1.51
24.65 -32.76 6.49
4.02 -5.35 1.55
3.19 -4.27 -1.43
17.6 -23.56 0.51
3.55 -4.76 -1.37
17.57 -23.52 1.54
3.87 -5.18 -1.26
17.31 -23.18 2.53
4.28 -5.73 -1.13
17.26 -23.11 3.54
7.37 -9.86 -1.51
24.47 -32.76 6.48
11.16 -14.94 -0.98
4.02 -5.38 1.55
4.57 -6.11 2.04
3.16 -4.27 -1.42
17.48 -23.57 0.51
3.54 -4.77 -1.37
17.46 -23.54 1.54
3.85 -5.19 -1.26
17.19 -23.19 2.53
4.27 -5.76 -1.14
17.15 -23.12 3.53
7.39 -9.96 -1.52
24.31 -32.79 6.47
24.71 -33.32 8.06
11.06 -14.91 -0.97
4.05 -5.46 1.57
3.16 -4.29 -1.43
17.36 -23.58 0.51
3.52 -4.78 -1.37
17.34 -23.56 1.53
3.83 -5.2 -1.25
17.08 -23.19 2.52
4.27 -5.8 -1.14
17.03 -23.13 3.53
7.41 -10.06 -1.53
24.14 -32.8 6.45
24.59 -33.4 8.06
10.99 -14.93 -0.97
3.97 -5.39 1.54
4.42 -6 2
3.14 -4.3 -1.43
17.24 -23.59 0.51
3.49 -4.78 -1.37
17.22 -23.56 1.53
3.8 -5.2 -1.25
16.96 -23.21 2.51
4.26 -5.83 -1.14
16.91 -23.14 3.52
7.43 -10.17 -1.55
23.99 -32.83 6.44
24.36 -33.33 8.02
10.89 -14.91 -0.97
4.88 -6.68 1.91
4.42 -6.05 2.01
3.13 -4.31 -1.43
17.12 -23.6 0.51
3.48 -4.79 -1.37
17.1 -23.57 1.53
3.78 -5.21 -1.25
16.85 -23.23 2.51
4.23 -5.84 -1.14
16.79 -23.14 3.51
7.45 -10.27 -1.56
23.82 -32.84 6.43
24.13 -33.26 7.99
10.8 -14.89 -0.96
4.84 -6.67 1.9
3.11 -4.32 -1.43
17.01 -23.62 0.51
3.47 -4.81 -1.37
16.98 -23.58 1.52
3.75 -5.21 -1.25
16.73 -23.23 2.5
4.23 -5.87 -1.15
16.68 -23.16 3.5
7.48 -10.38 -1.57
23.65 -32.84 6.41
8.24 -11.44 -1.23
24.01 -33.34 7.99
10.74 -14.91 -0.96
3.98 -5.53 1.57
4.4 -6.12 2.02
3.08 -4.31 -1.42
16.89 -23.63 0.51
3.45 -4.82 -1.37
16.87 -23.59 1.52
3.74 -5.23 -1.25
16.61 -23.23 2.5
4.14 -5.79 -1.13
16.57 -23.18 3.5
7.5 -10.49 -1.58
23.49 -32.86 6.4
8.19 -11.46 -1.23
23.81 -33.31 7.96
10.71 -14.98 -0.96
3.96 -5.54 1.57
10.69 -14.96 -0.32
4.35 -6.09 2.01
3.07 -4.33 -1.42
16.76 -23.63 0.51
3.43 -4.83 -1.37
16.75 -23.61 1.52
3.72 -5.25 -1.25
16.5 -23.26 2.5
4.11 -5.8 -1.13
16.44 -23.18 3.49
7.52 -10.6 -1.6
23.32 -32.88 6.39
8.1 -11.42 -1.22
23.63 -33.31 7.94
10.61 -14.96 -0.96
10.64 -15 -0.32
4.33 -6.1 2
3.06 -4.34 -1.42
16.65 -23.65 0.5
3.41 -4.84 -1.37
16.63 -23.62 1.51
3.7 -5.25 -1.25
16.38 -23.27 2.49
3.94 -5.59 -1.08
16.33 -23.19 3.48
7.54 -10.71 -1.61
23.17 -32.91 6.38
23.46 -33.32 7.92
10.46 -14.85 -0.95
3.91 -5.55 1.57
10.55 -14.98 -0.32
3.05 -4.36 -1.43
16.55 -23.67 0.5
3.39 -4.85 -1.37
16.51 -23.62 1.51
3.67 -5.25 -1.25
16.27 -23.27 2.48
3.89 -5.57 -1.08
16.23 -23.21 3.48
7.57 -10.82 -1.62
23.01 -32.91 6.36
23.28 -33.29 7.9
10.39 -14.86 -0.95
3.95 -5.65 1.59
10.48 -14.99 -0.32
3.03 -4.36 -1.42
16.43 -23.67 0.5
3.37 -4.86 -1.37
16.4 -23.63 1.51
3.65 -5.26 -1.24
16.16 -23.29 2.48
3.86 -5.57 -1.07
16.11 -23.22 3.47
7.61 -10.96 -1.64
22.84 -32.92 6.35
23.11 -33.3 7.88
10.32 -14.87 -0.95
3.93 -5.67 1.59
10.37 -14.95 -0.32
3.01 -4.37 -1.42
16.31 -23.68 0.5
3.36 -4.88 -1.37
16.29 -23.65 1.5
3.62 -5.26 -1.24
16.04 -23.29 2.47
3.83 -5.56 -1.07
16 -23.23 3.46
7.63 -11.08 -1.65
22.66 -32.9 6.33
10.26 -14.9 -0.95
4.49 -6.52 1.83
10.34 -15.01 -0.32
2.99 -4.38 -1.42
16.2 -23.69 0.5
3.34 -4.89 -1.37
16.18 -23.66 1.5
3.6 -5.27 -1.24
15.92 -23.29 2.47
3.81 -5.57 -1.07
15.88 -23.23 3.45
3.98 -5.82 -0.87
22.53 -32.96 6.32
7.95 -11.63 -1.23
10.27 -15.02 -0.32
2.98 -4.39 -1.42
16.08 -23.7 0.5
3.32 -4.89 -1.37
16.06 -23.67 1.5
3.58 -5.28 -1.24
15.87 -23.4 2.47
3.79 -5.58 -1.07
15.84 -23.35 3.46
3.96 -5.83 -0.87
22.37 -32.98 6.31
7.97 -11.75 -1.24
22.58 -33.29 9.29
10.2 -15.04 -0.32
3.99 -5.88 1.9
2.97 -4.41 -1.42
15.97 -23.71 0.5
3.3 -4.9 -1.36
15.94 -23.67 1.5
3.56 -5.29 -1.24
15.92 -23.65 2.49
3.77 -5.61 -1.07
22.28 -33.09 4.9
7.91 -11.75 -1.74
22.2 -32.98 6.3
8.02 -11.92 -1.26
3.76 -5.59 1.31
22.41 -33.29 9.27
10.12 -15.03 -0.32
3.96 -5.88 1.9
2.95 -4.41 -1.42
15.86 -23.73 0.5
3.29 -4.92 -1.37
15.83 -23.68 1.49
3.53 -5.29 -1.24
15.81 -23.66 2.49
3.76 -5.62 -1.07
22.13 -33.11 4.89
4.36 -6.52 -0.96
22.05 -32.99 6.28
9.98 -14.93 -1.57
3.76 -5.62 1.31
4.42 -6.62 1.84
10.05 -15.03 -0.32
3.94 -5.9 1.9
2.93 -4.41 -1.42
15.75 -23.74 0.5
3.27 -4.93 -1.37
15.72 -23.7 1.49
3.51 -5.29 -1.23
15.7 -23.66 2.48
3.74 -5.63 -1.07
21.98 -33.13 4.88
3.92 -5.9 -0.87
21.9 -33.01 6.27
9.91 -14.93 -1.57
4.39 -6.62 1.83
9.98 -15.05 -0.32
3.89 -5.86 1.88
2.91 -4.42 -1.42
15.63 -23.74 0.5
3.25 -4.94 -1.37
15.61 -23.7 1.49
3.49 -5.3 -1.23
15.58 -23.67 2.48
3.71 -5.63 -1.07
21.82 -33.15 4.87
7.91 -12.01 -1.77
21.74 -33.02 6.26
9.84 -14.95 -1.57
3.79 -5.76 1.34
4.38 -6.65 1.84
9.94 -15.1 -0.32
3.84 -5.83 1.87
2.9 -4.44 -1.42
15.51 -23.74 0.5
3.24 -4.95 -1.37
15.5 -23.72 1.48
3.48 -5.32 -1.23
15.48 -23.69 2.48
3.71 -5.67 -1.07
21.66 -33.15 4.86
9.92 -15.19 -2.23
4.11 -6.29 1.19
9.78 -14.96 -1.56
3.68 -5.63 1.31
4.34 -6.64 1.83
9.86 -15.1 -0.31
3.8 -5.81 1.86
2.89 -4.45 -1.42
15.41 -23.77 0.49
3.22 -4.96 -1.37
15.38 -23.72 1.48
3.46 -5.33 -1.23
15.37 -23.7 2.47
3.69 -5.69 -1.07
21.5 -33.16 4.85
9.87 -15.22 -2.23
4.08 -6.3 1.19
9.72 -14.99 -1.56
3.74 -5.77 1.34
4.31 -6.64 1.83
9.79 -15.1 -0.31
4.1 -6.33 2.02
2.87 -4.46 -1.42
15.3 -23.78 0.49
3.2 -4.97 -1.37
15.27 -23.74 1.48
3.43 -5.33 -1.23
15.26 -23.71 2.47
3.67 -5.7 -1.07
21.3 -33.11 4.83
9.82 -15.26 -2.23
4.08 -6.33 1.19
9.65 -14.99 -1.56
3.69 -5.74 1.33
21.47 -33.37 9.16
9.74 -15.13 -0.31
3.98 -6.19 1.97
2.84 -4.45 -1.42
15.18 -23.78 0.49
3.18 -4.98 -1.37
15.16 -23.75 1.48
3.4 -5.33 -1.23
15.14 -23.71 2.46
3.65 -5.72 -1.07
21.15 -33.12 4.83
9.76 -15.29 -2.23
21.13 -33.08 6.22
9.58 -15.01 -1.56
3.67 -5.75 1.33
21.33 -33.4 9.15
9.66 -15.13 -0.31
4 -6.26 1.99
2.83 -4.46 -1.42
4.33 -6.83 0.14
3.16 -4.99 -1.37
4.33 -6.83 0.42
3.38 -5.33 -1.23
4.32 -6.81 0.71
3.63 -5.72 -1.07
4.31 -6.8 0.99
4.36 -6.88 -1
4.31 -6.81 1.28
4.34 -6.85 -0.71
4.28 -6.76 1.56
4.34 -6.85 -0.42
4.29 -6.78 1.85
4.33 -6.83 -0.14
3.98 -6.28 1.99
2.82 -4.48 -1.42
4.29 -6.82 0.14
3.15 -5 -1.36
4.28 -6.81 0.42
3.36 -5.33 -1.22
4.28 -6.8 0.7
3.61 -5.73 -1.07
4.27 -6.79 0.98
4.33 -6.88 -1
4.27 -6.79 1.27
4.3 -6.84 -0.71
4.27 -6.78 1.56
4.3 -6.83 -0.42
4.25 -6.76 1.84
4.29 -6.82 -0.14
3.87 -6.15 1.95
2.8 -4.49 -1.42
4.26 -6.83 0.14
3.14 -5.02 -1.37
4.25 -6.81 0.42
3.33 -5.34 -1.22
4.25 -6.81 0.7
3.58 -5.74 -1.07
4.24 -6.8 0.98
4.29 -6.87 -0.99
4.24 -6.8 1.27
4.28 -6.86 -0.71
3.63 -5.81 1.33
4.28 -6.86 -0.42
4.23 -6.78 1.84
4.26 -6.83 -0.14
3.67 -5.89 1.86
2.79 -4.5 -1.42
4.24 -6.85 0.14
3.11 -5.03 -1.37
4.23 -6.84 0.42
3.3 -5.32 -1.22
4.23 -6.83 0.7
3.56 -5.75 -1.07
4.22 -6.82 0.99
4.27 -6.89 -0.99
4.22 -6.82 1.27
4.26 -6.88 -0.71
4.21 -6.8 1.56
4.26 -6.89 -0.42
4.22 -6.81 1.85
4.24 -6.84 -0.14
2.77 -4.5 -1.42
4.23 -6.89 0.14
3.1 -5.05 -1.37
4.22 -6.87 0.42
3.28 -5.34 -1.22
4.22 -6.88 0.71
3.54 -5.77 -1.07
4.27 -6.95 -1
4.25 -6.92 -0.71
4.25 -6.92 -0.43
4.23 -6.89 -0.14
2.75 -4.51 -1.42
14.53 -23.84 0.49
3.08 -5.06 -1.37
14.51 -23.82 1.46
3.25 -5.33 -1.21
14.49 -23.77 2.44
3.52 -5.77 -1.07
20.92 -34.33 4.94
20.22 -33.17 6.15
9.21 -15.11 -1.55
20.22 -33.18 7.55
20.41 -33.48 9.05
2.74 -4.53 -1.42
14.42 -23.85 0.49
3.06 -5.06 -1.36
14.4 -23.82 1.46
3.23 -5.35 -1.21
14.38 -23.79 2.43
3.49 -5.77 -1.07
20.07 -33.19 6.14
9.15 -15.13 -1.55
20.04 -33.14 7.53
20.25 -33.49 9.04
2.73 -4.54 -1.42
14.32 -23.86 0.49
3.04 -5.07 -1.37
14.29 -23.81 1.46
3.21 -5.35 -1.21
14.28 -23.79 2.43
3.47 -5.78 -1.07
19.98 -33.29 4.77
19.93 -33.2 6.13
9.07 -15.11 -1.54
19.93 -33.21 7.53
20.11 -33.51 9.02
9.16 -15.26 -0.31
3.91 -6.51 2.03
2.71 -4.55 -1.42
14.21 -23.88 0.49
3.03 -5.08 -1.37
14.19 -23.84 1.45
3.19 -5.36 -1.21
14.17 -23.8 2.42
3.45 -5.79 -1.07
19.79 -33.24 4.75
19.77 -33.2 6.12
9 -15.12 -1.54
19.77 -33.22 7.51
19.96 -33.53 9.01
9.1 -15.29 -0.31
3.87 -6.51 2.03
2.69 -4.55 -1.42
14.11 -23.88 0.48
3.01 -5.09 -1.37
14.09 -23.86 1.45
3.16 -5.36 -1.21
14.06 -23.81 2.42
3.42 -5.79 -1.07
19.65 -33.26 4.74
19.62 -33.21 6.11
8.93 -15.11 -1.54
3.37 -5.7 1.29
19.8 -33.52 8.99
9.05 -15.32 -0.31
4.02 -6.81 2.12
2.67 -4.56 -1.42
14 -23.89 0.48
2.98 -5.09 -1.36
13.98 -23.86 1.45
3.14 -5.36 -1.21
13.96 -23.82 2.42
3.41 -5.81 -1.07
19.52 -33.32 4.74
19.48 -33.25 6.1
8.87 -15.13 -1.53
4 -6.82 1.82
4 -6.82 2.12
2.66 -4.58 -1.42
13.89 -23.9 0.48
2.96 -5.1 -1.36
13.87 -23.86 1.45
3.12 -5.37 -1.21
13.85 -23.83 2.41
3.47 -5.97 -1.09
19.44 -33.44 4.75
8.81 -15.15 -1.53
19.29 -33.18 7.46
19.51 -33.56 8.96
8.94 -15.38 -0.31
3.33 -5.73 1.77
2.64 -4.59 -1.42
13.79 -23.91 0.48
2.95 -5.12 -1.37
13.76 -23.87 1.44
3.1 -5.37 -1.21
13.74 -23.84 2.41
3.42 -5.93 -1.08
3.75 -6.51 0.92
3.28 -5.68 1.04
19.13 -33.18 7.44
19.37 -33.59 8.95
8.89 -15.41 -0.31
3.32 -5.75 1.78
2.63 -4.59 -1.42
13.68 -23.92 0.48
2.94 -5.13 -1.37
13.66 -23.88 1.44
3.08 -5.38 -1.2
13.64 -23.85 2.4
3.4 -5.95 -1.09
21.55 -37.67 5.33
3.25 -5.68 1.04
18.98 -33.18 7.43
3.67 -6.41 1.7
22.28 -38.94 12.02
2.61 -4.59 -1.41
13.58 -23.93 0.48
2.91 -5.14 -1.36
13.56 -23.9 1.44
3.07 -5.4 -1.21
13.53 -23.86 2.4
3.38 -5.96 -1.09
21.57 -38.03 5.37
3.26 -5.75 1.05
18.82 -33.18 7.41
8.62 -15.19 -0.92
3.63 -6.4 1.7
22.09 -38.94 12
2.59 -4.61 -1.42
13.47 -23.93 0.48
2.89 -5.14 -1.36
13.45 -23.9 1.44
3.05 -5.42 -1.21
13.44 -23.87 2.4
3.39 -6.03 -1.1
3.78 -6.72 0.95
3.34 -5.93 1.08
3.74 -6.64 1.48
8.57 -15.22 -0.92
3.61 -6.42 1.7
2.58 -4.62 -1.42
13.36 -23.94 0.48
2.88 -5.16 -1.36
13.34 -23.91 1.43
3.03 -5.42 -1.21
13.33 -23.88 2.39
3.36 -6.02 -1.09
3.66 -6.56 0.92
3.44 -6.17 1.12
18.49 -33.14 7.38
8.51 -15.24 -0.91
3.55 -6.36 1.95
2.57 -4.63 -1.42
13.26 -23.95 0.48
2.86 -5.17 -1.36
13.24 -23.92 1.43
3 -5.42 -1.21
13.23 -23.89 2.39
3.31 -5.98 -1.08
3.59 -6.48 0.91
18.46 -33.34 6.04
18.38 -33.2 7.38
18.62 -33.63 8.87
3.19 -5.75 1.76
2.55 -4.64 -1.42
13.16 -23.97 0.48
2.84 -5.18 -1.36
13.14 -23.93 1.43
2.98 -5.42 -1.2
13.12 -23.9 2.39
3.29 -6 -1.08
3.55 -6.48 0.91
3.14 -5.72 1.03
3.63 -6.61 1.47
18.5 -33.71 8.88
2.53 -4.64 -1.42
13.06 -23.98 0.48
2.83 -5.2 -1.37
13.04 -23.94 1.43
2.96 -5.44 -1.2
13.02 -23.9 2.38
3.33 -6.12 -1.1
3.54 -6.5 0.91
5.42 -9.95 -1.39
3.21 -5.9 1.06
3.58 -6.57 1.45
3.53 -6.48 1.7
3.44 -6.32 1.93
2.51 -4.65 -1.42
12.95 -23.98 0.48
2.81 -5.2 -1.36
12.93 -23.95 1.43
2.93 -5.43 -1.2
12.91 -23.92 2.38
3.34 -6.19 -1.11
3.52 -6.51 0.91
5.37 -9.95 -1.39
3.29 -6.1 1.1
3.55 -6.58 1.45
12.97 -24.02 -0.48
3.35 -6.2 1.89
2.5 -4.66 -1.42
12.84 -23.99 0.47
2.78 -5.19 -1.36
12.83 -23.95 1.42
2.92 -5.44 -1.2
12.81 -23.93 2.37
3.31 -6.17 -1.11
3.49 -6.51 0.91
3.13 -5.85 1.05
12.87 -24.03 -0.48
3.18 -5.93 1.8
2.48 -4.68 -1.42
12.74 -24 0.47
2.77 -5.21 -1.36
12.73 -23.97 1.42
2.89 -5.45 -1.2
12.71 -23.94 2.37
3.29 -6.19 -1.11
3.46 -6.52 0.91
3.09 -5.82 1.04
3.55 -6.69 1.47
12.76 -24.03 -0.47
3.04 -5.73 1.74
2.46 -4.68 -1.42
12.65 -24.02 0.47
2.75 -5.23 -1.37
12.63 -23.98 1.42
2.86 -5.44 -1.19
12.61 -23.94 2.37
3.33 -6.33 -1.13
3.44 -6.54 0.91
3.06 -5.82 1.04
3.56 -6.77 1.49
12.66 -24.04 -0.47
3.03 -5.76 1.74
2.44 -4.68 -1.41
12.54 -24.02 0.47
2.74 -5.25 -1.37
12.52 -23.99 1.42
2.84 -5.45 -1.19
12.5 -23.95 2.36
3.33 -6.37 -1.14
3.42 -6.55 0.91
3.04 -5.83 1.04
3.37 -6.46 1.42
12.6 -24.14 -1.43
12.56 -24.06 -0.47
3.04 -5.82 1.76
2.43 -4.69 -1.42
12.44 -24.03 0.47
2.71 -5.24 -1.36
12.42 -24 1.42
2.83 -5.46 -1.19
12.41 -23.97 2.36
3.3 -6.37 -1.14
3.42 -6.6 0.91
3.02 -5.83 1.04
12.48 -24.11 -1.42
12.46 -24.07 -0.47
2.41 -4.7 -1.42
12.34 -24.03 0.47
2.69 -5.24 -1.36
12.32 -24 1.41
2.8 -5.46 -1.19
12.31 -23.98 2.36
3.19 -6.22 -1.11
3.4 -6.62 0.91
3.31 -6.45 -0.89
17.18 -33.46 5.96
3.28 -6.4 1.4
12.37 -24.11 -1.42
18.35 -35.74 9.28
12.36 -24.09 -0.47
3.23 -6.29 1.9
2.4 -4.72 -1.42
12.24 -24.05 0.47
2.68 -5.26 -1.36
12.22 -24.01 1.41
2.78 -5.46 -1.19
12.21 -23.99 2.36
3.21 -6.3 -1.12
3.35 -6.58 0.91
3.26 -6.41 -0.88
2.98 -5.86 1.04
3.27 -6.42 -0.63
3.26 -6.4 -0.38
3.06 -6.01 1.56
3.26 -6.41 -0.13
3.21 -6.3 1.9
2.38 -4.72 -1.42
3.24 -6.43 0.13
2.66 -5.28 -1.37
3.25 -6.44 0.38
2.75 -5.45 -1.19
3.26 -6.45 0.63
3.17 -6.28 -1.11
3.24 -6.42 0.88
3.23 -6.4 -0.88
3.22 -6.39 -0.63
16.72 -33.14 7.21
3.23 -6.4 -0.38
3.08 -6.11 1.58
3.23 -6.4 -0.13
3.21 -6.35 1.91
2.36 -4.72 -1.41
3.21 -6.4 0.12
2.64 -5.28 -1.36
3.21 -6.42 0.38
2.74 -5.47 -1.19
3.22 -6.44 0.63
3.17 -6.33 -1.12
3.15 -6.3 0.86
3.2 -6.4 -0.88
3.17 -6.34 1.12
3.19 -6.37 -0.62
3.2 -6.4 -0.38
3.05 -6.1 1.57
3.2 -6.38 -0.12
3.16 -6.32 1.89
2.35 -4.73 -1.41
3.18 -6.4 0.12
2.62 -5.28 -1.36
3.19 -6.43 0.38
2.72 -5.48 -1.19
3.2 -6.44 0.63
3.11 -6.26 -1.11
3.18 -6.42 0.88
3.18 -6.42 -0.88
2.93 -5.9 1.04
3.17 -6.39 -0.62
3.1 -6.26 1.36
3.17 -6.4 -0.37
3.2 -6.44 1.66
3.17 -6.39 -0.12
3.22 -6.49 1.94
2.33 -4.74 -1.42
3.15 -6.41 0.12
2.6 -5.29 -1.36
3.16 -6.43 0.38
2.7 -5.49 -1.19
3.17 -6.45 0.63
3.12 -6.34 -1.12
3.17 -6.44 0.88
3.15 -6.42 -0.88
3.1 -6.32 1.11
3.15 -6.41 -0.63
3.13 -6.37 1.38
3.15 -6.4 -0.37
2.81 -5.73 1.47
3.15 -6.4 -0.12
3.2 -6.5 1.94
2.31 -4.75 -1.42
3.13 -6.43 0.12
2.58 -5.3 -1.36
3.14 -6.44 0.38
2.67 -5.49 -1.19
3.15 -6.47 0.63
3.12 -6.4 -1.13
3.14 -6.45 0.88
3.16 -6.48 -0.89
3.17 -6.51 1.15
3.14 -6.45 -0.63
3.18 -6.52 1.41
3.13 -6.42 -0.37
2.82 -5.8 1.49
3.13 -6.43 -0.12
3.17 -6.52 1.94
2.3 -4.75 -1.41
3.12 -6.46 0.13
2.56 -5.3 -1.36
3.13 -6.47 0.38
2.65 -5.49 -1.19
3.14 -6.49 0.63
3.07 -6.36 -1.12
3.14 -6.5 0.89
3.14 -6.5 -0.89
3.16 -6.53 1.15
3.13 -6.48 -0.63
3.16 -6.54 1.41
3.13 -6.48 -0.38
3.13 -6.49 -0.13
3.17 -6.55 1.95
2.28 -4.75 -1.41
2.54 -5.31 -1.36
3.11 -6.5 0.38
2.66 -5.56 -1.2
3.15 -6.57 0.64
3.06 -6.38 -1.12
3.12 -6.52 0.89
3.13 -6.53 -0.89
3.42 -7.14 1.25
3.12 -6.51 -0.63
8.86 -18.5 -1.07
3.41 -7.13 2.12
2.26 -4.77 -1.41
11.45 -24.12 0.47
2.52 -5.3 -1.36
11.43 -24.09 1.4
2.63 -5.55 -1.19
11.42 -24.07 2.33
3.02 -6.36 -1.12
3.09 -6.51 0.88
3.3 -6.96 1.22
8.78 -18.5 -1.07
3.21 -6.76 1.73
3.48 -7.34 2.18
2.25 -4.78 -1.42
11.35 -24.12 0.47
2.5 -5.31 -1.36
11.34 -24.1 1.4
2.63 -5.58 -1.2
11.32 -24.07 2.33
3.05 -6.49 -1.14
2.89 -6.15 0.84
3.29 -6.99 1.22
8.7 -18.51 -1.07
3.1 -6.58 1.68
11.4 -24.24 -0.47
3.49 -7.43 2.2
2.23 -4.78 -1.41
11.25 -24.14 0.46
2.47 -5.3 -1.35
11.23 -24.1 1.39
2.61 -5.6 -1.2
11.23 -24.09 2.32
3.02 -6.47 -1.13
2.94 -6.31 0.85
3.61 -7.74 1.35
3.06 -6.56 1.41
8.63 -18.52 -1.07
3.07 -6.58 1.68
9.43 -20.24 -0.39
3.33 -7.14 2.11
2.21 -4.79 -1.41
11.15 -24.15 0.46
2.45 -5.31 -1.35
11.13 -24.1 1.39
2.59 -5.6 -1.2
3.23 -7 0.67
3.03 -6.56 -1.14
2.91 -6.3 0.85
15.52 -33.6 5.86
3.04 -6.58 1.41
8.56 -18.53 -1.07
2.48 -5.36 1.58
2.19 -4.79 -1.41
11.06 -24.16 0.46
2.44 -5.33 -1.35
11.04 -24.12 1.39
2.56 -5.6 -1.2
11.03 -24.1 2.32
3.09 -6.75 -1.18
2.91 -6.35 0.86
15.39 -33.62 5.86
5 -10.93 -1.05
8.48 -18.54 -1.07
15.53 -33.93 8.61
3.49 -7.64 2.25
2.18 -4.8 -1.41
10.95 -24.16 0.46
2.41 -5.32 -1.35
10.95 -24.14 1.39
2.53 -5.58 -1.19
10.93 -24.1 2.31
3.05 -6.74 -1.17
3.56 -7.86 1.06
3.52 -7.76 1.35
3.59 -7.92 1.69
8.41 -18.54 -1.07
15.4 -33.96 8.61
9.21 -20.31 -0.39
2.45 -5.4 1.59
2.16 -4.81 -1.41
10.86 -24.18 0.46
2.39 -5.31 -1.34
10.84 -24.14 1.39
2.52 -5.6 -1.19
10.83 -24.11 2.31
3.11 -6.92 -1.2
3.56 -7.92 1.07
2.99 -6.65 1.15
8.32 -18.53 -1.06
2.56 -5.7 1.44
9.13 -20.32 -0.39
2.15 -4.82 -1.41
10.76 -24.19 0.46
2.36 -5.31 -1.34
10.74 -24.14 1.38
2.5 -5.62 -1.2
10.74 -24.13 2.31
3.1 -6.96 -1.21
3.54 -7.95 1.07
2.96 -6.65 1.15
3.27 -7.36 1.57
8.25 -18.54 -1.06
2.55 -5.74 1.45
9.05 -20.33 -0.39
3.26 -7.32 2.15
2.13 -4.82 -1.41
10.67 -24.2 0.46
2.35 -5.32 -1.34
10.65 -24.15 1.38
2.46 -5.59 -1.19
10.64 -24.14 2.31
3.06 -6.94 -1.2
10.6 -24.05 3.23
4.8 -10.89 -1.46
2.93 -6.65 1.15
8.19 -18.57 -1.06
2.43 -5.5 1.61
2.11 -4.82 -1.41
10.57 -24.2 0.46
2.33 -5.34 -1.34
10.55 -24.17 1.38
2.45 -5.6 -1.19
10.54 -24.14 2.3
3.04 -6.96 -1.2
3.49 -8 1.07
2.91 -6.66 1.15
3.36 -7.7 1.63
8.12 -18.59 -1.06
14.85 -34.01 8.57
8.87 -20.31 -0.39
2.09 -4.83 -1.41
10.47 -24.2 0.46
2.31 -5.33 -1.34
10.46 -24.18 1.38
2.43 -5.63 -1.19
10.44 -24.14 2.3
3 -6.94 -1.2
2.76 -6.37 0.85
2.89 -6.68 1.15
8.31 -19.21 -1.83
8.05 -18.61 -1.06
2.67 -6.16 1.55
8.78 -20.3 -0.39
2.41 -5.57 1.63
2.07 -4.84 -1.41
10.37 -24.21 0.46
2.28 -5.33 -1.34
10.36 -24.19 1.38
2.41 -5.63 -1.19
10.35 -24.16 2.3
2.97 -6.93 -1.19
2.73 -6.37 0.85
7.93 -18.52 -1.76
7.97 -18.61 -1.06
2.77 -6.47 1.63
8.7 -20.31 -0.39
2.34 -5.46 1.59
2.06 -4.85 -1.41
10.28 -24.23 0.46
2.26 -5.34 -1.34
10.26 -24.19 1.38
2.39 -5.64 -1.19
10.26 -24.18 2.3
2.99 -7.04 -1.21
3.42 -8.07 1.08
14.31 -33.73 5.8
7.87 -18.55 -1.76
3.44 -8.11 1.71
7.91 -18.63 -1.06
8.63 -20.35 -0.39
2.34 -5.51 1.6
2.04 -4.85 -1.41
10.19 -24.25 0.46
2.25 -5.34 -1.34
10.17 -24.2 1.38
2.37 -5.63 -1.19
10.16 -24.18 2.29
2.96 -7.04 -1.21
3.41 -8.11 1.08
14.17 -33.74 5.8
7.79 -18.54 -1.76
7.85 -18.67 -1.06
14.31 -34.05 8.53
8.58 -20.41 -0.39
2.45 -5.83 1.69
2.02 -4.85 -1.41
10.09 -24.25 0.46
2.23 -5.35 -1.34
10.08 -24.22 1.37
2.34 -5.64 -1.19
10.06 -24.19 2.29
2.96 -7.12 -1.22
10.03 -24.11 3.21
14.04 -33.75 5.79
7.72 -18.56 -1.76
3.57 -8.58 1.81
7.78 -18.7 -1.06
14.17 -34.07 8.52
9.51 -22.86 -0.43
2.42 -5.82 1.69
2 -4.86 -1.41
9.99 -24.24 0.46
2.21 -5.35 -1.34
9.98 -24.22 1.37
2.32 -5.63 -1.18
9.97 -24.19 2.29
2.92 -7.08 -1.21
9.93 -24.11 3.2
6.91 -16.77 -2.23
2.26 -5.48 0.94
7.69 -18.66 -1.77
3.34 -8.11 1.7
7.71 -18.73 -1.06
14.04 -34.09 8.51
9.45 -22.94 -0.43
2.4 -5.82 1.69
1.98 -4.87 -1.41
9.89 -24.25 0.46
2.18 -5.35 -1.33
9.88 -24.23 1.37
2.29 -5.61 -1.18
9.87 -24.2 2.29
2.9 -7.1 -1.21
9.83 -24.1 3.2
6.85 -16.79 -2.23
13.77 -33.77 5.78
7.66 -18.77 -1.77
3.39 -8.3 1.74
7.66 -18.77 -1.06
2.47 -6.06 1.51
2.39 -5.85 1.69
1.97 -4.87 -1.41
9.79 -24.25 0.46
2.16 -5.36 -1.33
9.78 -24.23 1.37
2.27 -5.62 -1.18
9.78 -24.21 2.28
5.6 -13.88 -2.37
2.76 -6.84 0.91
6.78 -16.79 -2.22
13.64 -33.77 5.77
7.62 -18.88 -1.78
7.62 -18.86 -1.07
2.26 -5.61 1.4
8.25 -20.44 -0.38
1.95 -4.88 -1.41
9.71 -24.27 0.46
2.14 -5.35 -1.33
9.7 -24.24 1.37
2.24 -5.61 -1.17
9.69 -24.22 2.28
5.56 -13.91 -2.37
9.65 -24.13 3.19
6.73 -16.82 -2.22
13.51 -33.78 5.76
7.6 -19 -1.79
2.65 -6.61 1.38
7.59 -18.97 -1.07
2.25 -5.62 1.4
8.17 -20.42 -0.38
2.55 -6.37 1.84
1.93 -4.88 -1.41
9.62 -24.29 0.46
2.12 -5.35 -1.33
9.6 -24.25 1.37
2.22 -5.6 -1.17
2.88 -7.26 0.68
5.51 -13.92 -2.37
9.56 -24.15 3.19
6.67 -16.84 -2.22
13.42 -33.89 5.77
7.54 -19.06 -1.79
2.61 -6.58 1.38
7.56 -19.1 -1.08
2.42 -6.12 1.52
8.09 -20.42 -0.38
2.52 -6.37 1.84
1.91 -4.89 -1.41
9.52 -24.29 0.46
2.09 -5.34 -1.32
9.51 -24.27 1.37
2.2 -5.61 -1.17
9.5 -24.25 2.28
2.73 -6.95 -1.18
9.46 -24.15 3.18
6.61 -16.87 -2.22
13.29 -33.91 5.77
7.6 -19.39 -1.82
3.19 -8.13 1.7
7.57 -19.3 -1.09
2.26 -5.76 1.43
2.5 -6.38 1.84
1.9 -4.9 -1.41
9.43 -24.31 0.46
2.07 -5.33 -1.32
9.42 -24.27 1.36
2.18 -5.62 -1.17
2.84 -7.32 0.69
2.68 -6.9 -1.17
9.37 -24.15 3.18
6.56 -16.9 -2.23
2.4 -6.2 1.05
8.13 -20.97 -1.97
7.56 -19.49 -1.1
13.24 -34.13 8.45
2.26 -5.82 1.67
1.88 -4.91 -1.41
9.33 -24.32 0.45
2.05 -5.35 -1.32
9.32 -24.28 1.36
2.16 -5.63 -1.17
2.84 -7.41 0.69
2.63 -6.84 -1.16
9.27 -24.16 3.18
6.49 -16.91 -2.22
2.34 -6.1 1.04
8.07 -21.01 -1.97
3.11 -8.09 1.68
7.58 -19.74 -1.11
2.2 -5.72 1.41
1.96 -5.1 1.46
1.87 -4.91 -1.41
9.24 -24.33 0.45
2.03 -5.35 -1.32
9.23 -24.29 1.36
2.14 -5.63 -1.17
2.8 -7.36 0.69
2.61 -6.88 -1.17
9.18 -24.17 3.17
6.43 -16.93 -2.22
2.15 -5.65 0.96
8 -21.05 -1.97
3.11 -8.2 1.7
7.59 -19.97 -1.12
12.98 -34.16 8.44
1.94 -5.12 1.47
1.84 -4.9 -1.4
9.15 -24.33 0.45
2.01 -5.35 -1.32
9.13 -24.29 1.36
2.12 -5.63 -1.17
9.13 -24.28 2.27
2.58 -6.85 -1.16
9.1 -24.2 3.17
6.38 -16.96 -2.22
2.16 -5.75 0.97
7.92 -21.08 -1.97
2.44 -6.48 1.35
7.59 -20.2 -1.13
12.84 -34.17 8.43
7.66 -20.37 -0.38
1.83 -4.92 -1.41
9.05 -24.33 0.45
1.99 -5.35 -1.32
9.04 -24.31 1.36
2.1 -5.65 -1.17
9.03 -24.28 2.27
2.58 -6.94 -1.17
2.34 -6.28 0.82
6.32 -16.99 -2.23
2.6 -6.99 1.18
7.85 -21.1 -1.97
2.56 -6.88 1.43
7.6 -20.43 -1.14
2.38 -6.39 1.57
7.65 -20.56 -0.38
1.81 -4.92 -1.41
8.96 -24.34 0.45
1.97 -5.36 -1.32
8.95 -24.32 1.36
2.09 -5.67 -1.17
8.94 -24.29 2.26
2.52 -6.85 -1.16
8.9 -24.19 3.17
6.26 -17.01 -2.23
12.51 -33.99 5.74
7.79 -21.16 -1.97
2.54 -6.91 1.43
7.6 -20.65 -1.15
12.58 -34.19 8.41
7.66 -20.81 -0.39
1.8 -4.94 -1.41
8.87 -24.36 0.45
1.95 -5.37 -1.32
8.86 -24.33 1.36
2.07 -5.68 -1.18
8.85 -24.31 2.26
8.81 -24.21 3.16
6.2 -17.03 -2.23
12.33 -33.89 5.71
7.71 -21.17 -1.97
2.36 -6.5 1.34
7.61 -20.92 -1.17
2.23 -6.13 1.51
7.66 -21.06 -0.39
1.78 -4.94 -1.41
8.78 -24.38 0.45
1.95 -5.41 -1.33
8.76 -24.34 1.36
2.06 -5.72 -1.18
8.76 -24.32 2.26
5.07 -14.1 -2.37
8.72 -24.22 3.16
6.14 -17.06 -2.23
12.2 -33.89 5.71
7.64 -21.21 -1.97
2.32 -6.46 1.33
7.63 -21.21 -1.18
2.3 -6.4 1.57
7.67 -21.31 -0.4
1.76 -4.94 -1.4
8.68 -24.38 0.45
1.93 -5.43 -1.33
8.67 -24.35 1.35
2.05 -5.74 -1.19
8.66 -24.32 2.26
5.03 -14.12 -2.37
8.63 -24.24 3.16
6.08 -17.08 -2.23
12.07 -33.91 5.7
7.56 -21.22 -1.97
12.05 -33.83 6.98
7.66 -21.52 -1.2
2.17 -6.09 1.49
7.68 -21.57 -0.4
1.74 -4.95 -1.41
8.57 -24.34 0.45
1.91 -5.42 -1.33
8.58 -24.36 1.35
2 -5.68 -1.17
8.57 -24.32 2.26
4.98 -14.13 -2.37
8.53 -24.23 3.15
6.03 -17.11 -2.23
11.97 -33.99 5.71
7.48 -21.24 -1.97
11.92 -33.85 6.98
7.69 -21.83 -1.21
7.7 -21.87 -0.4
1.72 -4.94 -1.4
8.48 -24.35 0.45
1.88 -5.41 -1.32
8.48 -24.36 1.35
1.99 -5.7 -1.17
8.48 -24.34 2.25
4.93 -14.16 -2.37
8.44 -24.25 3.15
5.97 -17.13 -2.23
11.87 -34.09 5.72
7.41 -21.28 -1.97
2.21 -6.33 1.3
7.88 -22.63 -1.26
2.52 -7.23 1.77
7.73 -22.2 -0.41
1.71 -4.96 -1.41
8.39 -24.36 0.45
1.86 -5.42 -1.32
8.39 -24.36 1.35
1.96 -5.7 -1.17
8.38 -24.34 2.25
4.88 -14.18 -2.38
2.15 -6.23 0.81
5.9 -17.14 -2.23
11.74 -34.1 5.71
7.33 -21.3 -1.97
2.04 -5.91 1.22
7.77 -22.58 -1.25
12.28 -35.67 8.71
7.77 -22.56 -0.42
1.69 -4.96 -1.4
8.3 -24.38 0.45
1.85 -5.43 -1.32
8.3 -24.37 1.35
1.93 -5.67 -1.16
8.29 -24.35 2.25
4.83 -14.2 -2.38
8.26 -24.26 3.15
5.85 -17.17 -2.23
11.61 -34.1 5.7
7.26 -21.31 -1.97
7.75 -22.75 -1.26
2.5 -7.33 1.79
7.79 -22.89 -0.42
1.67 -4.95 -1.4
8.21 -24.39 0.45
1.83 -5.43 -1.32
8.21 -24.38 1.35
1.91 -5.67 -1.16
8.2 -24.35 2.25
4.79 -14.22 -2.38
8.16 -24.26 3.14
5.78 -17.19 -2.23
11.48 -34.11 5.7
7.18 -21.34 -1.97
1.92 -5.7 1.17
7.94 -23.58 -1.3
2.12 -6.29 1.53
8.22 -24.44 -0.45
2.68 -7.97 2.25
1.65 -4.97 -1.4
8.11 -24.39 0.45
1.81 -5.43 -1.32
8.12 -24.4 1.35
1.9 -5.7 -1.17
8.11 -24.37 2.25
4.74 -14.24 -2.38
8.07 -24.27 3.14
5.72 -17.21 -2.23
2.07 -6.21 1.04
6.47 -19.46 -1.79
2.12 -6.36 1.3
7.84 -23.58 -1.3
2.09 -6.3 1.53
8.14 -24.46 -0.45
2.66 -8.01 2.26
1.64 -4.98 -1.4
8.02 -24.39 0.45
1.79 -5.43 -1.32
8.03 -24.41 1.35
1.85 -5.64 -1.15
8.01 -24.38 2.24
4.68 -14.25 -2.38
2.32 -7.04 0.91
5.66 -17.21 -2.22
2.04 -6.22 1.04
6.38 -19.39 -1.79
2.05 -6.23 1.27
7.76 -23.61 -1.3
2.03 -6.17 1.5
8.05 -24.47 -0.45
2.37 -7.2 2.03
1.62 -4.99 -1.4
7.93 -24.41 0.45
1.76 -5.43 -1.32
7.93 -24.4 1.34
1.82 -5.61 -1.15
7.93 -24.39 2.24
4.64 -14.27 -2.38
7.9 -24.3 3.14
5.6 -17.22 -2.22
2.03 -6.24 1.04
6.25 -19.22 -1.77
11.03 -33.95 6.94
6.27 -19.3 -1.06
7.96 -24.49 -0.45
2.3 -7.06 1.99
1.6 -4.99 -1.4
7.84 -24.42 0.45
1.75 -5.44 -1.32
7.84 -24.42 1.34
1.8 -5.62 -1.15
7.84 -24.4 2.24
7.8 -24.31 3.13
5.54 -17.24 -2.22
2.1 -6.54 1.09
6.2 -19.3 -1.77
1.97 -6.15 1.26
6.2 -19.32 -1.06
2.26 -7.05 1.71
7.86 -24.48 -0.45
2.21 -6.87 1.93
1.58 -4.99 -1.4
7.76 -24.44 0.45
1.73 -5.44 -1.32
7.75 -24.43 1.34
1.78 -5.6 -1.14
7.74 -24.39 2.24
2.98 -9.38 -1.56
7.72 -24.32 3.13
5.48 -17.26 -2.22
1.98 -6.25 1.04
6.11 -19.25 -1.77
1.95 -6.15 1.25
6.11 -19.26 -1.06
2.2 -6.95 1.68
7.77 -24.5 -0.45
2.44 -7.68 2.16
1.57 -5 -1.4
7.67 -24.46 0.45
1.71 -5.44 -1.32
7.66 -24.44 1.34
1.76 -5.6 -1.14
7.65 -24.41 2.24
2.94 -9.37 -1.55
7.63 -24.32 3.13
5.42 -17.28 -2.22
2.13 -6.79 1.13
6.04 -19.27 -1.77
10.66 -33.98 6.92
6.04 -19.27 -1.06
2.07 -6.61 1.6
7.69 -24.51 -0.45
2.42 -7.73 2.17
1.55 -5.01 -1.4
7.58 -24.47 0.45
1.69 -5.44 -1.32
7.57 -24.44 1.34
1.75 -5.64 -1.15
7.57 -24.42 2.24
2.93 -9.45 -1.57
7.53 -24.31 3.12
5.36 -17.29 -2.22
2.37 -7.64 1.27
5.98 -19.29 -1.77
10.53 -33.98 6.92
5.94 -19.16 -1.05
10.68 -34.46 8.33
7.6 -24.52 -0.45
2.39 -7.71 2.16
1.53 -5.01 -1.4
7.49 -24.5 0.45
1.67 -5.45 -1.32
7.48 -24.44 1.34
1.72 -5.62 -1.14
7.47 -24.42 2.23
2.06 -6.73 -1.11
7.44 -24.33 3.12
5.3 -17.32 -2.22
2.37 -7.76 1.28
10.4 -34 6.91
5.86 -19.16 -1.05
1.85 -6.04 1.46
7.5 -24.52 -0.45
2.46 -8.04 2.25
1.52 -5.02 -1.4
7.42 -24.55 0.45
1.65 -5.46 -1.32
7.39 -24.45 1.34
1.69 -5.58 -1.13
7.38 -24.44 2.23
2.74 -9.06 -1.5
1.79 -5.91 0.76
5.24 -17.33 -2.22
1.83 -6.07 1
5.83 -19.28 -1.76
2.45 -8.12 1.65
5.79 -19.17 -1.05
1.83 -6.06 1.46
7.41 -24.51 -0.45
1.79 -5.92 1.66
1.49 -5.01 -1.4
7.33 -24.57 0.45
1.63 -5.47 -1.32
7.3 -24.47 1.34
1.66 -5.57 -1.13
7.29 -24.44 2.23
2.03 -6.8 -1.12
1.78 -5.97 0.77
5.18 -17.36 -2.22
1.79 -5.99 0.99
2.42 -8.12 1.65
5.72 -19.19 -1.05
1.75 -5.88 1.42
7.32 -24.52 -0.45
1.77 -5.93 1.66
1.48 -5.02 -1.4
7.24 -24.59 0.45
1.61 -5.48 -1.32
7.21 -24.48 1.34
1.64 -5.57 -1.13
7.2 -24.45 2.23
2.01 -6.83 -1.13
1.77 -5.99 0.77
5.13 -17.4 -2.23
1.77 -6 0.99
5.69 -19.32 -1.76
9.97 -33.83 6.86
5.65 -19.19 -1.05
1.73 -5.87 1.41
7.23 -24.53 -0.45
2.39 -8.13 2.27
1.46 -5.03 -1.4
7.14 -24.56 0.45
1.59 -5.46 -1.31
7.12 -24.49 1.34
1.65 -5.68 -1.15
7.11 -24.47 2.23
1.99 -6.85 -1.13
1.75 -6.01 0.77
5.07 -17.43 -2.23
1.75 -6.02 0.99
5.62 -19.34 -1.76
9.9 -34.05 6.89
5.57 -19.18 -1.05
1.69 -5.82 1.4
7.14 -24.55 -0.45
1.57 -5.41 1.51
1.45 -5.04 -1.4
7.04 -24.53 0.45
1.57 -5.47 -1.31
7.03 -24.49 1.34
1.64 -5.72 -1.16
7.03 -24.48 2.23
2 -6.96 -1.15
1.73 -6.01 0.77
2.74 -9.56 -1.22
1.72 -6.01 0.99
5.52 -19.24 -1.75
9.78 -34.07 6.89
5.51 -19.19 -1.05
7.05 -24.56 -0.45
1.64 -5.72 1.6
1.43 -5.04 -1.4
6.95 -24.54 0.45
1.55 -5.49 -1.32
6.94 -24.51 1.33
1.63 -5.74 -1.16
6.93 -24.48 2.23
1.97 -6.94 -1.14
6.91 -24.4 3.11
2.71 -9.58 -1.22
1.7 -6 0.99
5.44 -19.22 -1.75
9.65 -34.08 6.89
5.44 -19.21 -1.05
6.96 -24.56 -0.45
1.58 -5.58 1.55
1.41 -5.04 -1.4
6.86 -24.55 0.45
1.54 -5.5 -1.32
6.85 -24.52 1.33
1.6 -5.72 -1.15
6.84 -24.48 2.22
1.96 -7.03 -1.16
6.82 -24.4 3.11
1.96 -7.02 -0.9
1.67 -5.99 0.99
5.38 -19.26 -1.75
9.53 -34.09 6.88
5.37 -19.23 -1.05
1.58 -5.66 1.36
6.87 -24.58 -0.45
1.53 -5.49 1.53
1.39 -5.05 -1.4
6.76 -24.54 0.44
1.52 -5.5 -1.32
6.76 -24.53 1.33
1.59 -5.77 -1.16
6.75 -24.49 2.22
2.04 -7.39 0.94
2.67 -9.69 -1.23
2.12 -7.69 1.26
5.3 -19.22 -1.74
9.39 -34.08 6.87
5.31 -19.25 -1.05
1.55 -5.63 1.35
6.78 -24.58 -0.45
1.93 -7 1.94
1.37 -5.05 -1.4
6.68 -24.56 0.44
1.49 -5.49 -1.31
6.67 -24.53 1.33
1.58 -5.82 -1.17
6.66 -24.5 2.22
1.87 -6.87 -1.13
6.64 -24.4 3.11
2.8 -10.29 -1.31
1.63 -5.99 0.98
5.23 -19.24 -1.74
9.21 -33.88 6.82
5.24 -19.25 -1.05
1.5 -5.52 1.32
6.69 -24.59 -0.44
1.92 -7.07 1.96
1.36 -5.06 -1.4
6.59 -24.57 0.44
1.47 -5.49 -1.31
6.58 -24.52 1.33
1.61 -6 -1.21
6.57 -24.51 2.22
1.86 -6.95 -1.14
1.61 -6.01 0.76
2.83 -10.54 -1.34
1.61 -6.01 0.99
5.17 -19.29 -1.75
9.04 -33.7 6.78
5.17 -19.29 -1.05
1.47 -5.5 1.31
6.6 -24.6 -0.44
1.9 -7.08 1.96
1.34 -5.07 -1.4
6.5 -24.58 0.44
1.45 -5.5 -1.31
6.49 -24.53 1.33
1.54 -5.8 -1.17
6.49 -24.52 2.22
1.86 -7.04 -1.15
6.46 -24.43 3.1
9.04 -34.19 5.6
5.1 -19.28 -1.74
9.03 -34.14 6.86
5.12 -19.35 -1.05
1.57 -5.95 1.42
6.5 -24.59 -0.44
2.01 -7.6 2.11
1.32 -5.06 -1.4
6.41 -24.58 0.44
1.43 -5.5 -1.31
6.4 -24.55 1.33
1.51 -5.78 -1.16
6.39 -24.52 2.22
1.8 -6.89 -1.13
6.37 -24.45 3.1
8.95 -34.33 5.62
5.03 -19.28 -1.74
8.9 -34.15 6.86
5.05 -19.38 -1.05
6.41 -24.61 -0.44
1.98 -7.58 2.1
1.3 -5.07 -1.4
6.32 -24.58 0.44
1.41 -5.48 -1.31
6.31 -24.56 1.33
1.48 -5.76 -1.16
6.31 -24.53 2.22
1.81 -7.03 -1.15
6.28 -24.45 3.1
2.94 -11.44 -1.45
8.84 -34.4 5.63
4.96 -19.3 -1.74
8.78 -34.16 6.86
5 -19.45 -1.05
1.56 -6.08 1.45
6.33 -24.61 -0.44
1.71 -6.67 1.85
1.29 -5.08 -1.4
6.23 -24.6 0.44
1.39 -5.48 -1.3
6.22 -24.57 1.33
1.45 -5.71 -1.14
6.21 -24.54 2.21
1.76 -6.96 -1.14
6.19 -24.45 3.1
1.45 -5.73 0.94
4.9 -19.36 -1.75
1.47 -5.82 1.17
4.93 -19.48 -1.05
1.76 -6.93 1.65
6.24 -24.62 -0.44
1.61 -6.35 1.76
1.27 -5.09 -1.4
6.14 -24.61 0.44
1.37 -5.48 -1.3
6.13 -24.57 1.33
1.42 -5.68 -1.14
6.13 -24.56 2.21
1.74 -6.99 -1.14
6.11 -24.47 3.1
1.87 -7.51 1.23
4.83 -19.37 -1.75
1.46 -5.86 1.17
4.88 -19.54 -1.06
1.53 -6.15 1.46
6.15 -24.63 -0.44
1.58 -6.34 1.75
1.25 -5.09 -1.4
6.05 -24.63 0.44
1.35 -5.5 -1.31
6.04 -24.59 1.33
1.39 -5.67 -1.13
6.04 -24.57 2.21
1.72 -6.99 -1.14
6.02 -24.48 3.09
2.61 -10.6 -1.34
8.46 -34.42 5.61
4.76 -19.36 -1.74
8.41 -34.22 6.85
4.87 -19.8 -1.07
1.51 -6.15 1.46
6.05 -24.63 -0.44
1.46 -5.94 1.64
1.23 -5.08 -1.4
5.97 -24.63 0.44
1.33 -5.5 -1.31
5.96 -24.6 1.33
1.37 -5.68 -1.14
5.95 -24.56 2.21
1.69 -6.99 -1.14
5.93 -24.49 3.09
1.62 -6.68 1.09
4.7 -19.39 -1.75
1.4 -5.79 1.16
4.86 -20.07 -1.08
5.97 -24.65 -0.44
1.44 -5.93 1.64
1.21 -5.09 -1.4
5.87 -24.64 0.44
1.31 -5.5 -1.31
5.87 -24.61 1.33
1.36 -5.69 -1.14
5.86 -24.58 2.21
1.69 -7.1 -1.16
5.84 -24.49 3.09
1.58 -6.63 1.08
1.37 -5.75 1.15
4.85 -20.34 -1.1
1.66 -6.97 1.65
5.88 -24.66 -0.44
1.4 -5.88 1.62
1.2 -5.1 -1.4
5.79 -24.65 0.44
1.29 -5.48 -1.3
5.78 -24.61 1.32
1.36 -5.78 -1.15
5.77 -24.59 2.21
1.7 -7.24 -1.18
5.75 -24.49 3.09
2.5 -10.63 -1.34
8.09 -34.45 5.6
8.04 -34.23 6.83
8.16 -34.73 8.24
5.79 -24.67 -0.44
1.47 -6.25 1.72
1.18 -5.11 -1.41
5.69 -24.66 0.44
1.28 -5.56 -1.32
5.68 -24.61 1.32
1.33 -5.76 -1.15
5.68 -24.6 2.21
1.67 -7.24 -1.18
1.63 -7.06 0.89
1.53 -6.61 1.07
7.9 -34.24 6.83
4.88 -21.13 -1.14
8.01 -34.7 8.22
5.7 -24.68 -0.44
1.51 -6.54 1.8
1.16 -5.11 -1.4
5.61 -24.67 0.44
1.26 -5.55 -1.31
5.6 -24.63 1.32
1.31 -5.76 -1.15
5.59 -24.6 2.21
5.57 -24.51 3.09
7.8 -34.31 5.57
7.74 -34.06 6.79
5.02 -22.07 -1.19
7.9 -34.74 8.22
5.61 -24.68 -0.44
1.53 -6.73 1.85
1.14 -5.11 -1.4
5.52 -24.67 0.44
1.24 -5.55 -1.31
5.51 -24.64 1.32
1.34 -5.98 -1.19
5.5 -24.61 2.21
5.48 -24.52 3.08
7.68 -34.33 5.57
7.67 -34.27 6.83
5.54 -24.74 -1.33
1.28 -5.72 1.35
5.52 -24.69 -0.44
1.5 -6.73 1.85
1.13 -5.11 -1.4
5.43 -24.67 0.44
1.22 -5.55 -1.31
5.43 -24.65 1.32
1.28 -5.82 -1.16
5.42 -24.62 2.21
1.54 -7 -1.14
5.4 -24.52 3.08
7.56 -34.33 5.57
7.54 -34.27 6.82
5.45 -24.76 -1.33
7.65 -34.77 8.22
5.44 -24.72 -0.44
1.11 -5.12 -1.4
5.34 -24.68 0.44
1.2 -5.54 -1.31
5.33 -24.65 1.32
1.24 -5.72 -1.14
5.33 -24.63 2.21
1.51 -6.98 -1.13
5.31 -24.52 3.08
7.45 -34.42 5.58
7.42 -34.29 6.82
5.36 -24.75 -1.33
1.23 -5.66 1.34
5.35 -24.72 -0.44
1.19 -5.52 1.51
1.09 -5.13 -1.41
5.26 -24.69 0.44
1.18 -5.55 -1.31
5.25 -24.66 1.32
1.21 -5.7 -1.13
5.24 -24.64 2.2
1.49 -7.01 -1.13
5.22 -24.54 3.08
7.33 -34.43 5.58
1.24 -5.8 1.15
5.27 -24.76 -1.33
1.21 -5.66 1.34
5.26 -24.72 -0.44
1.18 -5.53 1.52
1.07 -5.13 -1.4
5.17 -24.71 0.44
1.16 -5.55 -1.31
5.16 -24.65 1.32
1.19 -5.68 -1.13
5.15 -24.65 2.2
5.13 -24.55 3.08
7.2 -34.44 5.57
1.21 -5.78 1.15
5.18 -24.76 -1.33
1.19 -5.69 1.34
5.17 -24.72 -0.44
7.25 -34.68 9.49
1.05 -5.12 -1.4
5.08 -24.71 0.44
1.14 -5.55 -1.31
5.07 -24.67 1.32
1.17 -5.69 -1.13
5.06 -24.64 2.2
5.05 -24.56 3.08
7.08 -34.46 5.57
1.18 -5.76 1.14
5.09 -24.78 -1.33
5.08 -24.73 -0.44
1.4 -6.79 1.86
1.04 -5.13 -1.4
4.99 -24.71 0.44
1.12 -5.54 -1.3
4.98 -24.68 1.32
1.15 -5.7 -1.13
4.97 -24.65 2.2
4.96 -24.57 3.08
6.96 -34.48 5.57
6.93 -34.33 6.81
5 -24.79 -1.33
8.05 -39.88 9.39
4.99 -24.74 -0.44
1.12 -5.54 1.51
1.02 -5.14 -1.4
4.9 -24.72 0.44
1.1 -5.53 -1.3
4.89 -24.69 1.32
1.13 -5.71 -1.13
4.89 -24.66 2.2
4.87 -24.58 3.08
6.84 -34.49 5.57
1.16 -5.83 1.15
1.1 -5.54 1.3
4.91 -24.76 -0.44
1.63 -8.24 2.25
1 -5.15 -1.41
4.82 -24.73 0.44
1.08 -5.52 -1.3
4.81 -24.69 1.32
1.11 -5.7 -1.13
4.8 -24.67 2.2
4.79 -24.59 3.08
6.72 -34.49 5.57
1.13 -5.82 1.15
3.62 -18.61 -0.99
4.82 -24.76 -0.44
1.07 -5.5 1.5
0.98 -5.15 -1.4
4.73 -24.74 0.44
1.05 -5.51 -1.3
4.72 -24.7 1.32
1.09 -5.7 -1.13
4.72 -24.68 2.2
4.7 -24.6 3.08
6.6 -34.5 5.56
1.35 -7.08 1.4
3.56 -18.6 -0.99
1.06 -5.57 1.31
4.73 -24.76 -0.44
1.49 -7.77 2.12
0.97 -5.15 -1.4
4.64 -24.74 0.44
1.03 -5.51 -1.29
4.63 -24.71 1.32
1.07 -5.7 -1.13
4.63 -24.67 2.2
1.18 -6.31 -1.02
4.61 -24.61 3.07
6.47 -34.52 5.56
1.07 -5.73 1.13
3.48 -18.57 -0.99
1.05 -5.58 1.31
4.64 -24.77 -0.44
0.95 -5.16 -1.41
4.55 -24.74 0.44
1.01 -5.5 -1.29
4.55 -24.72 1.32
1.05 -5.7 -1.13
4.54 -24.69 2.2
4.53 -24.62 3.07
6.34 -34.45 5.55
1.3 -7.09 1.4
3.42 -18.58 -0.99
1.15 -6.27 1.47
4.56 -24.78 -0.44
1.01 -5.49 1.49
0.93 -5.17 -1.41
4.46 -24.75 0.44
0.99 -5.51 -1.29
4.46 -24.73 1.32
1.03 -5.7 -1.13
4.45 -24.7 2.2
4.44 -24.61 3.07
1.94 -10.74 -1.34
6.21 -34.47 5.55
1.13 -6.28 1.47
4.47 -24.8 -0.44
1.41 -7.8 2.12
0.91 -5.17 -1.41
4.38 -24.76 0.44
0.98 -5.53 -1.3
4.37 -24.73 1.32
1.01 -5.71 -1.13
4.37 -24.71 2.2
4.35 -24.62 3.07
1.9 -10.75 -1.34
6.09 -34.47 5.54
1.26 -7.11 1.4
1.11 -6.28 1.47
4.38 -24.8 -0.44
1.16 -6.54 1.78
0.89 -5.17 -1.41
4.29 -24.78 0.44
0.96 -5.53 -1.3
4.28 -24.74 1.32
0.99 -5.71 -1.13
4.28 -24.72 2.19
1.84 -10.6 -1.7
4.26 -24.64 3.07
1.86 -10.75 -1.34
5.98 -34.52 5.55
1.24 -7.16 1.41
4.29 -24.8 -0.44
1.13 -6.52 1.77
0.88 -5.17 -1.4
4.2 -24.79 0.44
0.94 -5.53 -1.3
4.2 -24.75 1.32
0.97 -5.71 -1.13
4.19 -24.72 2.19
1.8 -10.59 -1.7
4.18 -24.64 3.07
1.82 -10.76 -1.34
5.86 -34.56 5.55
1.97 -11.62 -1.03
1.21 -7.11 1.4
1.05 -6.2 1.45
4.21 -24.82 -0.44
1.1 -6.49 1.76
0.86 -5.17 -1.41
4.11 -24.78 0.44
0.92 -5.54 -1.3
4.11 -24.77 1.32
0.95 -5.71 -1.13
4.1 -24.73 2.19
4.09 -24.65 3.07
5.74 -34.59 5.55
3.04 -18.33 -1.63
1.18 -7.11 1.4
1.04 -6.24 1.46
4.12 -24.82 -0.44
6.46 -38.93 10.57
0.84 -5.18 -1.41
4.03 -24.8 0.44
0.9 -5.52 -1.29
4.02 -24.77 1.32
0.93 -5.75 -1.13
4.02 -24.74 2.19
1.02 -6.27 -1.01
4 -24.65 3.07
5.62 -34.6 5.55
2.97 -18.31 -1.62
1.01 -6.24 1.46
4.04 -24.84 -0.44
6.32 -38.92 10.56
0.82 -5.19 -1.41
3.94 -24.81 0.44
0.88 -5.53 -1.29
3.93 -24.77 1.31
0.91 -5.75 -1.13
3.93 -24.76 2.19
1 -6.29 -1.01
3.91 -24.66 3.07
5.49 -34.61 5.55
2.91 -18.33 -1.62
1.14 -7.16 1.41
2.95 -18.56 -0.98
1.01 -6.33 1.48
3.94 -24.84 -0.44
6.18 -38.92 10.56
0.8 -5.18 -1.41
3.85 -24.81 0.44
0.86 -5.54 -1.29
3.85 -24.78 1.31
0.89 -5.74 -1.13
3.84 -24.76 2.19
1.65 -10.66 -1.71
3.83 -24.67 3.07
1.54 -9.9 -1.23
5.37 -34.6 5.55
2.84 -18.32 -1.62
3.86 -24.84 -0.44
6.05 -38.95 10.56
0.79 -5.18 -1.4
3.76 -24.83 0.44
0.84 -5.55 -1.3
3.76 -24.79 1.31
0.87 -5.75 -1.13
3.75 -24.76 2.19
1.62 -10.66 -1.71
3.74 -24.68 3.07
5.25 -34.61 5.54
2.78 -18.32 -1.62
1.09 -7.19 1.41
2.81 -18.55 -0.98
0.94 -6.23 1.46
3.77 -24.85 -0.44
5.91 -38.97 10.56
0.77 -5.19 -1.4
3.68 -24.83 0.44
0.82 -5.55 -1.3
3.67 -24.8 1.31
0.85 -5.77 -1.13
3.67 -24.77 2.19
1.38 -9.35 -1.5
3.66 -24.68 3.06
1.46 -9.85 -1.22
5.13 -34.62 5.54
2.72 -18.33 -1.62
5.11 -34.5 6.78
2.75 -18.59 -0.98
0.92 -6.2 1.45
3.68 -24.87 -0.44
5.79 -39.07 10.58
0.75 -5.19 -1.41
3.59 -24.84 0.44
0.8 -5.54 -1.29
3.58 -24.81 1.31
0.84 -5.78 -1.14
3.58 -24.79 2.19
1.36 -9.44 -1.51
3.57 -24.68 3.06
1.43 -9.89 -1.23
5 -34.64 5.54
2.65 -18.34 -1.62
4.99 -34.51 6.78
2.68 -18.56 -0.98
0.9 -6.21 1.45
3.59 -24.88 -0.44
5.64 -39.01 10.56
0.73 -5.21 -1.41
0.78 -5.55 -1.29
3.5 -24.81 1.31
0.81 -5.77 -1.13
3.49 -24.8 2.19
1.31 -9.33 -1.49
3.48 -24.69 3.06
1.48 -10.48 -1.3
4.88 -34.61 5.54
2.59 -18.37 -1.62
4.86 -34.52 6.78
2.63 -18.63 -0.99
0.88 -6.23 1.45
3.51 -24.88 -0.44
5.49 -38.99 10.55
0.71 -5.2 -1.41
3.44 -25.03 0.44
0.76 -5.56 -1.29
3.41 -24.82 1.31
0.79 -5.74 -1.13
3.41 -24.8 2.19
1.29 -9.41 -1.5
3.39 -24.71 3.06
1.54 -11.21 -1.39
4.75 -34.58 5.53
2.52 -18.34 -1.62
4.71 -34.31 6.73
2.56 -18.65 -0.99
4.79 -34.89 8.13
3.42 -24.88 -0.44
4.79 -34.88 9.43
0.69 -5.19 -1.4
3.35 -25.03 0.44
0.74 -5.55 -1.29
3.32 -24.83 1.31
0.77 -5.74 -1.13
3.32 -24.8 2.19
1.31 -9.76 -1.56
3.31 -24.72 3.06
1.55 -11.58 -1.43
4.63 -34.59 5.53
2.46 -18.36 -1.62
4.62 -34.55 6.77
4.68 -34.99 8.15
3.33 -24.89 -0.44
4.66 -34.83 9.42
0.68 -5.2 -1.41
3.26 -25.04 0.44
0.72 -5.55 -1.29
3.23 -24.84 1.31
0.75 -5.77 -1.13
3.23 -24.81 2.19
1.32 -10.11 -1.61
3.22 -24.73 3.06
2.39 -18.37 -2.28
4.51 -34.61 5.53
2.4 -18.41 -1.62
4.5 -34.55 6.77
2.47 -19 -1
4.56 -34.99 8.15
3.24 -24.9 -0.44
4.54 -34.86 9.42
0.66 -5.21 -1.41
3.17 -25.05 0.44
0.7 -5.54 -1.29
3.15 -24.85 1.31
0.73 -5.78 -1.13
3.14 -24.82 2.19
1.22 -9.65 -1.54
3.13 -24.73 3.06
2.33 -18.38 -2.28
4.4 -34.7 5.54
2.34 -18.45 -1.63
4.38 -34.57 6.77
4.45 -35.12 8.17
3.16 -24.92 -0.44
0.84 -6.65 1.8
0.64 -5.22 -1.41
3.09 -25.06 0.44
0.69 -5.57 -1.3
3.06 -24.84 1.31
0.71 -5.77 -1.13
3.06 -24.84 2.19
1.19 -9.64 -1.54
3.05 -24.74 3.06
2.27 -18.39 -2.28
4.27 -34.71 5.54
2.28 -18.53 -1.63
4.26 -34.58 6.77
4.45 -36.14 8.41
3.07 -24.92 -0.44
0.82 -6.66 1.8
0.62 -5.22 -1.41
3 -25.06 0.44
0.67 -5.56 -1.29
2.97 -24.85 1.31
0.69 -5.79 -1.13
2.97 -24.84 2.19
1.16 -9.67 -1.54
2.96 -24.75 3.06
2.2 -18.41 -2.28
4.15 -34.7 5.54
2.23 -18.68 -1.65
4.14 -34.6 6.77
4.34 -36.27 8.43
2.98 -24.92 -0.44
0.74 -6.2 1.67
0.6 -5.21 -1.41
2.91 -25.07 0.44
0.65 -5.57 -1.29
2.89 -24.87 1.31
0.67 -5.81 -1.14
2.88 -24.84 2.19
1.12 -9.69 -1.54
2.87 -24.77 3.06
2.14 -18.43 -2.28
4.03 -34.72 5.54
2.23 -19.22 -1.69
3.99 -34.42 6.74
4.21 -36.31 8.44
2.89 -24.93 -0.44
4.05 -34.9 9.41
0.59 -5.22 -1.41
2.82 -25.07 0.44
0.63 -5.56 -1.29
2.8 -24.88 1.31
0.66 -5.82 -1.14
2.8 -24.85 2.19
1.1 -9.74 -1.55
2.79 -24.78 3.06
2.08 -18.46 -2.28
3.91 -34.73 5.54
2.22 -19.72 -1.74
3.89 -34.6 6.77
4.09 -36.34 8.44
2.81 -24.95 -0.44
0.69 -6.11 1.65
0.57 -5.23 -1.41
2.74 -25.08 0.44
0.61 -5.54 -1.29
2.72 -24.88 1.31
0.64 -5.82 -1.14
2.72 -24.86 2.19
0.77 -7 -1.12
5.04 -46.11 5.69
2.02 -18.48 -2.28
3.8 -34.75 5.54
2.2 -20.14 -1.77
3.79 -34.62 6.77
3.97 -36.31 8.43
2.73 -24.96 -0.44
3.82 -34.94 9.42
0.55 -5.23 -1.41
2.65 -25.09 0.44
0.58 -5.52 -1.28
2.63 -24.88 1.31
0.61 -5.81 -1.14
2.63 -24.87 2.19
1.62 -15.27 -2.43
3.73 -35.27 4.35
1.96 -18.49 -2.28
3.68 -34.76 5.54
2.19 -20.66 -1.82
3.66 -34.63 6.77
2.65 -25.01 -1.32
3.84 -36.32 8.43
2.64 -24.96 -0.44
3.7 -34.95 9.42
0.54 -5.24 -1.41
2.56 -25.1 0.44
0.56 -5.53 -1.28
2.54 -24.89 1.31
0.59 -5.79 -1.13
2.54 -24.88 2.19
1.56 -15.28 -2.43
3.57 -34.92 4.31
1.89 -18.5 -2.28
3.55 -34.76 5.53
2.15 -21.09 -1.85
3.54 -34.65 6.77
3.58 -35.09 8.14
2.55 -24.96 -0.44
3.57 -34.95 9.41
0.52 -5.23 -1.41
2.47 -25.1 0.44
0.55 -5.57 -1.29
2.45 -24.9 1.31
0.57 -5.79 -1.13
2.45 -24.88 2.19
1.51 -15.29 -2.43
3.43 -34.81 4.29
1.83 -18.52 -2.28
3.43 -34.78 5.54
2.1 -21.35 -1.88
3.42 -34.65 6.77
2.04 -20.67 -1.09
3.46 -35.11 8.15
2.46 -24.97 -0.44
3.45 -34.97 9.41
0.5 -5.24 -1.41
2.39 -25.09 0.44
0.53 -5.57 -1.29
2.37 -24.92 1.31
0.55 -5.81 -1.13
2.37 -24.88 2.19
0.66 -6.91 -1.1
3.31 -34.76 4.29
1.76 -18.53 -2.29
3.31 -34.71 5.52
2.06 -21.64 -1.9
3.29 -34.56 6.75
2.39 -25.04 -1.32
3.79 -39.75 9.22
2.38 -24.99 -0.44
3.33 -34.98 9.41
0.48 -5.24 -1.41
2.3 -25.11 0.44
0.51 -5.57 -1.29
2.29 -24.92 1.31
0.53 -5.82 -1.14
2.28 -24.9 2.19
0.64 -6.95 -1.1
3.19 -34.77 4.29
1.7 -18.55 -2.29
3.18 -34.72 5.52
2.11 -22.99 -2.02
3.18 -34.63 6.76
2.3 -25.04 -1.32
3.61 -39.37 9.13
2.29 -25 -0.44
3.21 -35 9.42
0.46 -5.25 -1.41
2.21 -25.13 0.44
0.49 -5.55 -1.29
2.19 -24.92 1.31
0.51 -5.82 -1.14
2.19 -24.91 2.19
0.61 -6.9 -1.1
3.06 -34.79 4.29
1.63 -18.54 -2.29
3.06 -34.74 5.52
2.03 -23.02 -2.02
3.05 -34.69 6.77
2.2 -25.04 -1.32
3.09 -35.12 8.14
2.2 -25 -0.44
3.08 -35.01 9.42
0.44 -5.25 -1.41
2.12 -25.09 0.44
0.47 -5.54 -1.28
2.11 -24.93 1.31
0.49 -5.81 -1.13
2.11 -24.92 2.19
0.58 -6.84 -1.09
2.95 -34.93 4.3
1.57 -18.57 -2.29
2.94 -34.79 5.53
1.95 -23.03 -2.02
2.93 -34.7 6.77
2.12 -25.05 -1.32
2.97 -35.18 8.15
2.11 -25.01 -0.44
2.96 -35.02 9.42
0.43 -5.25 -1.41
2.03 -24.99 0.44
0.45 -5.56 -1.29
2.02 -24.94 1.31
0.47 -5.8 -1.13
2.02 -24.91 2.19
0.57 -7.01 -1.11
2.84 -35.04 4.32
1.51 -18.59 -2.29
2.82 -34.8 5.53
1.87 -23.06 -2.02
2.82 -34.72 6.77
2.03 -25.07 -1.32
2.03 -25.01 -0.44
2.84 -35.03 9.42
0.41 -5.26 -1.41
1.94 -24.98 0.44
1.94 -24.95 1.31
0.45 -5.8 -1.13
1.94 -24.92 2.19
1.19 -15.35 -2.44
2.72 -35.02 4.31
1.44 -18.61 -2.29
2.7 -34.8 5.53
1.79 -23.07 -2.02
2.7 -34.71 6.77
1.95 -25.08 -1.32
3.13 -40.25 9.32
1.94 -25.02 -0.44
2.72 -35.04 9.42
0.39 -5.25 -1.41
1.85 -24.99 0.44
1.85 -24.95 1.31
1.85 -24.94 2.19
0.52 -6.98 -1.11
2.59 -34.97 4.31
1.38 -18.62 -2.29
2.58 -34.8 5.53
1.71 -23.11 -2.03
2.57 -34.67 6.76
1.86 -25.07 -1.32
2.99 -40.28 9.33
1.86 -25.04 -0.44
2.6 -35.04 9.41
0.37 -5.27 -1.41
1.77 -25 0.44
1.76 -24.96 1.31
0.41 -5.79 -1.13
1.76 -24.95 2.19
0.49 -7 -1.11
2.47 -34.99 4.31
1.32 -18.63 -2.29
2.46 -34.81 5.53
1.63 -23.11 -2.03
2.45 -34.65 6.75
1.77 -25.09 -1.32
2.85 -40.31 9.33
1.77 -25.05 -0.44
2.48 -35.06 9.42
0.35 -5.27 -1.42
1.68 -25.02 0.44
1.68 -24.96 1.31
0.39 -5.78 -1.13
1.67 -24.95 2.19
0.48 -7.17 -1.14
2.35 -34.97 4.3
1.25 -18.66 -2.3
2.34 -34.82 5.53
1.55 -23.12 -2.03
2.33 -34.76 6.77
1.68 -25.1 -1.32
0.76 -11.3 2.61
1.68 -25.04 -0.44
2.35 -35.07 9.42
0.34 -5.28 -1.42
1.59 -25.02 0.44
1.59 -24.98 1.31
0.37 -5.79 -1.13
1.59 -24.95 2.19
0.45 -7.13 -1.13
2.22 -34.96 4.3
1.19 -18.66 -2.3
2.22 -34.82 5.53
1.47 -23.13 -2.03
2.21 -34.75 6.77
1.6 -25.11 -1.32
2.57 -40.34 9.33
1.59 -25.06 -0.44
2.23 -35.07 9.42
1.5 -25.02 0.44
1.5 -24.98 1.31
0.35 -5.8 -1.13
1.5 -24.96 2.19
0.42 -7.07 -1.12
2.1 -34.98 4.3
1.12 -18.67 -2.3
2.09 -34.83 5.53
1.39 -23.14 -2.03
2.09 -34.77 6.77
1.51 -25.11 -1.32
2.12 -35.26 8.16
1.51 -25.06 -0.44
2.11 -35.1 9.42
1.41 -25.03 0.44
1.41 -25 1.31
1.41 -24.97 2.19
0.4 -7.07 -1.12
1.98 -34.98 4.3
1.06 -18.68 -2.3
1.97 -34.85 5.53
1.31 -23.16 -2.03
1.97 -34.78 6.77
1.42 -25.11 -1.32
1.99 -35.24 8.15
1.42 -25.07 -0.44
1.98 -35.1 9.42
1.33 -25.04 0.44
1.32 -24.99 1.31
1.32 -24.99 2.19
0.37 -6.92 -1.1
1.85 -34.89 4.29
0.99 -18.69 -2.3
1.84 -34.85 5.53
1.01 -19.12 -1.68
1.84 -34.77 6.77
1.33 -25.12 -1.32
2.14 -40.37 9.33
1.33 -25.08 -0.44
1.86 -35.12 9.42
1.24 -25.06 0.44
1.23 -25 1.31
1.23 -24.99 2.19
0.34 -6.92 -1.1
1.72 -34.91 4.29
0.92 -18.69 -2.3
1.72 -34.85 5.53
0.93 -18.93 -1.66
1.71 -34.64 6.74
1.99 -40.38 9.33
1.24 -25.08 -0.44
1.73 -35.13 9.42
1.15 -25.06 0.44
1.15 -25.02 1.31
1.15 -24.99 2.19
0.71 -15.44 -2.45
1.6 -34.92 4.29
0.86 -18.7 -2.3
1.6 -34.86 5.53
0.87 -18.88 -1.65
0.52 -11.32 2.2
1 -21.86 -1.15
1.62 -35.28 8.15
1.15 -25.09 -0.44
1.61 -35.13 9.42
1.06 -25.07 0.44
1.06 -25.02 1.31
1.06 -25.01 2.19
0.65 -15.45 -2.45
1.48 -35 4.3
0.79 -18.72 -2.3
1.48 -34.9 5.53
0.8 -18.87 -1.65
0.48 -11.31 2.2
0.84 -19.8 -1.04
1.49 -35.3 8.16
1.06 -25.1 -0.44
1.49 -35.15 9.43
0.98 -25.03 1.31
0.23 -5.82 -1.13
0.98 -25.01 2.19
0.6 -15.46 -2.45
1.37 -35.05 4.31
0.73 -18.74 -2.3
1.37 -34.91 5.53
0.74 -18.86 -1.65
1.36 -34.71 6.75
0.75 -19.22 -1.01
1.39 -35.51 8.2
0.98 -25.11 -0.44
1.38 -35.16 9.43
0.9 -25.34 0.44
0.2 -5.65 -1.3
0.89 -25.03 1.31
0.21 -5.83 -1.13
0.89 -25.03 2.19
0.55 -15.48 -2.45
1.24 -35.03 4.3
0.67 -18.73 -2.3
1.24 -34.92 5.53
0.67 -18.86 -1.65
0.68 -19.18 -1.01
1.27 -35.84 8.28
0.89 -25.12 -0.44
1.25 -35.18 9.43
0.81 -25.34 0.44
0.18 -5.64 -1.3
0.8 -25.04 1.31
0.8 -25.04 2.19
0.49 -15.48 -2.45
1.12 -35.04 4.3
0.6 -18.75 -2.3
0.39 -12.19 1.93
0.6 -18.85 -1.65
0.61 -19.18 -1.01
1.15 -36.02 8.32
0.8 -25.12 -0.44
1.12 -35.18 9.43
0.16 -5.65 -1.3
0.71 -25.05 1.31
0.17 -5.87 -1.14
0.71 -25.03 2.19
0.44 -15.48 -2.45
0.99 -35.07 4.31
0.53 -18.76 -2.3
0.99 -34.94 5.54
0.53 -18.83 -1.65
0.35 -12.48 2.43
0.54 -19.16 -1
0.31 -10.89 2.51
0.71 -25.13 -0.44
1 -35.19 9.43
0.63 -25.07 1.31
0.15 -5.91 -1.15
0.63 -25.04 2.19
0.39 -15.49 -2.45
0.89 -35.13 4.31
0.48 -18.77 -2.31
0.88 -34.95 5.54
0.48 -18.83 -1.65
0.31 -12.18 2.37
0.48 -19.15 -1
0.91 -35.87 8.28
0.64 -25.14 -0.44
0.89 -35.2 9.43
0.24 -11.23 0.59
0.13 -5.92 -1.15
0.54 -25.05 2.19
0.34 -15.5 -2.46
0.41 -18.78 -2.31
0.76 -34.97 5.54
0.41 -18.84 -1.65
0.23 -10.42 2.03
0.42 -19.15 -1
0.77 -35.64 8.23
0.55 -25.16 -0.44
0.77 -35.23 9.44
0.45 -25.07 1.31
0.11 -5.88 -1.14
0.45 -25.06 2.19
0.28 -15.5 -2.46
0.34 -18.78 -2.31
0.63 -34.97 5.54
