# .PCD v0.7 - Point Cloud Data file format
VERSION 0.7
FIELDS x y z
SIZE 4 4 4
TYPE F F F
COUNT 1 1 1
WIDTH 2957
HEIGHT 1
VIEWPOINT 0 0 0 1 0 0 0
POINTS 2957
DATA ascii
-4.76 18.96 3.8
-4.83 19.21 4.57
-3.14 12.48 -0.22
-7.96 31.68 8.75
-3.08 12.44 0.22
-3.1 12.53 0.68
-1.43 5.77 -1.16
-9.6 38.81 3.5
-1.43 5.76 -0.94
-5.57 22.51 2.85
-1.8 7.29 -0.92
-5.4 21.83 3.56
-4.73 19.13 3.83
-1.55 6.27 -0.34
-4.76 19.26 4.58
-5.29 21.37 5.9
-3.07 12.6 0.23
-1.41 5.77 -1.15
-9.49 38.92 3.51
-1.4 5.76 -0.94
-5.5 22.58 2.85
-1.45 5.94 -0.75
-5.42 22.25 3.63
-5.91 24.23 4.85
-1.52 6.23 -0.34
-4.7 19.27 4.58
-3.11 12.75 -0.23
-5.32 21.82 6.02
-2.99 12.44 0.22
-3.13 13.06 0.7
-1.39 5.78 -1.15
-1.38 5.76 -0.94
-1.43 5.95 -0.75
-6.82 28.41 4.63
-4.54 18.9 3.78
-1.49 6.19 -0.33
-8.6 35.83 8.51
-3.11 12.95 -0.23
-5.3 22.07 6.08
-2.92 12.36 0.22
-3.09 13.05 0.7
-1.37 5.78 -1.15
-1.36 5.75 -0.94
-6.04 25.54 3.22
-1.79 7.57 -0.95
-5.12 21.64 3.52
-5.6 23.67 4.73
-1.47 6.2 -0.33
-6.59 27.87 7.67
-3.05 13.11 0.23
-10.48 45.05 2.42
-1.34 5.77 -1.15
-1.34 5.77 -0.94
-6.02 25.87 3.26
-1.39 5.96 -0.75
-5.13 22.04 3.58
-4.43 19.06 3.8
-1.44 6.18 -0.33
-2.89 12.41 -0.22
-6.47 27.83 7.65
-2.87 12.55 0.22
-1.32 5.75 -1.15
-1.32 5.77 -0.94
-1.35 5.87 -0.74
-4.98 21.74 3.53
-4.35 18.97 3.78
-1.42 6.19 -0.33
-5.74 25.08 5.94
-2.92 12.73 -0.23
-5.76 25.16 6.92
-2.96 13.13 0.23
-10.19 45.24 2.43
-1.29 5.75 -1.15
-1.3 5.78 -0.94
-5.78 25.64 3.23
-1.32 5.88 -0.74
-6.49 28.8 4.68
-4.3 19.07 3.8
-1.38 6.13 -0.33
-7.27 32.25 8.86
-2.63 11.83 0.21
-10.06 45.35 2.43
-1.28 5.76 -1.15
-1.28 5.75 -0.93
-1.3 5.88 -0.74
-4.76 21.46 3.48
-4.19 18.9 3.76
-1.37 6.17 -0.33
-6.8 30.66 7.25
-2.86 12.88 -0.23
-5.03 22.68 6.23
-2.62 12.03 0.21
-2.86 13.09 0.7
-1.26 5.76 -1.15
-5.6 25.66 2.3
-1.25 5.75 -0.93
-8.31 38.11 4.79
-1.28 5.87 -0.74
-8.63 39.58 6.42
-6.14 28.13 5.6
-1.34 6.14 -0.33
-5.85 26.8 6.33
-2.8 12.82 -0.23
-7.11 32.59 8.94
-2.8 13.07 0.7
-1.23 5.75 -1.14
-1.23 5.74 -0.93
-8.18 38.15 4.79
-1.26 5.87 -0.74
-8.5 39.66 6.42
-1.28 5.98 -0.54
-6.06 28.28 5.62
-1.32 6.14 -0.33
-5.75 26.82 6.33
-5.37 25.04 6.86
-9.97 47.35 0.84
-9.62 45.68 2.45
-1.21 5.73 -1.14
-1.21 5.75 -0.93
-1.24 5.87 -0.74
-6.15 29.18 4.72
-4 19.01 3.78
-1.29 6.15 -0.33
-6.64 31.51 7.43
-10 47.46 -0.85
-5.37 25.47 6.98
-9.7 46.83 0.83
-1.19 5.74 -1.14
-5.09 24.57 2.2
-1.19 5.74 -0.93
-1.21 5.86 -0.74
-4.85 23.4 3.79
-3.96 19.12 3.8
-1.26 6.1 -0.33
-6.52 31.49 7.42
-9.73 47 -0.84
-6.67 32.22 8.82
-5.25 25.83 0.46
-9.3 45.71 2.44
-1.17 5.73 -1.14
-1.17 5.73 -0.93
-4.63 22.77 2.85
-1.19 5.87 -0.74
-4.85 23.87 3.86
-1.21 5.93 -0.53
-5.75 28.28 5.61
-1.23 6.06 -0.32
-4.98 24.48 5.77
-9.52 46.84 -0.83
-2.55 12.78 0.23
-9.13 45.71 2.44
-1.14 5.73 -1.14
-5.35 26.76 2.39
-1.15 5.74 -0.93
-4.54 22.74 2.85
-1.17 5.84 -0.73
-4.68 23.42 3.78
-5.64 28.23 5.6
-1.21 6.04 -0.32
-2.27 11.36 2.67
-9.35 46.81 -0.83
-2.25 11.28 3.08
-2.48 12.66 0.23
-4.41 22.51 1.2
-1.12 5.72 -1.13
-7.94 40.51 3.61
-1.13 5.74 -0.93
-5.64 28.74 3.6
-1.15 5.87 -0.73
-4.61 23.51 3.8
-2.22 11.33 2.24
-1.19 6.05 -0.32
-2.22 11.3 2.66
-9.19 46.88 -0.83
-2.21 11.27 3.08
-2.4 12.45 0.22
-1.1 5.7 -1.13
-4.77 24.73 2.2
-1.11 5.74 -0.93
-2.2 11.41 1.43
-1.14 5.9 -0.74
-2.19 11.36 1.83
-1.14 5.91 -0.53
-2.18 11.3 2.24
-1.16 6.03 -0.32
-2.18 11.29 2.65
-2.44 12.68 -0.23
-2.17 11.26 3.07
-2.37 12.54 0.22
-1.08 5.7 -1.13
-2.16 11.44 1.02
-1.08 5.73 -0.92
-2.15 11.36 1.42
-1.12 5.9 -0.74
-2.14 11.33 1.83
-2.13 11.29 2.23
-1.14 6.04 -0.32
-2.13 11.28 2.65
-2.37 12.52 -0.22
-1.8 9.51 2.59
-2.36 12.71 0.23
-1.06 5.7 -1.13
-2.11 11.38 1.01
-1.06 5.72 -0.92
-2.1 11.34 1.42
-1.38 7.45 -0.93
-2.1 11.33 1.83
-1.11 5.97 -0.53
-2.09 11.28 2.23
-1.12 6.03 -0.32
-1.79 9.64 2.26
-2.33 12.55 -0.22
-1.76 9.5 2.59
-4.7 25.84 0.46
-2.08 11.42 0.61
-1.04 5.7 -1.13
-2.07 11.36 1.01
-1.04 5.72 -0.92
-2.06 11.34 1.42
-1.35 7.45 -0.93
-2.06 11.35 1.83
-1.09 5.97 -0.53
-1.76 9.69 1.91
-1.09 6.01 -0.32
-1.75 9.6 2.25
-2.33 12.79 -0.23
-1.73 9.51 2.59
-2.04 11.46 0.2
-2.03 11.39 0.61
-1.02 5.7 -1.13
-2.03 11.37 1.01
-1.02 5.72 -0.92
-2.02 11.33 1.41
-1.32 7.43 -0.93
-1.74 9.77 1.57
-1.72 9.67 1.91
-1.07 6 -0.32
-1.71 9.58 2.25
-2.05 11.51 -0.2
-1.69 9.5 2.59
-2 11.43 0.2
-1.99 11.38 0.61
-0.99 5.69 -1.12
-1.99 11.37 1.01
-1 5.71 -0.92
-1.72 9.84 1.23
-1.04 5.98 -0.75
-1.7 9.75 1.57
-1.68 9.65 1.9
-1.05 6.01 -0.32
-1.67 9.59 2.25
-2 11.45 -0.2
-1.66 9.51 2.59
-1.95 11.42 0.2
-1.95 11.38 0.61
-0.97 5.68 -1.12
-1.69 9.9 0.88
-0.98 5.71 -0.92
-1.68 9.81 1.22
-1.03 6.05 -0.75
-1.67 9.74 1.57
-1.65 9.65 1.9
-1.03 6.02 -0.32
-1.64 9.6 2.25
-1.96 11.44 -0.2
-1.63 9.52 2.59
-1.91 11.41 0.2
-1.67 9.98 0.53
-0.95 5.68 -1.12
-1.65 9.85 0.87
-0.95 5.7 -0.92
-1.64 9.8 1.22
-1.02 6.06 -0.75
-1.63 9.74 1.56
-1.03 6.12 -0.54
-1.62 9.64 1.9
-1 6 -0.32
-1.61 9.62 2.25
-1.91 11.41 -0.2
-1.6 9.56 2.6
-1.65 10.07 0.18
-0.93 5.69 -1.12
-1.61 9.82 0.87
-0.93 5.7 -0.91
-1.61 9.79 1.22
-1 6.07 -0.76
-1.6 9.75 1.56
-1.01 6.14 -0.54
-1.59 9.67 1.9
-0.98 5.98 -0.32
-1.59 9.67 2.26
-1.87 11.42 -0.2
-1.61 10.04 0.18
-1.59 9.93 0.53
-0.91 5.68 -1.12
-1.58 9.84 0.87
-0.91 5.7 -0.91
-1.57 9.8 1.22
-0.97 6.08 -0.76
-1.57 9.77 1.57
-0.99 6.15 -0.54
-1.56 9.7 1.91
-0.96 5.99 -0.32
-1.62 10.11 -0.18
-1.57 10.01 0.18
-0.89 5.69 -1.33
-1.56 9.92 0.53
-0.89 5.67 -1.12
-1.55 9.85 0.87
-0.89 5.7 -0.91
-1.54 9.81 1.22
-0.96 6.13 -0.76
-1.54 9.78 1.57
-0.97 6.16 -0.55
-0.94 5.98 -0.32
-3.27 20.82 4.87
-1.58 10.06 -0.18
-5.06 32.25 8.75
-1.53 10 0.18
-0.87 5.69 -1.33
-1.52 9.94 0.53
-0.87 5.66 -1.11
-1.51 9.87 0.87
-0.87 5.69 -0.91
-1.51 9.85 1.22
-0.94 6.16 -0.76
-3.73 24.33 3.9
-0.95 6.17 -0.55
-4.21 27.47 5.4
-0.92 6.01 -0.32
-3.18 20.76 4.85
-1.54 10.05 -0.18
-3.82 24.93 6.76
-1.5 10 0.18
-0.85 5.68 -1.32
-1.49 9.95 0.53
-0.85 5.67 -1.11
-1.48 9.9 0.88
-0.85 5.68 -0.91
-0.93 6.21 -0.77
-3.62 24.19 3.87
-0.93 6.19 -0.55
-4.11 27.46 5.4
-0.9 6.01 -0.32
-3.14 20.97 4.9
-1.5 10.05 -0.18
-4.99 33.38 9.04
-1.46 10.02 0.18
-0.83 5.67 -1.32
-1.45 9.91 0.53
-0.83 5.67 -1.11
-0.83 5.67 -0.91
-4.04 27.66 3.43
-0.91 6.25 -0.78
-2.31 15.84 2.53
-0.91 6.25 -0.55
-3.49 23.93 4.7
-0.88 5.99 -0.32
-3.06 20.97 4.89
-1.47 10.08 -0.18
-3.69 25.24 6.83
-1.43 10.05 0.18
-0.81 5.67 -1.32
-1.39 9.78 0.52
-0.81 5.66 -1.11
-3.94 27.68 2.45
-0.81 5.68 -0.91
-4.67 32.74 4.06
-0.89 6.27 -0.78
-3.6 25.27 4.04
-5.01 35.13 6.9
-0.85 5.98 -0.32
-2.99 21.01 4.9
-1.44 10.09 -0.18
-3.66 25.7 6.96
-1.39 10 0.18
-0.79 5.67 -1.32
-1.31 9.42 0.5
-0.78 5.64 -1.11
-3.87 27.85 2.46
-0.79 5.68 -0.91
-3.08 22.14 2.74
-0.89 6.39 -0.79
-4.86 35.01 5.6
-1.01 7.25 -0.64
-3.34 24.06 4.72
-0.84 6.02 -0.32
-3.24 23.29 5.43
-1.41 10.13 -0.18
-2.05 14.76 3.99
-0.77 5.67 -1.32
-1.36 10.07 0.53
-0.77 5.65 -1.11
-2.35 17.36 1.53
-0.77 5.66 -0.91
-3.29 24.29 3.01
-0.79 5.86 -0.73
-2.59 19.07 3.05
-0.99 7.28 -0.64
-3.48 25.7 5.04
-0.82 6.03 -0.32
-2.88 21.22 4.94
-2.01 14.8 4
-1.32 10.03 0.18
-0.75 5.67 -1.32
-1.33 10.06 0.53
-0.74 5.64 -1.11
-2.27 17.21 1.52
-0.75 5.65 -0.9
-2.96 22.43 2.78
-3.41 25.8 4.12
-3.43 25.97 5.09
-0.8 6.03 -0.32
-2.78 21.02 4.9
-1.71 12.92 -0.23
-3.14 23.75 6.42
-1.25 9.73 0.17
-0.73 5.65 -1.32
-1.28 10 0.53
-0.72 5.64 -1.11
-2.2 17.15 1.51
-0.72 5.65 -0.9
-2.51 19.59 2.43
-1.99 15.53 2.48
-3.33 25.98 5.09
-0.77 6.03 -0.32
-2.41 18.8 4.38
-2.98 23.25 -0.41
-1.9 14.8 4
-0.71 5.66 -1.32
-1.25 10 0.53
-0.7 5.64 -1.1
-2.14 17.17 1.51
-0.7 5.65 -0.9
-2.44 19.56 2.42
-3.25 26.04 4.16
-3.11 24.97 4.89
-0.75 6.03 -0.32
-2.39 19.17 4.46
-1.23 9.9 -0.17
-2.96 23.74 6.41
-2.7 22.28 0.39
-0.69 5.65 -1.31
-1.2 9.86 0.52
-0.68 5.61 -1.1
-2.63 21.65 1.91
-0.68 5.64 -0.9
-3.16 26.06 3.22
-2.61 21.5 3.43
-0.73 6.04 -0.32
-2.33 19.17 4.46
-1.19 9.82 -0.17
-2.89 23.77 6.42
-2.63 22.33 0.39
-0.67 5.66 -1.32
-1.16 9.88 0.52
-0.66 5.62 -1.1
-2.54 21.59 1.9
-0.67 5.64 -0.9
-2.54 21.58 2.67
-2.54 21.59 3.44
-2.23 18.96 3.71
-0.71 6.04 -0.32
-3.74 31.73 7.38
-1.16 9.8 -0.17
-2.81 23.88 6.44
-1.13 9.85 0.17
-0.65 5.65 -1.31
-2.47 21.61 1.14
-0.64 5.62 -1.1
-2.47 21.59 1.9
-0.64 5.64 -0.9
-2.31 20.18 2.49
-2.46 21.51 3.43
-2.46 21.54 4.21
-0.69 6.04 -0.32
-1.83 16.04 3.73
-1.12 9.8 -0.17
-2.74 23.95 6.46
-2.4 21.71 0.38
-0.62 5.63 -1.31
-1.08 9.79 0.52
-0.62 5.62 -1.1
-2.7 24.4 2.15
-0.62 5.63 -0.9
-3.52 31.81 3.93
-2.39 21.57 3.44
-2.38 21.51 4.21
-0.67 6.04 -0.32
-2.67 24.07 5.59
-2.14 19.33 -0.34
-3.5 31.64 8.53
-2.33 21.74 0.38
-0.6 5.63 -1.31
-2.82 26.31 1.39
-0.6 5.62 -1.1
-1.87 17.42 1.53
-0.6 5.64 -0.9
-3.42 31.85 3.93
-2.3 21.46 3.42
-2.31 21.53 4.21
-0.65 6.05 -0.32
-2.28 21.22 4.93
-1.09 10.13 -0.18
-3.39 31.66 8.53
-1.05 10.11 0.18
-0.58 5.64 -1.31
-1.69 16.31 0.86
-0.58 5.6 -1.09
-1.83 17.6 1.55
-0.58 5.64 -0.9
-2.55 24.57 3.03
-2.23 21.51 3.42
-3.61 34.78 6.8
-0.63 6.05 -0.32
-2.24 21.55 5
-1.05 10.13 -0.18
-2.02 19.44 5.24
-0.94 9.43 0.17
-0.56 5.62 -1.3
-0.98 9.78 0.52
-0.56 5.6 -1.09
-1.77 17.64 1.55
-0.56 5.62 -0.89
-1.88 18.8 2.32
-2.75 27.42 4.36
-1.94 19.34 3.78
-0.61 6.05 -0.32
-1.94 19.39 4.5
-2.06 20.52 5.53
-0.97 10.09 0.18
-0.54 5.61 -1.3
-0.94 9.72 0.51
-0.54 5.6 -1.09
-1.71 17.74 1.56
-0.54 5.59 -0.89
-1.95 20.15 2.49
-1.69 17.45 2.78
-1.51 15.58 3.04
-0.59 6.05 -0.32
-1.77 18.3 4.24
-0.95 9.82 -0.17
-2.08 21.52 5.79
-0.94 10.03 0.18
-0.52 5.61 -1.3
-2.32 24.85 1.31
-0.52 5.6 -1.09
-2.3 24.64 2.17
-0.52 5.58 -0.89
-1.58 16.92 2.09
-1.64 17.5 2.78
-1.65 17.6 3.44
-0.57 6.06 -0.32
-2.16 23.11 5.36
-0.92 9.8 -0.17
-2.03 21.74 5.85
-0.9 10.05 0.18
-0.5 5.6 -1.3
-0.87 9.63 0.51
-0.5 5.58 -1.09
-1.6 17.82 1.56
-0.5 5.58 -0.89
-1.65 18.36 2.26
-0.52 5.73 -0.71
-2.38 26.47 4.21
-1.59 17.7 3.46
-0.54 6.06 -0.32
-2.55 28.37 6.58
-0.88 9.81 -0.17
-1.7 18.91 5.09
-1.23 14.28 0.25
-0.49 5.7 -1.32
-0.87 10.04 0.53
-0.48 5.58 -1.09
-0.83 9.64 0.85
-0.48 5.59 -0.89
-1.38 16 1.97
-1.76 20.41 3.25
-1.53 17.73 3.46
-0.52 6.06 -0.32
-2.44 28.27 6.55
-0.9 10.39 -0.18
-1.38 15.98 4.3
-0.87 10.5 0.18
-0.48 5.79 -1.34
-0.8 9.69 0.51
-0.46 5.58 -1.09
-0.8 9.64 0.85
-0.46 5.58 -0.89
-1.38 16.68 2.05
-1.99 23.97 3.81
-1.81 21.88 4.27
-0.5 6.06 -0.32
-2.34 28.27 6.55
-0.83 9.99 -0.18
-2.34 28.19 7.58
-0.8 10.04 0.18
-0.46 5.84 -1.35
-1.54 19.35 1.02
-0.44 5.59 -1.09
-0.81 10.18 0.89
-0.44 5.57 -0.89
-1.31 16.48 2.03
-1.49 18.78 2.98
-1.28 16.08 3.14
-0.48 6.06 -0.32
-2.03 25.6 5.93
-0.83 10.49 -0.18
-1.86 23.44 6.3
-0.8 10.5 0.18
-0.44 5.85 -1.36
-0.74 9.77 0.51
-0.42 5.59 -1.09
-0.77 10.16 0.89
-0.42 5.58 -0.89
-1.26 16.64 2.05
-1.45 19.07 3.03
-1.79 23.55 4.59
-0.46 6.06 -0.32
-1.14 14.96 3.46
-0.75 9.85 -0.17
-1.94 25.56 6.87
-0.7 9.65 0.17
-0.41 5.64 -1.31
-1.33 18.38 0.97
-0.4 5.56 -1.08
-1.35 18.61 1.63
-0.4 5.58 -0.89
-1.35 18.7 2.3
-1.17 16.22 2.58
-1.15 15.9 3.1
-0.44 6.07 -0.32
-1.18 16.25 3.76
-1.01 13.94 -0.24
-1.15 15.89 4.27
-0.67 9.68 0.17
-0.39 5.6 -1.3
-1.22 17.65 0.93
-0.38 5.55 -1.08
-1.11 16.12 1.41
-0.39 5.6 -0.89
-1.12 16.2 1.99
-1.11 16.02 2.54
-1.08 15.61 3.04
-0.42 6.07 -0.32
-1.12 16.25 3.76
-0.64 9.28 -0.16
-1.14 16.49 4.43
-0.37 5.6 -1.5
-0.93 14.26 0.25
-0.37 5.59 -1.29
-0.62 9.54 0.5
-0.36 5.55 -1.08
-1.33 20.28 1.78
-0.37 5.59 -0.89
-1.09 16.65 2.05
-1.14 17.51 2.78
-1.02 15.6 3.04
-0.4 6.07 -0.32
-1.06 16.27 3.76
-0.64 9.76 -0.17
-0.35 5.59 -1.5
-0.59 9.57 0.17
-0.35 5.6 -1.3
-1.02 16.43 0.86
-0.34 5.54 -1.08
-0.58 9.37 0.82
-0.35 5.57 -0.88
-1.01 16.33 2.01
-0.99 16.01 2.54
-0.38 6.07 -0.32
-1.24 20.08 4.65
-0.6 9.69 -0.17
-0.99 16 4.3
-0.33 5.59 -1.5
-0.56 9.64 0.17
-0.33 5.58 -1.29
-1.09 18.72 0.98
-0.32 5.54 -1.08
-0.55 9.39 0.82
-0.33 5.58 -0.89
-1.03 17.6 2.79
-0.93 15.98 3.11
-0.35 6.07 -0.32
-1.17 19.97 4.62
-0.57 9.69 -0.17
-1.25 21.5 5.77
-0.31 5.59 -1.5
-0.79 14.37 0.25
-0.31 5.58 -1.29
-0.53 9.56 0.5
-0.3 5.52 -1.08
-0.52 9.53 0.83
-0.31 5.59 -0.89
-0.91 16.63 2.04
-0.95 17.32 2.75
-1 18.15 3.53
-0.34 6.13 -0.32
-1.06 19.25 4.45
-0.55 9.93 -0.17
-1.32 24.1 6.47
-0.29 5.58 -1.5
-0.52 10.18 0.18
-0.29 5.58 -1.29
-0.49 9.56 0.5
-0.28 5.52 -1.07
-0.48 9.39 0.82
-0.29 5.58 -0.89
-0.9 17.41 2.14
-0.29 5.69 -0.7
-1.33 25.76 4.09
-0.93 18.08 3.52
-0.31 6.07 -0.32
-0.99 19.17 4.43
-0.51 9.95 -0.17
-1.1 21.34 5.73
-0.27 5.57 -1.49
-0.48 9.9 0.17
-0.27 5.58 -1.29
-0.47 9.67 0.51
-0.27 5.52 -1.07
-0.45 9.38 0.82
-0.27 5.58 -0.88
-0.88 18.26 2.24
-0.27 5.66 -0.7
-1.24 25.77 4.09
-1.08 22.39 4.36
-0.3 6.15 -0.32
-0.89 18.5 4.28
-0.69 14.26 -0.25
-1.54 32.03 8.59
-0.25 5.57 -1.49
-0.43 9.73 0.17
-0.25 5.57 -1.29
-0.43 9.6 0.5
-0.25 5.53 -1.08
-0.43 9.65 0.84
-0.25 5.57 -0.88
-0.82 18.4 2.26
-0.25 5.67 -0.7
-0.47 10.56 1.67
-0.8 18.08 3.52
-0.27 6.16 -0.32
-0.82 18.58 4.29
-0.62 14.06 -0.25
-1.19 26.73 7.17
-0.23 5.57 -1.49
-0.42 10.2 0.18
-0.23 5.59 -1.29
-0.23 5.52 -1.07
-0.39 9.45 0.83
-0.23 5.57 -0.88
-0.76 18.51 2.28
-0.23 5.65 -0.69
-0.43 10.39 1.65
-0.24 5.75 -0.5
-0.76 18.67 3.63
-0.25 6.18 -0.32
-1.05 25.55 5.9
-1.09 26.7 7.16
-0.21 5.57 -1.49
-0.4 10.58 0.18
-0.21 5.55 -1.28
-0.37 9.79 0.51
-0.21 5.52 -1.07
-0.21 5.56 -0.88
-0.39 10.39 1.28
-0.21 5.64 -0.69
-0.39 10.49 1.66
-0.22 5.77 -0.51
-0.39 10.45 2.03
-0.23 6.23 -0.33
-0.39 10.36 2.39
-0.36 9.58 -0.17
-0.39 10.33 2.77
-0.19 5.56 -1.49
-0.49 14.4 0.25
-0.19 5.54 -1.28
-0.34 9.88 0.52
-0.19 5.54 -1.08
-0.19 5.57 -0.88
-0.19 5.64 -0.69
-0.35 10.37 1.64
-0.19 5.73 -0.5
-0.35 10.4 2.02
-0.21 6.28 -0.33
-0.35 10.33 2.39
-0.32 9.55 -0.17
-0.35 10.31 2.76
-0.17 5.55 -1.49
-0.32 10.62 0.56
-0.17 5.55 -1.08
-0.32 10.5 0.92
-0.17 5.56 -0.88
-0.3 10.01 1.23
-0.17 5.64 -0.69
-0.32 10.39 1.65
-0.17 5.72 -0.5
-0.31 10.35 2.01
-0.19 6.25 -0.33
-0.31 10.32 2.38
-0.31 10.28 2.76
-0.15 5.55 -1.49
-0.28 10.54 0.18
-0.15 5.53 -1.28
-0.29 10.57 0.55
-0.15 5.54 -1.08
-0.28 10.38 0.91
-0.15 5.55 -0.88
-0.28 10.43 1.28
-0.15 5.64 -0.69
-0.28 10.38 1.65
-0.15 5.73 -0.5
-0.28 10.33 2.01
-0.17 6.3 -0.33
-0.28 10.32 2.38
-0.29 10.67 -0.19
-0.28 10.29 2.76
-0.13 5.55 -1.49
-0.24 10.54 0.18
-0.13 5.54 -1.28
-0.24 10.54 0.55
-0.13 5.52 -1.07
-0.24 10.44 0.91
-0.13 5.55 -0.88
-0.24 10.42 1.28
-0.13 5.64 -0.69
-0.24 10.39 1.65
-0.13 5.73 -0.5
-0.24 10.35 2.01
-0.15 6.32 -0.33
-0.24 10.32 2.38
-0.25 10.67 -0.19
-0.24 10.29 2.76
-0.11 5.55 -1.49
-0.21 10.6 0.18
-0.11 5.54 -1.28
-0.21 10.39 0.54
-0.11 5.51 -1.07
-0.19 9.79 0.86
-0.11 5.55 -0.88
-0.21 10.43 1.28
-0.11 5.63 -0.69
-0.21 10.4 1.65
-0.11 5.73 -0.5
-0.21 10.35 2.01
-0.13 6.39 -0.33
-0.2 10.32 2.38
-0.21 10.65 -0.19
-0.2 10.31 2.76
-0.09 5.54 -1.48
-0.09 5.52 -1.28
-0.16 9.78 0.51
-0.09 5.49 -1.07
-0.16 9.84 0.86
-0.09 5.56 -0.88
-0.17 10.45 1.28
-0.09 5.63 -0.69
-0.17 10.41 1.65
-0.09 5.75 -0.5
-0.17 10.37 2.02
-0.1 6.42 -0.34
-0.17 10.35 2.39
-0.16 9.72 -0.17
-0.17 10.36 2.78
-0.07 5.52 -1.48
-0.12 9.61 0.17
-0.07 5.52 -1.28
-0.13 9.76 0.51
-0.07 5.49 -1.07
-0.13 10.46 0.91
-0.07 5.55 -0.88
-0.13 10.47 1.29
-0.07 5.63 -0.69
-0.13 10.45 1.65
-0.07 5.74 -0.5
-0.13 10.42 2.03
-0.08 6.46 -0.34
-0.13 10.4 2.4
-0.12 9.68 -0.17
-0.05 5.52 -1.48
-0.09 9.59 0.17
-0.05 5.6 -1.29
-0.1 10.55 0.55
-0.05 5.49 -1.07
-0.1 10.47 0.92
-0.05 5.54 -0.88
-0.1 10.53 1.29
-0.05 5.63 -0.69
-0.13 13.59 2.15
-0.06 5.75 -0.5
-0.06 6.5 -0.34
-0.09 9.7 -0.17
-0.18 18.29 4.9
-0.03 5.53 -1.48
-0.06 9.62 0.17
-0.03 5.51 -1.27
-0.06 9.78 0.51
-0.03 5.5 -1.07
-0.06 10.44 0.91
-0.03 5.54 -0.88
-0.17 26.97 3.31
-0.03 5.62 -0.69
-0.08 13.7 2.17
-0.04 5.74 -0.5
-0.11 18.35 3.57
-0.04 6.54 -0.34
-0.07 10.77 -0.19
-0.12 19.04 5.1
-0.01 5.53 -1.48
-0.03 10.69 0.19
-0.03 10.42 0.55
-0.01 5.48 -1.07
-0.03 10.44 0.91
-0.01 5.54 -0.88
-0.07 26.84 3.3
-0.01 5.61 -0.69
-0.07 25.58 4.05
-0.02 5.78 -0.51
-0.05 18.54 3.6
-0.02 6.57 -0.34
-0.06 24.36 5.62
-0.05 18.05 -0.32
-0.05 18.79 5.03
0.01 5.52 -1.48
0.02 16.67 0.29
0.01 5.51 -1.27
0.02 18.21 0.95
0.01 5.46 -1.06
0.01 10.45 0.91
0.01 5.54 -0.88
0.03 26.92 3.31
0.01 5.62 -0.69
0.02 25.55 4.05
0.01 5.78 -0.51
0.02 18.49 3.59
0.01 6.66 -0.35
0.02 24.36 5.62
0.02 16.28 -0.28
0.02 17.55 4.7
0.02 5.5 -1.47
0.07 14.63 0.26
0.08 18.21 0.95
0.02 5.46 -1.06
0.05 10.38 0.91
0.03 5.54 -0.88
0.08 18.09 2.22
0.03 5.62 -0.69
0.12 25.58 4.05
0.08 18.37 3.57
0.03 6.77 -0.35
0.07 15.99 3.69
0.04 9.45 -0.16
0.09 18.75 5.02
0.04 5.5 -1.47
0.13 16.56 0.29
0.04 5.51 -1.27
0.08 10.06 0.53
0.04 5.47 -1.06
0.08 10.17 0.89
0.04 5.52 -0.88
0.15 18.18 2.23
0.05 5.62 -0.69
0.16 19.52 3.09
0.15 18.25 3.55
0.06 6.92 -0.36
0.13 16.06 3.71
0.13 16.27 -0.28
0.15 18.58 4.98
0.06 5.51 -1.48
0.11 9.73 0.17
0.06 5.5 -1.27
0.12 10.05 0.53
0.06 5.47 -1.06
0.19 16.65 1.46
0.06 5.53 -0.88
0.21 18.55 2.28
0.06 5.62 -0.69
0.3 25.94 4.11
0.3 26.12 5.08
0.23 19.7 -1.03
0.3 26.41 6.1
0.12 10.14 -0.18
0.21 18.57 4.98
0.08 5.49 -1.47
0.25 16.74 0.29
0.08 5.5 -1.27
0.26 17.47 0.92
0.08 5.45 -1.06
0.15 10.18 0.89
0.08 5.53 -0.88
0.28 18.52 2.27
0.08 5.6 -0.69
0.28 18.77 2.97
0.2 13.35 2.6
0.14 9.16 -0.48
0.35 23.09 5.33
0.15 9.63 -0.17
0.28 18.35 4.92
0.1 5.49 -1.47
0.1 5.52 -1.27
0.35 19.33 1.01
0.1 5.47 -1.06
0.18 10.01 0.88
0.1 5.53 -0.88
0.32 17.55 2.16
0.1 5.6 -0.69
0.34 18.76 2.97
0.34 18.75 3.65
0.19 10.12 -0.53
0.42 23.04 5.32
0.19 10.1 -0.18
0.34 18.51 4.96
0.12 5.48 -1.47
0.91 41.4 0.72
0.12 5.52 -1.27
0.22 10.21 0.54
0.12 5.47 -1.06
0.12 5.52 -0.87
0.93 42.29 5.19
0.12 5.61 -0.69
0.41 18.83 2.98
0.3 13.61 2.65
0.21 9.47 -0.5
0.42 19.17 4.43
0.22 9.96 -0.17
0.41 18.75 5.02
0.14 5.48 -1.47
1.04 41.4 0.72
0.14 5.56 -1.28
0.25 10.01 0.52
0.14 5.46 -1.06
1.04 41.46 3.63
0.14 5.51 -0.87
0.14 5.61 -0.69
0.54 21.34 4.15
0.24 9.61 -0.5
0.48 19.21 4.44
0.48 19.25 5.16
0.16 5.5 -1.48
0.16 5.61 -1.3
0.59 20.53 1.08
0.16 5.47 -1.06
0.53 18.39 1.61
0.16 5.52 -0.87
0.5 17.52 2.15
0.16 5.61 -0.69
1.2 41.66 6.6
0.38 13.35 2.6
0.28 9.83 -0.52
0.67 23.34 5.39
0.29 10.24 -0.18
0.41 14.18 3.8
0.18 5.55 -1.49
0.18 5.47 -1.26
0.32 10.07 0.53
0.18 5.46 -1.06
0.62 19.28 1.69
0.18 5.52 -0.87
1.3 40.49 4.97
0.18 5.6 -0.69
0.56 17.57 2.78
0.32 9.84 -0.52
0.75 23.32 5.39
0.59 18.23 -0.32
0.2 5.62 -1.51
0.2 5.46 -1.26
0.36 10.07 0.53
0.19 5.45 -1.06
0.55 15.29 1.34
0.2 5.52 -0.87
1.43 39.94 4.91
0.2 5.61 -0.69
0.48 13.34 2.59
0.42 11.85 -0.62
0.63 17.58 4.06
0.63 17.55 4.7
0.26 6.54 -1.75
0.47 11.98 0.21
0.21 5.46 -1.26
0.21 5.46 -1.06
1.63 41.67 3.65
0.22 5.51 -0.87
0.22 5.61 -0.69
0.54 13.77 2.18
0.46 11.83 -0.62
0.74 18.81 5.04
0.24 5.59 -1.5
0.51 11.92 0.21
0.23 5.47 -1.26
0.51 12.06 0.63
0.23 5.46 -1.06
0.7 16.39 1.44
0.23 5.5 -0.87
0.24 5.61 -0.69
0.59 13.75 2.18
0.57 13.36 2.6
0.5 11.81 -0.62
0.5 11.82 -0.21
0.77 18.1 4.85
0.25 5.52 -1.48
0.55 11.9 0.21
0.25 5.46 -1.26
0.55 11.98 0.63
0.25 5.48 -1.07
0.73 15.81 1.38
0.25 5.5 -0.87
0.26 5.61 -0.69
0.62 13.47 2.62
0.45 9.68 -0.51
0.88 19.02 4.4
0.54 11.82 -0.21
0.85 18.46 4.95
0.27 5.52 -1.48
0.59 11.89 0.21
0.27 5.45 -1.26
0.59 11.97 0.63
0.27 5.48 -1.07
0.61 12.18 1.07
0.27 5.51 -0.87
0.28 5.6 -0.69
0.67 13.48 2.62
0.48 9.69 -0.51
0.59 11.82 -0.21
0.97 19.52 5.24
0.29 5.51 -1.48
0.63 11.9 0.21
0.29 5.46 -1.26
0.64 11.97 0.63
0.29 5.47 -1.07
0.64 12.05 1.06
0.29 5.51 -0.87
2.09 39.43 4.85
0.3 5.61 -0.69
0.75 14.1 2.24
0.99 18.72 3.64
0.63 11.84 -0.21
0.97 18.28 4.91
0.31 5.51 -1.48
0.68 11.92 0.21
0.31 5.47 -1.26
0.68 11.96 0.63
0.31 5.47 -1.06
0.68 12 1.05
0.31 5.5 -0.87
0.32 5.6 -0.69
1.06 18.71 3.64
0.51 9.07 -0.48
1.01 17.74 4.1
0.67 11.87 -0.21
1.02 17.98 4.83
0.33 5.51 -1.48
0.72 11.95 0.21
0.33 5.46 -1.26
0.72 11.99 0.63
0.33 5.47 -1.07
0.72 11.99 1.05
0.33 5.5 -0.87
2.42 40.12 4.94
0.34 5.6 -0.69
0.79 13.06 2.54
0.55 9.06 -0.48
0.66 11 -0.19
1.06 17.59 4.72
0.35 5.53 -1.48
0.35 5.45 -1.26
0.77 12.01 0.63
0.35 5.47 -1.07
0.77 11.99 1.05
0.35 5.5 -0.87
0.36 5.61 -0.69
0.83 13.02 2.54
0.58 9.05 -0.48
0.82 12.78 2.96
0.69 10.85 -0.19
0.37 5.54 -1.49
0.84 12.57 0.22
0.37 5.46 -1.26
0.83 12.32 0.65
0.37 5.46 -1.06
0.81 12.01 1.05
0.37 5.5 -0.87
0.8 11.92 1.47
0.38 5.61 -0.69
0.87 12.94 2.52
0.61 9.04 -0.47
0.86 12.78 2.96
0.73 10.82 -0.19
0.39 5.53 -1.49
0.89 12.56 0.22
0.39 5.46 -1.26
0.89 12.6 0.66
0.39 5.45 -1.06
0.85 12.06 1.06
0.39 5.5 -0.87
0.84 11.89 1.46
0.4 5.6 -0.69
0.9 12.77 2.03
0.91 12.92 2.52
0.64 9.04 -0.47
1.36 19.21 4.45
0.76 10.72 -0.19
0.41 5.53 -1.49
0.93 12.55 0.22
0.41 5.46 -1.27
0.93 12.6 0.66
0.4 5.45 -1.06
0.92 12.38 1.09
0.41 5.49 -0.87
0.88 11.88 1.46
0.42 5.61 -0.69
0.94 12.74 2.02
0.47 6.35 -0.56
0.94 12.69 2.47
0.67 9.04 -0.48
0.94 12.67 2.93
0.79 10.68 -0.19
0.94 12.61 3.39
0.43 5.55 -1.49
0.98 12.56 0.22
0.42 5.47 -1.27
0.98 12.63 0.66
0.42 5.46 -1.06
0.99 12.68 1.11
0.43 5.47 -0.87
0.92 11.87 1.46
0.44 5.6 -0.69
0.99 12.75 2.02
0.5 6.42 -0.56
0.98 12.66 2.47
0.7 9.03 -0.47
0.98 12.65 2.93
0.83 10.64 -0.19
0.98 12.6 3.39
0.46 5.62 -1.51
0.44 5.45 -1.26
0.44 5.47 -1.07
1.04 12.78 1.12
0.44 5.48 -0.87
0.96 11.87 1.46
0.46 5.61 -0.69
0.96 11.83 1.88
0.52 6.45 -0.57
1.03 12.68 2.47
0.73 9.02 -0.47
1.03 12.66 2.93
0.87 10.66 -0.19
1.03 12.66 3.4
0.48 5.67 -1.53
0.46 5.45 -1.26
0.46 5.45 -1.06
0.46 5.47 -0.87
1.03 12.12 1.49
0.47 5.61 -0.69
1 11.78 1.87
0.55 6.51 -0.57
0.76 9.02 -0.47
1.09 12.84 2.98
0.9 10.67 -0.19
1.63 19.27 5.18
0.5 5.67 -1.52
0.48 5.46 -1.27
0.48 5.44 -1.06
0.48 5.48 -0.87
1.08 12.27 1.51
0.49 5.6 -0.69
1.04 11.76 1.87
0.58 6.59 -0.58
1.15 13 2.54
0.79 9.01 -0.47
1.13 12.82 2.97
0.95 10.72 -0.19
1.15 13.09 3.52
0.52 5.67 -1.53
0.5 5.46 -1.27
0.5 5.45 -1.06
0.5 5.48 -0.87
1.13 12.29 1.52
0.51 5.6 -0.69
1.08 11.76 1.87
0.61 6.68 -0.59
1.19 13.02 2.54
0.83 9.01 -0.47
1.01 11 -0.19
1.19 12.95 3.49
0.54 5.67 -1.53
0.52 5.46 -1.27
0.52 5.45 -1.06
2.94 30.89 2.72
0.52 5.46 -0.87
0.53 5.61 -0.69
1.12 11.76 1.87
0.63 6.59 -0.58
1.11 11.69 2.28
0.85 8.99 -0.47
1.25 13.2 3.06
1.23 12.99 3.5
0.54 5.46 -1.27
0.54 5.47 -1.07
3.04 30.88 2.72
0.54 5.47 -0.87
0.55 5.6 -0.69
1.16 11.8 1.88
0.65 6.62 -0.58
1.15 11.64 2.27
1.08 10.95 -0.58
1.99 20.14 4.67
1.44 14.57 -0.26
1.89 19.22 5.17
0.67 6.55 -1.76
0.56 5.46 -1.27
0.56 5.46 -1.07
0.56 5.48 -0.87
0.57 5.59 -0.69
1.26 12.35 1.97
0.68 6.62 -0.58
1.19 11.62 2.27
1.11 10.88 -0.57
1.48 14.45 -0.25
0.69 6.54 -1.76
0.58 5.47 -1.27
0.58 5.45 -1.07
3.23 30.54 2.69
0.58 5.48 -0.87
2.89 27.33 3.37
0.59 5.6 -0.69
0.7 6.63 -0.58
1.23 11.61 2.27
0.95 8.96 -0.47
2.13 20.12 4.67
1.51 14.28 -0.25
0.71 6.52 -1.76
0.6 5.47 -1.27
0.6 5.46 -1.07
3.42 31.31 2.76
0.6 5.47 -0.87
0.61 5.59 -0.69
3.16 28.92 4.61
0.72 6.62 -0.58
1.27 11.63 2.27
0.98 8.96 -0.47
1.22 11.15 2.59
1.55 14.14 -0.25
0.74 6.52 -1.76
10.78 95.53 1.68
0.62 5.47 -1.27
0.62 5.46 -1.07
3.5 31.04 2.73
0.62 5.46 -0.87
0.63 5.6 -0.69
0.75 6.65 -0.59
1.32 11.66 2.28
1.01 8.95 -0.47
1.31 11.61 2.7
1.59 14.07 -0.25
1.5 13.25 3.57
0.76 6.52 -1.76
11.02 94.84 1.67
0.63 5.46 -1.27
0.64 5.47 -1.07
3.59 30.87 2.72
0.64 5.46 -0.87
0.65 5.59 -0.69
0.78 6.67 -0.59
1.44 12.41 2.43
1.25 10.77 -0.57
1.35 11.59 2.69
1.62 13.91 -0.24
1.46 12.56 3.39
0.78 6.52 -1.76
0.66 5.47 -1.27
0.65 5.46 -1.07
3.69 30.83 2.72
0.66 5.48 -0.87
1.53 12.81 1.58
0.67 5.59 -0.69
0.8 6.71 -0.59
1.62 13.54 2.65
1.07 8.93 -0.47
1.39 11.57 2.69
1.5 12.51 3.38
0.8 6.5 -1.75
0.68 5.48 -1.27
0.67 5.45 -1.07
3.82 30.91 2.73
0.68 5.5 -0.88
3.27 26.45 3.27
0.69 5.6 -0.69
3.71 30.04 4.79
0.83 6.74 -0.59
1.39 11.29 2.21
1.69 13.65 -0.72
1.43 11.58 2.69
1.69 13.66 -0.24
1.54 12.51 3.38
0.83 6.5 -1.75
11.42 89.92 1.58
0.7 5.48 -1.28
0.69 5.46 -1.07
0.7 5.52 -0.88
3.47 27.3 3.38
0.71 5.6 -0.69
3.7 29.13 4.65
0.86 6.75 -0.6
1.44 11.35 2.22
1.71 13.48 -0.71
1.48 11.64 2.71
1.72 13.51 -0.24
1.4 11.02 2.98
0.85 6.49 -1.75
11.64 89.14 1.57
0.72 5.49 -1.28
0.71 5.46 -1.07
3.84 29.39 2.59
0.72 5.52 -0.88
0.73 5.6 -0.69
4.01 30.71 4.91
1.17 8.95 -0.79
1.47 11.29 2.21
1.17 8.93 -0.47
1.75 13.38 -0.24
1.51 11.53 3.12
0.87 6.49 -1.75
0.74 5.48 -1.28
0.73 5.46 -1.07
3.79 28.23 2.49
0.74 5.51 -0.88
0.75 5.62 -0.7
2.35 17.49 -1.54
1.85 13.77 2.7
1.77 13.21 -0.7
1.59 11.87 2.77
1.77 13.23 -0.23
1.54 11.51 3.11
0.89 6.48 -1.75
3.92 28.54 0.5
0.76 5.5 -1.28
4.25 30.92 1.64
0.75 5.47 -1.07
3.96 28.83 2.55
0.77 5.58 -0.89
3.98 28.93 3.59
0.78 5.65 -0.7
4.23 30.78 4.92
1.23 8.96 -0.79
1.53 11.12 2.18
1.8 13.1 -0.69
1.62 11.79 2.75
3.92 28.49 -0.5
1.58 11.5 3.11
0.91 6.48 -1.75
4.02 28.5 0.5
0.78 5.51 -1.28
4.04 28.61 1.51
0.77 5.46 -1.07
4.05 28.73 2.54
0.79 5.6 -0.9
4.08 28.92 3.59
0.8 5.69 -0.71
1.84 13.05 -1.15
2.04 14.44 2.84
1.26 8.91 -0.47
1.9 13.48 3.14
4.01 28.45 -0.5
1.62 11.51 3.11
0.94 6.47 -1.75
4.13 28.52 0.5
0.8 5.52 -1.29
4.14 28.62 1.52
0.79 5.47 -1.07
3.7 25.56 2.26
0.81 5.59 -0.9
4.13 28.59 3.55
0.83 5.76 -0.71
4.16 28.76 4.6
1.87 12.9 -1.14
2.01 13.87 2.72
1.86 12.87 -0.68
1.65 11.43 2.67
1.67 11.52 3.12
0.96 6.46 -1.75
3.79 25.56 0.45
0.82 5.53 -1.29
0.81 5.48 -1.08
4.29 28.92 2.56
0.84 5.64 -0.9
0.87 5.84 -0.73
4.09 27.61 4.42
1.32 8.92 -0.79
2.06 13.88 2.73
1.32 8.92 -0.47
1.76 11.84 2.76
1.71 11.54 3.13
0.98 6.46 -1.75
13.11 86.36 1.52
0.84 5.54 -1.29
0.84 5.5 -1.08
4.38 28.83 2.55
0.86 5.69 -0.91
4.31 28.42 3.53
0.9 5.93 -0.74
2.17 14.27 2.29
1.91 12.62 -1.12
1.82 11.96 2.35
1.35 8.89 -0.47
1.79 11.82 2.76
1.89 12.45 -0.22
1.75 11.52 3.12
1 6.47 -1.75
13.29 85.54 1.51
0.87 5.57 -1.3
0.86 5.52 -1.09
4.44 28.59 2.53
0.9 5.76 -0.92
4.4 28.32 3.52
0.94 6.03 -0.75
1.92 12.39 -1.1
2.17 13.99 2.75
1.93 12.41 -0.66
1.83 11.78 2.75
1.93 12.39 -0.22
1.87 12.06 3.27
1.03 6.46 -1.75
13.49 84.85 1.5
0.89 5.61 -1.31
0.88 5.54 -1.09
4.54 28.59 2.53
0.93 5.85 -0.94
4.49 28.28 3.52
0.98 6.17 -0.77
1.98 12.43 -1.1
2.21 13.9 2.74
1.97 12.41 -0.66
1.78 11.19 2.62
1.97 12.41 -0.22
2.22 13.95 3.78
1.05 6.45 -1.75
13.67 84.1 1.49
0.92 5.68 -1.33
0.91 5.58 -1.1
4.64 28.57 2.53
0.98 6.03 -0.97
4.82 29.67 3.69
1.64 10.08 -1.25
4.95 30.47 4.89
2.82 17.38 -1.54
2.26 13.9 2.74
2 12.31 -0.65
1.9 11.67 2.73
5.44 33.5 -0.59
1.07 6.44 -1.75
13.83 83.45 1.48
0.95 5.76 -1.35
0.94 5.65 -1.11
1.03 6.22 -1
4.83 29.17 3.63
1.48 8.91 -1.11
2.88 17.36 -1.54
2.01 12.15 2.39
2.02 12.18 -0.65
1.95 11.77 2.75
5.51 33.22 -0.59
1.09 6.44 -1.75
14.03 82.75 1.47
1.23 7.28 -1.7
9.87 58.25 3.1
0.97 5.71 -1.13
1.06 6.23 -1
5.01 29.58 3.68
1.5 8.86 -1.1
5.12 30.22 4.86
1.5 8.84 -0.78
2.06 12.18 2.4
1.49 8.81 -0.47
1.89 11.16 2.61
2.4 14.13 3.84
1.12 6.44 -1.75
10.1 58.27 1.03
1.26 7.27 -1.7
5.19 29.94 1.59
1.03 5.96 -1.18
1.08 6.25 -1
5.14 29.64 3.69
1.53 8.84 -1.1
5.22 30.11 4.84
1.53 8.84 -0.78
2.14 12.36 2.44
1.53 8.83 -0.47
1.14 6.43 -1.75
14.41 81.4 1.44
1.29 7.27 -1.71
1.09 6.17 -1.22
5.16 29.16 2.59
1.12 6.32 -1.02
1.57 8.86 -0.79
2.2 12.42 2.45
1.56 8.84 -0.47
2.11 11.93 2.8
1.16 6.42 -1.75
14.7 81.43 1.44
1.31 7.27 -1.71
14.5 80.35 4.28
1.51 8.35 -1.65
5.14 28.46 2.53
1.62 8.96 -1.44
5.34 29.58 3.69
1.84 10.19 -1.27
2.31 12.79 2.06
2.13 11.78 -1.05
2.12 11.76 -0.63
2.12 11.72 2.75
5.31 29.45 8.02
1.18 6.42 -1.75
15.02 81.51 1.45
1.34 7.26 -1.71
15.02 81.52 4.34
1.54 8.36 -1.65
5.23 28.41 2.53
1.66 9 -1.45
2.36 12.79 2.06
2.14 11.64 -1.04
2.29 12.44 2.46
2.15 11.64 -0.62
1.2 6.41 -1.75
15.29 81.6 1.45
1.36 7.26 -1.7
15.31 81.74 4.36
1.57 8.36 -1.65
1.68 8.98 -1.45
1.93 10.3 -1.29
2.4 12.81 2.06
1.66 8.85 -0.79
2.27 12.14 2.4
1.65 8.82 -0.47
5.43 28.97 6.81
2.15 11.46 3.12
1.23 6.41 -1.75
15.61 81.67 1.45
1.39 7.26 -1.71
15.62 81.71 4.36
1.6 8.35 -1.65
1.72 9.01 -1.45
5.59 29.27 3.66
1.98 10.34 -1.29
3.29 17.23 -1.53
2.36 12.35 2.44
5.96 31.16 -1.66
2.15 11.25 2.64
5.55 29.05 7.93
1.25 6.4 -1.75
15.91 81.76 1.45
1.41 7.26 -1.71
15.91 81.78 4.37
1.62 8.34 -1.65
1.76 9.06 -1.46
5.68 29.18 3.65
1.72 8.83 -1.1
3.35 17.19 -1.53
2.34 12.02 2.38
6.05 31.1 -1.66
1.27 6.39 -1.74
16.23 81.81 1.46
1.44 7.26 -1.71
16.24 81.87 4.37
1.65 8.33 -1.65
1.78 9 -1.45
5.79 29.16 3.65
2.07 10.43 -1.31
3.4 17.13 -1.53
2.48 12.48 2.47
1.75 8.81 -0.47
5.77 29.09 7.95
1.29 6.38 -1.74
16.53 81.91 1.46
1.46 7.25 -1.71
16.54 81.94 4.38
1.68 8.33 -1.65
1.83 9.06 -1.46
5.27 26.1 3.27
2.66 13.19 2.13
3.45 17.09 -1.53
2.54 12.57 2.49
6.26 31.03 -1.66
5.47 27.13 6.39
6.02 29.82 8.15
1.31 6.38 -1.74
16.86 81.98 1.46
1.49 7.25 -1.71
16.86 82 4.39
1.71 8.33 -1.65
1.88 9.12 -1.47
6.11 29.72 3.73
2.15 10.47 -1.31
2.72 13.21 2.14
1.81 8.82 -0.79
2.59 12.61 2.5
1.81 8.8 -0.47
5.96 28.97 7.93
1.33 6.38 -1.75
17.16 82.08 1.46
1.51 7.24 -1.71
17.17 82.1 4.4
1.74 8.33 -1.65
5.8 27.72 2.48
1.9 9.07 -1.47
6.36 30.42 3.82
2.19 10.47 -1.31
3.57 17.09 -1.53
2.65 12.68 2.52
2.3 10.99 -0.59
6.05 28.95 7.93
1.35 6.36 -1.74
17.49 82.15 1.47
1.54 7.24 -1.71
17.5 82.18 4.4
1.77 8.32 -1.65
5.93 27.83 2.49
1.94 9.1 -1.47
6.45 30.31 3.81
2.24 10.5 -1.32
3.63 17.07 -1.53
1.87 8.78 -0.47
1.37 6.35 -1.74
17.79 82.23 1.47
1.57 7.24 -1.71
17.81 82.32 4.41
1.8 8.31 -1.65
6 27.75 2.48
1.95 9 -1.46
2.28 10.53 -1.32
6.74 31.14 5.05
1.91 8.83 -0.79
1.91 8.84 -0.47
3.03 14 3.84
1.4 6.35 -1.74
18.13 82.3 1.47
1.59 7.24 -1.71
18.14 82.38 4.42
1.83 8.31 -1.65
6.35 28.85 2.58
1.95 8.87 -1.44
6.81 30.91 3.89
1.96 8.9 -1.12
1.96 8.89 -0.8
1.96 8.91 -0.48
6.16 27.99 6.62
1.42 6.34 -1.74
18.44 82.41 1.47
1.62 7.22 -1.71
15.82 70.74 3.8
1.86 8.31 -1.66
6.36 28.42 2.55
2.01 8.99 -1.46
2.76 12.32 -1.55
2.38 10.66 -0.96
6.4 28.6 5.7
2 8.93 -0.48
1.44 6.34 -1.74
16.15 70.97 1.27
1.64 7.22 -1.71
15.98 70.23 3.77
1.89 8.31 -1.66
6.44 28.32 2.54
2.04 8.95 -1.45
6.99 30.73 3.87
2.04 8.99 -1.13
2.05 9.02 -0.81
2.05 8.99 -0.48
6.77 29.76 7.05
1.46 6.33 -1.74
16.28 70.45 1.26
1.67 7.22 -1.71
16.12 69.79 3.75
1.92 8.29 -1.65
18.91 81.82 7.35
2.07 8.95 -1.46
2.84 12.28 -1.55
3.93 17 -1.53
6.69 28.96 5.78
2.09 9.05 -0.49
3.31 14.33 3.94
1.48 6.32 -1.74
16.43 69.96 1.25
1.7 7.22 -1.71
1.95 8.29 -1.66
19.64 83.58 7.51
2.11 9 -1.46
2.88 12.28 -1.55
6.69 28.46 4.63
2.14 9.11 -0.82
6.78 28.88 5.77
2.14 9.12 -0.49
1.51 6.32 -1.74
13.13 55.06 0.99
1.72 7.21 -1.71
1.98 8.29 -1.66
19.94 83.64 7.52
2.14 8.96 -1.46
2.94 12.32 -1.56
6.78 28.43 4.63
2.19 9.17 -0.83
6.88 28.85 5.76
2.19 9.19 -0.5
1.53 6.31 -1.74
1.75 7.2 -1.71
2.01 8.29 -1.66
20.29 83.72 7.54
2.18 8.98 -1.46
2.24 9.25 -1.17
6.86 28.33 4.62
2.23 9.21 -0.83
6.99 28.83 5.77
2.23 9.2 -0.5
1.55 6.31 -1.74
13.46 54.8 0.99
1.77 7.2 -1.71
16.66 67.83 3.66
2.03 8.28 -1.66
20.59 83.82 7.55
2.21 9.01 -1.47
2.29 9.32 -1.18
6.92 28.16 4.59
2.44 9.93 -0.89
2.3 9.35 -0.5
2.46 10.02 -0.18
3.49 14.22 3.92
1.57 6.3 -1.74
1.8 7.2 -1.71
16.92 67.81 3.66
2.06 8.27 -1.66
2.25 9.01 -1.47
2.46 9.85 -1.25
6.93 27.78 4.54
2.48 9.93 -0.9
2.47 9.89 -0.53
2.49 9.97 -0.18
1.59 6.29 -1.74
17.23 68.11 1.23
1.82 7.2 -1.71
17.18 67.9 3.67
2.09 8.27 -1.66
2.27 8.98 -1.47
2.51 9.93 -1.26
2.46 9.71 -0.88
2.5 9.9 -0.54
2.54 10.05 -0.18
1.61 6.29 -1.74
17.53 68.25 1.23
1.85 7.2 -1.72
17.47 68 3.68
2.12 8.26 -1.66
18.27 71.12 6.42
2.3 8.94 -1.46
3.16 12.29 -1.56
4.56 17.76 2.9
2.48 9.67 -0.87
2.45 9.55 -0.52
1.64 6.28 -1.74
1.87 7.18 -1.71
2.33 8.95 0.48
2.15 8.26 -1.66
2.32 8.9 -1.46
2.41 9.23 1.17
2.5 9.58 -1.22
2.34 8.99 1.47
4.38 16.8 -1.52
2.49 9.56 -0.52
1.66 6.28 -1.74
1.9 7.17 -1.71
2.37 8.96 0.49
2.18 8.26 -1.66
2.38 8.99 0.81
2.36 8.91 -1.46
2.37 8.97 1.14
2.54 9.6 -1.22
2.38 8.99 1.47
2.56 9.67 -0.88
2.55 9.64 -0.52
1.68 6.27 -1.74
2.41 8.98 0.16
1.92 7.17 -1.71
2.4 8.95 0.49
2.21 8.24 -1.66
2.41 8.98 0.81
2.39 8.91 -1.46
2.41 8.99 1.14
2.41 9 -1.14
2.4 8.97 1.47
2.41 8.98 -0.81
2.41 8.99 -0.49
2.4 8.95 -0.16
1.7 6.25 -1.74
2.44 8.98 0.16
1.95 7.17 -1.72
2.43 8.94 0.49
2.24 8.24 -1.66
2.44 8.97 0.81
2.42 8.9 -1.46
2.43 8.95 1.14
2.45 9 -1.15
2.44 8.96 -0.81
2.44 8.98 -0.49
2.44 8.97 -0.16
1.72 6.25 -1.74
1.97 7.16 -1.72
2.46 8.92 0.48
2.27 8.24 -1.66
2.44 8.87 0.81
2.45 8.91 -1.46
2.44 8.86 1.13
3.37 12.25 -1.56
4.69 17.03 2.8
4.59 16.65 -1.51
1.74 6.24 -1.74
2 7.15 -1.71
2.3 8.24 -1.66
2.49 8.93 -1.47
2.44 8.75 1.12
3.41 12.21 -1.56
4.43 15.87 2.61
4.64 16.63 -1.51
9.18 32.86 -1.79
1.76 6.23 -1.74
2.02 7.15 -1.71
18.42 65.11 3.55
2.33 8.22 -1.66
2.53 8.93 -1.47
2.47 8.74 1.11
3.45 12.21 -1.56
4.48 15.83 2.6
4.7 16.6 -1.51
18.21 64.34 -1.17
1.79 6.23 -1.74
2.05 7.14 -1.72
13.25 46.18 2.52
2.36 8.21 -1.66
13.33 46.48 4.23
2.59 9.05 -1.49
3.5 12.2 -1.56
4.95 17.25 2.84
4.75 16.58 -1.51
18.54 64.64 -1.17
1.81 6.21 -1.73
18.24 62.77 1.14
2.08 7.16 -1.72
2.39 8.21 -1.66
2.62 9.02 -1.49
3.55 12.2 -1.56
4.54 15.63 2.58
4.8 16.53 -1.51
9.52 32.76 -1.79
18.68 64.31 -1.17
1.83 6.21 -1.73
18.35 62.33 1.13
2.1 7.13 -1.72
2.42 8.21 -1.66
2.67 9.06 -1.5
3.59 12.19 -1.56
4.57 15.54 2.57
4.86 16.51 -1.51
5.98 20.32 -1.11
18.8 63.87 -1.16
1.85 6.21 -1.74
36.85 123.62 2.25
2.12 7.12 -1.72
18.45 61.9 3.39
2.45 8.2 -1.66
2.73 9.15 -1.51
3.64 12.2 -1.56
4.64 15.56 2.57
4.92 16.49 -1.51
4.79 16.07 3.26
6.05 20.28 -1.11
18.91 63.43 -1.16
1.87 6.2 -1.74
18.56 61.46 1.12
2.15 7.12 -1.72
2.48 8.2 -1.66
13.72 45.44 4.15
2.76 9.14 -1.51
3.68 12.17 -1.56
5.56 18.41 3.05
4.97 16.46 -1.5
6.12 20.26 -1.11
19.05 63.09 -1.15
1.89 6.19 -1.73
13.93 45.55 0.83
2.18 7.12 -1.72
13.91 45.51 2.49
2.5 8.19 -1.66
2.79 9.13 -1.51
3.7 12.11 -1.56
5.62 18.39 3.05
5.02 16.41 -1.5
6.19 20.26 -1.11
1.91 6.17 -1.73
14.09 45.51 0.83
2.2 7.12 -1.72
2.54 8.19 -1.67
2.83 9.13 -1.51
3.76 12.16 -1.56
5.06 16.33 -1.5
10 32.31 -1.77
14.09 45.49 -0.83
1.93 6.17 -1.73
18.88 60.25 1.1
2.23 7.12 -1.72
2.57 8.18 -1.67
2.85 9.1 -1.51
3.82 12.2 -1.57
4.82 15.38 2.55
5.1 16.26 -1.49
6.3 20.12 -1.1
1.96 6.16 -1.73
19 59.88 1.1
2.25 7.1 -1.72
19 59.87 3.29
2.6 8.19 -1.67
20.14 63.47 5.83
2.89 9.12 -1.52
14.55 45.84 5.91
3.87 12.2 -1.57
4.89 15.41 2.56
5.11 16.11 -1.48
6.33 19.96 -1.1
1.98 6.16 -1.73
19.23 59.91 1.1
2.28 7.1 -1.72
2.63 8.18 -1.67
2.92 9.11 -1.51
14.6 45.46 5.86
3.91 12.16 -1.57
5.45 16.96 2.82
5.13 15.97 -1.47
6.4 19.95 -1.1
2 6.15 -1.73
19.5 59.99 1.1
2.31 7.1 -1.72
14.39 44.27 2.44
2.65 8.16 -1.67
3.95 12.16 -1.57
5.52 16.98 2.83
5.17 15.91 -1.46
6.47 19.9 -1.1
5.13 15.8 4.45
2.02 6.14 -1.73
2.33 7.1 -1.72
19.72 60 3.31
2.68 8.15 -1.67
20.54 62.5 5.76
2.89 8.79 -1.46
3.99 12.14 -1.57
5.54 16.86 2.81
5.22 15.88 -1.46
6.53 19.88 -1.1
5.19 15.79 4.45
2.04 6.13 -1.73
2.36 7.09 -1.73
2.71 8.15 -1.67
3.23 9.7 -1.62
4.03 12.12 -1.57
5.6 16.84 2.81
5.27 15.84 -1.46
6.6 19.83 -1.1
2.06 6.13 -1.73
2.38 7.08 -1.72
15.01 44.59 2.47
2.74 8.15 -1.67
3.26 9.7 -1.62
4.08 12.11 -1.57
5.32 15.8 -1.46
2.09 6.12 -1.73
2.41 7.08 -1.73
20.01 58.77 3.25
2.78 8.15 -1.67
3.3 9.7 -1.62
4.11 12.08 -1.57
5.36 15.75 -1.46
5.24 15.38 3.16
2.1 6.11 -1.73
2.44 7.08 -1.73
20.15 58.56 3.25
2.8 8.13 -1.67
3.34 9.69 -1.62
15.34 44.59 5.79
4.15 12.07 -1.57
5.4 15.69 -1.45
9.97 28.96 -1.6
5.42 15.74 4.46
2.12 6.1 -1.73
2.46 7.08 -1.73
2.83 8.13 -1.67
3.37 9.69 -1.62
6.02 17.29 2.25
4.19 12.05 -1.57
5.42 15.59 -1.44
10.03 28.82 -1.6
2.14 6.09 -1.73
2.49 7.07 -1.73
20.44 58.07 3.23
2.86 8.13 -1.68
20.56 58.41 5.42
3.41 9.67 -1.62
4.24 12.04 -1.57
5.47 15.55 -1.44
10.1 28.7 -1.59
2.17 6.09 -1.73
20.45 57.45 1.06
2.51 7.06 -1.73
20.47 57.52 3.2
2.9 8.14 -1.68
20.68 58.12 5.4
3.44 9.67 -1.63
4.28 12.03 -1.57
5.53 15.53 -1.44
10.2 28.66 -1.59
10.24 28.77 -0.53
5.58 15.69 4.46
2.19 6.08 -1.73
2.54 7.05 -1.73
2.92 8.12 -1.68
19.76 54.92 5.11
3.48 9.67 -1.63
4.32 12.02 -1.57
5.57 15.47 -1.44
11.41 31.71 -1.77
2.21 6.07 -1.73
20.61 56.65 1.05
2.56 7.05 -1.73
2.95 8.11 -1.68
19.84 54.53 5.08
3.52 9.67 -1.63
4.37 12.02 -1.57
5.51 15.16 -1.41
11.51 31.64 -1.76
2.22 6.05 -1.73
2.59 7.05 -1.73
20.69 56.26 3.14
2.98 8.11 -1.68
19.93 54.21 5.05
3.55 9.65 -1.63
4.42 12.02 -1.57
5.56 15.11 -1.41
5.57 15.15 3.14
11.62 31.59 -1.76
2.25 6.04 -1.73
20.31 54.65 1.02
2.62 7.04 -1.73
3.01 8.11 -1.68
20.03 53.89 5.03
3.58 9.64 -1.63
4.47 12.01 -1.57
5.57 14.98 -1.4
5.6 15.05 3.12
11.7 31.48 -1.76
2.27 6.03 -1.73
20.39 54.28 1.01
2.64 7.02 -1.73
3.04 8.1 -1.68
20.12 53.56 5.01
3.62 9.63 -1.63
6.16 16.39 2.15
4.5 11.99 -1.57
5.59 14.87 -1.39
5.89 15.68 3.26
11.79 31.38 -1.76
2.29 6.04 -1.73
20.47 53.93 1.01
2.66 7.02 -1.73
20.41 53.76 3.01
3.07 8.09 -1.68
20.21 53.23 4.98
3.65 9.62 -1.63
6.21 16.35 2.15
4.54 11.97 -1.57
6.06 15.97 2.71
5.65 14.87 -1.39
11.9 31.34 -1.76
5.94 15.65 4.49
2.31 6.02 -1.73
20.56 53.6 1
2.69 7.01 -1.73
3.1 8.07 -1.68
20.29 52.88 4.96
3.69 9.62 -1.63
4.59 11.96 -1.57
6.19 16.14 2.74
5.7 14.87 -1.39
5.98 15.58 3.24
12.01 31.3 -1.76
5.99 15.62 4.48
2.32 6 -1.72
20.65 53.27 1
2.72 7.01 -1.74
3.12 8.06 -1.68
20.37 52.55 4.93
3.73 9.61 -1.63
4.64 11.96 -1.58
6.23 16.07 2.73
5.75 14.82 -1.39
5.91 15.24 3.18
12.09 31.19 -1.75
6.05 15.6 4.48
2.35 5.99 -1.72
20.73 52.93 0.99
2.74 7 -1.74
20.67 52.77 2.97
3.16 8.06 -1.68
20.44 52.19 4.9
3.76 9.6 -1.63
6.36 16.22 2.14
4.68 11.96 -1.58
6.2 15.83 2.69
5.79 14.78 -1.39
11.48 29.31 -1.65
6.11 15.61 4.49
2.37 5.99 -1.72
20.82 52.62 0.99
2.76 6.98 -1.73
3.19 8.05 -1.68
20.54 51.9 4.88
3.79 9.59 -1.63
6.4 16.17 2.14
4.73 11.95 -1.58
6.26 15.81 2.69
5.83 14.73 -1.39
6.42 16.23 3.39
11.53 29.13 -1.64
2.39 5.98 -1.73
20.9 52.27 0.98
2.79 6.97 -1.73
3.21 8.03 -1.68
20.62 51.59 4.86
3.84 9.59 -1.64
6.44 16.11 2.13
4.77 11.93 -1.58
5.91 14.79 -1.39
5.42 13.55 2.84
6.92 17.32 -0.98
2.41 5.97 -1.72
20.99 51.99 0.98
2.82 6.97 -1.74
20.93 51.82 2.93
3.24 8.02 -1.68
20.78 51.45 4.85
3.87 9.59 -1.64
6.49 16.07 2.13
4.82 11.92 -1.58
6.41 15.87 2.71
5.96 14.75 -1.39
5.47 13.55 2.84
6.96 17.25 -0.97
7.25 17.96 4.47
6.26 15.51 4.48
2.43 5.95 -1.72
21.1 51.75 0.98
2.84 6.96 -1.74
21.08 51.71 2.93
3.26 8.01 -1.68
20.98 51.47 4.86
3.9 9.57 -1.64
6.53 16.01 2.12
4.86 11.92 -1.58
6.99 17.14 2.93
5.95 14.59 -1.38
5.5 13.5 2.83
12.46 30.56 -1.73
7.29 17.88 4.46
2.45 5.95 -1.72
21.32 51.79 0.98
2.86 6.96 -1.74
3.3 8 -1.68
3.93 9.55 -1.64
6.9 16.75 2.22
4.91 11.92 -1.58
5.98 14.53 -1.38
6.51 15.81 3.32
7.1 17.25 -0.98
6.37 15.47 4.48
2.47 5.94 -1.72
21.57 51.85 0.98
2.89 6.94 -1.74
21.64 52 2.95
3.33 8 -1.68
3.97 9.54 -1.64
4.95 11.9 -1.58
6.12 14.71 -1.39
8.45 20.3 -1.15
6.44 15.48 4.49
2.49 5.93 -1.72
21.8 51.88 0.98
2.91 6.93 -1.74
21.78 51.83 2.95
3.35 7.98 -1.68
4.01 9.53 -1.64
6.99 16.64 2.22
4.99 11.89 -1.58
6.17 14.68 -1.39
6.75 16.05 3.38
6.53 15.55 4.52
2.51 5.92 -1.72
21.88 51.6 0.98
2.94 6.94 -1.74
21.85 51.53 2.93
3.38 7.97 -1.68
4.04 9.53 -1.64
5.04 11.88 -1.58
7.47 17.61 3.03
6.18 14.58 -1.39
6.72 15.85 3.35
6.62 15.61 4.54
2.53 5.9 -1.72
21.97 51.3 0.97
2.97 6.94 -1.74
21.93 51.22 2.92
3.41 7.96 -1.68
4.08 9.52 -1.64
5.08 11.87 -1.59
7.25 16.94 2.92
6.25 14.59 -1.39
6.76 15.79 3.34
6.65 15.54 -0.89
6.64 15.51 -0.29
2.55 5.9 -1.72
6.7 15.5 0.29
2.99 6.93 -1.74
22.02 50.93 2.91
3.44 7.96 -1.69
4.11 9.5 -1.64
5.13 11.87 -1.59
6.3 14.58 -1.39
7.02 16.23 3.44
6.69 15.49 -0.88
6.69 15.47 -0.29
2.57 5.89 -1.72
6.75 15.46 0.29
3.02 6.91 -1.74
6.78 15.53 0.89
3.47 7.95 -1.69
6.79 15.57 1.49
4.14 9.49 -1.64
6.82 15.63 2.09
5.17 11.85 -1.59
6.39 14.64 -1.4
6.74 15.45 -0.88
6.74 15.44 -0.29
6.74 15.45 4.52
2.59 5.88 -1.72
6.81 15.46 0.29
3.04 6.91 -1.74
6.82 15.48 0.89
3.5 7.95 -1.69
6.84 15.52 1.48
4.18 9.49 -1.64
6.85 15.54 2.08
5.21 11.83 -1.59
6.88 15.61 2.7
6.47 14.69 -1.4
6.4 14.52 3.08
6.81 15.46 -0.89
6.87 15.6 3.94
6.81 15.46 -0.29
6.8 15.44 4.52
2.61 5.87 -1.72
3.07 6.91 -1.75
6.87 15.45 0.89
3.53 7.94 -1.69
6.9 15.51 1.48
4.22 9.48 -1.64
6.9 15.52 2.09
5.26 11.82 -1.59
6.92 15.55 2.7
6.55 14.72 -1.41
6.08 13.67 2.91
8.64 19.43 -1.11
7 15.73 3.97
2.63 5.86 -1.72
22.46 50.02 0.96
3.09 6.89 -1.74
3.56 7.93 -1.69
4.25 9.46 -1.64
6.96 15.51 2.09
5.3 11.81 -1.59
6.98 15.55 2.7
6.54 14.56 -1.4
6.1 13.58 2.89
8.69 19.35 -1.11
7.01 15.61 3.95
7.02 15.63 4.59
2.65 5.85 -1.72
22.69 50.08 0.96
3.12 6.88 -1.74
22.7 50.09 2.88
3.59 7.92 -1.69
22.16 48.91 4.7
4.28 9.45 -1.64
5.35 11.8 -1.59
8.16 18.01 3.13
6.64 14.64 -1.41
6.76 14.91 3.18
8.7 19.2 -1.1
7.06 15.58 3.95
7.06 15.58 4.58
2.68 5.85 -1.72
22.94 50.15 0.96
3.14 6.86 -1.74
22.94 50.15 2.89
3.63 7.93 -1.69
22.53 49.26 4.74
4.32 9.44 -1.64
5.39 11.79 -1.59
8.24 18.02 3.14
6.84 14.96 -1.44
6.27 13.71 2.93
8.71 19.05 -1.1
8.77 19.18 -0.37
7.23 15.81 4.66
2.7 5.84 -1.72
23.18 50.21 0.97
3.16 6.85 -1.74
23.18 50.21 2.9
3.65 7.91 -1.69
23.22 50.3 4.85
4.35 9.43 -1.65
5.43 11.77 -1.59
8.15 17.66 3.08
6.86 14.87 -1.43
6.4 13.85 2.97
8.76 18.97 -1.09
7.14 15.47 3.93
2.72 5.83 -1.72
23.42 50.27 0.97
3.19 6.85 -1.74
23.42 50.27 2.91
3.68 7.9 -1.69
23.46 50.37 4.86
4.39 9.43 -1.65
5.47 11.75 -1.59
8.21 17.63 3.08
6.95 14.92 -1.44
6.44 13.82 2.96
8.78 18.86 -1.09
7.06 15.16 3.86
2.73 5.81 -1.72
23.66 50.32 0.97
3.22 6.85 -1.75
23.66 50.34 2.92
3.71 7.89 -1.7
23.69 50.4 4.87
4.43 9.41 -1.65
7.89 16.78 2.28
5.53 11.76 -1.6
8.22 17.49 3.06
6.99 14.88 -1.44
6.52 13.88 2.98
8.81 18.73 -1.08
7.12 15.15 3.87
2.75 5.8 -1.72
23.9 50.39 0.97
3.24 6.84 -1.75
23.92 50.43 2.93
3.74 7.89 -1.7
23.97 50.52 4.89
4.46 9.39 -1.65
8 16.86 2.29
5.57 11.73 -1.59
8.45 17.81 3.12
7.07 14.9 -1.44
6.55 13.8 2.97
8.83 18.62 -1.08
7.18 15.13 3.87
2.77 5.8 -1.72
24.23 50.61 0.98
3.27 6.82 -1.75
24.23 50.62 2.94
3.78 7.89 -1.7
24.19 50.52 4.9
4.49 9.38 -1.65
5.61 11.72 -1.6
8.56 17.89 3.14
7.16 14.96 -1.45
6.6 13.79 2.97
8.86 18.5 -1.07
7.25 15.14 3.88
8.58 17.93 5.33
2.8 5.79 -1.72
21.99 45.53 0.88
3.3 6.83 -1.75
24.47 50.67 2.95
3.81 7.88 -1.7
24.45 50.63 4.92
4.53 9.37 -1.65
5.65 11.71 -1.6
6.84 14.16 2.49
7.22 14.95 -1.45
7.12 14.74 3.18
8.89 18.41 -1.07
7.36 15.24 3.91
2.82 5.78 -1.72
22.14 45.44 0.88
3.33 6.83 -1.75
24.71 50.72 2.96
3.84 7.87 -1.7
24.69 50.68 4.93
4.56 9.37 -1.65
5.7 11.7 -1.6
7.82 16.05 2.83
7.28 14.93 -1.45
6.76 13.88 3
8.92 18.31 -1.07
8.75 17.96 5.35
2.83 5.76 -1.72
22.28 45.31 0.88
3.36 6.83 -1.76
24.95 50.74 2.96
3.87 7.87 -1.7
24.93 50.71 4.94
4.6 9.35 -1.65
5.74 11.68 -1.6
6.93 14.1 2.49
7.31 14.88 -1.45
7.14 14.52 3.14
8.95 18.2 -1.06
7.4 15.05 3.87
7.12 14.49 4.33
2.85 5.75 -1.72
22.35 45.06 0.88
3.38 6.82 -1.76
25.15 50.7 2.97
3.9 7.86 -1.71
25.19 50.78 4.96
4.63 9.34 -1.65
5.79 11.67 -1.6
7 14.1 2.49
7.36 14.85 -1.45
7.21 14.53 3.15
8.99 18.13 -1.06
8.1 16.34 4.21
7.17 14.45 4.32
2.87 5.75 -1.72
3.4 6.8 -1.76
25.38 50.78 2.98
3.93 7.87 -1.71
25.42 50.85 4.97
4.66 9.32 -1.65
5.82 11.64 -1.6
7.08 14.16 2.51
7.46 14.93 -1.46
8.99 17.98 -1.05
8.15 16.3 4.21
8.33 16.66 4.99
2.89 5.74 -1.72
22.46 44.55 0.87
3.43 6.8 -1.76
25.64 50.85 2.98
3.96 7.86 -1.71
25.68 50.93 4.99
4.7 9.31 -1.65
25.07 49.72 6.84
5.87 11.63 -1.6
7.1 14.09 2.5
7.5 14.88 -1.46
9.04 17.92 -1.05
8.36 16.58 4.29
8.38 16.61 4.98
2.91 5.72 -1.72
22.54 44.28 0.87
3.45 6.79 -1.76
25.92 50.92 2.99
3.99 7.84 -1.71
25.95 50.98 5.01
4.74 9.31 -1.65
25.99 51.05 7.03
5.9 11.6 -1.6
8.8 17.29 3.07
7.52 14.78 -1.45
9.06 17.79 -1.05
7.91 15.54 4.03
8.44 16.59 4.99
2.93 5.7 -1.72
22.61 44.03 0.86
3.48 6.78 -1.76
26.18 50.98 3
4.02 7.83 -1.71
26.21 51.04 5.02
4.77 9.29 -1.65
26.23 51.08 7.05
5.95 11.59 -1.6
7.37 14.36 2.56
7.55 14.71 -1.45
9.08 17.68 -1.04
8.47 16.49 4.28
8.51 16.57 4.99
2.95 5.7 -1.72
22.65 43.78 0.86
3.49 6.75 -1.76
26.42 51.05 3.01
4.05 7.83 -1.71
26.39 50.99 5.02
4.8 9.27 -1.65
26.47 51.15 7.07
5.99 11.57 -1.6
6.89 13.31 2.37
7.6 14.7 -1.45
9.09 17.57 -1.04
2.97 5.68 -1.72
22.71 43.52 0.86
3.52 6.74 -1.75
26.59 50.94 3.01
4.09 7.84 -1.72
26.47 50.71 5
4.83 9.26 -1.65
26.73 51.21 7.09
6.01 11.53 -1.6
8.64 16.56 2.96
7.67 14.7 -1.45
9.12 17.47 -1.03
8.65 16.57 4.32
2.99 5.68 -1.72
22.81 43.33 0.85
3.54 6.72 -1.75
27.96 53.1 3.15
4.12 7.82 -1.72
26.54 50.41 4.98
4.87 9.24 -1.65
27 51.27 7.11
6.05 11.5 -1.6
7.03 13.35 2.39
7.74 14.71 -1.45
8.85 16.81 3.69
9.01 17.12 4.47
3.01 5.66 -1.72
3.56 6.71 -1.75
4.15 7.81 -1.72
26.62 50.13 4.97
4.91 9.24 -1.66
27.27 51.34 7.14
6.06 11.42 -1.59
8.71 16.41 2.94
7.82 14.72 -1.46
8.89 16.75 3.69
9.32 17.56 -1.04
7.78 14.65 3.83
3.02 5.64 -1.71
22.85 42.67 0.84
3.59 6.7 -1.76
27.57 51.49 3.06
4.18 7.8 -1.72
26.7 49.85 4.95
4.94 9.22 -1.66
27.53 51.41 7.16
6.07 11.33 -1.58
7.46 13.93 2.5
8.15 15.22 -1.51
8.92 16.66 3.67
9.38 17.52 -1.04
7.8 14.57 3.82
3.04 5.63 -1.72
7.78 14.41 0.29
3.62 6.7 -1.76
7.78 14.41 0.86
4.21 7.79 -1.72
26.94 49.88 4.96
4.97 9.21 -1.66
27.79 51.47 7.18
6.09 11.28 -1.57
7.39 13.69 2.46
8.18 15.15 -1.51
6.79 12.58 3.3
3.06 5.62 -1.72
7.84 14.41 0.29
3.63 6.68 -1.76
7.83 14.38 0.86
4.24 7.79 -1.72
27.2 49.96 4.98
5.01 9.21 -1.66
28.05 51.54 7.2
6.11 11.22 -1.57
8.24 15.14 -1.51
7.27 13.35 2.95
7.83 14.38 3.78
3.08 5.61 -1.72
7.91 14.4 0.29
3.65 6.65 -1.75
7.89 14.38 0.86
4.27 7.78 -1.72
27.47 50.03 4.99
5.05 9.2 -1.66
28.32 51.59 7.23
6.12 11.15 -1.56
7.08 12.9 2.33
8.41 15.31 -1.53
7.32 13.33 2.96
7.86 14.32 3.77
3.1 5.6 -1.72
7.98 14.41 0.29
3.68 6.64 -1.75
7.96 14.38 0.86
4.3 7.77 -1.73
7.97 14.4 1.44
5.09 9.2 -1.67
28.61 51.68 7.25
6.17 11.14 -1.56
8.38 15.14 2.74
7.23 13.05 -1.31
7.35 13.28 2.95
7.9 14.28 3.77
7.83 14.14 4.33
3.12 5.58 -1.71
8.02 14.36 0.29
3.71 6.64 -1.76
8.02 14.36 0.86
4.33 7.76 -1.73
7.99 14.32 1.43
5.12 9.18 -1.66
28.89 51.75 7.28
6.23 11.15 -1.57
8.43 15.1 2.74
7.29 13.06 -1.31
7.38 13.22 2.94
7.95 14.24 3.77
7.85 14.06 4.31
3.14 5.57 -1.71
8.06 14.32 0.29
3.73 6.62 -1.76
8.08 14.36 0.86
4.36 7.75 -1.73
8.07 14.34 1.44
5.15 9.16 -1.66
29.17 51.83 7.3
6.27 11.14 -1.57
7.02 12.47 2.27
7.29 12.95 -1.3
7.67 13.63 3.04
8.08 14.36 -0.86
8.07 14.34 -0.29
7.9 14.03 4.31
3.16 5.57 -1.71
8.16 14.38 0.29
3.75 6.6 -1.75
8.17 14.4 0.87
4.4 7.75 -1.73
28.55 50.3 5.06
5.19 9.15 -1.67
29.44 51.88 7.32
6.29 11.08 -1.56
7.76 13.67 2.49
7.35 12.96 -1.3
8.04 14.17 3.17
8.13 14.33 -0.86
7 12.33 3.27
7.69 13.56 4.18
3.18 5.56 -1.72
8.24 14.41 0.29
3.77 6.6 -1.75
8.25 14.42 0.87
4.42 7.74 -1.73
28.8 50.35 5.07
5.23 9.14 -1.67
29.72 51.96 7.35
6.32 11.04 -1.56
8.94 15.63 2.85
7.4 12.93 -1.3
9.11 15.92 3.56
8.06 14.1 3.75
7.73 13.51 4.17
3.2 5.54 -1.71
8.31 14.4 0.29
3.79 6.58 -1.75
8.32 14.42 0.87
4.45 7.72 -1.73
29.09 50.44 5.09
5.27 9.13 -1.67
30.02 52.05 7.38
6.34 10.99 -1.56
8.98 15.56 2.85
8.67 15.02 -1.52
8.49 14.72 3.92
8.51 14.76 4.56
3.21 5.52 -1.71
3.82 6.57 -1.75
30.21 51.96 3.15
4.48 7.71 -1.73
29.36 50.51 5.11
5.3 9.12 -1.67
30.31 52.14 7.41
6.34 10.9 -1.55
8.29 14.26 2.61
8.69 14.95 -1.51
9.68 16.64 -1.01
7.2 12.38 3.31
7.77 13.37 4.14
3.23 5.52 -1.71
24.9 42.48 0.86
3.84 6.55 -1.75
30.52 52.08 3.16
4.52 7.71 -1.74
29.64 50.57 5.13
5.33 9.1 -1.67
30.5 52.04 7.41
6.35 10.84 -1.54
9.08 15.49 2.84
8.79 15 -1.52
9.33 15.91 3.59
7.25 12.38 3.31
7.98 13.62 4.23
3.25 5.51 -1.71
25.1 42.51 0.86
3.86 6.53 -1.75
30.82 52.2 3.18
4.55 7.7 -1.74
29.92 50.67 5.15
5.37 9.09 -1.67
6.43 10.89 -1.55
9.33 15.81 2.91
8.74 14.8 -1.5
9.32 15.78 3.56
7.37 12.48 3.35
3.27 5.5 -1.71
25.32 42.53 0.86
3.88 6.52 -1.75
31.1 52.24 3.19
4.58 7.69 -1.74
30.21 50.74 5.17
5.41 9.09 -1.67
6.48 10.88 -1.56
9.3 15.62 2.88
7.69 12.91 -1.31
9.87 16.57 -1.01
8.61 14.46 3.88
8.13 13.66 4.26
3.29 5.48 -1.71
25.53 42.54 0.87
3.9 6.5 -1.75
31.4 52.32 3.2
4.6 7.67 -1.74
31.47 52.44 5.35
5.45 9.08 -1.68
6.49 10.82 -1.55
9.29 15.48 2.86
7.67 12.79 -1.3
9.97 16.61 -1.02
8.65 14.42 3.88
3.3 5.46 -1.71
25.75 42.56 0.87
3.93 6.49 -1.75
4.63 7.66 -1.74
31.77 52.51 5.37
5.49 9.08 -1.68
6.57 10.86 -1.56
9.18 15.17 2.81
7.74 12.79 -1.31
10.2 16.86 -1.03
8.75 14.46 3.9
25.76 42.57 -0.87
6.82 11.27 3.53
3.32 5.46 -1.71
25.94 42.56 0.87
3.95 6.47 -1.75
4.67 7.66 -1.74
5.52 9.06 -1.68
8.46 13.89 2
6.63 10.87 -1.56
8.95 14.69 2.73
7.79 12.78 -1.31
10.28 16.87 -1.04
8.78 14.41 3.89
25.95 42.58 -0.87
6.81 11.17 3.5
3.34 5.44 -1.71
3.97 6.45 -1.75
24.27 39.5 2.43
4.7 7.65 -1.75
7.02 11.43 1.17
5.57 9.06 -1.68
24.2 39.39 5.68
6.64 10.8 -1.56
9.05 14.73 2.74
7.82 12.73 -1.31
7.73 12.58 -0.77
8.84 14.39 3.9
24.16 39.33 -0.81
6.83 11.12 3.5
3.36 5.44 -1.71
24.38 39.39 0.81
3.99 6.44 -1.75
7.03 11.36 0.7
4.73 7.64 -1.75
7.03 11.35 1.17
5.6 9.05 -1.69
8.51 13.74 1.98
6.65 10.74 -1.55
9.91 16.01 2.98
7.9 12.76 -1.31
10.34 16.71 -1.03
6.86 11.08 3.49
3.38 5.41 -1.71
24.44 39.17 0.81
4.01 6.43 -1.75
7.05 11.3 0.7
4.75 7.61 -1.74
7.04 11.28 1.16
5.65 9.05 -1.69
8.6 13.78 1.99
6.69 10.72 -1.55
7.89 12.64 -1.3
8.92 14.3 3.89
6.89 11.04 3.49
3.39 5.4 -1.71
24.49 38.94 0.8
4.03 6.42 -1.75
7.07 11.24 0.7
4.78 7.6 -1.75
7.05 11.22 1.16
5.69 9.04 -1.69
24.36 38.75 5.62
6.7 10.66 -1.55
9.43 15 2.81
7.95 12.64 -1.31
9.35 14.88 3.42
6.92 11.01 3.49
3.42 5.39 -1.71
24.55 38.73 0.8
4.05 6.4 -1.75
7.09 11.19 0.69
4.81 7.59 -1.75
7.07 11.16 1.16
5.72 9.02 -1.69
24.45 38.57 5.61
6.73 10.62 -1.54
9.49 14.98 2.81
7.98 12.59 -1.3
7.04 11.12 2.56
7.05 11.13 3.04
6.93 10.94 3.47
3.44 5.38 -1.71
24.62 38.55 0.8
4.07 6.37 -1.75
7.1 11.12 0.69
4.84 7.58 -1.75
7.09 11.11 1.15
5.76 9.01 -1.69
7.09 11.1 1.62
6.74 10.55 -1.54
7.1 11.11 2.09
10.16 15.9 -1.65
7.08 11.08 2.55
7.12 11.14 3.05
7.01 10.97 3.49
3.45 5.36 -1.71
7.15 11.11 0.23
4.1 6.36 -1.75
7.12 11.06 0.69
4.87 7.56 -1.75
7.12 11.06 1.15
5.8 9.01 -1.7
8.63 13.41 1.96
