# .PCD v0.7 - Point Cloud Data file format
VERSION 0.7
FIELDS x y z
SIZE 4 4 4
TYPE F F F
COUNT 1 1 1
WIDTH 3042
HEIGHT 1
VIEWPOINT 0 0 0 1 0 0 0
POINTS 3042
DATA ascii
6.9 23.08 2.96
4.3 14.37 -1.84
7.01 23.44 3.88
4.3 14.39 -1.31
7.6 25.43 5.16
4.3 14.37 -0.79
4.3 14.37 -0.26
4.4 14.72 4.12
1.92 6.32 -1.77
4.34 14.33 0.26
2.17 7.15 -1.73
4.91 16.21 0.89
3 9.9 -2.01
7.12 23.51 2.15
3.41 11.27 -1.87
6.98 23.06 2.96
4.35 14.36 -1.84
7.11 23.47 3.88
4.35 14.35 -1.31
7.7 25.43 5.17
4.35 14.36 -0.79
4.66 15.39 3.71
4.34 14.33 -0.26
1.94 6.33 -1.77
4.41 14.37 0.26
2.19 7.15 -1.73
7.19 23.46 1.29
3.03 9.88 -2.01
4.8 15.64 1.43
3.46 11.28 -1.87
7.08 23.07 2.96
4.41 14.38 -1.85
7.19 23.46 3.89
4.41 14.38 -1.32
7.81 25.47 5.18
4.4 14.36 -0.79
4.4 14.36 -0.26
1.96 6.3 -1.77
4.45 14.34 0.26
2.22 7.16 -1.73
7.2 23.19 1.27
3.07 9.87 -2.01
7.33 23.59 2.16
3.5 11.27 -1.87
7.17 23.08 2.97
4.46 14.37 -1.85
7.3 23.49 3.9
4.45 14.34 -1.31
7.9 25.45 5.18
4.47 14.38 -0.79
4.45 14.33 -0.26
1.98 6.3 -1.77
4.51 14.36 0.26
2.25 7.16 -1.73
7.3 23.23 1.28
3.1 9.86 -2.01
7.29 23.22 2.13
3.54 11.26 -1.87
7.25 23.08 2.97
7.38 23.5 3.9
4.52 14.39 -1.32
7.99 25.44 5.18
4.52 14.38 -0.79
4.64 14.77 3.58
4.52 14.37 -0.26
2 6.29 -1.77
4.56 14.35 0.26
2.27 7.15 -1.73
7.38 23.19 1.28
3.13 9.84 -2.01
7.37 23.19 2.13
3.58 11.26 -1.87
7.34 23.07 2.97
4.57 14.38 -1.85
4.98 15.67 2.6
4.56 14.35 -1.32
8.09 25.43 5.19
4.57 14.37 -0.79
9.09 28.59 6.93
4.56 14.36 -0.26
2.03 6.3 -1.77
4.63 14.38 0.26
2.3 7.15 -1.74
7.43 23.09 1.27
3.17 9.84 -2.01
7.43 23.09 2.12
3.63 11.27 -1.87
7.43 23.09 2.98
4.64 14.41 -1.86
7.56 23.49 3.91
4.63 14.39 -1.32
8.22 25.55 5.22
4.63 14.38 -0.79
9.19 28.55 6.93
4.63 14.37 -0.26
2.03 6.25 -1.76
4.68 14.38 0.26
2.34 7.18 -1.74
7.52 23.08 1.27
3.21 9.86 -2.01
7.52 23.09 2.12
3.67 11.27 -1.88
7.52 23.09 2.98
4.69 14.39 -1.86
7.65 23.49 3.91
4.68 14.37 -1.32
8.34 25.62 5.24
4.68 14.37 -0.79
9.33 28.64 6.95
4.68 14.36 -0.26
2.07 6.27 -1.77
4.74 14.38 0.26
2.37 7.19 -1.75
7.61 23.08 1.27
7.61 23.08 2.13
3.71 11.25 -1.88
7.61 23.08 2.98
4.76 14.42 -1.86
7.75 23.51 3.92
4.74 14.38 -1.32
8.45 25.63 5.25
4.74 14.39 -0.79
9.45 28.66 6.97
4.74 14.37 -0.26
2.09 6.28 -1.77
4.8 14.38 0.26
2.39 7.15 -1.74
7.7 23.08 1.28
2.94 8.81 -1.81
7.7 23.08 2.13
3.75 11.24 -1.88
7.7 23.08 2.99
4.8 14.4 -1.86
7.85 23.53 3.93
4.79 14.37 -1.33
8.55 25.64 5.25
4.8 14.38 -0.79
9.56 28.64 6.97
4.8 14.37 -0.26
2.12 6.29 -1.78
4.85 14.37 0.26
2.41 7.16 -1.74
7.78 23.07 1.28
2.94 8.72 -1.79
7.79 23.09 2.13
3.8 11.27 -1.88
7.78 23.08 2.99
4.86 14.42 -1.87
7.94 23.54 3.94
4.85 14.39 -1.33
8.66 25.66 5.26
4.86 14.4 -0.8
9.65 28.61 6.97
4.85 14.38 -0.26
2.14 6.28 -1.78
4.91 14.4 0.27
2.44 7.14 -1.74
7.87 23.07 1.28
2.96 8.68 -1.78
7.88 23.11 2.14
3.85 11.27 -1.89
7.88 23.1 3
4.91 14.4 -1.87
8.04 23.55 3.94
4.9 14.37 -1.33
8.76 25.69 5.28
4.91 14.38 -0.8
9.75 28.57 6.97
4.91 14.4 -0.27
2.17 6.28 -1.78
4.97 14.39 0.27
2.45 7.11 -1.74
7.96 23.08 1.28
2.95 8.56 -1.76
7.97 23.1 2.14
3.89 11.26 -1.89
7.97 23.1 3
4.98 14.42 -1.87
8.13 23.55 3.95
4.97 14.39 -1.33
8.86 25.68 5.28
4.97 14.41 -0.8
9.87 28.6 6.98
4.96 14.37 -0.27
2.19 6.26 -1.78
5.03 14.41 0.27
2.48 7.09 -1.73
8.06 23.09 1.28
2.98 8.54 -1.76
8.06 23.09 2.14
3.93 11.25 -1.89
8.06 23.1 3
5.03 14.4 -1.87
8.22 23.55 3.95
5.02 14.39 -1.33
8.96 25.67 5.28
5.02 14.4 -0.8
9.98 28.6 6.99
5.03 14.41 -0.27
2.21 6.26 -1.78
5.07 14.38 0.27
2.47 7.01 -1.72
8.15 23.1 1.28
3 8.51 -1.75
8.15 23.1 2.14
3.96 11.24 -1.89
8.15 23.1 3.01
5.09 14.42 -1.88
8.33 23.62 3.97
5.08 14.4 -1.34
9.05 25.65 5.29
5.08 14.4 -0.8
10.11 28.66 7.02
5.08 14.39 -0.27
2.23 6.25 -1.78
5.14 14.42 0.27
2.46 6.9 -1.69
8.24 23.1 1.29
3.02 8.46 -1.75
8.24 23.1 2.15
4 11.22 -1.89
8.24 23.1 3.01
5.14 14.42 -1.88
8.43 23.63 3.97
5.14 14.41 -1.34
9.15 25.66 5.29
5.14 14.4 -0.8
10.21 28.62 7.02
5.15 14.43 -0.27
2.25 6.23 -1.77
5.19 14.38 0.27
2.47 6.83 -1.68
8.33 23.08 1.29
3.04 8.42 -1.74
8.34 23.1 2.15
4.05 11.24 -1.89
8.33 23.1 3.02
5.2 14.41 -1.88
8.53 23.64 3.98
5.2 14.41 -1.34
9.26 25.67 5.3
5.2 14.4 -0.8
5.19 14.38 -0.27
2.25 6.18 -1.76
5.26 14.43 0.27
2.44 6.69 -1.64
8.42 23.08 1.29
3.07 8.41 -1.74
8.43 23.11 2.15
4.11 11.26 -1.9
8.43 23.11 3.02
5.26 14.42 -1.89
8.61 23.61 3.98
5.26 14.43 -1.34
9.39 25.73 5.32
5.26 14.43 -0.81
5.26 14.41 -0.27
2.26 6.14 -1.75
5.3 14.4 0.27
2.44 6.63 -1.63
8.51 23.09 1.29
3.1 8.41 -1.74
8.51 23.1 2.15
4.15 11.26 -1.9
8.48 23.02 3.01
5.32 14.44 -1.89
4.64 12.59 2.13
5.31 14.41 -1.34
4.6 12.48 2.59
5.31 14.41 -0.8
4.96 13.46 3.31
5.3 14.39 -0.27
2.28 6.12 -1.75
5.37 14.41 0.27
2.47 6.64 -1.63
8.57 23 1.29
3.13 8.39 -1.74
8.6 23.08 2.16
4.19 11.25 -1.9
8.61 23.12 3.03
5.38 14.45 -1.89
4.69 12.59 2.13
5.38 14.45 -1.35
9.61 25.8 5.35
5.38 14.43 -0.81
5.37 14.42 -0.27
2.3 6.12 -1.75
5.42 14.4 0.27
2.5 6.65 -1.64
8.7 23.11 1.29
3.16 8.39 -1.74
8.7 23.12 2.16
4.23 11.22 -1.9
8.7 23.1 3.03
5.43 14.43 -1.89
4.74 12.6 2.13
5.43 14.41 -1.35
9.72 25.82 5.36
5.43 14.42 -0.81
4.93 13.09 3.23
5.42 14.4 -0.27
2.33 6.13 -1.76
5.49 14.42 0.27
2.53 6.65 -1.64
8.79 23.1 1.3
3.19 8.38 -1.74
8.8 23.12 2.16
4.26 11.2 -1.9
8.79 23.11 3.04
5.5 14.46 -1.9
4.79 12.6 2.14
5.5 14.46 -1.35
9.84 25.87 5.38
5.49 14.43 -0.81
5.49 14.42 -0.27
2.36 6.13 -1.76
5.55 14.43 0.27
2.57 6.68 -1.65
8.88 23.1 1.3
3.23 8.39 -1.75
8.89 23.13 2.17
4.31 11.21 -1.9
8.89 23.11 3.04
5.55 14.42 -1.9
4.83 12.56 2.13
5.54 14.42 -1.35
4.79 12.45 2.59
5.55 14.43 -0.81
5.09 13.23 3.27
5.54 14.41 -0.27
2.38 6.12 -1.76
5.6 14.43 0.27
2.59 6.68 -1.65
8.98 23.11 1.3
3.27 8.41 -1.75
8.99 23.13 2.17
4.36 11.21 -1.91
8.99 23.15 3.05
5.62 14.46 -1.91
4.87 12.54 2.13
5.61 14.44 -1.35
4.72 12.16 2.54
5.61 14.45 -0.81
5.35 13.77 3.41
5.6 14.42 -0.27
2.4 6.11 -1.76
5.66 14.43 0.27
2.61 6.67 -1.65
9.07 23.12 1.3
3.29 8.39 -1.75
9.07 23.13 2.17
4.39 11.2 -1.91
9.06 23.12 3.05
5.66 14.44 -1.9
9.29 23.7 4.03
5.66 14.42 -1.36
4.8 12.25 2.56
5.66 14.43 -0.81
5.66 14.44 -0.27
2.42 6.11 -1.76
5.71 14.42 0.27
2.65 6.68 -1.66
9.16 23.12 1.3
3.31 8.35 -1.75
9.16 23.13 2.18
4.44 11.21 -1.91
9.16 23.13 3.05
5.73 14.47 -1.91
9.4 23.72 4.04
5.72 14.44 -1.36
10.27 25.92 5.42
5.72 14.44 -0.81
5.72 14.43 -0.27
2.45 6.12 -1.77
5.78 14.45 0.27
2.67 6.67 -1.66
9.25 23.12 1.31
3.32 8.31 -1.74
9.26 23.14 2.18
4.49 11.21 -1.91
9.26 23.14 3.06
5.78 14.44 -1.91
9.5 23.74 4.05
5.78 14.45 -1.36
5.22 13.05 2.73
5.79 14.46 -0.82
5.21 13.02 3.24
5.79 14.46 -0.27
2.47 6.1 -1.76
5.83 14.43 0.27
2.69 6.67 -1.66
9.34 23.11 1.31
3.35 8.29 -1.74
9.37 23.17 2.19
4.53 11.22 -1.92
9.35 23.13 3.06
5.84 14.46 -1.91
5.05 12.5 2.14
5.84 14.44 -1.36
5.31 13.14 2.76
5.85 14.46 -0.82
5.46 13.52 3.37
5.83 14.42 -0.27
5.31 13.14 3.8
2.49 6.09 -1.76
5.9 14.45 0.27
2.71 6.64 -1.66
9.44 23.13 1.31
3.35 8.2 -1.72
9.45 23.15 2.19
4.57 11.2 -1.92
9.46 23.16 3.07
5.91 14.46 -1.92
5.06 12.39 2.12
5.9 14.46 -1.37
5.22 12.79 2.69
5.91 14.46 -0.82
5.32 13.03 3.25
5.91 14.46 -0.27
2.52 6.12 -1.77
5.95 14.43 0.27
2.73 6.63 -1.66
9.54 23.13 1.31
3.37 8.17 -1.72
9.55 23.16 2.19
4.6 11.17 -1.91
9.55 23.15 3.07
5.97 14.47 -1.92
5.49 13.31 2.28
5.96 14.45 -1.37
10.74 26.05 5.48
5.96 14.46 -0.82
5.44 13.19 3.29
5.95 14.43 -0.27
2.55 6.12 -1.78
6.01 14.45 0.27
2.76 6.62 -1.66
9.63 23.13 1.31
3.4 8.16 -1.72
4.82 11.57 1.1
4.64 11.16 -1.91
9.63 23.14 3.08
6.04 14.5 -1.93
9.94 23.88 4.1
6.03 14.48 -1.37
5.75 13.82 2.91
6.02 14.46 -0.82
5.51 13.23 3.31
6.02 14.47 -0.27
5.58 13.41 3.89
2.57 6.12 -1.78
6.07 14.45 0.27
2.78 6.61 -1.66
9.72 23.13 1.32
3.42 8.14 -1.72
4.84 11.51 1.09
4.69 11.17 -1.92
9.74 23.17 3.09
6.08 14.46 -1.93
10.06 23.92 4.11
6.08 14.45 -1.37
5.49 13.07 2.76
6.08 14.46 -0.82
5.63 13.39 3.35
6.08 14.46 -0.27
2.59 6.1 -1.78
6.14 14.46 0.27
2.81 6.61 -1.66
3.43 8.09 -1.71
7.54 17.76 1.69
4.74 11.17 -1.92
9.83 23.17 3.09
6.16 14.51 -1.94
5.25 12.37 2.13
6.14 14.48 -1.38
5.66 13.32 2.81
6.14 14.47 -0.82
5.84 13.76 3.45
6.14 14.46 -0.27
2.61 6.1 -1.78
6.2 14.46 0.27
2.83 6.61 -1.66
3.44 8.03 -1.7
7.05 16.46 1.57
4.79 11.17 -1.92
9.92 23.15 3.09
6.2 14.47 -1.93
5.32 12.4 2.14
6.2 14.46 -1.38
7.55 17.61 3.72
6.2 14.46 -0.82
5.94 13.86 3.48
6.2 14.47 -0.27
2.63 6.09 -1.78
6.25 14.45 0.27
2.86 6.6 -1.66
10.08 23.29 1.33
3.46 7.99 -1.69
7.48 17.28 1.65
4.82 11.15 -1.92
10.03 23.18 3.1
6.27 14.5 -1.94
5.67 13.11 2.26
6.26 14.46 -1.38
5.59 12.93 2.74
6.27 14.48 -0.83
6.08 14.06 3.54
6.26 14.46 -0.27
5.41 12.5 3.65
2.67 6.11 -1.79
6.33 14.49 0.28
2.89 6.61 -1.66
3.45 7.89 -1.67
5.06 11.59 1.11
4.87 11.15 -1.93
10.11 23.14 3.1
6.33 14.49 -1.94
5.72 13.09 2.26
6.33 14.49 -1.38
11.45 26.22 5.56
6.32 14.47 -0.83
5.45 12.48 3.15
6.33 14.5 -0.28
2.69 6.1 -1.79
6.38 14.45 0.28
2.91 6.6 -1.67
7.4 16.79 0.96
3.45 7.82 -1.66
5.31 12.05 1.15
4.91 11.13 -1.93
10.22 23.17 3.11
6.39 14.49 -1.94
5.72 12.97 2.24
6.39 14.48 -1.38
6.13 13.91 2.95
6.39 14.48 -0.83
5.64 12.78 3.22
6.37 14.45 -0.28
5.42 12.28 3.6
2.71 6.1 -1.79
6.45 14.49 0.28
2.93 6.59 -1.66
7.71 17.31 0.99
3.46 7.78 -1.66
5.67 12.73 1.22
4.96 11.14 -1.93
10.31 23.17 3.11
6.47 14.52 -1.95
5.73 12.86 2.23
6.46 14.5 -1.39
7.27 16.33 3.48
6.45 14.49 -0.83
5.64 12.68 3.2
6.44 14.47 -0.28
5.67 12.74 3.74
2.73 6.08 -1.79
6.51 14.48 0.28
2.96 6.58 -1.67
8.01 17.82 1.02
3.49 7.76 -1.65
7.21 16.05 1.54
5 11.13 -1.93
6.93 15.42 2.08
6.51 14.49 -1.95
6.19 13.78 2.39
6.5 14.47 -1.39
7.62 16.96 3.61
6.51 14.48 -0.83
5.55 12.35 3.13
6.5 14.46 -0.28
5.65 12.57 3.69
2.75 6.07 -1.79
6.56 14.47 0.28
2.98 6.58 -1.67
8.09 17.84 1.03
3.52 7.75 -1.65
5.97 13.16 1.26
5.04 11.1 -1.93
5.76 12.69 1.71
6.59 14.53 -1.96
5.88 12.96 2.25
6.58 14.5 -1.39
5.77 12.72 2.72
6.57 14.49 -0.83
7.58 16.71 4.24
6.57 14.49 -0.28
5.71 12.6 3.71
2.77 6.06 -1.79
6.64 14.5 0.28
3 6.55 -1.66
10.67 23.32 1.34
3.54 7.73 -1.65
10.67 23.32 2.24
5.08 11.09 -1.93
5.98 13.07 1.77
6.63 14.49 -1.96
5.89 12.86 2.24
6.63 14.49 -1.39
6 13.12 2.8
6.63 14.48 -0.83
7.31 15.97 4.05
6.64 14.52 -0.28
5.98 13.07 3.85
2.8 6.06 -1.79
6.69 14.49 0.28
3.02 6.54 -1.66
10.75 23.27 1.34
3.57 7.73 -1.66
5.39 11.68 1.13
5.12 11.08 -1.93
6.01 13.02 1.76
6.7 14.51 -1.96
5.89 12.75 2.22
6.7 14.5 -1.4
5.82 12.6 2.7
6.7 14.5 -0.84
5.69 12.32 3.13
6.69 14.48 -0.28
6.06 13.12 3.87
2.82 6.05 -1.79
6.76 14.51 0.28
3.05 6.54 -1.66
10.8 23.18 1.34
3.59 7.71 -1.65
5.56 11.92 1.15
5.17 11.09 -1.94
5.63 12.09 1.64
6.76 14.51 -1.97
5.94 12.74 2.23
6.77 14.53 -1.4
5.87 12.59 2.7
6.76 14.51 -0.84
7.92 17 4.33
6.76 14.51 -0.28
6 12.88 3.81
2.84 6.04 -1.79
6.81 14.48 0.28
3.07 6.52 -1.66
10.9 23.17 1.34
3.62 7.69 -1.65
10.9 23.18 2.24
5.23 11.12 -1.95
5.56 11.83 1.6
6.83 14.51 -1.97
7.85 16.69 2.92
6.82 14.49 -1.4
6.83 14.52 -0.84
5.84 12.42 3.17
6.81 14.48 -0.28
6.31 13.41 3.97
2.87 6.05 -1.8
6.88 14.49 0.28
3.09 6.51 -1.66
6.17 12.99 0.75
3.65 7.7 -1.66
11.01 23.19 2.25
5.27 11.11 -1.95
5.6 11.8 1.6
6.91 14.55 -1.98
6.02 12.68 2.22
6.89 14.52 -1.41
5.89 12.41 2.67
6.89 14.51 -0.84
6.1 12.84 3.28
6.89 14.51 -0.28
6.35 13.39 3.97
2.89 6.04 -1.79
6.95 14.51 0.28
3.11 6.5 -1.66
11.09 23.17 1.35
3.68 7.69 -1.66
11.12 23.23 2.25
5.32 11.11 -1.95
11.1 23.18 3.16
6.95 14.52 -1.98
6.95 14.5 -1.41
12.26 25.59 5.52
6.94 14.48 -0.84
6.2 12.95 3.31
6.96 14.53 -0.28
6.22 12.99 3.86
2.92 6.05 -1.8
6.34 13.13 0.25
3.14 6.5 -1.67
11.19 23.16 1.35
3.73 7.72 -1.67
6.18 12.79 1.24
5.37 11.11 -1.95
6.15 12.72 1.73
6.26 12.95 -1.77
6.88 14.23 2.5
6.28 12.99 -1.26
6.25 12.93 2.79
7.01 14.51 -0.84
6.32 13.08 3.35
7.01 14.51 -0.28
2.94 6.02 -1.8
6.34 13 0.25
3.17 6.5 -1.67
6.33 12.99 0.76
3.77 7.73 -1.67
6.26 12.84 1.25
5.42 11.12 -1.96
5.91 12.12 1.66
6.29 12.9 -1.76
5.65 11.58 2.04
6.31 12.94 -1.26
6.25 12.81 2.77
6.32 12.97 -0.76
6.33 12.99 3.34
6.32 12.96 -0.25
5.92 12.15 3.62
2.96 6.01 -1.8
6.38 12.97 0.25
3.19 6.49 -1.67
6.37 12.95 0.76
3.81 7.75 -1.68
6.12 12.43 1.21
5.47 11.12 -1.96
5.8 11.8 1.61
6.35 12.9 -1.77
5.68 11.54 2.04
6.35 12.92 -1.26
6.36 12.93 2.8
6.37 12.95 -0.76
6.36 12.93 -0.25
6.22 12.65 3.78
2.98 6.01 -1.8
3.22 6.48 -1.67
6.36 12.83 0.75
3.84 7.75 -1.68
6.45 13.01 1.27
5.52 11.12 -1.97
11.52 23.21 3.18
7.23 14.57 -2
6.06 12.21 2.16
7.21 14.54 -1.42
6.24 12.58 2.73
7.21 14.54 -0.85
6.2 12.5 3.22
7.2 14.51 -0.28
6.13 12.35 3.69
3 6 -1.8
7.28 14.54 0.28
3.24 6.47 -1.67
6.42 12.83 0.75
3.88 7.75 -1.68
11.67 23.31 2.28
5.57 11.12 -1.97
11.62 23.21 3.19
7.27 14.53 -1.99
6.02 12.03 2.13
7.27 14.52 -1.42
6.11 12.2 2.65
7.26 14.51 -0.85
6.34 12.66 3.27
7.28 14.54 -0.28
6.2 12.39 3.71
3.03 5.99 -1.8
7.33 14.53 0.28
3.26 6.46 -1.67
6.45 12.78 0.75
3.9 7.73 -1.68
11.86 23.48 2.3
5.62 11.12 -1.97
6.6 13.07 1.8
7.35 14.56 -2
7.34 14.54 -1.43
6.34 12.56 2.74
7.34 14.53 -0.85
6.11 12.11 3.13
7.33 14.53 -0.28
6.54 12.96 3.89
3.04 5.98 -1.8
7.41 14.55 0.29
3.29 6.46 -1.67
6.51 12.79 0.75
3.93 7.71 -1.68
7.05 13.84 1.36
5.67 11.14 -1.98
11.8 23.19 3.19
7.41 14.55 -2
12.34 24.24 4.31
7.41 14.56 -1.43
6.43 12.62 2.75
7.41 14.56 -0.86
6.47 12.7 3.29
7.41 14.55 -0.28
6.36 12.5 3.76
3.06 5.96 -1.8
7.46 14.53 0.29
3.32 6.47 -1.68
3.92 7.64 -1.67
7.65 14.9 1.47
5.71 11.12 -1.98
11.92 23.22 3.2
7.48 14.57 -2.01
6.76 13.16 2.34
7.46 14.52 -1.43
6.79 13.21 2.89
7.47 14.55 -0.86
6.43 12.53 3.25
7.46 14.52 -0.28
6.43 12.52 3.77
3.08 5.94 -1.79
7.53 14.54 0.29
3.35 6.48 -1.68
12.04 23.25 1.37
3.95 7.63 -1.67
8.65 16.7 1.64
5.75 11.1 -1.98
8.48 16.37 2.26
7.56 14.59 -2.02
6.87 13.27 2.37
7.54 14.56 -1.43
6.01 11.61 2.54
7.54 14.57 -0.86
6.92 13.36 3.47
7.54 14.56 -0.29
6.59 12.73 3.84
3.1 5.94 -1.8
7.6 14.55 0.29
3.39 6.49 -1.69
12.15 23.25 1.37
3.98 7.62 -1.67
9.63 18.44 1.82
5.79 11.09 -1.98
12.12 23.2 3.21
7.61 14.57 -2.02
12.68 24.27 4.34
7.61 14.57 -1.44
8.34 15.97 3.5
7.6 14.55 -0.86
8.02 15.35 4
7.61 14.57 -0.29
6.66 12.75 3.85
3.13 5.93 -1.8
7.67 14.56 0.29
3.43 6.51 -1.7
8.68 16.48 0.98
4 7.59 -1.67
7.09 13.46 1.33
5.83 11.06 -1.98
8.68 16.48 2.29
7.67 14.57 -2.02
8.6 16.33 2.92
7.68 14.58 -1.44
8.65 16.41 3.61
7.67 14.56 -0.86
8.57 16.27 4.25
7.68 14.58 -0.29
6.98 13.25 4.01
3.15 5.92 -1.8
7.74 14.56 0.29
3.46 6.51 -1.7
8.74 16.45 0.98
3.99 7.52 -1.66
6.57 12.36 1.22
5.86 11.04 -1.98
6.33 11.92 1.66
7.74 14.57 -2.03
12.92 24.33 4.36
7.74 14.56 -1.44
8.92 16.8 3.7
7.74 14.56 -0.86
6.51 12.24 3.2
7.73 14.54 -0.29
7.01 13.2 4
3.17 5.92 -1.8
7.82 14.59 0.29
3.5 6.53 -1.71
8.82 16.47 0.98
4.02 7.51 -1.66
9.07 16.93 1.68
5.9 11.01 -1.98
6.37 11.88 1.66
7.82 14.6 -2.03
13.03 24.32 4.37
7.81 14.58 -1.45
9.03 16.85 3.72
7.82 14.6 -0.87
6.82 12.74 3.34
7.81 14.58 -0.29
3.19 5.91 -1.8
7.86 14.56 0.29
3.52 6.51 -1.71
12.58 23.28 1.39
4.05 7.49 -1.66
6.85 12.69 1.26
5.93 10.97 -1.98
8.81 16.3 2.28
7.88 14.59 -2.04
8.49 15.71 2.83
7.86 14.55 -1.45
8.59 15.9 3.51
7.87 14.56 -0.87
8.56 15.84 4.16
7.87 14.56 -0.29
8.85 16.38 4.99
3.22 5.91 -1.8
7.94 14.57 0.29
3.55 6.51 -1.71
12.67 23.25 1.39
4.08 7.49 -1.66
6.6 12.12 1.21
5.96 10.95 -1.97
12.64 23.2 3.24
7.96 14.6 -2.04
8.39 15.4 2.78
7.94 14.58 -1.45
7.08 13 2.88
7.95 14.59 -0.87
8.31 15.25 4.01
7.94 14.57 -0.29
8.57 15.73 4.8
3.23 5.88 -1.8
8.02 14.6 0.29
3.57 6.5 -1.71
12.75 23.21 1.39
4.11 7.49 -1.66
12.77 23.25 2.32
6 10.92 -1.97
12.74 23.2 3.25
8.01 14.57 -2.04
13.41 24.41 4.41
8.02 14.6 -1.46
14.81 26.97 5.98
8.01 14.58 -0.87
8.03 14.61 -0.29
8.71 15.86 4.85
3.25 5.88 -1.8
8.07 14.58 0.29
3.61 6.51 -1.72
12.86 23.23 1.39
4.15 7.49 -1.66
9.33 16.86 1.69
6.03 10.89 -1.97
12.85 23.2 3.26
8.07 14.57 -2.05
13.55 24.47 4.43
8.08 14.59 -1.46
9.32 16.83 3.74
8.08 14.59 -0.87
8.36 15.1 3.99
8.06 14.56 -0.29
8.82 15.93 4.88
3.27 5.87 -1.8
8.15 14.59 0.29
3.63 6.51 -1.72
12.96 23.22 1.39
4.17 7.47 -1.66
12.98 23.25 2.33
6.06 10.86 -1.97
6.68 11.96 1.68
8.09 14.49 -2.04
6.46 11.57 2.1
8.15 14.6 -1.46
15.1 27.05 6.02
8.15 14.6 -0.88
8.71 15.6 4.12
8.15 14.59 -0.29
9.33 16.71 5.13
3.29 5.85 -1.8
8.22 14.6 0.29
3.66 6.5 -1.72
13.07 23.23 1.4
4.21 7.48 -1.67
13.08 23.25 2.33
6.09 10.82 -1.97
13.07 23.22 3.27
8.13 14.45 -2.04
9.29 16.51 3
8.2 14.58 -1.46
9.35 16.61 3.7
8.21 14.59 -0.88
6.92 12.3 3.26
8.22 14.61 -0.29
9.19 16.32 5.02
3.31 5.84 -1.8
8.27 14.58 0.29
3.68 6.49 -1.72
13.18 23.23 1.4
4.25 7.48 -1.67
13.19 23.25 2.34
6.12 10.79 -1.97
13.17 23.2 3.28
8.07 14.23 -2.01
7.28 12.82 2.34
8.28 14.59 -1.47
15.47 27.26 6.09
8.28 14.6 -0.88
9.07 15.98 4.24
8.28 14.59 -0.29
3.34 5.84 -1.8
8.36 14.62 0.29
3.71 6.5 -1.73
13.29 23.24 1.4
4.27 7.47 -1.67
6.94 12.14 1.22
6.16 10.77 -1.97
6.58 11.5 1.63
8.03 14.04 -1.99
14.05 24.57 4.48
8.37 14.63 -1.47
7.25 12.69 2.84
8.36 14.62 -0.88
9.11 15.93 4.24
8.35 14.61 -0.29
9 15.74 4.86
3.36 5.82 -1.8
3.75 6.51 -1.73
13.39 23.23 1.41
4.3 7.46 -1.67
9.19 15.94 1.61
6.19 10.74 -1.96
13.39 23.23 3.29
8.09 14.03 -1.99
6.76 11.73 2.15
8.41 14.6 -1.47
9.87 17.13 3.84
8.42 14.6 -0.88
7.34 12.74 3.39
8.43 14.63 -0.29
3.37 5.8 -1.8
8.49 14.61 0.29
3.77 6.49 -1.73
13.51 23.24 1.41
4.34 7.46 -1.68
13.51 23.25 2.35
6.23 10.71 -1.96
13.51 23.23 3.3
8.17 14.05 -2
9.24 15.9 2.91
8.49 14.61 -1.48
7.47 12.86 2.89
8.5 14.61 -0.89
9.73 16.74 4.47
8.49 14.61 -0.29
3.39 5.78 -1.8
8.57 14.62 0.3
3.81 6.5 -1.74
13.63 23.25 1.41
4.36 7.44 -1.68
13.63 23.25 2.36
6.25 10.67 -1.96
13.61 23.23 3.31
8.22 14.04 -2
14.36 24.5 4.5
8.58 14.64 -1.48
15.99 27.28 6.15
8.58 14.64 -0.89
8.57 14.63 -0.3
3.4 5.77 -1.79
8.64 14.63 0.3
3.83 6.49 -1.74
9.45 16 0.97
4.39 7.43 -1.68
13.74 23.26 2.36
6.29 10.65 -1.96
7.22 12.23 1.74
8.23 13.94 -1.99
7.24 12.26 2.26
8.63 14.61 -1.48
16.1 27.27 6.16
8.63 14.62 -0.89
9.78 16.57 4.44
8.65 14.65 -0.3
3.42 5.75 -1.79
8.7 14.62 0.3
3.86 6.49 -1.74
13.83 23.24 1.42
4.41 7.41 -1.68
13.85 23.27 2.37
6.32 10.62 -1.96
13.83 23.23 3.32
8.08 13.57 -1.94
6.99 11.74 2.16
8.71 14.63 -1.49
6.86 11.53 2.61
8.72 14.65 -0.89
8.7 14.62 -0.3
3.44 5.74 -1.79
8.79 14.65 0.3
3.9 6.5 -1.75
13.95 23.24 1.42
4.44 7.39 -1.68
13.96 23.26 2.37
6.36 10.59 -1.96
13.94 23.23 3.33
8.09 13.48 -1.93
7.57 12.62 2.33
8.79 14.65 -1.5
7.36 12.27 2.78
8.79 14.65 -0.9
9.26 15.43 4.16
8.78 14.64 -0.3
3.46 5.72 -1.79
8.86 14.65 0.3
3.93 6.5 -1.75
14.06 23.25 1.42
4.46 7.38 -1.68
14.08 23.28 2.38
6.39 10.57 -1.96
14.06 23.24 3.34
8.11 13.41 -1.92
14.82 24.51 4.54
8.84 14.62 -1.49
7.31 12.09 2.75
8.85 14.64 -0.9
8.85 14.64 -0.3
3.47 5.7 -1.79
8.91 14.63 0.3
3.95 6.49 -1.75
14.17 23.26 1.43
4.5 7.38 -1.68
14.18 23.27 2.38
6.42 10.53 -1.95
14.16 23.24 3.34
8.13 13.34 -1.92
14.98 24.58 4.56
8.91 14.63 -1.5
8.93 14.65 -0.9
9.43 15.48 4.18
8.92 14.64 -0.3
3.49 5.69 -1.79
8.99 14.65 0.3
3.97 6.47 -1.75
14.28 23.26 1.43
4.52 7.36 -1.68
14.29 23.28 2.39
6.45 10.51 -1.95
14.27 23.25 3.35
8.15 13.27 -1.91
15.12 24.63 4.58
9.01 14.68 -1.51
9 14.66 -0.9
9 14.67 -0.3
3.52 5.69 -1.79
9.08 14.67 0.3
4.01 6.47 -1.76
14.39 23.25 1.43
4.54 7.33 -1.68
14.41 23.29 2.4
6.49 10.48 -1.95
14.39 23.25 3.36
8.18 13.22 -1.91
15.24 24.62 4.59
9.06 14.64 -1.51
9.75 15.76 3.6
9.06 14.63 -0.9
9.08 14.67 -0.3
3.53 5.67 -1.79
9.14 14.65 0.3
4.03 6.46 -1.76
14.5 23.27 1.44
4.55 7.3 -1.67
14.52 23.29 2.4
6.52 10.46 -1.95
14.5 23.26 3.37
8.21 13.17 -1.91
15.37 24.66 4.6
9.14 14.66 -1.51
9.72 15.59 3.57
9.14 14.66 -0.91
9.13 14.65 -0.3
3.55 5.64 -1.78
9.23 14.67 0.3
4.06 6.46 -1.76
14.63 23.27 1.44
4.57 7.27 -1.67
14.64 23.28 2.41
6.56 10.42 -1.95
14.63 23.26 3.37
8.25 13.12 -1.9
15.52 24.67 4.62
9.23 14.68 -1.52
9.99 15.88 3.65
9.23 14.68 -0.91
9.22 14.66 -0.3
3.56 5.62 -1.78
9.3 14.67 0.3
4.09 6.46 -1.77
14.75 23.27 1.44
4.6 7.27 -1.67
14.76 23.29 2.41
6.59 10.39 -1.95
14.74 23.26 3.38
8.29 13.09 -1.9
15.66 24.72 4.64
9.28 14.65 -1.52
9.29 14.67 -0.91
9.29 14.67 -0.3
3.59 5.62 -1.79
9.35 14.65 0.3
4.11 6.44 -1.76
14.86 23.27 1.45
4.63 7.26 -1.67
14.87 23.3 2.42
6.62 10.37 -1.95
14.85 23.26 3.39
7.63 11.96 -1.74
9.94 15.57 2.93
9.36 14.67 -1.52
9.76 15.29 3.53
9.37 14.68 -0.91
9.36 14.66 -0.3
3.6 5.6 -1.79
9.44 14.69 0.3
4.13 6.42 -1.76
14.97 23.28 1.45
4.66 7.25 -1.67
14.98 23.3 2.42
6.66 10.35 -1.95
14.96 23.27 3.4
7.64 11.88 -1.73
15.95 24.81 4.67
9.45 14.7 -1.53
9.44 14.69 -0.92
9.44 14.68 -0.3
3.62 5.59 -1.78
9.53 14.71 0.31
4.16 6.42 -1.77
15.08 23.27 1.45
4.68 7.21 -1.67
15.16 23.38 2.44
15.09 23.28 3.41
7.68 11.84 -1.73
16.13 24.89 4.7
9.51 14.67 -1.53
9.52 14.69 -0.92
9.53 14.7 -0.31
3.63 5.56 -1.78
9.59 14.68 0.31
4.18 6.41 -1.77
12.61 19.32 1.21
4.69 7.19 -1.67
16.25 24.89 2.6
5.83 8.93 -1.69
15.2 23.28 3.41
7.73 11.83 -1.74
16.29 24.94 4.72
9.58 14.67 -1.53
9.59 14.68 -0.92
9.58 14.67 -0.31
3.65 5.55 -1.78
9.66 14.69 0.31
4.19 6.37 -1.76
12.65 19.23 1.21
4.66 7.09 -1.65
6.75 10.26 -1.95
15.32 23.29 3.42
7.79 11.84 -1.74
16.37 24.89 4.72
9.67 14.7 -1.54
9.67 14.7 -0.92
9.66 14.69 -0.31
3.67 5.53 -1.78
9.75 14.71 0.31
4.2 6.34 -1.76
12.68 19.13 1.2
4.66 7.03 -1.64
16.26 24.53 2.57
6 9.05 -1.72
15.43 23.28 3.43
7.82 11.8 -1.74
16.52 24.92 4.74
9.75 14.71 -1.54
9.75 14.71 -0.92
9.75 14.72 -0.31
3.68 5.52 -1.78
9.83 14.71 0.31
4.21 6.3 -1.75
15.66 23.44 1.48
4.69 7.02 -1.64
16.26 24.35 2.56
6.03 9.03 -1.72
15.55 23.28 3.44
7.81 11.69 -1.73
16.68 24.98 4.76
9.81 14.69 -1.55
18.68 27.97 6.54
9.81 14.69 -0.93
9.83 14.71 -0.31
3.71 5.51 -1.78
9.9 14.71 0.31
4.23 6.28 -1.75
15.77 23.44 1.48
4.7 6.99 -1.64
16.27 24.19 2.55
6.05 8.99 -1.72
15.67 23.29 3.45
7.8 11.6 -1.72
16.83 25.02 4.78
9.89 14.7 -1.55
9.9 14.71 -0.93
9.89 14.7 -0.31
3.72 5.49 -1.78
9.98 14.72 0.31
4.24 6.26 -1.75
15.93 23.5 1.49
4.74 6.99 -1.64
16.29 24.03 2.54
6.06 8.94 -1.71
15.79 23.28 3.45
7.86 11.59 -1.72
16.94 24.99 4.78
9.99 14.73 -1.56
9.99 14.73 -0.93
9.98 14.72 -0.31
3.73 5.46 -1.77
10.06 14.74 0.31
4.26 6.24 -1.74
16.03 23.48 1.49
4.77 6.98 -1.64
16.03 23.48 2.49
6.08 8.9 -1.71
15.87 23.23 3.45
7.91 11.58 -1.72
17.04 24.96 4.79
10.05 14.71 -1.56
10.04 14.71 -0.93
10.07 14.75 -0.31
3.75 5.45 -1.77
10.12 14.71 0.31
4.29 6.23 -1.75
16.12 23.43 1.49
4.7 6.82 -1.61
16.12 23.42 2.49
6.12 8.89 -1.71
7.97 11.58 -1.73
17.2 24.98 4.8
10.13 14.71 -1.56
10.13 14.72 -0.94
10.13 14.71 -0.31
3.77 5.44 -1.77
10.21 14.72 0.31
4.31 6.22 -1.75
16.17 23.33 1.49
4.73 6.83 -1.62
16.18 23.34 2.48
6.15 8.87 -1.71
8.02 11.57 -1.73
17.37 25.05 4.83
10.21 14.73 -1.57
10.21 14.73 -0.94
10.21 14.73 -0.31
3.79 5.43 -1.77
10.3 14.75 0.31
4.35 6.23 -1.75
16.28 23.31 1.49
4.8 6.88 -1.63
16.3 23.35 2.49
6.18 8.85 -1.71
8.33 11.93 -1.79
17.5 25.06 4.84
10.3 14.75 -1.57
10.3 14.75 -0.94
10.29 14.74 -0.31
3.8 5.4 -1.77
10.38 14.76 0.32
4.38 6.23 -1.76
16.41 23.33 1.49
4.89 6.95 -1.65
16.43 23.35 2.5
6.19 8.8 -1.7
8.31 11.81 -1.77
17.61 25.03 4.85
10.35 14.72 -1.57
10.36 14.73 -0.94
10.38 14.76 -0.31
3.82 5.39 -1.77
10.43 14.72 0.31
4.4 6.21 -1.76
16.54 23.33 1.5
4.89 6.9 -1.64
16.55 23.35 2.5
6.18 8.72 -1.69
8.34 11.77 -1.77
17.78 25.09 4.87
10.44 14.73 -1.58
10.45 14.74 -0.95
10.44 14.73 -0.32
3.84 5.38 -1.77
10.52 14.74 0.32
4.42 6.19 -1.76
16.65 23.33 1.5
4.86 6.8 -1.62
16.67 23.36 2.51
6.2 8.69 -1.69
16.53 23.16 3.49
8.4 11.77 -1.77
17.94 25.13 4.89
10.53 14.75 -1.59
10.52 14.74 -0.95
10.53 14.75 -0.32
3.86 5.37 -1.77
10.62 14.76 0.32
4.44 6.18 -1.76
13.22 18.37 1.19
4.86 6.75 -1.62
16.81 23.37 2.52
6.29 8.74 -1.7
8.45 11.75 -1.78
18.1 25.16 4.91
10.62 14.76 -1.59
10.62 14.76 -0.95
10.62 14.77 -0.32
3.88 5.35 -1.77
10.71 14.78 0.32
4.47 6.17 -1.76
16.9 23.33 1.51
4.9 6.76 -1.62
16.94 23.38 2.53
6.27 8.65 -1.69
16.81 23.2 3.52
8.61 11.89 -1.8
18.26 25.19 4.93
10.68 14.74 -1.59
10.68 14.74 -0.95
10.71 14.78 -0.32
3.89 5.33 -1.77
10.77 14.75 0.32
4.51 6.17 -1.76
17.06 23.36 1.52
4.93 6.76 -1.63
17.16 23.5 2.55
6.3 8.63 -1.69
16.89 23.14 3.52
8.68 11.9 -1.81
18.41 25.22 4.95
10.76 14.74 -1.6
10.78 14.76 -0.96
10.76 14.74 -0.32
3.91 5.31 -1.77
10.85 14.76 0.32
4.53 6.16 -1.76
13.55 18.42 1.2
4.99 6.78 -1.64
17.29 23.51 2.55
6.33 8.61 -1.69
17.03 23.16 3.53
8.7 11.83 -1.8
18.58 25.26 4.97
10.86 14.76 -1.6
10.86 14.77 -0.96
10.86 14.76 -0.32
3.92 5.3 -1.77
10.94 14.78 0.32
4.54 6.13 -1.76
14.18 19.14 1.25
4.98 6.72 -1.63
13.21 17.83 1.94
6.4 8.64 -1.7
13.67 18.46 2.82
8.75 11.81 -1.81
18.77 25.35 5
10.94 14.78 -1.61
10.94 14.77 -0.96
10.95 14.78 -0.32
3.94 5.29 -1.77
11.04 14.8 0.32
4.57 6.12 -1.76
12.66 16.97 1.11
4.92 6.59 -1.6
17.55 23.53 2.57
6.41 8.6 -1.7
17.37 23.28 3.57
8.79 11.79 -1.81
19.11 25.62 5.06
11.01 14.76 -1.61
11.01 14.76 -0.96
11.03 14.79 -0.32
3.96 5.27 -1.77
11.11 14.78 0.32
4.6 6.11 -1.77
12.62 16.79 1.1
4.97 6.62 -1.61
17.66 23.5 2.57
6.45 8.58 -1.7
17.51 23.3 3.58
8.83 11.75 -1.81
19.28 25.65 5.08
11.1 14.77 -1.62
11.1 14.77 -0.97
11.09 14.76 -0.32
3.97 5.25 -1.76
11.19 14.78 0.32
4.63 6.12 -1.77
14.13 18.66 1.23
5.06 6.69 -1.63
17.8 23.51 2.58
6.49 8.57 -1.7
13.34 17.62 2.71
8.88 11.72 -1.81
19.43 25.66 5.1
11.19 14.77 -1.62
13.31 17.58 4.29
11.19 14.78 -0.97
11.18 14.77 -0.32
3.99 5.23 -1.76
11.27 14.78 0.32
4.65 6.1 -1.77
13.46 17.65 1.16
5.11 6.7 -1.64
17.92 23.5 2.59
6.49 8.52 -1.7
17.77 23.31 3.6
4.15 5.44 -0.84
13.18 17.29 3.44
9.95 13.05 -1.44
13.41 17.59 4.3
11.28 14.79 -0.97
11.27 14.79 -0.32
4.01 5.22 -1.76
11.37 14.8 0.33
4.67 6.08 -1.77
12.9 16.8 1.11
5.12 6.66 -1.63
18.01 23.45 2.59
6.5 8.46 -1.69
17.89 23.3 3.61
4.15 5.4 -0.84
13.48 17.55 3.5
10 13.02 -1.44
11.37 14.81 -0.98
11.38 14.82 -0.33
4.03 5.21 -1.76
11.45 14.8 0.33
4.69 6.07 -1.77
18.07 23.36 1.55
5.13 6.63 -1.63
18.1 23.4 2.59
6.52 8.43 -1.69
18.01 23.29 3.62
4.16 5.37 -0.83
10.12 13.09 -1.45
4.12 5.33 -0.35
11.44 14.79 -0.33
4.04 5.19 -1.76
11.52 14.79 0.33
4.72 6.06 -1.77
18.21 23.37 1.55
5.17 6.64 -1.64
18.23 23.4 2.6
4.13 5.3 -1.06
18.13 23.27 3.62
4.15 5.32 -0.83
10.12 12.99 -1.44
13.2 16.94 4.17
4.28 5.5 -0.37
11.51 14.78 -0.33
4.05 5.17 -1.76
11.61 14.79 0.33
4.75 6.05 -1.77
18.34 23.38 1.56
5.22 6.66 -1.65
18.37 23.41 2.6
4.13 5.26 -1.06
13.17 16.79 2.62
4.14 5.28 -0.82
13.75 17.52 3.53
13.96 17.8 4.4
4.2 5.35 -0.36
13.92 17.74 5.21
4.15 5.29 -0.12
4.07 5.15 -1.76
4.22 5.34 0.12
4.77 6.03 -1.78
18.49 23.39 1.56
5.29 6.69 -1.66
18.5 23.41 2.61
4.11 5.2 -1.05
13.23 16.74 2.62
4.13 5.23 -0.82
4.18 5.29 -0.59
4.17 5.27 -0.35
4.14 5.23 -0.12
4.09 5.14 -1.76
4.2 5.28 0.12
4.79 6.02 -1.78
18.62 23.39 1.57
5.32 6.68 -1.66
18.66 23.44 2.62
4.11 5.17 -1.05
13.84 17.38 2.73
4.13 5.19 -0.81
14.13 17.75 3.59
4.26 5.35 -0.6
4.17 5.24 -0.35
13.71 17.22 5.08
4.14 5.2 -0.12
4.11 5.12 -1.76
4.18 5.22 0.12
4.81 6 -1.77
4.35 5.42 0.36
5.33 6.65 -1.66
18.77 23.41 2.63
4.11 5.13 -1.04
4.12 5.14 -0.81
4.15 5.18 -0.35
4.13 5.15 -0.12
4.12 5.11 -1.76
4.19 5.19 0.12
4.83 5.98 -1.78
4.32 5.35 0.36
5.36 6.64 -1.66
4.69 5.81 0.65
4.12 5.1 -1.04
14.01 17.35 2.74
4.12 5.1 -0.81
14.09 17.44 3.55
4.16 5.15 -0.35
14.09 17.45 5.18
4.1 5.08 -0.11
4.13 5.08 -1.76
4.18 5.14 0.12
4.85 5.97 -1.78
4.34 5.33 0.36
5.38 6.62 -1.66
4.42 5.44 0.61
4.12 5.06 -1.03
4.12 5.07 -0.8
13.22 16.26 3.32
4.23 5.2 -0.59
4.16 5.11 -0.35
4.11 5.05 -0.11
4.14 5.06 -1.75
4.15 5.08 0.11
4.87 5.95 -1.77
4.37 5.34 0.36
5.42 6.63 -1.66
4.39 5.36 0.61
4.11 5.03 -1.03
4.12 5.03 -0.8
13.24 16.18 3.31
4.22 5.16 -0.58
4.16 5.08 -0.34
4.11 5.02 -0.11
4.17 5.06 -1.76
4.15 5.03 0.11
4.88 5.92 -1.77
4.42 5.36 0.36
5.46 6.62 -1.67
4.43 5.37 0.61
4.12 4.99 -1.03
4.12 4.99 -0.79
4.21 5.11 -0.58
14.28 17.32 4.36
4.16 5.04 -0.34
14.31 17.36 5.2
4.11 4.98 -0.11
14.29 17.34 6.02
4.19 5.04 -1.76
4.15 4.99 0.11
4.89 5.89 -1.77
5.51 6.63 -1.68
4.46 5.37 0.61
4.12 4.95 -1.02
4.68 5.64 0.9
4.12 4.96 -0.79
13.6 16.37 3.37
4.22 5.08 -0.58
14.34 17.27 4.36
4.15 4.99 -0.34
4.09 4.93 -0.11
4.2 5.02 -1.75
4.15 4.96 0.11
4.91 5.87 -1.77
5.54 6.62 -1.68
4.53 5.42 0.62
4.11 4.91 -1.01
4.51 5.39 0.86
4.12 4.92 -0.79
4.24 5.07 -0.58
4.16 4.97 -0.34
13.97 16.7 5.03
4.09 4.89 -0.11
4.21 5 -1.75
4.14 4.91 0.11
4.92 5.85 -1.76
4.83 5.73 0.39
5.58 6.63 -1.68
4.11 4.88 -1.01
4.53 5.38 0.86
4.12 4.89 -0.79
4.23 5.02 -0.57
15.32 18.19 4.62
4.15 4.92 -0.34
4.09 4.86 -0.11
4.23 4.99 -1.75
4.13 4.87 0.11
4.94 5.82 -1.76
5.61 6.62 -1.69
14.64 17.26 1.98
4.1 4.84 -1
4.12 4.86 -0.78
14.72 17.35 4.42
4.14 4.88 -0.34
4.1 4.84 -0.11
4.25 4.98 -1.75
4.13 4.83 0.11
4.95 5.8 -1.76
5.66 6.63 -1.69
4.11 4.82 -1
4.59 5.38 0.87
4.12 4.83 -0.78
15.43 18.07 3.76
4.24 4.97 -0.57
4.15 4.86 -0.33
4.1 4.8 -0.11
4.26 4.96 -1.75
4.14 4.81 0.11
4.97 5.77 -1.76
4.73 5.5 0.38
5.7 6.63 -1.7
4.75 5.52 0.64
4.11 4.78 -1
4.62 5.37 0.87
4.11 4.77 -0.77
14.77 17.18 3.59
4.24 4.93 -0.57
4.15 4.83 -0.33
4.1 4.77 -0.11
4.28 4.95 -1.75
4.14 4.79 0.11
4.99 5.76 -1.76
5.73 6.62 -1.7
14.8 17.09 1.98
4.11 4.74 -0.99
4.68 5.4 0.88
4.11 4.75 -0.77
4.22 4.87 -0.56
4.15 4.79 -0.33
4.09 4.73 -0.11
4.29 4.91 -1.75
4.14 4.75 0.11
5.01 5.74 -1.76
4.75 5.44 0.38
5.76 6.61 -1.7
4.77 5.47 0.63
4.11 4.71 -0.99
4.7 5.38 0.88
4.12 4.72 -0.77
15.27 17.51 3.68
4.15 4.76 -0.33
4.1 4.7 -0.11
4.3 4.9 -1.75
4.13 4.71 0.11
5.02 5.72 -1.76
4.4 5.01 0.35
5.81 6.62 -1.71
4.77 5.43 0.63
4.1 4.67 -0.98
4.74 5.39 0.88
4.13 4.7 -0.77
4.23 4.81 -0.56
4.15 4.72 -0.33
4.1 4.67 -0.11
4.32 4.88 -1.75
4.14 4.68 0.11
5.03 5.68 -1.75
4.38 4.95 0.35
5.83 6.59 -1.71
4.1 4.64 -0.98
4.77 5.39 0.88
4.12 4.66 -0.76
4.24 4.8 -0.56
4.14 4.69 -0.33
4.1 4.64 -0.11
4.34 4.87 -1.75
4.14 4.64 0.11
5.05 5.67 -1.75
4.31 4.84 0.34
5.85 6.57 -1.71
4.11 4.61 -0.98
4.8 5.39 0.89
4.12 4.63 -0.76
4.26 4.78 -0.56
4.27 4.8 -0.34
4.1 4.61 -0.11
4.35 4.85 -1.75
4.14 4.61 0.11
5.07 5.65 -1.75
4.31 4.81 0.34
5.89 6.56 -1.71
4.09 4.56 -0.97
4.84 5.4 0.89
4.12 4.6 -0.76
15.08 16.81 3.58
4.28 4.77 -0.56
4.28 4.77 -0.34
4.1 4.57 -0.11
4.36 4.83 -1.74
4.14 4.58 0.11
5.09 5.63 -1.75
4.34 4.8 0.34
4.91 5.43 -1.42
4.88 5.4 0.89
4.13 4.57 -0.76
4.23 4.68 -0.55
4.24 4.69 -0.33
14.98 16.59 5.16
4.1 4.54 -0.11
4.37 4.81 -1.74
4.13 4.54 0.11
5.1 5.61 -1.75
4.34 4.77 0.34
4.91 5.4 -1.42
4.1 4.51 -0.96
4.91 5.4 0.9
4.13 4.54 -0.75
16.02 17.61 3.77
4.22 4.64 -0.55
15.19 16.7 4.39
4.26 4.68 -0.33
4.1 4.51 -0.11
4.39 4.79 -1.74
4.14 4.52 0.11
5.11 5.58 -1.75
4.34 4.74 0.34
4.91 5.36 -1.41
4.1 4.48 -0.96
4.94 5.39 0.9
4.13 4.51 -0.75
4.22 4.61 -0.55
13.05 14.24 3.75
4.19 4.57 -0.33
4.11 4.49 -0.11
4.41 4.78 -1.74
4.14 4.49 0.11
5.13 5.56 -1.75
4.31 4.67 0.33
4.91 5.32 -1.41
4.11 4.45 -0.96
4.95 5.37 0.9
4.12 4.47 -0.75
13.49 14.62 3.15
4.21 4.56 -0.54
4.2 4.55 -0.32
4.11 4.45 -0.11
4.42 4.76 -1.74
4.15 4.47 0.11
5.15 5.55 -1.75
4.31 4.64 0.33
4.91 5.28 -1.4
4.11 4.43 -0.96
4.99 5.37 0.9
4.14 4.46 -0.75
4.56 4.91 1.06
4.22 4.55 -0.54
13.13 14.14 3.75
4.13 4.45 -0.32
4.1 4.42 -0.11
4.43 4.73 -1.74
4.14 4.43 0.11
5.17 5.53 -1.75
4.32 4.62 0.33
4.92 5.25 -1.4
4.11 4.4 -0.95
5.02 5.37 0.9
4.16 4.44 -0.75
4.53 4.84 1.05
4.24 4.53 -0.54
12.99 13.89 3.7
4.19 4.48 -0.32
4.11 4.39 -0.1
4.44 4.71 -1.74
4.14 4.39 0.11
5.19 5.51 -1.75
4.33 4.59 0.33
4.95 5.25 -1.4
4.11 4.36 -0.95
5.09 5.4 0.91
4.17 4.42 -0.75
4.51 4.79 1.04
4.2 4.46 -0.54
13.04 13.84 3.7
4.19 4.45 -0.32
4.11 4.36 -0.1
4.46 4.7 -1.74
4.14 4.36 0.1
5.2 5.48 -1.74
4.27 4.5 0.33
4.97 5.24 -1.4
4.11 4.33 -0.95
5.13 5.4 0.91
4.18 4.4 -0.74
4.51 4.76 1.04
4.25 4.48 -0.54
4.19 4.41 -0.32
4.11 4.33 -0.1
4.48 4.69 -1.74
4.14 4.34 0.1
5.22 5.46 -1.74
4.27 4.47 0.32
5 5.23 -1.41
5.13 5.37 0.65
4.11 4.3 -0.94
5.17 5.41 0.92
4.18 4.38 -0.74
4.51 4.73 1.04
4.23 4.43 -0.54
4.12 4.31 -0.31
13.48 14.11 4.51
4.11 4.31 -0.1
4.49 4.67 -1.73
4.14 4.31 0.1
5.23 5.44 -1.74
4.31 4.48 0.33
5.03 5.23 -1.41
5.13 5.34 0.65
4.12 4.28 -0.94
5.21 5.42 0.92
4.19 4.36 -0.74
4.5 4.68 1.03
4.23 4.4 -0.53
13.32 13.85 3.74
4.14 4.31 -0.31
13.72 14.27 4.57
4.11 4.27 -0.1
4.5 4.64 -1.73
4.14 4.28 0.1
5.26 5.43 -1.74
4.35 4.49 0.33
5.06 5.23 -1.42
5.13 5.3 0.65
4.12 4.26 -0.94
5.24 5.41 0.93
4.17 4.31 -0.74
4.5 4.65 1.02
4.23 4.37 -0.53
13.54 13.98 3.78
4.19 4.33 -0.32
13.61 14.05 4.52
4.11 4.24 -0.1
4.51 4.62 -1.73
4.14 4.24 0.1
5.25 5.38 -1.74
4.35 4.46 0.33
5.11 5.24 -1.42
5.14 5.27 0.64
4.12 4.22 -0.93
5.28 5.41 0.93
4.19 4.29 -0.74
4.5 4.62 1.02
4.24 4.35 -0.53
4.21 4.32 -0.32
13.7 14.05 4.53
4.12 4.22 -0.1
4.52 4.61 -1.73
4.15 4.22 0.1
5.23 5.33 -1.72
4.33 4.41 0.32
5.15 5.25 -1.43
5.14 5.23 0.64
4.11 4.18 -0.93
5.31 5.41 0.93
4.18 4.25 -0.73
4.51 4.59 1.02
4.21 4.29 -0.53
4.2 4.28 -0.31
4.12 4.19 -0.1
4.54 4.59 -1.73
4.15 4.2 0.1
5.24 5.3 -1.72
4.26 4.31 0.32
5.2 5.26 -1.44
5.15 5.21 0.64
4.12 4.16 -0.93
5.2 5.26 0.91
4.18 4.22 -0.73
4.5 4.55 1.01
4.22 4.27 -0.53
5.58 5.65 1.54
4.13 4.18 -0.31
5.62 5.68 1.85
4.12 4.16 -0.1
4.55 4.57 -1.73
4.15 4.17 0.1
5.27 5.29 -1.72
4.26 4.28 0.32
5.25 5.28 -1.45
5.12 5.14 0.63
4.12 4.14 -0.92
5.15 5.18 0.9
4.21 4.23 -0.73
4.5 4.52 1.01
4.24 4.26 -0.53
5.61 5.63 1.54
4.14 4.16 -0.31
5.67 5.7 1.86
4.11 4.13 -0.1
13.87 13.93 5.27
4.56 4.55 -1.73
4.15 4.14 0.1
5.3 5.29 -1.73
4.25 4.24 0.31
5.34 5.33 -1.47
5.1 5.09 0.63
4.12 4.11 -0.92
5.17 5.16 0.9
4.22 4.21 -0.73
4.49 4.48 1
4.21 4.2 -0.52
4.19 4.18 -0.31
13.73 13.69 4.48
4.12 4.11 -0.1
14 13.96 5.3
4.57 4.53 -1.73
4.14 4.1 0.1
5.33 5.29 -1.73
4.26 4.22 0.31
4.25 4.21 -1.16
5.11 5.06 0.63
4.11 4.08 -0.92
5.18 5.14 0.9
4.2 4.17 -0.73
4.22 4.19 -0.52
5.7 5.65 1.56
4.2 4.16 -0.31
4.12 4.08 -0.1
13.67 13.54 5.16
4.59 4.52 -1.73
4.15 4.08 0.1
5.35 5.26 -1.73
4.26 4.19 0.31
4.24 4.18 -1.16
5.14 5.06 0.63
4.12 4.05 -0.91
5.39 5.31 0.93
4.24 4.17 -0.73
4.5 4.43 1
4.25 4.18 -0.52
5.72 5.63 1.56
4.17 4.11 -0.31
14.14 13.91 4.58
4.12 4.06 -0.1
13.82 13.6 5.19
4.61 4.5 -1.73
4.15 4.06 0.1
5.37 5.25 -1.73
4.27 4.17 0.31
4.24 4.14 -1.15
5.14 5.03 0.63
5.45 5.33 0.94
4.3 4.21 -0.74
4.52 4.41 1
4.24 4.15 -0.52
5.8 5.67 1.58
4.18 4.08 -0.31
14.08 13.75 4.54
4.12 4.03 -0.1
13.98 13.66 5.24
4.62 4.49 -1.73
4.16 4.04 0.1
5.39 5.23 -1.73
4.32 4.19 0.32
4.24 4.12 -1.15
5.14 4.98 0.63
5.46 5.3 0.93
4.35 4.22 -0.74
4.51 4.38 1
4.24 4.12 -0.52
5.85 5.68 1.59
4.21 4.08 -0.31
13.55 13.15 4.36
4.12 3.99 -0.1
13.86 13.45 5.18
4.62 4.45 -1.72
4.16 4.01 0.1
5.41 5.21 -1.73
4.35 4.19 0.32
5.48 5.28 -1.48
5.15 4.96 0.63
4.14 3.99 -0.91
5.47 5.27 0.93
4.4 4.24 -0.75
4.53 4.36 1
4.21 4.06 -0.51
5.88 5.67 1.59
4.21 4.06 -0.31
13.94 13.44 4.47
4.12 3.97 -0.1
14 13.5 5.21
4.63 4.44 -1.72
4.16 3.99 0.1
5.43 5.19 -1.73
4.29 4.1 0.31
5.51 5.28 -1.48
5.17 4.95 0.63
4.13 3.95 -0.9
5.47 5.24 0.93
4.43 4.24 -0.75
4.52 4.33 0.99
4.24 4.05 -0.51
5.92 5.66 1.59
4.23 4.05 -0.31
14.15 13.55 4.52
4.12 3.95 -0.1
14.14 13.54 5.25
4.65 4.42 -1.72
4.16 3.96 0.1
5.43 5.16 -1.73
4.28 4.07 0.31
5.56 5.28 -1.49
5.22 4.96 0.63
4.13 3.92 -0.9
5.47 5.2 0.93
4.43 4.22 -0.75
4.51 4.29 0.99
4.26 4.05 -0.51
5.95 5.65 1.59
4.2 3.99 -0.3
14.19 13.49 4.52
4.13 3.92 -0.1
14.22 13.52 5.26
4.67 4.41 -1.72
4.16 3.93 0.1
5.44 5.14 -1.73
4.28 4.04 0.31
5.59 5.27 -1.49
6 5.67 0.72
4.13 3.9 -0.9
5.48 5.17 0.93
4.31 4.07 -0.73
4.52 4.26 0.98
4.26 4.02 -0.51
5.99 5.65 1.6
4.2 3.96 -0.3
14.49 13.68 4.6
4.13 3.9 -0.1
4.68 4.39 -1.72
4.17 3.9 0.1
5.46 5.11 -1.73
4.29 4.02 0.31
5.62 5.27 -1.5
6.04 5.66 0.72
4.15 3.89 -0.9
5.49 5.14 0.92
4.29 4.02 -0.72
4.53 4.24 0.98
4.24 3.97 -0.51
6.01 5.63 1.6
4.2 3.93 -0.3
4.76 4.46 1.51
4.12 3.86 -0.1
4.69 4.36 -1.72
4.17 3.87 0.1
5.48 5.1 -1.73
4.29 3.99 0.31
5.66 5.27 -1.5
5.63 5.23 0.67
4.15 3.86 -0.9
5.5 5.11 0.92
4.28 3.99 -0.72
4.53 4.21 0.98
4.23 3.94 -0.51
6.03 5.61 1.6
4.21 3.92 -0.3
14.41 13.4 4.54
4.13 3.84 -0.1
4.71 4.35 -1.72
4.16 3.85 0.1
5.49 5.08 -1.73
4.3 3.97 0.31
5.72 5.29 -1.51
4.13 3.81 -0.89
5.5 5.08 0.92
4.3 3.98 -0.72
4.54 4.2 0.98
4.27 3.95 -0.51
6.05 5.59 1.6
4.31 3.98 -0.31
14.44 13.35 4.54
4.14 3.83 -0.1
4.72 4.33 -1.72
4.16 3.82 0.1
5.5 5.05 -1.72
4.28 3.93 0.3
5.29 4.86 -1.4
6.21 5.7 0.74
4.13 3.79 -0.89
5.5 5.05 0.92
4.39 4.03 -0.73
4.56 4.18 0.98
4.24 3.89 -0.5
6.08 5.58 1.6
4.29 3.93 -0.3
4.15 3.81 -0.1
14.47 13.28 5.26
4.74 4.31 -1.72
4.17 3.8 0.1
5.52 5.03 -1.72
4.2 3.83 0.3
5.26 4.8 -1.38
4.14 3.77 -0.89
5.51 5.02 0.91
4.33 3.95 -0.72
4.57 4.16 0.98
4.26 3.88 -0.5
6.1 5.56 1.6
14.5 13.21 4.53
4.14 3.77 -0.1
4.74 4.29 -1.71
4.17 3.77 0.1
5.54 5.01 -1.72
4.24 3.83 0.3
5.25 4.75 -1.38
5.27 4.77 0.62
4.15 3.75 -0.89
5.52 4.99 0.91
4.28 3.87 -0.71
4.58 4.14 0.98
4.26 3.86 -0.5
6.13 5.55 1.61
4.17 3.78 -0.29
14.49 13.11 4.51
4.14 3.74 -0.1
4.75 4.27 -1.71
4.17 3.75 0.1
5.55 4.99 -1.72
4.29 3.85 0.3
5.27 4.74 -1.38
5.26 4.73 0.62
4.15 3.73 -0.88
5.52 4.96 0.91
4.28 3.85 -0.71
4.6 4.14 0.98
4.23 3.8 -0.5
6.15 5.53 1.61
4.19 3.77 -0.3
14.68 13.2 4.56
4.14 3.72 -0.1
4.77 4.26 -1.71
4.17 3.72 0.1
5.56 4.97 -1.72
4.32 3.86 0.3
5.29 4.72 -1.38
5.25 4.69 0.62
4.14 3.69 -0.88
5.52 4.93 0.91
4.28 3.82 -0.7
4.62 4.12 0.98
4.28 3.82 -0.5
6.18 5.51 1.61
4.19 3.74 -0.29
14.82 13.23 4.59
4.15 3.7 -0.1
4.78 4.24 -1.71
4.17 3.7 0.1
5.57 4.94 -1.72
4.34 3.85 0.3
4.64 4.11 -1.21
5.18 4.6 0.61
4.15 3.68 -0.88
5.51 4.89 0.9
4.28 3.8 -0.7
4.64 4.11 0.98
4.29 3.8 -0.5
6.2 5.5 1.61
4.19 3.71 -0.29
14.62 12.97 4.51
4.16 3.69 -0.1
4.8 4.22 -1.71
4.18 3.68 0.1
5.58 4.92 -1.72
4.34 3.82 0.3
5.3 4.67 -1.37
5.2 4.58 0.61
4.15 3.66 -0.88
5.51 4.85 0.9
4.28 3.77 -0.7
4.66 4.1 0.98
4.31 3.79 -0.5
6.23 5.48 1.61
4.18 3.68 -0.29
14.63 12.88 4.5
4.15 3.65 -0.1
4.81 4.2 -1.71
4.19 3.66 0.1
5.6 4.89 -1.72
4.32 3.78 0.3
5.31 4.64 -1.37
5.22 4.56 0.61
4.18 3.65 -0.88
5.27 4.61 0.86
4.28 3.74 -0.7
4.63 4.05 0.97
4.23 3.69 -0.49
5.84 5.1 1.51
4.21 3.68 -0.29
4.15 3.63 -0.1
4.82 4.18 -1.71
4.19 3.63 0.1
5.62 4.88 -1.72
4.31 3.74 0.3
5.34 4.63 -1.37
5.22 4.53 0.61
4.18 3.63 -0.88
5.28 4.58 0.86
4.28 3.71 -0.7
4.6 3.99 0.96
4.24 3.68 -0.49
5.63 4.88 1.45
4.2 3.64 -0.29
4.16 3.61 -0.1
4.83 4.16 -1.71
4.18 3.6 0.1
5.63 4.85 -1.72
4.32 3.72 0.3
5.36 4.62 -1.37
5.2 4.48 0.6
4.19 3.61 -0.88
5.29 4.56 0.86
4.29 3.69 -0.69
4.71 4.06 0.98
4.25 3.66 -0.49
4.2 3.62 -0.29
4.16 3.59 -0.1
4.85 4.15 -1.71
4.18 3.58 0.1
5.63 4.82 -1.71
4.31 3.69 0.3
5.37 4.6 -1.37
5.18 4.43 0.6
4.21 3.6 -0.88
5.32 4.56 0.86
4.28 3.67 -0.69
4.66 3.99 0.97
4.26 3.65 -0.49
5.65 4.84 1.45
4.19 3.59 -0.29
4.17 3.57 -0.1
4.86 4.13 -1.71
4.19 3.56 0.1
5.65 4.8 -1.71
4.34 3.68 0.3
5.38 4.57 -1.37
5.18 4.4 0.6
4.23 3.59 -0.88
5.19 4.41 0.84
4.29 3.64 -0.69
4.57 3.89 0.95
4.28 3.63 -0.49
5.66 4.81 1.44
4.2 3.57 -0.29
4.18 3.55 -0.1
4.87 4.11 -1.71
4.2 3.54 0.1
5.67 4.78 -1.71
4.3 3.63 0.29
5.38 4.54 -1.37
5.17 4.36 0.59
4.25 3.59 -0.88
4.6 3.88 -0.74
4.56 3.85 0.94
4.29 3.62 -0.49
5.67 4.79 1.44
4.2 3.54 -0.29
4.17 3.52 -0.1
4.88 4.09 -1.7
4.21 3.53 0.1
5.68 4.76 -1.71
4.32 3.62 0.3
5.39 4.52 -1.37
5.17 4.34 0.59
4.26 3.57 -0.88
4.65 3.9 -0.75
4.57 3.83 0.94
4.3 3.6 -0.49
4.2 3.52 -0.29
4.19 3.51 -0.1
4.89 4.06 -1.7
4.21 3.5 0.1
5.69 4.73 -1.71
4.32 3.59 0.29
5.4 4.49 -1.37
5.17 4.3 0.59
4.26 3.55 -0.88
5.12 4.26 0.82
4.6 3.82 -0.73
4.6 3.83 0.95
4.31 3.59 -0.49
5.64 4.69 1.43
4.22 3.51 -0.29
4.19 3.49 -0.1
4.91 4.05 -1.71
4.22 3.48 0.1
5.7 4.71 -1.71
4.31 3.56 0.29
5.41 4.47 -1.36
5.2 4.3 0.59
4.27 3.53 -0.88
5.14 4.24 0.82
4.46 3.68 -0.71
4.62 3.81 0.95
4.27 3.53 -0.48
5.65 4.67 1.42
4.19 3.46 -0.29
4.21 3.48 -0.1
4.92 4.03 -1.7
4.22 3.46 0.1
5.71 4.69 -1.71
4.3 3.53 0.29
5.4 4.43 -1.36
5.23 4.29 0.59
4.3 3.53 -0.88
5.16 4.23 0.82
4.46 3.66 -0.71
4.63 3.8 0.95
4.31 3.53 -0.49
5.66 4.64 1.42
4.2 3.45 -0.28
4.2 3.45 -0.09
4.93 4.01 -1.7
4.23 3.44 0.1
5.73 4.67 -1.71
4.3 3.5 0.29
5.4 4.4 -1.35
5.26 4.28 0.59
4.28 3.49 -0.88
5.21 4.24 0.82
4.46 3.63 -0.71
4.64 3.78 0.95
4.29 3.49 -0.48
5.65 4.6 1.42
4.22 3.44 -0.29
4.2 3.42 -0.09
4.94 3.99 -1.7
4.22 3.42 0.09
5.74 4.65 -1.71
4.3 3.47 0.29
5.4 4.37 -1.35
5.33 4.31 0.6
4.29 3.47 -0.87
5.28 4.27 0.83
4.46 3.6 -0.7
4.68 3.78 0.95
4.25 3.44 -0.48
4.23 3.42 -0.29
4.2 3.4 -0.09
4.94 3.97 -1.7
4.23 3.39 0.09
5.76 4.62 -1.7
4.31 3.46 0.29
4.38 3.52 -1.09
5.32 4.27 0.6
4.21 3.38 -0.86
5.5 4.42 0.87
4.47 3.59 -0.7
4.75 3.82 0.97
4.23 3.4 -0.28
4.85 3.9 1.44
4.19 3.37 -0.09
4.96 3.96 -1.7
4.23 3.37 0.09
5.77 4.6 -1.7
4.31 3.44 0.29
4.39 3.5 -1.09
5.33 4.25 0.6
4.21 3.36 -0.85
5.54 4.41 0.87
4.45 3.55 -0.7
4.77 3.8 0.97
4.31 3.44 -0.48
5.65 4.51 1.41
4.18 3.33 -0.28
5.82 4.64 1.72
4.19 3.34 -0.09
4.98 3.94 -1.7
4.24 3.36 0.09
5.78 4.57 -1.7
4.34 3.44 0.29
5.4 4.28 -1.34
5.1 4.03 0.57
4.26 3.37 -0.86
5.55 4.4 0.87
4.4 3.48 -0.69
4.77 3.78 0.96
5.66 4.48 1.4
4.18 3.31 -0.28
5.91 4.68 1.74
4.19 3.31 -0.09
4.99 3.92 -1.7
4.26 3.35 0.09
5.79 4.55 -1.7
4.36 3.43 0.29
5.41 4.25 -1.34
5.07 3.98 0.56
4.25 3.34 -0.86
5.57 4.38 0.87
4.4 3.46 -0.69
4.78 3.76 0.96
4.25 3.34 -0.47
5.67 4.46 1.4
4.19 3.29 -0.28
5.92 4.65 1.74
4.18 3.29 -0.09
4.99 3.9 -1.7
4.27 3.33 0.09
5.81 4.53 -1.7
5.41 4.22 -1.33
5.06 3.95 0.56
4.21 3.29 -0.85
5.61 4.38 0.87
4.46 3.48 -0.69
4.79 3.74 0.96
4.25 3.31 -0.47
5.66 4.42 1.4
4.19 3.27 -0.28
5.93 4.63 1.74
4.19 3.27 -0.09
5.01 3.88 -1.7
4.27 3.31 0.09
5.82 4.51 -1.7
4.31 3.34 0.29
5.41 4.2 -1.33
5.09 3.94 0.56
4.21 3.26 -0.84
5.66 4.39 0.88
4.55 3.52 -0.71
4.82 3.73 0.96
4.25 3.3 -0.47
5.65 4.38 1.39
4.2 3.26 -0.28
5.92 4.58 1.73
4.2 3.25 -0.09
5.03 3.87 -1.7
4.29 3.3 0.09
5.82 4.48 -1.7
4.32 3.32 0.29
5.06 3.89 -1.24
4.22 3.24 -0.84
5.67 4.36 0.88
4.47 3.44 -0.69
5.45 4.19 1.09
4.26 3.27 -0.47
5.65 4.35 1.39
4.21 3.24 -0.28
5.91 4.54 1.72
4.23 3.25 -0.09
5.04 3.85 -1.7
4.3 3.29 0.09
5.84 4.46 -1.7
4.32 3.3 0.28
5.04 3.85 -1.23
4.39 3.36 0.48
4.22 3.22 -0.84
4.47 3.42 -0.69
5.46 4.17 1.09
4.27 3.26 -0.47
5.66 4.33 1.39
4.22 3.22 -0.28
5.72 4.37 1.66
4.25 3.25 -0.09
5.05 3.83 -1.7
4.32 3.28 0.09
5.85 4.44 -1.7
4.33 3.29 0.29
4.91 3.73 -1.2
4.38 3.32 0.48
4.23 3.2 -0.84
4.44 3.37 0.68
4.49 3.4 -0.69
4.53 3.44 0.9
4.27 3.24 -0.47
5.67 4.3 1.38
4.25 3.22 -0.28
5.89 4.47 1.71
4.27 3.24 -0.09
5.05 3.8 -1.69
4.33 3.26 0.09
5.87 4.42 -1.7
4.35 3.28 0.29
4.81 3.62 -1.17
4.38 3.3 0.48
4.24 3.19 -0.84
4.45 3.35 0.68
4.46 3.35 -0.68
4.51 3.4 0.89
4.3 3.23 -0.47
5.66 4.26 1.38
4.27 3.22 -0.28
5.82 4.38 1.68
4.29 3.23 -0.09
5.06 3.78 -1.69
4.35 3.25 0.09
5.88 4.39 -1.69
4.39 3.28 0.29
4.82 3.6 -1.17
4.41 3.29 0.48
4.24 3.17 -0.84
4.47 3.34 0.69
4.46 3.34 -0.68
4.54 3.39 0.9
4.3 3.21 -0.47
5.66 4.23 1.37
4.29 3.2 -0.28
5.91 4.42 1.7
4.31 3.22 -0.09
5.08 3.77 -1.69
4.38 3.25 0.1
5.88 4.36 -1.69
4.42 3.28 0.29
4.43 3.28 -1.07
4.43 3.29 0.48
4.25 3.15 -0.84
4.49 3.33 0.69
4.44 3.3 -0.68
4.55 3.38 0.9
4.35 3.23 -0.47
5.66 4.2 1.37
4.31 3.19 -0.28
5.92 4.39 1.7
4.33 3.21 -0.09
5.09 3.75 -1.7
4.39 3.24 0.1
5.89 4.34 -1.69
4.44 3.27 0.29
4.41 3.25 -1.06
4.48 3.3 0.49
4.5 3.31 0.69
4.57 3.37 -0.7
4.57 3.37 0.9
4.36 3.21 -0.47
5.66 4.17 1.37
4.32 3.19 -0.28
5.75 4.24 1.65
4.35 3.2 -0.09
5.1 3.73 -1.69
4.43 3.24 0.1
5.91 4.32 -1.69
4.48 3.28 0.29
4.41 3.23 -1.06
5.07 3.71 0.55
4.53 3.31 0.69
4.62 3.38 -0.7
4.59 3.35 0.9
4.45 3.26 -0.48
5.67 4.15 1.37
4.37 3.2 -0.28
5.69 4.17 1.63
4.37 3.2 -0.09
5.11 3.71 -1.69
4.48 3.25 0.1
5.92 4.3 -1.69
4.42 3.21 -1.06
5.05 3.67 0.55
4.32 3.14 -0.85
5.18 3.76 0.79
4.65 3.38 -0.71
4.47 3.25 -0.48
5.66 4.11 1.36
4.42 3.21 -0.29
5.69 4.13 1.62
4.4 3.19 -0.09
5.12 3.69 -1.69
4.51 3.25 0.1
5.93 4.28 -1.69
4.89 3.52 0.32
4.42 3.18 -1.06
5.06 3.65 0.55
4.34 3.13 -0.85
5.42 3.9 0.82
4.69 3.38 -0.71
4.71 3.4 0.92
4.51 3.25 -0.49
5.66 4.08 1.36
4.53 3.26 -0.29
5.7 4.11 1.62
4.52 3.26 -0.1
5.13 3.67 -1.69
4.55 3.26 0.1
5.93 4.25 -1.68
4.64 3.32 0.3
4.43 3.17 -1.06
5.05 3.61 0.54
4.37 3.13 -0.85
5.44 3.89 0.82
4.7 3.37 -0.71
4.75 3.4 0.92
4.55 3.25 -0.49
4.54 3.25 -0.29
5.77 4.13 1.64
4.56 3.27 -0.1
5.15 3.66 -1.69
4.58 3.26 0.1
5.95 4.23 -1.68
4.66 3.31 0.3
4.46 3.17 -1.06
5.05 3.59 0.54
4.4 3.13 -0.86
5.44 3.87 0.82
4.76 3.38 -0.72
4.78 3.39 0.93
4.57 3.25 -0.49
5.79 4.11 1.38
4.59 3.26 -0.29
5.79 4.12 1.64
4.58 3.25 -0.1
5.16 3.64 -1.69
4.62 3.26 0.1
5.96 4.2 -1.68
4.7 3.32 0.3
4.75 3.35 -1.13
5.04 3.55 0.54
4.42 3.12 -0.86
5.46 3.85 0.82
4.76 3.36 -0.72
4.8 3.39 0.93
4.6 3.24 -0.49
5.84 4.12 1.39
4.64 3.27 -0.3
5.91 4.17 1.67
4.6 3.24 -0.1
5.16 3.61 -1.69
4.66 3.26 0.1
5.98 4.18 -1.68
4.74 3.32 0.3
4.74 3.32 -1.12
5.04 3.53 0.54
4.44 3.11 -0.86
4.78 3.35 -0.72
4.83 3.38 0.93
4.64 3.25 -0.5
5.86 4.1 1.39
4.67 3.27 -0.3
5.92 4.14 1.67
4.64 3.25 -0.1
5.17 3.59 -1.69
4.68 3.25 0.1
5.99 4.16 -1.68
4.78 3.32 0.31
4.74 3.29 -1.12
4.86 3.38 0.52
4.79 3.33 -0.72
4.87 3.38 0.94
4.68 3.25 -0.5
5.83 4.05 1.38
4.7 3.26 -0.3
5.92 4.12 1.67
4.68 3.25 -0.1
5.18 3.57 -1.69
5.99 4.13 -1.68
4.81 3.32 0.31
4.75 3.27 -1.12
4.9 3.38 0.52
4.45 3.07 -0.86
5.44 3.75 0.81
4.81 3.31 -0.72
4.92 3.39 0.95
4.72 3.25 -0.5
5.9 4.07 1.39
4.72 3.25 -0.3
5.92 4.08 1.66
4.71 3.25 -0.1
5.21 3.57 -1.69
4.72 3.23 0.1
4.98 3.41 -1.39
4.82 3.3 0.31
4.76 3.26 -1.12
5.23 3.58 0.55
4.63 3.17 -0.89
5.44 3.72 0.81
4.79 3.28 -0.71
4.96 3.39 0.95
4.76 3.26 -0.5
5.89 4.03 1.39
4.77 3.26 -0.3
5.79 3.97 1.62
4.76 3.26 -0.1
5.78 3.96 1.88
5.21 3.54 -1.69
4.82 3.27 0.1
4.99 3.39 -1.39
4.86 3.3 0.31
4.76 3.24 -1.12
5.44 3.7 0.58
4.77 3.24 -0.91
5.44 3.7 0.81
4.8 3.26 -0.71
4.98 3.39 0.95
4.79 3.25 -0.51
5.74 3.9 1.35
4.82 3.27 -0.31
5.76 3.91 1.61
4.78 3.25 -0.1
5.78 3.93 1.87
5.21 3.52 -1.68
4.85 3.27 0.1
4.99 3.37 -1.39
4.89 3.3 0.31
4.77 3.22 -1.12
5.42 3.66 0.57
4.8 3.24 -0.92
5.45 3.67 0.81
4.83 3.26 -0.71
5.03 3.39 0.96
4.81 3.25 -0.51
5.76 3.88 1.35
4.85 3.27 -0.31
5.78 3.9 1.61
4.83 3.26 -0.1
5.75 3.88 1.86
5.23 3.5 -1.68
4.87 3.26 0.1
4.98 3.34 -1.38
4.92 3.3 0.31
4.79 3.21 -1.12
5.42 3.63 0.57
4.8 3.22 -0.92
5.48 3.67 0.81
4.84 3.24 -0.72
5.07 3.39 0.97
4.86 3.25 -0.51
5.77 3.86 1.35
4.89 3.27 -0.31
5.83 3.9 1.62
4.87 3.26 -0.1
5.85 3.91 1.88
5.23 3.47 -1.68
4.93 3.27 0.1
4.97 3.31 -1.38
4.96 3.29 0.31
4.8 3.19 -1.12
5.43 3.61 0.57
4.81 3.19 -0.91
4.85 3.22 -0.71
5.12 3.4 0.97
4.91 3.26 -0.52
5.89 3.91 1.37
4.92 3.27 -0.31
5.91 3.93 1.64
4.91 3.26 -0.1
5.25 3.46 -1.69
4.96 3.27 0.1
4.98 3.28 -1.38
4.99 3.29 0.31
4.81 3.17 -1.12
5.74 3.79 0.6
4.81 3.17 -0.91
4.84 3.19 -0.71
5.17 3.41 0.98
4.95 3.27 -0.31
5.87 3.87 1.62
4.94 3.26 -0.1
5.26 3.44 -1.68
5 3.27 0.1
4.98 3.26 -1.37
5.03 3.29 0.31
4.8 3.14 -1.12
7.4 4.84 0.77
4.83 3.16 -0.92
4.85 3.17 -0.71
5.22 3.41 0.99
4.94 3.23 -0.52
5.91 3.86 1.37
5 3.27 -0.31
5.91 3.87 1.63
4.98 3.26 -0.1
5.27 3.42 -1.68
5.04 3.28 0.1
4.98 3.24 -1.37
5.08 3.3 0.32
4.82 3.13 -1.12
5.77 3.75 0.6
4.87 3.17 -0.92
5.91 3.84 0.87
4.88 3.17 -0.71
4.94 3.21 -0.52
5.05 3.28 -0.32
6.12 3.97 1.68
5.02 3.26 -0.1
5.26 3.39 -1.68
5.08 3.28 0.11
5.02 3.24 -1.38
5.12 3.3 0.32
4.85 3.13 -1.12
5.48 3.53 0.57
4.89 3.15 -0.92
4.9 3.16 -0.72
4.8 3.09 0.9
4.95 3.19 -0.52
7.29 4.7 1.69
5.08 3.28 -0.32
6.15 3.96 1.69
5.08 3.27 -0.11
5.28 3.38 -1.68
5.12 3.28 0.11
5.04 3.22 -1.38
5.17 3.3 0.32
5.6 3.58 0.58
4.98 3.18 -0.94
4.8 3.07 0.7
4.9 3.14 -0.71
4.82 3.08 0.91
4.96 3.17 -0.52
7.33 4.69 1.69
5.12 3.27 -0.32
6.16 3.94 1.69
5.12 3.28 -0.11
5.3 3.36 -1.68
5.18 3.29 0.11
5.07 3.22 -1.39
5.2 3.3 0.32
5.02 3.18 -1.15
5.56 3.53 0.58
5.05 3.21 -0.95
4.78 3.03 0.69
4.93 3.13 -0.72
4.82 3.06 0.9
4.98 3.16 -0.52
7.34 4.66 1.69
6.16 3.91 1.68
5.15 3.27 -0.11
5.3 3.34 -1.68
5.22 3.29 0.11
5.08 3.2 -1.39
5.25 3.31 0.33
5.05 3.18 -1.16
5.45 3.43 0.56
5.08 3.2 -0.95
4.79 3.01 0.69
4.99 3.14 -0.72
4.81 3.03 0.9
4.99 3.15 -0.52
7.35 4.63 1.69
5.18 3.26 -0.32
6.19 3.9 1.69
5.19 3.27 -0.11
5.31 3.32 -1.68
5.25 3.28 0.11
5.12 3.2 -1.4
5.1 3.19 -1.17
4.78 2.99 0.49
5.11 3.19 -0.95
4.79 2.99 0.69
5.18 3.24 -0.75
4.72 2.95 0.88
5.01 3.13 -0.52
7.36 4.6 1.69
5.2 3.25 -0.32
6.2 3.88 1.69
5.24 3.28 -0.11
5.31 3.3 -1.68
5.3 3.28 0.11
5.16 3.2 -1.4
4.77 2.96 0.29
5.15 3.2 -1.18
4.76 2.95 0.49
5.15 3.2 -0.96
4.8 2.98 0.69
5.23 3.24 -0.76
4.84 3 0.9
5.07 3.14 -0.52
7.35 4.56 1.68
5.2 3.23 -0.32
6.23 3.86 1.69
5.29 3.28 -0.11
5.32 3.28 -1.68
5.34 3.29 0.11
5.2 3.2 -1.41
5.39 3.32 0.33
5.22 3.21 -1.19
5.46 3.36 0.56
5.21 3.21 -0.97
4.83 2.97 0.7
5.26 3.24 -0.76
4.87 2.99 0.9
5.11 3.15 -0.53
7.38 4.54 1.69
5.21 3.21 -0.32
6.24 3.84 1.69
5.34 3.29 -0.11
5.34 3.26 -1.68
5.4 3.3 0.11
5.25 3.21 -1.42
5.43 3.32 0.33
5.24 3.2 -1.19
5.51 3.36 0.56
5.31 3.24 -0.99
4.85 2.96 0.7
5.3 3.23 -0.76
4.91 3 0.91
6.01 3.67 -0.62
7.41 4.53 1.69
5.24 3.2 -0.32
6.26 3.82 1.69
5.35 3.24 -1.68
5.45 3.3 0.11
5.31 3.22 -1.43
5.49 3.33 0.34
5.26 3.19 -1.19
7.4 4.48 0.76
5.3 3.21 -0.98
5.35 3.24 -0.77
7.27 4.41 1.35
5.99 3.63 -0.61
7.43 4.5 1.69
5.28 3.2 -0.32
6.27 3.8 1.69
5.46 3.31 -0.11
5.34 3.21 -1.67
5.49 3.3 0.11
5.37 3.23 -1.45
5.54 3.33 0.34
5.26 3.16 -1.19
7.37 4.43 0.75
5.32 3.2 -0.98
7.3 4.39 1.05
5.37 3.23 -0.77
7.29 4.38 1.35
5.98 3.59 -0.61
7.42 4.46 1.68
5.3 3.18 -0.32
6.29 3.78 1.69
5.49 3.3 -0.11
5.36 3.2 -1.67
5.55 3.31 0.11
5.41 3.23 -1.45
7.57 4.52 0.46
5.27 3.14 -1.19
7.36 4.39 0.75
5.33 3.18 -0.98
7.29 4.34 1.04
5.43 3.24 -0.78
7.21 4.3 1.33
5.98 3.56 -0.61
7.46 4.45 1.69
5.32 3.18 -0.32
6.31 3.76 1.7
5.53 3.29 -0.11
5.37 3.18 -1.67
7.83 4.63 0.16
5.45 3.22 -1.46
7.56 4.47 0.46
5.33 3.15 -1.2
7.28 4.31 0.74
5.33 3.16 -0.98
7.21 4.27 1.03
5.47 3.24 -0.78
7.22 4.27 1.33
