# .PCD v0.7 - Point Cloud Data file format
VERSION 0.7
FIELDS x y z
SIZE 4 4 4
TYPE F F F
COUNT 1 1 1
WIDTH 2737
HEIGHT 1
VIEWPOINT 0 0 0 1 0 0 0
POINTS 2737
DATA ascii
1.63 -6.36 -1.52
3.94 -15.42 0.83
1.86 -7.29 -1.46
3.84 -15 1.35
2.17 -8.5 -1.39
3.48 -13.63 1.73
2.4 -9.38 -1.19
3.9 -15.25 2.49
3.9 -15.27 -1.38
3.89 -15.22 3.05
3.89 -15.22 3.63
3.88 -15.18 4.2
1.4 -5.57 -1.54
3.98 -15.79 0.28
1.6 -6.36 -1.51
3.88 -15.41 0.83
1.84 -7.3 -1.46
3.78 -14.99 1.35
2.14 -8.49 -1.39
3.43 -13.61 1.72
2.35 -9.34 -1.18
3.84 -15.25 2.49
2.32 -9.21 -0.83
3.83 -15.21 3.05
3.98 -15.79 -0.85
3.83 -15.22 3.62
3.82 -15.18 4.19
1.38 -5.57 -1.54
3.92 -15.8 0.28
1.58 -6.37 -1.52
3.82 -15.38 0.83
1.81 -7.31 -1.46
3.72 -14.98 1.35
2.11 -8.51 -1.39
3.37 -13.6 1.72
2.29 -9.23 -1.17
3.78 -15.24 2.49
2.26 -9.1 -0.82
3.79 -15.26 3.06
2.72 -10.98 -0.59
3.78 -15.25 3.63
3.92 -15.8 -0.28
3.76 -15.15 4.18
1.36 -5.57 -1.54
3.85 -15.76 0.28
1.56 -6.38 -1.52
3.76 -15.37 0.83
1.79 -7.31 -1.46
3.65 -14.94 1.35
2.08 -8.52 -1.39
3.33 -13.6 1.72
2.26 -9.23 -1.17
3.72 -15.21 2.48
2.22 -9.07 -0.82
3.74 -15.31 3.06
2.69 -11 -0.59
3.74 -15.3 3.64
3.86 -15.77 -0.28
3.7 -15.14 4.18
1.34 -5.56 -1.53
3.8 -15.78 0.28
1.54 -6.39 -1.52
3.7 -15.36 0.83
1.76 -7.31 -1.46
3.59 -14.93 1.34
2.05 -8.52 -1.39
3.27 -13.57 1.71
2.21 -9.19 -1.16
3.65 -15.19 2.47
2.19 -9.08 -0.82
3.68 -15.29 3.06
2.65 -11.01 -0.59
3.68 -15.29 3.63
3.8 -15.79 -0.28
3.64 -15.12 4.17
1.32 -5.56 -1.53
1.52 -6.39 -1.52
3.64 -15.34 0.83
1.74 -7.32 -1.46
3.54 -14.92 1.34
2.02 -8.52 -1.39
2.2 -9.27 -1.17
3.6 -15.18 2.47
2.16 -9.12 -0.82
2.61 -11 -0.59
3.59 -15.11 4.16
1.3 -5.56 -1.53
1.49 -6.39 -1.51
3.58 -15.32 0.82
1.71 -7.33 -1.46
3.48 -14.91 1.34
1.99 -8.53 -1.39
3.16 -13.55 1.71
2.1 -8.99 -1.13
3.54 -15.16 2.47
2.12 -9.09 -0.82
3.65 -15.65 3.12
2.56 -10.99 -0.59
3.66 -15.66 3.71
2.59 -11.08 -0.2
3.52 -15.09 4.15
1.28 -5.56 -1.53
1.47 -6.39 -1.51
3.52 -15.3 0.82
1.69 -7.33 -1.46
3.43 -14.9 1.34
1.96 -8.54 -1.39
3.11 -13.53 1.7
2.05 -8.93 -1.12
3.48 -15.14 2.46
2.1 -9.13 -0.82
3.52 -15.31 3.05
2.53 -10.99 -0.59
3.6 -15.66 3.71
2.54 -11.06 -0.2
3.47 -15.09 4.15
1.25 -5.55 -1.52
3.45 -15.24 0.27
1.45 -6.4 -1.51
3.44 -15.23 0.82
1.66 -7.33 -1.46
3.37 -14.88 1.34
1.93 -8.55 -1.39
3.06 -13.52 1.7
2.02 -8.94 -1.13
3.42 -15.12 2.46
2.05 -9.09 -0.82
3.45 -15.26 3.04
2.48 -10.99 -0.59
3.53 -15.63 3.7
3.44 -15.21 -0.27
3.41 -15.06 4.14
1.23 -5.54 -1.52
3.38 -15.18 0.27
1.43 -6.41 -1.52
3.37 -15.16 0.81
1.63 -7.33 -1.46
3.31 -14.86 1.33
1.9 -8.55 -1.39
3 -13.51 1.7
1.99 -8.96 -1.13
3.36 -15.12 2.45
2.01 -9.04 -0.81
3.39 -15.22 3.03
2.45 -10.99 -0.59
3.48 -15.66 3.7
2.46 -11.08 -0.2
3.35 -15.04 4.13
1.21 -5.53 -1.52
3.31 -15.16 0.27
1.4 -6.4 -1.51
3.31 -15.16 0.81
1.61 -7.35 -1.46
3.24 -14.85 1.33
1.87 -8.55 -1.39
2.95 -13.49 1.7
1.96 -8.97 -1.13
3.3 -15.11 2.45
1.98 -9.08 -0.81
3.32 -15.2 3.02
2.4 -11 -0.59
3.41 -15.61 3.69
2.42 -11.09 -0.2
3.29 -15.03 4.12
1.19 -5.53 -1.52
3.26 -15.15 0.27
1.38 -6.4 -1.51
3.26 -15.14 0.81
1.58 -7.35 -1.46
3.19 -14.83 1.33
1.84 -8.56 -1.39
1.92 -8.9 -1.12
3.25 -15.09 2.45
1.97 -9.15 -0.82
3.27 -15.19 3.02
2.37 -10.99 -0.59
3.36 -15.59 3.68
2.39 -11.08 -0.2
3.24 -15.03 4.12
1.17 -5.53 -1.51
3.2 -15.14 0.27
1.35 -6.4 -1.51
3.2 -15.11 0.81
1.56 -7.35 -1.46
3.13 -14.82 1.33
1.81 -8.57 -1.39
2.85 -13.46 1.69
1.87 -8.83 -1.11
3.19 -15.06 2.44
1.93 -9.11 -0.81
3.21 -15.17 3.01
2.32 -10.99 -0.59
3.29 -15.57 3.67
2.34 -11.09 -0.2
3.18 -15.02 4.11
1.15 -5.53 -1.51
3.14 -15.12 0.27
1.33 -6.41 -1.51
3.14 -15.09 0.81
1.53 -7.35 -1.46
3.08 -14.81 1.32
1.78 -8.58 -1.39
2.79 -13.44 1.69
1.84 -8.87 -1.11
3.13 -15.04 2.43
1.89 -9.12 -0.81
3.15 -15.15 3.01
2.29 -11 -0.59
3.23 -15.56 3.67
3.15 -15.14 -0.27
3.12 -15.03 4.11
1.13 -5.52 -1.51
3.1 -15.17 0.27
1.31 -6.42 -1.51
3.09 -15.15 0.81
1.5 -7.36 -1.46
3.02 -14.79 1.32
1.75 -8.59 -1.39
2.74 -13.45 1.69
1.81 -8.89 -1.11
3.07 -15.03 2.43
1.86 -9.14 -0.82
3.09 -15.14 3
2.24 -11 -0.59
3.09 -15.13 3.57
2.26 -11.06 -0.2
3.07 -15.04 4.11
1.11 -5.52 -1.51
3.05 -15.17 0.27
1.29 -6.42 -1.51
3.05 -15.17 0.81
1.48 -7.37 -1.46
2.97 -14.78 1.32
1.72 -8.58 -1.39
2.7 -13.42 1.68
1.76 -8.78 -1.1
3.02 -15.01 2.43
1.83 -9.13 -0.81
3.03 -15.1 2.99
2.21 -11 -0.59
3.04 -15.11 3.56
2.22 -11.07 -0.2
3.02 -15.03 4.11
1.09 -5.52 -1.51
1.27 -6.42 -1.51
1.45 -7.37 -1.46
2.91 -14.77 1.32
1.69 -8.59 -1.39
2.64 -13.4 1.68
1.72 -8.73 -1.09
2.96 -15.02 2.42
1.79 -9.1 -0.81
2.98 -15.1 2.99
2.17 -10.99 -0.59
2.98 -15.1 3.55
2.96 -15.02 4.1
1.07 -5.52 -1.51
1.24 -6.42 -1.51
1.43 -7.37 -1.46
2.86 -14.75 1.31
1.67 -8.6 -1.39
2.59 -13.38 1.67
1.68 -8.68 -1.09
2.9 -15 2.42
1.77 -9.14 -0.81
2.92 -15.09 2.99
2.13 -10.99 -0.59
2.93 -15.12 3.56
3.04 -15.72 -0.28
2.91 -15.02 4.1
1.05 -5.52 -1.51
3.62 -19.05 0.34
1.22 -6.43 -1.51
3.61 -19.01 1.01
1.4 -7.38 -1.46
2.8 -14.73 1.31
1.64 -8.6 -1.39
2.54 -13.37 1.67
1.66 -8.75 -1.09
2.85 -14.98 2.41
1.76 -9.26 -0.82
2.87 -15.09 2.99
2.09 -10.99 -0.59
2.94 -15.45 3.63
2.91 -15.33 -0.27
2.85 -14.99 4.09
1.03 -5.52 -1.5
3.58 -19.22 0.34
1.2 -6.44 -1.51
3.57 -19.15 1.02
1.38 -7.38 -1.46
2.74 -14.7 1.31
1.61 -8.62 -1.39
2.49 -13.37 1.67
1.63 -8.75 -1.09
2.79 -14.97 2.41
1.72 -9.24 -0.82
2.81 -15.08 2.98
2.09 -11.19 -0.6
2.88 -15.47 3.63
2.87 -15.39 -0.27
2.79 -14.97 4.08
1.01 -5.51 -1.5
3.54 -19.37 0.34
1.18 -6.44 -1.51
3.53 -19.32 1.03
1.35 -7.39 -1.46
2.69 -14.7 1.31
1.57 -8.61 -1.39
2.44 -13.35 1.67
1.6 -8.77 -1.1
2.73 -14.95 2.41
2.08 -11.39 -1.01
2.75 -15.06 2.98
2.06 -11.26 -0.6
2.82 -15.45 3.63
2.73 -14.95 4.07
0.99 -5.51 -1.5
3.49 -19.5 0.35
1.15 -6.44 -1.51
3.49 -19.48 1.04
1.33 -7.4 -1.46
2.63 -14.69 1.31
1.54 -8.62 -1.39
2.39 -13.35 1.66
1.61 -9 -1.12
2.68 -14.94 2.4
2.71 -15.11 -1.34
2.69 -15.03 2.97
2.5 -13.95 -0.74
2.77 -15.45 3.62
2.75 -15.36 -0.27
2.68 -14.94 4.07
0.97 -5.51 -1.5
3.46 -19.69 0.35
1.13 -6.44 -1.51
3.45 -19.63 1.04
1.3 -7.39 -1.46
2.58 -14.67 1.3
1.51 -8.63 -1.39
2.34 -13.34 1.66
1.53 -8.72 -1.09
2.62 -14.92 2.4
2.65 -15.11 -1.34
2.64 -15.01 2.96
2.44 -13.91 -0.74
2.71 -15.41 3.61
2.62 -14.93 4.06
0.95 -5.51 -1.5
3.42 -19.86 0.35
1.11 -6.45 -1.51
3.4 -19.79 1.05
1.27 -7.39 -1.46
2.52 -14.66 1.3
1.48 -8.63 -1.39
2.29 -13.34 1.66
1.51 -8.79 -1.09
2.56 -14.9 2.39
2.6 -15.11 -1.34
2.58 -15.01 2.96
2.39 -13.88 -0.74
2.65 -15.42 3.61
2.57 -14.92 4.06
0.93 -5.52 -1.5
3.34 -19.82 0.35
1.09 -6.45 -1.51
3.36 -19.96 1.06
1.25 -7.4 -1.46
2.47 -14.64 1.3
1.45 -8.63 -1.39
2.24 -13.32 1.66
1.47 -8.71 -1.08
2.51 -14.89 2.39
1.55 -9.2 -0.82
2.52 -14.98 2.95
2.33 -13.86 -0.74
2.59 -15.39 3.6
2.51 -14.9 4.05
0.92 -5.56 -1.51
3.21 -19.48 0.34
1.07 -6.47 -1.51
3.24 -19.63 1.04
1.22 -7.41 -1.46
2.41 -14.64 1.3
1.42 -8.63 -1.38
2.19 -13.31 1.66
1.45 -8.77 -1.09
2.45 -14.89 2.39
2.48 -15.05 -1.33
2.47 -14.96 2.95
2.28 -13.84 -0.73
2.54 -15.38 3.6
2.45 -14.89 4.04
0.9 -5.61 -1.52
3.14 -19.49 0.34
1.04 -6.46 -1.51
3.15 -19.56 1.04
1.19 -7.41 -1.46
2.36 -14.62 1.3
1.39 -8.63 -1.38
2.14 -13.28 1.65
1.42 -8.79 -1.09
2.4 -14.88 2.39
2.43 -15.06 -1.33
2.41 -14.95 2.94
2.23 -13.82 -0.73
2.48 -15.37 3.59
2.91 -18.02 -0.32
2.4 -14.88 4.04
0.89 -5.62 -1.52
3.08 -19.53 0.35
1.02 -6.46 -1.51
3.08 -19.54 1.04
1.17 -7.41 -1.46
2.3 -14.62 1.29
1.36 -8.64 -1.39
2.09 -13.26 1.65
1.39 -8.83 -1.1
2.34 -14.86 2.38
2.36 -14.94 2.94
2.18 -13.8 -0.73
2.36 -14.94 3.49
2.84 -18.02 -0.32
2.35 -14.87 4.03
0.86 -5.61 -1.52
3 -19.45 0.34
1 -6.47 -1.51
3.01 -19.53 1.04
1.14 -7.41 -1.46
2.25 -14.59 1.29
1.33 -8.64 -1.39
2.04 -13.25 1.65
1.36 -8.85 -1.1
2.29 -14.84 2.38
2.31 -15.02 -1.33
2.29 -14.87 2.92
2.7 -17.51 -0.93
2.29 -14.84 3.47
2.77 -17.99 -0.32
2.28 -14.79 4.01
0.84 -5.58 -1.51
2.94 -19.54 0.34
0.97 -6.47 -1.51
2.94 -19.52 1.03
1.12 -7.41 -1.46
2.19 -14.56 1.29
1.3 -8.66 -1.39
1.99 -13.25 1.64
1.32 -8.8 -1.09
2.23 -14.83 2.37
2.26 -15 -1.33
2.23 -14.8 2.91
2.63 -17.5 -0.93
2.23 -14.79 3.45
2.71 -17.99 -0.32
2.22 -14.76 4
0.82 -5.58 -1.51
2.86 -19.45 0.34
0.95 -6.48 -1.51
2.86 -19.49 1.03
1.09 -7.41 -1.46
2.14 -14.56 1.29
1.27 -8.67 -1.39
1.94 -13.24 1.64
1.29 -8.78 -1.09
2.18 -14.81 2.37
2.2 -14.99 -1.33
2.17 -14.78 2.9
2.57 -17.46 -0.92
2.17 -14.78 3.45
2.93 -19.93 -0.35
2.17 -14.75 4
0.8 -5.56 -1.51
2.78 -19.41 0.34
0.93 -6.46 -1.51
2.79 -19.48 1.03
1.06 -7.41 -1.46
2.08 -14.55 1.29
1.25 -8.7 -1.39
1.89 -13.22 1.64
1.26 -8.79 -1.09
2.12 -14.8 2.37
2.08 -14.53 -1.28
2.11 -14.76 2.9
2.08 -14.53 -0.77
2.12 -14.77 3.45
2.14 -14.95 -0.26
2.11 -14.73 3.99
0.78 -5.57 -1.51
2.08 -14.92 0.26
0.9 -6.48 -1.51
2.08 -14.9 0.79
1.04 -7.41 -1.46
2.03 -14.54 1.28
1.22 -8.72 -1.39
1.84 -13.19 1.64
1.23 -8.77 -1.09
2.06 -14.77 2.36
1.46 -10.47 -0.92
2.06 -14.76 2.9
2.09 -14.98 -0.79
2.06 -14.75 3.44
2.09 -14.93 -0.26
2.06 -14.73 3.98
0.76 -5.61 -1.52
2.03 -14.91 0.26
0.88 -6.48 -1.51
2.03 -14.89 0.79
1.01 -7.41 -1.45
1.98 -14.53 1.28
1.19 -8.73 -1.4
1.8 -13.19 1.63
1.19 -8.74 -1.08
2.01 -14.77 2.36
1.43 -10.47 -0.92
2.01 -14.74 2.89
1.44 -10.55 -0.56
2.01 -14.73 3.43
2.03 -14.93 -0.26
2 -14.7 3.98
0.75 -5.63 -1.52
0.86 -6.49 -1.51
0.98 -7.42 -1.45
1.92 -14.5 1.28
1.16 -8.72 -1.39
1.76 -13.23 1.64
1.17 -8.83 -1.09
1.96 -14.76 2.36
1.39 -10.44 -0.92
1.95 -14.72 2.89
1.4 -10.57 -0.56
1.95 -14.72 3.43
1.95 -14.67 3.97
0.73 -5.67 -1.53
2.5 -19.32 0.34
0.84 -6.5 -1.51
0.96 -7.43 -1.46
1.87 -14.49 1.28
1.12 -8.71 -1.39
1.13 -8.74 -1.08
1.9 -14.75 2.36
1.35 -10.44 -0.92
1.9 -14.7 2.88
1.37 -10.57 -0.56
1.9 -14.72 3.43
2.55 -19.74 -0.35
1.89 -14.66 3.96
0.71 -5.68 -1.53
2.42 -19.28 0.34
0.82 -6.49 -1.51
2.44 -19.42 1.03
0.93 -7.43 -1.46
1.82 -14.48 1.28
1.1 -8.74 -1.39
1.85 -14.72 1.82
1.09 -8.69 -1.08
1.85 -14.73 2.35
1.31 -10.44 -0.92
1.84 -14.68 2.88
1.33 -10.56 -0.56
1.85 -14.7 3.42
2.48 -19.73 -0.35
1.84 -14.65 3.96
0.69 -5.69 -1.54
2.35 -19.28 0.34
0.79 -6.49 -1.51
2.36 -19.35 1.02
0.91 -7.43 -1.46
1.77 -14.46 1.27
1.07 -8.75 -1.4
1.8 -14.71 1.82
1.06 -8.68 -1.07
1.8 -14.71 2.35
1.27 -10.43 -0.92
1.79 -14.68 2.87
1.29 -10.59 -0.56
1.79 -14.68 3.41
2.41 -19.71 -0.35
1.79 -14.65 3.95
0.67 -5.69 -1.54
2.29 -19.3 0.34
0.77 -6.5 -1.51
2.29 -19.33 1.02
0.88 -7.43 -1.45
1.71 -14.45 1.27
1.04 -8.76 -1.4
1.55 -13.11 1.62
1.03 -8.67 -1.07
1.74 -14.68 2.34
1.24 -10.43 -0.92
1.74 -14.68 2.87
1.26 -10.65 -0.56
1.74 -14.66 3.41
2.33 -19.7 -0.35
1.73 -14.64 3.95
0.66 -5.74 -1.55
2.23 -19.38 0.34
0.75 -6.5 -1.51
2.22 -19.31 1.02
0.85 -7.43 -1.45
1.66 -14.44 1.27
1.01 -8.78 -1.4
1.51 -13.11 1.62
0.99 -8.65 -1.07
1.69 -14.67 2.34
1.2 -10.41 -0.92
1.69 -14.66 2.87
1.23 -10.7 -0.56
1.68 -14.65 3.4
2.26 -19.65 -0.35
1.68 -14.62 3.94
0.64 -5.75 -1.55
2.16 -19.35 0.34
0.73 -6.5 -1.51
2.15 -19.29 1.02
0.83 -7.44 -1.45
1.61 -14.43 1.27
0.98 -8.77 -1.4
1.46 -13.08 1.62
0.96 -8.64 -1.07
1.64 -14.67 2.34
1.16 -10.41 -0.92
1.63 -14.63 2.86
1.2 -10.72 -0.57
1.63 -14.64 3.4
2.19 -19.66 -0.35
1.46 -13.11 3.53
0.62 -5.76 -1.55
2.09 -19.33 0.34
0.7 -6.49 -1.51
2.08 -19.27 1.02
0.8 -7.43 -1.45
1.56 -14.41 1.27
0.95 -8.77 -1.4
1.41 -13.08 1.62
0.94 -8.66 -1.07
1.42 -13.17 2.1
1.13 -10.41 -0.92
1.42 -13.13 2.57
1.16 -10.71 -0.56
1.42 -13.14 3.05
1.15 -10.62 -0.19
1.42 -13.09 3.53
0.6 -5.76 -1.55
2.02 -19.34 0.34
0.68 -6.5 -1.51
2.01 -19.24 1.01
0.78 -7.43 -1.45
1.51 -14.4 1.27
0.92 -8.78 -1.4
1.37 -13.06 1.61
0.91 -8.67 -1.07
1.37 -13.14 2.09
1.09 -10.4 -0.91
1.37 -13.1 2.56
1.12 -10.71 -0.56
1.37 -13.1 3.04
1.11 -10.59 -0.19
1.37 -13.07 3.52
0.58 -5.76 -1.55
1.95 -19.33 0.34
0.66 -6.51 -1.51
1.94 -19.24 1.01
0.75 -7.43 -1.45
1.45 -14.38 1.26
0.89 -8.79 -1.4
1.32 -13.06 1.61
0.88 -8.73 -1.08
1.32 -13.13 2.09
0.88 -8.69 -0.76
1.32 -13.11 2.56
1.08 -10.67 -0.56
1.32 -13.11 3.04
1.07 -10.58 -0.19
1.32 -13.09 3.53
0.56 -5.75 -1.55
1.88 -19.31 0.34
0.63 -6.52 -1.51
1.87 -19.23 1.01
0.72 -7.43 -1.45
1.4 -14.36 1.26
0.86 -8.78 -1.4
1.27 -13.05 1.61
0.86 -8.78 -1.08
0.85 -8.71 -0.77
1.03 -10.62 -0.56
1.28 -13.11 3.04
1.04 -10.64 -0.19
1.27 -13.06 3.52
0.54 -5.75 -1.55
1.81 -19.28 0.34
0.61 -6.52 -1.51
1.8 -19.23 1.01
0.7 -7.44 -1.45
1.35 -14.34 1.26
0.82 -8.76 -1.39
1.22 -13.04 1.61
0.81 -8.59 -1.06
0.81 -8.68 -0.76
0.99 -10.54 -0.55
1.83 -19.56 -0.34
0.52 -5.76 -1.55
1.74 -19.27 0.34
0.59 -6.52 -1.51
1.78 -19.66 1.03
0.67 -7.45 -1.45
1.3 -14.33 1.26
0.79 -8.79 -1.4
1.18 -13.01 1.6
0.77 -8.56 -1.06
1.19 -13.19 2.1
0.79 -8.79 -0.77
1.19 -13.15 2.57
0.95 -10.5 -0.55
1.2 -13.22 3.06
1.19 -13.22 3.56
0.5 -5.78 -1.55
1.67 -19.24 0.34
0.57 -6.53 -1.51
1.7 -19.59 1.03
0.65 -7.45 -1.45
1.25 -14.33 1.26
0.76 -8.8 -1.4
1.13 -13.01 1.6
0.74 -8.54 -1.05
1.15 -13.18 2.1
0.77 -8.84 -0.78
1.14 -13.15 2.57
0.91 -10.49 -0.55
1.15 -13.18 3.06
1.15 -13.23 3.56
0.48 -5.77 -1.55
1.61 -19.24 0.34
1.6 -19.18 1.01
0.62 -7.45 -1.45
1.19 -14.31 1.26
0.74 -8.83 -1.4
1.09 -12.99 1.6
0.72 -8.59 -1.06
1.1 -13.16 2.09
0.74 -8.83 -0.78
1.1 -13.14 2.56
0.88 -10.48 -0.55
1.1 -13.18 3.05
1.1 -13.17 3.54
0.46 -5.77 -1.55
1.53 -19.21 0.34
1.37 -17.14 0.9
0.6 -7.47 -1.46
1.14 -14.29 1.25
0.7 -8.82 -1.4
1.04 -12.99 1.6
0.68 -8.59 -1.06
1.05 -13.17 2.09
0.83 -10.35 -0.91
1.05 -13.12 2.56
0.84 -10.48 -0.55
1.05 -13.16 3.05
1.05 -13.14 3.53
0.44 -5.77 -1.55
1.12 -14.67 0.26
1.12 -14.67 0.77
1.09 -14.28 1.25
0.67 -8.81 -1.4
0.99 -12.97 1.6
0.66 -8.62 -1.06
1.01 -13.19 2.09
0.67 -8.8 -0.77
1 -13.11 2.56
0.8 -10.46 -0.55
1.01 -13.17 3.05
1.12 -14.69 -0.26
1.01 -13.19 3.54
0.42 -5.76 -1.55
1.07 -14.64 0.26
1.07 -14.61 0.77
1.04 -14.28 1.25
0.64 -8.74 -1.39
0.94 -12.95 1.59
0.63 -8.59 -1.06
0.96 -13.18 2.09
0.64 -8.76 -0.77
0.95 -13.09 2.55
1.07 -14.69 -0.77
0.96 -13.15 3.04
1.07 -14.67 -0.26
0.96 -13.12 3.52
0.4 -5.78 -1.55
1.02 -14.67 0.26
1.02 -14.62 0.77
0.52 -7.48 -1.46
0.99 -14.27 1.25
0.61 -8.81 -1.4
0.9 -12.94 1.59
0.6 -8.58 -1.06
0.91 -13.11 2.08
0.61 -8.76 -0.77
0.91 -13.1 2.55
0.74 -10.68 -0.56
0.9 -12.97 3
1.02 -14.68 -0.26
0.9 -12.97 3.48
0.38 -5.78 -1.55
1.26 -19.15 0.34
0.49 -7.48 -1.46
0.94 -14.25 1.25
0.57 -8.7 -1.38
0.85 -12.94 1.59
0.57 -8.61 -1.06
0.97 -14.68 -1.29
0.86 -12.99 2.53
1.12 -17.06 -0.9
0.85 -12.96 3
0.85 -12.97 3.48
0.36 -5.81 -1.56
1.19 -19.03 0.33
1.19 -19.05 1
0.89 -14.23 1.25
0.55 -8.74 -1.39
0.81 -12.93 1.59
0.53 -8.49 -1.04
0.81 -12.99 2.06
0.92 -14.66 -1.28
0.81 -12.99 2.53
1.07 -17.06 -0.9
0.81 -12.98 3
0.81 -12.94 3.47
1.12 -18.94 0.33
1.12 -19.02 1
0.84 -14.22 1.25
0.52 -8.8 -1.4
0.76 -12.92 1.59
0.5 -8.52 -1.05
0.77 -13.02 2.53
0.76 -12.97 3
0.76 -12.93 3.47
1.05 -18.9 0.33
1.05 -19.01 1
0.79 -14.22 1.25
0.49 -8.84 -1.4
0.72 -12.9 1.59
0.47 -8.52 -1.05
0.73 -13.08 2.08
0.49 -8.82 -0.77
0.72 -13.06 2.54
0.94 -17.02 -0.89
0.72 -13 3.01
1.06 -19.15 -0.33
0.99 -19.06 0.33
0.99 -19.01 1
0.74 -14.2 1.24
0.46 -8.84 -1.4
0.67 -12.9 1.59
0.44 -8.53 -1.05
0.68 -13.06 2.07
0.45 -8.62 -0.76
0.68 -13.03 2.54
0.88 -17.01 -0.89
0.68 -13.08 3.02
1.01 -19.42 -0.34
0.68 -13.04 3.5
0.94 -19.38 0.34
0.94 -19.43 1.02
0.69 -14.18 1.24
0.43 -8.83 -1.4
0.62 -12.87 1.58
0.42 -8.57 -1.05
0.63 -13.08 2.07
0.42 -8.58 -0.75
0.63 -13.04 2.54
0.82 -17.01 -0.89
0.63 -13.07 3.02
0.63 -13.09 3.51
0.84 -18.74 0.33
0.84 -18.76 0.98
0.64 -14.15 1.24
0.39 -8.73 -1.38
0.58 -12.86 1.58
0.39 -8.6 -1.06
0.58 -13.03 2.07
0.38 -8.54 -0.75
0.58 -13.02 2.53
0.76 -17.01 -0.89
0.59 -13.05 3.02
0.84 -18.76 -0.33
0.58 -13.01 3.49
0.78 -18.69 0.33
0.78 -18.72 0.98
0.59 -14.14 1.24
0.37 -8.82 -1.4
0.53 -12.85 1.58
0.35 -8.52 -1.05
0.54 -13.02 2.06
0.36 -8.62 -0.75
0.54 -12.98 2.52
0.71 -17.03 -0.89
0.54 -13.04 3.01
0.78 -18.7 -0.33
0.54 -13.04 3.5
0.71 -18.65 0.33
0.71 -18.69 0.98
0.54 -14.13 1.24
0.33 -8.77 -1.39
0.49 -12.83 1.58
0.32 -8.54 -1.05
0.49 -13.04 2.07
0.33 -8.65 -0.76
0.49 -12.97 2.52
0.54 -14.36 -0.75
0.49 -13.01 3.01
0.71 -18.66 -0.33
0.49 -13.05 3.5
0.64 -18.65 0.33
0.64 -18.66 0.98
0.49 -14.13 1.24
0.3 -8.83 -1.4
0.44 -12.82 1.57
0.29 -8.53 -1.05
0.45 -13.01 2.06
0.3 -8.67 -0.76
0.45 -12.97 2.52
0.45 -13.01 3.01
0.64 -18.67 -0.33
0.45 -12.99 3.48
0.58 -18.63 0.33
0.21 -6.56 -1.52
0.58 -18.63 0.98
0.44 -14.11 1.24
0.27 -8.66 -1.37
0.4 -12.81 1.57
0.27 -8.5 -1.04
0.41 -13 2.06
0.45 -14.53 -1.27
0.4 -12.96 2.52
0.53 -16.99 -0.89
0.4 -12.89 2.98
0.58 -18.66 -0.33
0.4 -12.84 3.44
0.52 -18.62 0.33
0.52 -18.62 0.98
0.21 -7.49 -1.46
0.39 -14.09 1.23
0.24 -8.78 -1.39
0.36 -12.81 1.57
0.24 -8.5 -1.04
0.36 -12.88 2.04
0.4 -14.51 -1.27
0.36 -12.86 2.5
0.47 -16.99 -0.89
0.36 -12.85 2.97
0.52 -18.67 -0.33
0.36 -12.83 3.44
0.45 -18.61 0.32
0.41 -16.87 0.88
0.18 -7.5 -1.46
0.34 -14.09 1.23
0.21 -8.64 -1.37
0.31 -12.79 1.57
0.21 -8.57 -1.05
0.31 -12.87 2.04
0.35 -14.5 -1.27
0.31 -12.82 2.49
0.41 -16.99 -0.89
0.31 -12.82 2.96
0.45 -18.64 -0.33
0.31 -12.79 3.43
0.39 -18.58 0.32
0.39 -18.58 0.97
0.16 -7.49 -1.46
0.29 -14.08 1.23
0.18 -8.59 -1.36
0.27 -12.77 1.57
0.18 -8.53 -1.05
0.27 -12.87 2.04
0.19 -8.96 -0.78
0.27 -12.83 2.49
0.35 -16.95 -0.89
0.27 -12.82 2.96
0.39 -18.64 -0.33
0.27 -12.78 3.43
0.32 -18.55 0.32
0.32 -18.52 0.97
0.24 -14.07 1.23
0.15 -8.66 -1.37
0.22 -12.77 1.57
0.15 -8.5 -1.04
0.22 -12.82 2.03
0.16 -8.99 -0.79
0.22 -12.83 2.49
0.29 -16.94 -0.89
0.22 -12.79 2.95
0.32 -18.61 -0.32
0.22 -12.78 3.42
0.2 -14.47 0.25
0.26 -18.51 0.97
0.19 -14.06 1.23
0.12 -8.62 -1.37
0.18 -12.76 1.57
0.12 -8.51 -1.05
0.18 -12.84 2.03
0.2 -14.47 -1.27
0.18 -12.83 2.49
0.23 -17.01 -0.89
0.18 -12.81 2.96
0.2 -14.49 -0.25
0.18 -12.78 3.43
0.15 -14.48 0.25
0.19 -18.5 0.97
0.08 -7.48 -1.45
0.14 -14.03 1.23
0.09 -8.6 -1.36
0.13 -12.75 1.57
0.09 -8.51 -1.04
0.09 -8.68 -0.76
0.18 -17.02 -0.89
0.13 -12.82 2.96
0.15 -14.47 -0.25
0.13 -12.76 3.42
0.1 -14.4 0.25
0.1 -14.4 0.75
0.05 -7.49 -1.46
0.1 -14.02 1.23
0.06 -8.61 -1.36
0.09 -12.74 1.56
0.06 -8.55 -1.05
0.09 -12.92 2.05
0.06 -8.69 -0.76
0.09 -12.89 2.5
0.1 -14.43 -0.76
0.1 -14.41 -0.25
0.09 -12.76 3.42
0.05 -14.4 0.25
0.05 -14.37 0.75
0.02 -7.5 -1.46
0.05 -14.02 1.23
0.03 -8.59 -1.36
0.04 -12.71 1.56
0.03 -8.49 -1.04
0.04 -12.89 2.04
0.05 -14.44 -1.26
0.04 -12.87 2.5
0.05 -14.43 -0.76
0.04 -12.91 2.98
0.05 -14.41 -0.25
0.04 -12.74 3.41
-0 -14.39 0.25
-0 -6.56 -1.51
-0 -14.36 0.75
-0 -7.5 -1.46
-0 -14 1.22
-0 -8.57 -1.36
-0 -12.71 1.56
-0 -8.48 -1.04
-0 -12.89 2.04
-0 -14.43 -1.26
-0 -12.87 2.5
-0 -14.4 -0.75
-0 -12.91 2.98
-0 -14.4 -0.25
-0 -12.74 3.41
-0.05 -14.37 0.25
-0.02 -6.55 -1.51
-0.07 -18.43 0.97
-0.03 -7.48 -1.45
-0.05 -13.99 1.22
-0.03 -8.7 -1.38
-0.05 -12.7 1.56
-0.03 -8.48 -1.04
-0.05 -12.88 2.04
-0.05 -12.85 2.5
-0.05 -14.41 -0.75
-0.05 -12.89 2.98
-0.05 -14.38 -0.25
-0.05 -12.73 3.41
-0.05 -6.56 -1.51
-0.13 -18.41 0.96
-0.05 -7.48 -1.45
-0.1 -13.96 1.22
-0.06 -8.69 -1.38
-0.09 -12.69 1.56
-0.06 -8.48 -1.04
-0.09 -12.85 2.03
-0.09 -12.84 2.5
-0.12 -16.74 -0.88
-0.09 -12.87 2.97
-0.09 -12.7 3.4
-0.15 -14.35 0.25
-0.07 -6.56 -1.51
-0.2 -18.4 0.96
-0.08 -7.48 -1.45
-0.15 -13.95 1.22
-0.09 -8.67 -1.37
-0.13 -12.67 1.56
-0.09 -8.6 -1.06
-0.14 -12.86 2.04
-0.15 -14.43 -1.26
-0.14 -12.82 2.49
-0.18 -16.76 -0.88
-0.14 -12.89 2.98
-0.14 -12.69 3.4
-0.2 -14.31 0.25
-0.09 -6.54 -1.51
-0.26 -18.38 0.96
-0.11 -7.49 -1.46
-0.2 -13.94 1.22
-0.12 -8.63 -1.37
-0.18 -12.65 1.55
-0.12 -8.51 -1.05
-0.18 -12.84 2.03
-0.2 -14.42 -1.26
-0.18 -12.82 2.49
-0.24 -16.82 -0.88
-0.18 -12.86 2.97
-0.18 -12.69 3.4
-0.25 -14.32 0.25
-0.12 -6.55 -1.51
-0.32 -18.37 0.96
-0.13 -7.49 -1.46
-0.25 -13.93 1.22
-0.15 -8.69 -1.38
-0.22 -12.65 1.55
-0.15 -8.46 -1.04
-0.23 -12.83 2.03
-0.25 -14.41 -1.26
-0.23 -12.8 2.49
-0.3 -16.8 -0.88
-0.22 -12.68 3.4
-0.3 -14.32 0.25
-0.14 -6.55 -1.51
-0.39 -18.38 0.96
-0.16 -7.49 -1.46
-0.29 -13.92 1.22
-0.19 -8.79 -1.39
-0.27 -12.64 1.55
-0.18 -8.42 -1.03
-0.27 -12.73 2.02
-0.3 -14.4 -1.26
-0.35 -16.78 -0.88
-0.27 -12.69 2.93
-0.27 -12.66 3.39
-0.35 -14.3 0.25
-0.16 -6.55 -1.51
-0.45 -18.37 0.96
-0.18 -7.49 -1.46
-0.34 -13.9 1.22
-0.22 -8.85 -1.4
-0.31 -12.63 1.55
-0.21 -8.64 -1.06
-0.31 -12.72 2.02
-0.35 -14.39 -1.26
-0.31 -12.71 2.47
-0.41 -16.78 -0.88
-0.31 -12.69 2.93
-0.31 -12.64 3.39
-0.4 -14.28 0.25
-0.18 -6.55 -1.51
-0.51 -18.37 0.96
-0.21 -7.49 -1.46
-0.39 -13.9 1.22
-0.25 -8.84 -1.4
-0.35 -12.62 1.55
-0.24 -8.7 -1.07
-0.36 -12.73 2.02
-0.4 -14.37 -1.26
-0.35 -12.68 2.46
-0.47 -16.77 -0.88
-0.35 -12.69 2.93
-0.35 -12.63 3.38
-0.45 -14.28 0.25
-0.21 -6.54 -1.51
-0.58 -18.35 0.96
-0.24 -7.5 -1.46
-0.44 -13.89 1.22
-0.28 -8.87 -1.41
-0.4 -12.6 1.55
-0.28 -8.84 -1.09
-0.45 -14.37 -1.26
-0.53 -16.73 -0.88
-0.4 -12.68 2.93
-0.4 -12.62 3.38
-0.5 -14.26 0.25
-0.23 -6.54 -1.51
-0.64 -18.34 0.96
-0.26 -7.49 -1.46
-0.49 -13.88 1.22
-0.31 -8.89 -1.41
-0.44 -12.59 1.55
-0.31 -8.76 -1.08
-0.45 -12.77 2.02
-0.5 -14.34 -1.26
-0.45 -12.74 2.48
-0.59 -16.72 -0.88
-0.64 -18.34 -0.32
-0.44 -12.62 3.38
-0.55 -14.25 0.25
-0.25 -6.55 -1.51
-0.71 -18.3 0.96
-0.29 -7.48 -1.46
-0.54 -13.87 1.21
-0.34 -8.88 -1.41
-0.49 -12.58 1.55
-0.34 -8.75 -1.08
-0.49 -12.76 2.02
-0.55 -14.34 -1.26
-0.49 -12.76 2.48
-0.64 -16.69 -0.88
-0.49 -12.8 2.96
-0.7 -18.11 -0.32
-0.49 -12.61 3.38
-0.6 -14.23 0.25
-0.28 -6.55 -1.51
-0.77 -18.27 0.96
-0.32 -7.49 -1.46
-0.58 -13.84 1.21
-0.37 -8.86 -1.4
-0.53 -12.57 1.55
-0.37 -8.74 -1.07
-0.54 -12.77 2.02
-0.6 -14.31 -1.25
-0.54 -12.75 2.48
-0.7 -16.74 -0.88
-0.54 -12.79 2.96
-0.75 -17.77 -0.31
-0.53 -12.59 3.38
-0.65 -14.21 0.25
-0.3 -6.55 -1.51
-0.83 -18.26 0.96
-0.34 -7.5 -1.46
-0.63 -13.84 1.21
-0.4 -8.84 -1.4
-0.57 -12.56 1.54
-0.4 -8.83 -1.09
-0.58 -12.75 2.02
-0.65 -14.3 -1.25
-0.58 -12.74 2.48
-0.76 -16.83 -0.88
-0.58 -12.76 2.95
-0.81 -17.79 -0.31
-0.57 -12.58 3.37
-0.69 -14.2 0.25
-0.32 -6.54 -1.51
-0.37 -7.49 -1.46
-0.68 -13.83 1.21
-0.43 -8.84 -1.4
-0.61 -12.54 1.54
-0.43 -8.81 -1.08
-0.62 -12.75 2.02
-0.7 -14.27 -1.25
-0.62 -12.72 2.48
-0.82 -16.81 -0.88
-0.63 -12.79 2.96
-0.88 -17.92 -0.31
-0.62 -12.57 3.37
-0.34 -6.53 -1.51
-0.39 -7.49 -1.46
-0.72 -13.81 1.21
-0.46 -8.83 -1.4
-0.66 -12.54 1.54
-0.46 -8.79 -1.08
-0.67 -12.78 2.03
-0.75 -14.28 -1.25
-0.67 -12.72 2.48
-0.87 -16.56 -0.87
-0.67 -12.83 2.97
-0.95 -18.04 -0.32
-0.66 -12.57 3.37
-0.37 -6.55 -1.51
-1.06 -18.91 0.99
-0.42 -7.48 -1.46
-0.77 -13.8 1.21
-0.48 -8.6 -1.36
-0.7 -12.53 1.54
-0.49 -8.78 -1.08
-0.71 -12.72 2.02
-0.79 -14.19 -1.24
-0.71 -12.72 2.48
-0.8 -14.22 -0.75
-0.72 -12.85 2.97
-0.79 -14.19 -0.25
-0.7 -12.55 3.37
-0.39 -6.55 -1.51
-1.12 -18.87 0.99
-0.44 -7.48 -1.46
-0.82 -13.78 1.21
-0.51 -8.55 -1.36
-0.74 -12.52 1.54
-0.52 -8.78 -1.08
-0.76 -12.71 2.02
-0.84 -14.18 -1.24
-0.75 -12.68 2.47
-0.84 -14.2 -0.75
-0.75 -12.56 2.9
-0.74 -12.53 3.36
-0.89 -14.14 0.25
-0.41 -6.55 -1.51
-0.89 -14.14 0.74
-0.47 -7.48 -1.46
-0.87 -13.77 1.21
-0.54 -8.55 -1.36
-0.79 -12.51 1.54
-0.56 -8.84 -1.09
-0.79 -12.6 2
-0.89 -14.17 -1.24
-0.79 -12.57 2.45
-0.89 -14.17 -0.74
-0.79 -12.54 2.9
-0.89 -14.15 -0.25
-0.79 -12.52 3.36
-0.94 -14.11 0.25
-0.43 -6.54 -1.51
-0.5 -7.49 -1.46
-0.91 -13.76 1.21
-0.57 -8.58 -1.36
-0.83 -12.49 1.54
-0.6 -9.01 -1.11
-0.83 -12.57 2
-0.94 -14.1 -1.24
-0.94 -14.1 -0.74
-0.83 -12.51 2.89
-0.94 -14.09 -0.25
-0.83 -12.51 3.36
-0.98 -14.05 0.25
-0.46 -6.54 -1.51
-0.98 -14.02 0.74
-0.52 -7.48 -1.46
-0.96 -13.75 1.21
-0.6 -8.6 -1.37
-0.87 -12.48 1.54
-0.63 -9.04 -1.11
-0.88 -12.59 2
-0.98 -14.08 -1.23
-0.88 -12.55 2.44
-0.98 -14.08 -0.74
-0.88 -12.52 2.9
-0.98 -14.06 -0.25
-0.88 -12.52 3.36
-1.03 -14.05 0.25
-0.48 -6.53 -1.51
-1.03 -14 0.74
-0.55 -7.47 -1.46
-1.01 -13.74 1.21
-0.63 -8.6 -1.37
-0.92 -12.47 1.54
-0.67 -9.1 -1.12
-0.92 -12.56 1.99
-1.03 -14.07 -1.23
-0.92 -12.55 2.45
-1.03 -14.07 -0.74
-0.92 -12.54 2.9
-1.03 -14.04 -0.25
-0.92 -12.54 3.37
-1.08 -14.03 0.25
-0.5 -6.54 -1.52
-1.08 -14.01 0.74
-0.57 -7.47 -1.46
-1.06 -13.72 1.2
-0.67 -8.72 -1.38
-0.96 -12.46 1.53
-0.71 -9.17 -1.13
-0.97 -12.66 2.01
-1.08 -14.05 -1.23
-0.97 -12.6 2.46
-1.08 -14.05 -0.74
-0.97 -12.59 2.92
-1.08 -14.03 -0.25
-0.97 -12.55 3.37
-1.13 -14.01 0.25
-0.53 -6.54 -1.51
-1.13 -14.01 0.74
-0.6 -7.48 -1.46
-1.1 -13.71 1.2
-0.7 -8.72 -1.39
-1.02 -12.63 1.56
-0.75 -9.27 -1.14
-1.06 -13.13 2.09
-1.13 -14.05 -1.23
-1.05 -13.09 2.55
-1.13 -14.04 -0.74
-1.06 -13.17 3.05
-1.13 -14.02 -0.25
-1.06 -13.12 3.53
-1.18 -14 0.25
-0.55 -6.53 -1.51
-1.18 -13.99 0.74
-0.63 -7.47 -1.46
-1.15 -13.69 1.2
-0.74 -8.76 -1.39
-1.08 -12.87 1.59
-0.79 -9.41 -1.16
-1.11 -13.26 2.11
-1.18 -14.03 -1.23
-1.11 -13.21 2.58
-1.18 -14.02 -0.74
-1.11 -13.23 3.07
-1.18 -14.01 -0.25
-1.11 -13.21 3.55
-1.22 -13.98 0.25
-0.57 -6.53 -1.51
-1.22 -13.97 0.73
-0.65 -7.47 -1.46
-1.2 -13.69 1.2
-0.77 -8.79 -1.4
-1.15 -13.1 1.61
-0.83 -9.5 -1.17
-1.19 -13.63 2.17
-1.23 -14.03 -1.23
-1.19 -13.58 2.65
-1.23 -14.01 -0.74
-1.21 -13.86 3.21
-1.22 -14 -0.25
-1.21 -13.82 3.72
-1.28 -14.01 0.25
-0.59 -6.53 -1.51
-1.27 -13.97 0.73
-0.68 -7.47 -1.46
-1.25 -13.68 1.2
-0.81 -8.87 -1.41
-1.22 -13.4 1.65
-0.87 -9.52 -1.17
-1.26 -13.83 2.2
-1.28 -14.08 -1.24
-1.26 -13.8 2.69
-1.28 -14.08 -0.74
-1.25 -13.78 3.19
-1.28 -14.04 -0.25
-1.25 -13.74 3.7
-1.33 -14.04 0.25
-0.62 -6.54 -1.52
-1.33 -14.03 0.74
-0.71 -7.46 -1.46
-1.29 -13.66 1.2
-0.85 -9.02 -1.43
-1.17 -12.41 1.53
-0.9 -9.51 -1.17
-1.31 -13.88 2.21
-1.33 -14.06 -1.24
-1.31 -13.84 2.7
-1.33 -14.07 -0.74
-1.31 -13.85 3.21
-1.33 -14.05 -0.25
-1.3 -13.79 3.71
-1.38 -14.03 0.25
-0.64 -6.53 -1.51
-1.38 -14.02 0.74
-0.73 -7.47 -1.46
-1.34 -13.65 1.2
-0.87 -8.91 -1.42
-1.21 -12.39 1.53
-0.93 -9.52 -1.18
-1.36 -13.89 2.21
-1.38 -14.06 -1.24
-1.36 -13.84 2.7
-1.38 -14.06 -0.74
-1.36 -13.87 3.22
-1.38 -14.04 -0.25
-1.35 -13.8 3.72
-1.42 -14.02 0.25
-0.66 -6.52 -1.51
-1.42 -14 0.74
-0.76 -7.47 -1.46
-1.38 -13.64 1.2
-0.9 -8.92 -1.42
-1.26 -12.38 1.53
-0.96 -9.51 -1.17
-1.41 -13.86 2.21
-1.36 -13.41 -1.18
-1.4 -13.85 2.71
-1.42 -14.04 -0.74
-1.4 -13.85 3.22
-1.42 -14.03 -0.25
-1.4 -13.81 3.72
-0.69 -6.53 -1.52
-0.78 -7.46 -1.46
-1.43 -13.63 1.2
-0.94 -8.93 -1.42
-1.3 -12.38 1.53
-1 -9.49 -1.17
-1.45 -13.86 2.21
-1.4 -13.37 -1.18
-1.45 -13.84 2.71
-1.45 -13.83 3.21
-1.45 -13.81 3.72
-0.71 -6.53 -1.52
-0.81 -7.46 -1.46
-1.48 -13.61 1.2
-0.97 -8.96 -1.43
-1.34 -12.37 1.53
-1.03 -9.49 -1.17
-1.5 -13.84 2.21
-1.45 -13.35 -1.18
-1.5 -13.83 2.7
-1.48 -13.68 -0.72
-1.5 -13.82 3.21
-1.5 -13.8 3.72
-2.5 -22.3 0.39
-2.49 -22.27 1.17
-0.84 -7.46 -1.46
-1.52 -13.59 1.2
-1 -8.97 -1.43
-1.38 -12.36 1.53
-1.06 -9.48 -1.17
-1.55 -13.84 2.21
-1.5 -13.37 -1.18
-1.55 -13.81 2.7
-1.52 -13.53 -0.71
-1.55 -13.81 3.21
-2.5 -22.36 -0.39
-1.54 -13.78 3.71
-2.57 -22.27 0.39
-2.57 -22.26 1.17
-0.86 -7.45 -1.46
-1.57 -13.59 1.2
-1.04 -8.97 -1.43
-1.43 -12.35 1.53
-1.1 -9.48 -1.17
-1.6 -13.83 2.2
-1.59 -13.78 2.7
-1.56 -13.47 -0.71
-1.59 -13.8 3.21
-2.58 -22.31 -0.39
-1.59 -13.76 3.71
-2.65 -22.26 0.39
-2.65 -22.24 1.17
-0.89 -7.45 -1.46
-1.62 -13.58 1.2
-1.07 -8.97 -1.43
-1.47 -12.33 1.52
-1.65 -13.82 2.2
-1.68 -14.1 -1.24
-1.64 -13.78 2.7
-1.6 -13.44 -0.71
-1.64 -13.78 3.2
-2.66 -22.33 -0.39
-1.64 -13.75 3.71
-2.73 -22.24 0.39
-2.72 -22.21 1.17
-0.91 -7.45 -1.46
-1.66 -13.57 1.2
-1.1 -8.98 -1.43
-1.51 -12.31 1.52
-1.55 -12.64 -1.56
-1.69 -13.81 2.2
-1.64 -13.36 -1.18
-1.69 -13.77 2.7
-1.65 -13.43 -0.71
-1.69 -13.76 3.2
-1.73 -14.08 -0.25
-1.69 -13.75 3.71
-2.8 -22.22 0.39
-2.8 -22.2 1.17
-0.94 -7.44 -1.46
-1.71 -13.56 1.2
-1.13 -8.98 -1.43
-1.55 -12.31 1.52
-1.6 -12.65 -1.57
-1.74 -13.79 2.2
-1.68 -13.29 -1.17
-1.74 -13.76 2.7
-1.7 -13.44 -0.71
-1.73 -13.75 3.2
-1.73 -13.7 -0.24
-1.73 -13.73 3.71
-2.88 -22.2 0.39
-2.88 -22.18 1.17
-0.96 -7.44 -1.46
-1.76 -13.54 1.19
-1.16 -8.98 -1.43
-1.6 -12.3 1.52
-1.64 -12.62 -1.56
-1.79 -13.78 2.2
-1.72 -13.27 -1.17
-1.78 -13.75 2.69
-1.74 -13.44 -0.71
-1.78 -13.74 3.2
-1.78 -13.73 -0.24
-1.78 -13.71 3.7
-2.95 -22.17 0.39
-2.95 -22.16 1.17
-0.99 -7.44 -1.46
-1.8 -13.53 1.19
-1.2 -8.97 -1.43
-1.64 -12.29 1.52
-1.68 -12.62 -1.56
-1.84 -13.78 2.2
-1.77 -13.26 -1.17
-1.83 -13.73 2.69
-1.79 -13.41 -0.71
-1.83 -13.74 3.2
-1.84 -13.78 -0.24
-1.83 -13.7 3.7
-3.03 -22.15 0.39
-3.03 -22.12 1.17
-1.02 -7.44 -1.46
-1.85 -13.52 1.19
-1.23 -8.97 -1.43
-1.68 -12.28 1.52
-1.73 -12.62 -1.56
-1.88 -13.77 2.2
-1.83 -13.36 -1.18
-1.88 -13.72 2.69
-1.83 -13.4 -0.71
-1.88 -13.72 3.2
-1.93 -14.14 -0.25
-1.87 -13.69 3.7
-3.11 -22.15 0.39
-3.1 -22.1 1.17
-1.04 -7.43 -1.46
-1.9 -13.51 1.19
-1.26 -8.96 -1.43
-1.72 -12.26 1.52
-1.77 -12.6 -1.56
-1.93 -13.75 2.2
-1.97 -14 -1.24
-1.92 -13.7 2.69
-1.89 -13.43 -0.71
-1.92 -13.7 3.19
-1.97 -14.05 -0.25
-1.92 -13.68 3.7
-3.18 -22.12 0.39
-3.18 -22.08 1.17
-1.07 -7.42 -1.46
-1.94 -13.49 1.19
-1.29 -8.97 -1.44
-1.76 -12.26 1.52
-1.81 -12.6 -1.56
-1.98 -13.74 2.2
-2.01 -14 -1.24
-1.97 -13.7 2.69
-1.94 -13.47 -0.71
-1.97 -13.69 3.19
-2.58 -17.91 -0.32
-1.97 -13.67 3.7
-3.26 -22.09 0.39
-3.26 -22.07 1.17
-1.1 -7.43 -1.46
-1.99 -13.47 1.19
-1.32 -8.98 -1.44
-1.81 -12.25 1.52
-1.86 -12.6 -1.56
-2.02 -13.72 2.2
-1.91 -12.95 -1.15
-2.02 -13.69 2.69
-2.03 -13.73 3.2
-2.7 -18.33 -0.32
-2.02 -13.71 3.71
-3.33 -22.05 0.39
-3.33 -22.06 1.17
-1.12 -7.43 -1.46
-2.03 -13.47 1.19
-1.35 -8.94 -1.43
-1.85 -12.23 1.52
-1.9 -12.61 -1.57
-2.07 -13.72 2.2
-1.95 -12.93 -1.14
-2.06 -13.66 2.69
-1.94 -12.83 -0.68
-2.08 -13.79 3.22
-2.11 -13.96 -0.25
-2.08 -13.76 3.73
-3.23 -20.88 0.37
-3.41 -22.02 1.17
-1.15 -7.42 -1.46
-2.08 -13.45 1.19
-1.38 -8.94 -1.43
-1.89 -12.22 1.52
-1.95 -12.6 -1.57
-2.12 -13.71 2.2
-2 -12.9 -1.14
-2.11 -13.65 2.69
-1.98 -12.79 -0.68
-2.13 -13.78 3.22
-2.16 -13.95 -0.25
-2.13 -13.75 3.73
-3.4 -21.47 0.38
-3.48 -22.01 1.17
-1.17 -7.42 -1.46
-2.13 -13.45 1.19
-1.42 -8.96 -1.44
-1.93 -12.21 1.52
-1.99 -12.6 -1.57
-2.17 -13.69 2.2
-2.04 -12.89 -1.14
-2.16 -13.65 2.69
-2.02 -12.78 -0.68
-2.2 -13.89 -0.25
-3.56 -22.02 0.39
-3.56 -21.99 1.17
-1.2 -7.41 -1.46
-2.17 -13.43 1.19
-1.45 -8.94 -1.44
-1.97 -12.21 1.52
-2.04 -12.6 -1.57
-2.21 -13.67 2.19
-2.08 -12.86 -1.14
-2.21 -13.64 2.69
-2.06 -12.76 -0.68
-2.24 -13.85 -0.24
-2.28 -13.77 0.24
-2.28 -13.78 0.73
-1.23 -7.41 -1.46
-2.22 -13.41 1.19
-1.48 -8.94 -1.44
-2.02 -12.2 1.52
-2.09 -12.61 -1.57
-2.26 -13.66 2.19
-2.12 -12.84 -1.14
-2.25 -13.62 2.68
-2.11 -12.75 -0.68
-2.29 -13.83 3.24
-2.28 -13.76 -0.24
-2.67 -16.15 4.38
-2.32 -13.75 0.24
-2.32 -13.75 0.73
-1.25 -7.41 -1.46
-2.26 -13.4 1.19
-1.51 -8.95 -1.44
-2.06 -12.19 1.52
-2.13 -12.61 -1.57
-2.31 -13.66 2.19
-2.17 -12.82 -1.14
-2.3 -13.61 2.68
-2.15 -12.73 -0.68
-2.34 -13.83 3.24
-2.33 -13.78 -0.24
-2.73 -16.13 4.38
-2.37 -13.76 0.24
-2.37 -13.74 0.73
-1.28 -7.41 -1.46
-2.31 -13.4 1.19
-1.54 -8.93 -1.43
-2.1 -12.17 1.52
-2.17 -12.6 -1.57
-2.35 -13.65 2.19
-2.21 -12.82 -1.14
-2.35 -13.59 2.68
-2.19 -12.72 -0.68
-2.38 -13.81 3.24
-2.38 -13.77 -0.24
-2.78 -16.11 4.38
-2.42 -13.77 0.24
-2.42 -13.73 0.73
-1.3 -7.4 -1.46
-2.36 -13.39 1.19
-1.57 -8.92 -1.44
-2.14 -12.16 1.52
-2.22 -12.59 -1.57
-2.4 -13.62 2.19
-2.26 -12.83 -1.14
-2.39 -13.59 2.68
-2.24 -12.7 -0.68
-2.43 -13.78 3.23
-2.84 -16.1 4.38
-2.48 -13.79 0.24
-1.33 -7.39 -1.46
-2.4 -13.38 1.19
-1.61 -8.93 -1.44
-2.19 -12.16 1.52
-2.26 -12.59 -1.57
-2.45 -13.61 2.19
-2.31 -12.83 -1.14
-2.44 -13.58 2.68
-2.29 -12.72 -0.68
-2.48 -13.78 3.23
-2.48 -13.79 -0.24
-2.82 -15.7 4.28
-2.52 -13.77 0.24
-4.01 -21.88 1.17
-1.36 -7.39 -1.46
-2.45 -13.36 1.19
-1.64 -8.94 -1.44
-2.23 -12.15 1.52
-2.31 -12.59 -1.57
-2.49 -13.59 2.19
-2.53 -13.8 -1.23
-2.49 -13.57 2.68
-2.54 -13.83 -0.74
-2.52 -13.76 3.23
-2.53 -13.8 -0.24
-2.94 -16.05 4.37
-2.57 -13.75 0.24
-4.08 -21.87 1.17
-1.38 -7.4 -1.46
-2.49 -13.34 1.19
-1.66 -8.9 -1.43
-2.27 -12.13 1.52
-2.35 -12.59 -1.57
-2.54 -13.58 2.19
-2.47 -13.22 -1.18
-2.53 -13.55 2.68
-2.57 -13.76 -0.73
-2.57 -13.76 3.23
-2.57 -13.78 -0.24
-2.99 -16.03 4.37
-2.62 -13.74 0.24
-4.16 -21.84 1.16
-1.41 -7.39 -1.46
-2.54 -13.33 1.19
-1.7 -8.92 -1.44
-2.31 -12.12 1.51
-2.4 -12.59 -1.57
-2.58 -13.58 2.19
-2.52 -13.21 -1.18
-2.58 -13.54 2.68
-2.54 -13.32 -0.71
-2.62 -13.75 3.23
-4.04 -21.2 -0.38
-3.05 -16.02 4.37
-2.67 -13.74 0.24
-4.23 -21.81 1.16
-1.43 -7.38 -1.46
-2.59 -13.33 1.19
-1.73 -8.94 -1.44
-2.35 -12.11 1.51
-2.44 -12.56 -1.57
-2.63 -13.56 2.19
-2.55 -13.14 -1.17
-2.62 -13.53 2.68
-2.58 -13.29 -0.71
-2.66 -13.72 3.23
-4.11 -21.18 -0.38
-3.11 -16.04 4.38
-2.72 -13.74 0.24
-4.31 -21.79 1.16
-1.46 -7.37 -1.46
-2.63 -13.31 1.19
-1.77 -8.94 -1.44
-2.39 -12.1 1.51
-2.48 -12.56 -1.57
-2.67 -13.53 2.19
-2.59 -13.11 -1.17
-2.67 -13.52 2.68
-2.64 -13.34 -0.71
-2.71 -13.7 3.22
-2.71 -13.73 -0.24
-3.16 -16 4.37
-2.76 -13.72 0.24
-4.38 -21.78 1.16
-1.48 -7.36 -1.46
-2.68 -13.3 1.19
-1.8 -8.92 -1.44
-2.43 -12.09 1.51
-2.52 -12.54 -1.57
-2.72 -13.54 2.19
-2.64 -13.12 -1.17
-2.72 -13.51 2.68
-2.68 -13.31 -0.71
-2.76 -13.73 -0.24
-2.73 -13.55 3.7
-2.8 -13.69 0.24
-4.46 -21.76 1.16
-1.51 -7.38 -1.46
-2.72 -13.29 1.19
-1.82 -8.89 -1.44
-2.48 -12.08 1.51
-2.57 -12.54 -1.57
-2.77 -13.53 2.19
-2.82 -13.74 -1.23
-2.76 -13.48 2.68
-2.7 -13.2 -0.71
-2.78 -13.59 3.2
-2.81 -13.71 -0.24
-2.77 -13.54 3.7
-2.85 -13.68 0.24
-4.53 -21.74 1.16
-1.54 -7.38 -1.47
-2.77 -13.28 1.19
-1.85 -8.89 -1.44
-2.52 -12.07 1.51
-2.62 -12.54 -1.57
-2.82 -13.52 2.19
-2.86 -13.71 -1.23
-2.81 -13.47 2.68
-2.74 -13.13 -0.7
-2.82 -13.51 3.19
-2.86 -13.72 -0.24
-2.81 -13.47 3.69
-2.9 -13.66 0.24
-4.61 -21.71 1.16
-1.56 -7.37 -1.46
-2.81 -13.26 1.19
-1.89 -8.91 -1.44
-2.56 -12.04 1.51
-2.65 -12.51 -1.57
-2.86 -13.5 2.19
-2.76 -13 -1.16
-2.86 -13.47 2.68
-2.79 -13.13 -0.7
-2.86 -13.46 3.18
-2.91 -13.7 -0.24
-2.85 -13.44 3.68
-2.95 -13.65 0.24
-4.68 -21.7 1.16
-1.59 -7.37 -1.47
-2.86 -13.25 1.19
-1.92 -8.91 -1.44
-2.6 -12.04 1.51
-2.7 -12.5 -1.57
-2.91 -13.48 2.18
-2.8 -12.96 -1.16
-2.91 -13.46 2.68
-2.83 -13.12 -0.7
-2.9 -13.45 3.18
-2.95 -13.67 -0.24
-2.9 -13.44 3.68
-2.99 -13.64 0.24
-4.76 -21.69 1.16
-1.62 -7.36 -1.47
-2.91 -13.24 1.19
-1.96 -8.91 -1.44
-2.64 -12.03 1.51
-2.74 -12.49 -1.57
-2.96 -13.47 2.18
-2.85 -12.97 -1.16
-2.95 -13.44 2.68
-2.88 -13.14 -0.7
-2.95 -13.44 3.18
-3 -13.66 -0.24
-2.95 -13.42 3.68
-3.04 -13.6 0.24
-4.83 -21.66 1.16
-1.64 -7.36 -1.47
-2.95 -13.22 1.19
-1.99 -8.91 -1.45
-2.68 -12.02 1.51
-2.79 -12.49 -1.57
-3 -13.46 2.18
-2.99 -13.39 -1.2
-3 -13.43 2.67
-2.93 -13.13 -0.71
-3 -13.44 3.18
-3.05 -13.65 -0.24
-2.99 -13.4 3.68
-3.09 -13.6 0.24
-3.08 -13.59 0.73
-1.67 -7.36 -1.47
-3 -13.22 1.19
-2.02 -8.89 -1.44
-2.72 -11.99 1.51
-2.83 -12.47 -1.57
-3.05 -13.46 2.19
-3.1 -13.66 -1.23
-3.04 -13.41 2.67
-3.01 -13.29 -0.71
-3.04 -13.42 3.18
-3.1 -13.65 -0.24
-3.04 -13.4 3.68
-3.13 -13.6 0.24
-4.71 -20.42 1.1
-1.7 -7.36 -1.47
-3.04 -13.21 1.19
-2.05 -8.88 -1.44
-2.76 -11.99 1.51
-2.87 -12.45 -1.57
-3.1 -13.44 2.18
-3.01 -13.07 -1.17
-3.09 -13.41 2.67
-3.11 -13.5 -0.73
-3.09 -13.4 3.17
-3.14 -13.62 -0.24
-3.09 -13.39 3.68
-3.18 -13.59 0.24
-3.18 -13.57 0.73
-1.72 -7.34 -1.47
-3.09 -13.19 1.19
-2.09 -8.91 -1.45
-2.81 -11.98 1.51
-2.91 -12.45 -1.57
-3.14 -13.42 2.18
-3.19 -13.62 -1.22
-3.14 -13.4 2.68
-4.23 -18.08 -0.97
-3.14 -13.39 3.18
-3.19 -13.61 -0.24
-3.13 -13.38 3.68
-3.23 -13.57 0.24
-4.29 -18.02 0.97
-1.75 -7.34 -1.47
-3.13 -13.17 1.18
-2.12 -8.9 -1.45
-2.85 -11.98 1.51
-2.96 -12.45 -1.57
-3.19 -13.4 2.18
-3.22 -13.55 -1.22
-3.18 -13.38 2.67
-3.23 -13.56 -0.73
-3.18 -13.38 3.18
-3.22 -13.55 -0.24
-3.18 -13.36 3.68
-3.26 -13.49 0.24
-3.25 -13.47 0.73
-1.77 -7.34 -1.47
-3.18 -13.16 1.18
-2.15 -8.89 -1.45
-2.89 -11.96 1.51
-3.01 -12.46 -1.57
-3.24 -13.4 2.18
-3.28 -13.56 -1.22
-3.23 -13.36 2.67
-3.28 -13.56 -0.73
-3.23 -13.37 3.18
-3.26 -13.51 -0.24
-3.23 -13.35 3.68
-3.31 -13.49 0.24
-3.3 -13.48 0.73
-1.8 -7.34 -1.47
-3.23 -13.15 1.18
-2.18 -8.88 -1.45
-2.93 -11.94 1.51
-3.05 -12.44 -1.57
-3.28 -13.39 2.18
-3.33 -13.56 -1.22
-3.28 -13.35 2.67
-3.33 -13.56 -0.73
-3.28 -13.36 3.18
-3.32 -13.52 -0.24
-3.27 -13.34 3.68
-3.36 -13.5 0.24
-3.35 -13.45 0.73
-1.82 -7.32 -1.47
-3.27 -13.15 1.19
-2.21 -8.88 -1.45
-2.97 -11.93 1.51
-3.1 -12.43 -1.57
-3.33 -13.37 2.18
-3.38 -13.57 -1.22
-3.32 -13.34 2.67
-3.37 -13.54 -0.73
-3.32 -13.34 3.17
-3.36 -13.51 -0.24
-3.32 -13.33 3.68
-3.42 -13.52 0.24
-3.41 -13.5 0.73
-1.85 -7.32 -1.47
-3.32 -13.13 1.18
-2.25 -8.89 -1.45
-3.01 -11.92 1.51
-3.14 -12.43 -1.57
-3.37 -13.35 2.18
-3.43 -13.57 -1.22
-3.37 -13.34 2.67
-3.44 -13.62 -0.74
-3.37 -13.33 3.17
-3.36 -13.32 3.68
-3.46 -13.51 0.24
-3.46 -13.49 0.73
-1.88 -7.32 -1.47
-3.36 -13.11 1.18
-2.28 -8.89 -1.45
-3.06 -11.92 1.51
-3.19 -12.44 -1.58
-3.42 -13.34 2.18
-3.47 -13.55 -1.22
-3.42 -13.32 2.67
-3.5 -13.66 -0.74
-3.41 -13.32 3.17
-3.47 -13.54 -0.24
-3.41 -13.3 3.68
-3.5 -13.49 0.24
-3.5 -13.48 0.73
-1.9 -7.31 -1.47
-3.4 -13.1 1.18
-2.31 -8.88 -1.45
-3.09 -11.91 1.51
-3.23 -12.42 -1.58
-3.46 -13.34 2.18
-3.33 -12.83 -1.16
-3.45 -13.3 2.67
-3.57 -13.75 -0.74
-3.46 -13.31 3.17
-3.51 -13.53 -0.24
-3.45 -13.29 3.68
-3.55 -13.48 0.24
-3.55 -13.47 0.73
-1.93 -7.31 -1.47
-3.45 -13.1 1.19
-2.34 -8.87 -1.45
-3.27 -12.4 -1.58
-3.51 -13.33 2.18
-3.46 -13.15 -1.19
-3.5 -13.29 2.67
-3.49 -13.26 -0.72
-3.5 -13.3 3.17
-5.34 -20.28 -0.37
-3.5 -13.28 3.68
-3.6 -13.46 0.24
-3.6 -13.45 0.73
-1.95 -7.3 -1.47
-3.5 -13.09 1.19
-2.37 -8.88 -1.46
-3.56 -13.32 1.69
-3.31 -12.39 -1.57
-3.56 -13.31 2.18
-3.44 -12.86 -1.16
-3.55 -13.28 2.67
-3.54 -13.25 -0.72
-3.55 -13.28 3.17
-5.42 -20.26 -0.37
-3.55 -13.27 3.68
-3.65 -13.46 0.24
-3.64 -13.44 0.73
-1.98 -7.29 -1.47
-3.54 -13.07 1.18
-2.41 -8.88 -1.46
-3.6 -13.29 1.69
-3.36 -12.38 -1.58
-3.6 -13.29 2.18
-3.47 -12.82 -1.16
-3.6 -13.28 2.67
-3.59 -13.24 -0.72
-3.6 -13.27 3.17
-5.48 -20.23 -0.37
-3.59 -13.26 3.68
-3.69 -13.45 0.24
-3.69 -13.43 0.73
-2 -7.28 -1.47
-3.59 -13.05 1.18
-2.44 -8.88 -1.46
-3.65 -13.28 1.69
-3.4 -12.38 -1.58
-3.65 -13.28 2.18
-3.52 -12.8 -1.16
-3.64 -13.26 2.67
-3.64 -13.25 -0.72
-3.64 -13.26 3.17
-3.7 -13.46 -0.24
-3.64 -13.24 3.68
-3.74 -13.43 0.24
-3.74 -13.42 0.73
-2.03 -7.28 -1.47
-3.63 -13.04 1.18
-2.47 -8.88 -1.46
-3.7 -13.27 1.69
-3.45 -12.38 -1.58
-3.7 -13.27 2.18
-3.56 -12.79 -1.16
-3.69 -13.24 2.67
-3.69 -13.24 -0.72
-3.69 -13.25 3.18
-3.75 -13.46 -0.24
-3.68 -13.22 3.68
-3.79 -13.41 0.24
-3.78 -13.41 0.73
-2.05 -7.28 -1.47
-3.68 -13.04 1.19
-2.5 -8.86 -1.46
-3.74 -13.26 1.69
-3.49 -12.36 -1.58
-3.74 -13.27 2.18
-3.6 -12.77 -1.16
-3.73 -13.23 2.67
-3.73 -13.21 -0.72
-3.74 -13.24 3.18
-3.8 -13.46 -0.24
-3.73 -13.22 3.68
-3.84 -13.42 0.24
-3.83 -13.39 0.73
-2.08 -7.27 -1.47
-3.72 -13.02 1.19
-2.53 -8.86 -1.46
-3.79 -13.24 1.69
-3.53 -12.34 -1.58
-3.79 -13.25 2.18
-3.65 -12.77 -1.16
-3.78 -13.22 2.67
-3.78 -13.2 -0.72
-3.78 -13.21 3.17
-5.77 -20.16 -0.37
-3.78 -13.21 3.68
-5.84 -20.16 0.37
-3.88 -13.38 0.73
-2.1 -7.25 -1.47
-3.77 -13.01 1.19
-2.57 -8.87 -1.46
-3.84 -13.23 1.69
-3.58 -12.34 -1.58
-3.84 -13.23 2.18
-3.7 -12.76 -1.16
-3.83 -13.21 2.67
-3.82 -13.19 -0.72
-3.83 -13.2 3.17
-5.84 -20.13 -0.37
-3.83 -13.19 3.68
-5.91 -20.13 0.37
-5.91 -20.12 1.1
-2.13 -7.25 -1.47
-3.82 -12.99 1.18
-2.59 -8.83 -1.46
-3.88 -13.22 1.69
-3.62 -12.33 -1.58
-3.88 -13.22 2.18
-3.74 -12.74 -1.16
-3.88 -13.19 2.67
-3.87 -13.18 -0.72
-3.88 -13.2 3.18
-5.91 -20.11 -0.37
-3.87 -13.18 3.68
-5.98 -20.11 0.37
-5.98 -20.1 1.1
-2.15 -7.24 -1.47
-3.86 -12.98 1.19
-2.62 -8.81 -1.46
-3.93 -13.21 1.69
-3.67 -12.32 -1.58
-3.93 -13.21 2.18
-3.79 -12.75 -1.16
-3.92 -13.18 2.67
-3.94 -13.23 -0.72
-3.93 -13.19 3.18
-5.98 -20.1 -0.37
-3.92 -13.16 3.68
-6.05 -20.08 0.37
-6.05 -20.08 1.1
-2.18 -7.24 -1.47
-3.91 -12.97 1.19
-2.66 -8.83 -1.46
-3.97 -13.19 1.69
-3.71 -12.31 -1.58
-3.98 -13.21 2.18
-3.83 -12.71 -1.16
-3.97 -13.17 2.67
-4.03 -13.38 -0.73
-3.97 -13.17 3.18
-6.05 -20.09 -0.37
-3.97 -13.16 3.68
-6.12 -20.07 0.37
-6.12 -20.06 1.1
-2.21 -7.23 -1.47
-3.96 -12.97 1.19
-2.69 -8.81 -1.46
-4.02 -13.18 1.69
-3.75 -12.29 -1.58
-4.02 -13.19 2.18
-4.14 -13.58 -1.24
-4.01 -13.16 2.67
-4.08 -13.38 -0.73
-4.02 -13.17 3.18
-6.12 -20.07 -0.37
-4.01 -13.16 3.69
-6.19 -20.06 0.37
-4.11 -13.32 0.73
-2.23 -7.22 -1.47
-4 -12.95 1.19
-2.72 -8.8 -1.46
-4.07 -13.17 1.69
-3.8 -12.29 -1.58
-4.07 -13.17 2.18
-4.21 -13.63 -1.25
-4.06 -13.15 2.68
-4.15 -13.44 -0.74
-4.09 -13.24 3.2
-6.19 -20.04 -0.37
-4.08 -13.21 3.7
-6.27 -20.05 0.37
-4.17 -13.32 0.73
-2.26 -7.22 -1.47
-4.05 -12.93 1.19
-2.75 -8.79 -1.46
-4.12 -13.17 1.69
-3.84 -12.29 -1.58
-4.12 -13.16 2.18
-4.19 -13.38 -1.23
-4.11 -13.13 2.67
-4.17 -13.35 -0.73
-4.16 -13.28 3.21
-6.26 -20.03 -0.37
-4.16 -13.31 3.74
-4.2 -13.27 0.24
-4.2 -13.28 0.73
-2.28 -7.21 -1.47
-4.09 -12.92 1.19
-2.78 -8.78 -1.46
-4.16 -13.15 1.69
-3.89 -12.28 -1.58
-4.17 -13.16 2.19
-4.13 -13.04 -1.2
-4.15 -13.12 2.67
-4.2 -13.25 -0.24
-4.24 -13.24 0.24
-2.31 -7.21 -1.47
-4.14 -12.92 1.19
-2.81 -8.78 -1.46
-4.21 -13.13 1.69
-3.93 -12.27 -1.58
-4.21 -13.15 2.19
-4.27 -13.31 -1.22
-4.2 -13.1 2.67
-4.26 -13.29 -0.73
-4.25 -13.26 -0.24
-4.3 -13.24 0.24
-4.29 -13.21 0.73
-2.33 -7.2 -1.47
-4.19 -12.9 1.19
-2.84 -8.75 -1.46
-4.26 -13.12 1.69
-3.98 -12.26 -1.58
-4.26 -13.13 2.19
-4.01 -12.35 -1.14
-4.25 -13.1 2.68
-4.31 -13.28 -0.73
-4.31 -13.3 3.23
-4.3 -13.25 -0.24
-4.98 -15.36 4.33
-4.35 -13.24 0.24
-4.34 -13.22 0.73
-2.36 -7.18 -1.47
-4.23 -12.89 1.19
-2.87 -8.76 -1.46
-4.3 -13.12 1.69
-4.02 -12.24 -1.58
-4.3 -13.11 2.19
-4.04 -12.31 -1.13
-4.3 -13.09 2.68
-4.35 -13.27 -0.73
-4.36 -13.28 3.23
-4.34 -13.23 -0.24
-5.04 -15.35 4.33
-2.39 -7.18 -1.47
-4.28 -12.87 1.19
-2.9 -8.74 -1.46
-4.35 -13.11 1.7
-4.06 -12.24 -1.58
-4.35 -13.1 2.19
-4.08 -12.29 -1.13
-4.34 -13.07 2.68
-4.41 -13.28 3.23
-5.09 -15.32 4.32
-6.69 -19.91 0.37
-6.69 -19.91 1.1
-2.41 -7.18 -1.47
-4.32 -12.86 1.19
-2.93 -8.73 -1.46
-4.4 -13.09 1.7
-4.11 -12.23 -1.58
-4.4 -13.09 2.19
-4.12 -12.28 -1.13
-4.38 -13.05 2.68
-4.46 -13.28 -0.73
-4.46 -13.28 3.24
-6.69 -19.92 -0.37
-5.14 -15.29 4.32
-6.77 -19.91 0.37
-6.76 -19.88 1.1
-2.44 -7.18 -1.47
-4.37 -12.85 1.19
-2.97 -8.73 -1.46
-4.44 -13.07 1.69
-4.15 -12.22 -1.58
-4.45 -13.08 2.19
-4.17 -12.27 -1.13
-4.43 -13.04 2.68
-4.51 -13.26 -0.73
-4.51 -13.26 3.23
-6.77 -19.91 -0.37
-5.2 -15.29 4.33
-6.83 -19.89 0.37
-6.82 -19.85 1.1
-2.46 -7.17 -1.47
-4.41 -12.85 1.19
-2.99 -8.7 -1.46
-4.49 -13.06 1.7
-4.19 -12.2 -1.58
-4.49 -13.07 2.19
-4.21 -12.27 -1.13
-4.47 -13.03 2.68
-4.55 -13.25 -0.73
-4.55 -13.24 3.23
-6.83 -19.89 -0.37
-5.24 -15.27 4.33
-6.9 -19.87 0.37
-6.89 -19.84 1.1
-2.48 -7.15 -1.47
-4.46 -12.83 1.19
-3.02 -8.7 -1.46
-4.53 -13.06 1.7
-4.23 -12.19 -1.58
-4.53 -13.05 2.19
-4.25 -12.25 -1.13
-4.52 -13.01 2.68
-4.59 -13.23 -0.73
-4.59 -13.23 3.23
-6.9 -19.86 -0.37
-5.29 -15.23 4.32
-6.97 -19.85 0.37
-6.96 -19.83 1.1
-2.51 -7.15 -1.47
-4.5 -12.81 1.19
-3.06 -8.7 -1.46
-4.58 -13.05 1.7
-4.28 -12.18 -1.58
-4.58 -13.04 2.19
-4.3 -12.24 -1.13
-4.56 -12.98 2.67
-4.64 -13.23 -0.73
-4.64 -13.23 3.24
-6.97 -19.85 -0.37
-5.34 -15.22 4.32
-7.04 -19.82 0.37
-7.04 -19.82 1.1
-2.54 -7.15 -1.47
-4.55 -12.81 1.19
-3.09 -8.7 -1.46
-4.63 -13.03 1.7
-4.32 -12.17 -1.59
-4.63 -13.04 2.19
-4.35 -12.25 -1.14
-4.6 -12.96 2.67
-4.7 -13.23 -0.74
-4.7 -13.22 3.24
-7.04 -19.83 -0.37
-5.39 -15.18 4.32
-7.1 -19.79 0.37
-7.11 -19.79 1.1
-2.57 -7.15 -1.48
-4.59 -12.79 1.19
-3.12 -8.68 -1.46
-4.67 -13.01 1.7
-4.37 -12.18 -1.59
-4.68 -13.03 2.19
-4.4 -12.26 -1.14
-4.65 -12.95 2.67
-4.74 -13.2 -0.74
-4.74 -13.21 3.24
-7.09 -19.75 -0.37
-5.44 -15.16 4.32
-7.13 -19.66 0.36
-7.07 -19.47 1.09
-2.59 -7.14 -1.48
-4.64 -12.79 1.19
-3.15 -8.69 -1.46
-4.72 -13.01 1.7
-4.41 -12.14 -1.59
-4.72 -13.02 2.19
-4.8 -13.23 -1.23
-4.7 -12.94 2.68
-4.87 -13.42 -0.75
-4.76 -13.11 3.22
-6.86 -18.9 -0.35
-4.77 -13.15 3.75
-4.84 -13.16 0.24
-6.89 -18.76 1.05
-2.62 -7.12 -1.48
-4.69 -12.77 1.19
-3.18 -8.67 -1.46
-4.77 -13 1.7
-4.46 -12.13 -1.59
-4.77 -12.98 2.19
-4.76 -12.95 -1.21
-4.75 -12.92 2.68
-4.86 -13.23 -0.74
-4.8 -13.07 3.22
-4.85 -13.2 -0.25
-4.82 -13.11 3.74
-4.88 -13.14 0.24
-6.73 -18.13 1.01
-2.64 -7.11 -1.47
-4.74 -12.76 1.19
-3.21 -8.66 -1.46
-4.82 -12.99 1.7
-4.51 -12.13 -1.59
-4.82 -12.99 2.19
-4.65 -12.53 -1.17
-4.79 -12.91 2.68
-4.81 -12.95 -0.72
-4.83 -13 3.2
-6.61 -17.79 -0.33
-4.82 -12.97 3.71
-6.51 -17.35 0.32
-6.56 -17.48 0.98
-2.67 -7.11 -1.48
-4.78 -12.74 1.19
-3.25 -8.66 -1.47
-4.87 -12.98 1.7
-4.55 -12.13 -1.59
-4.87 -12.97 2.19
-4.69 -12.49 -1.17
-4.84 -12.9 2.68
-4.86 -12.95 -0.72
-4.86 -12.95 3.19
-6.43 -17.14 -0.32
-4.85 -12.91 3.7
-6.35 -16.74 0.31
-6.4 -16.87 0.95
-2.7 -7.12 -1.48
-4.83 -12.73 1.19
-3.28 -8.66 -1.47
-4.91 -12.96 1.7
-4.6 -12.12 -1.59
-4.92 -12.96 2.2
-4.74 -12.49 -1.17
-4.9 -12.92 2.69
-4.91 -12.94 -0.73
-4.9 -12.92 3.19
-6.29 -16.58 -0.31
-4.89 -12.9 3.7
-6.2 -16.19 0.3
-6.24 -16.29 0.91
-2.72 -7.11 -1.48
-4.88 -12.73 1.19
-3.31 -8.65 -1.47
-4.96 -12.95 1.7
-4.63 -12.1 -1.59
-4.96 -12.95 2.2
-4.79 -12.5 -1.17
-4.94 -12.91 2.69
-4.96 -12.95 -0.73
-4.94 -12.9 3.19
-6.15 -16.05 -0.3
-4.94 -12.89 3.7
-6.06 -15.65 0.29
-6.1 -15.77 0.89
-4.92 -12.71 1.19
-5.01 -12.93 1.7
-5 -12.93 2.2
-4.83 -12.48 -1.17
-4.99 -12.9 2.69
-5.01 -12.95 -0.73
-4.99 -12.89 3.19
-6.01 -15.52 -0.29
-4.98 -12.87 3.7
-5.94 -15.2 0.28
-5.98 -15.29 0.86
-4.97 -12.7 1.19
-1.67 -4.28 -0.73
-5.05 -12.92 1.7
-1.68 -4.3 -0.57
-5.05 -12.92 2.2
-5.04 -12.88 2.69
-5.06 -12.94 -0.73
-5.04 -12.89 3.19
-5.91 -15.1 -0.28
-5.03 -12.85 3.7
-1.68 -4.25 -0.72
-1.69 -4.27 -0.56
-5.1 -12.9 2.2
-1.69 -4.29 -0.4
-5.08 -12.87 2.69
-1.69 -4.27 -0.24
-5.1 -12.9 3.2
-1.7 -4.3 -0.08
-5.08 -12.85 3.7
-1.7 -4.26 0.08
-1.71 -4.28 0.24
-1.7 -4.26 -0.89
-1.7 -4.26 -0.73
-1.7 -4.26 -0.56
-1.7 -4.27 -0.4
-1.7 -4.26 -0.24
-1.71 -4.27 -0.08
-1.71 -4.24 0.08
-1.71 -4.25 0.24
-1.71 -4.24 -0.89
-1.71 -4.25 0.4
-1.72 -4.27 -0.73
-1.7 -4.22 0.56
-1.71 -4.23 -0.56
-1.71 -4.24 0.72
-1.71 -4.25 -0.4
-1.7 -4.21 0.88
-1.71 -4.25 -0.24
-1.71 -4.24 1.06
-1.71 -4.25 -0.08
-1.7 -4.22 1.22
-1.73 -4.24 0.08
-1.72 -4.22 0.24
-1.72 -4.23 -0.89
-1.72 -4.23 0.4
-1.73 -4.26 -0.73
-1.72 -4.22 0.56
-1.73 -4.25 -0.56
-1.72 -4.21 0.72
-1.73 -4.26 -0.4
-1.72 -4.22 0.89
-1.73 -4.25 -0.24
-1.72 -4.22 1.05
-1.72 -4.23 -0.08
-1.72 -4.22 1.22
-1.74 -4.24 0.08
-1.75 -4.24 0.24
-1.75 -4.24 -0.89
-1.74 -4.23 0.4
-1.75 -4.24 -0.73
-1.74 -4.23 0.56
-1.75 -4.26 -0.57
-1.73 -4.22 0.72
-1.75 -4.27 -0.4
-1.73 -4.2 0.88
-1.75 -4.26 -0.24
-1.74 -4.22 1.05
-1.75 -4.26 -0.08
-1.73 -4.2 1.22
-5.35 -12.87 0.24
-1.77 -4.26 0.24
-2.92 -7.04 -1.48
-1.77 -4.26 0.4
-3.56 -8.58 -1.47
-1.75 -4.22 0.56
-5 -12.03 -1.6
-1.76 -4.23 0.73
-5.17 -12.44 -1.18
-1.75 -4.2 0.88
-5.37 -12.92 -0.73
-1.76 -4.24 1.06
-5.35 -12.88 -0.24
-1.75 -4.21 1.22
-5.39 -12.85 0.24
-2.95 -7.04 -1.48
-5.36 -12.78 1.21
-3.59 -8.56 -1.47
-5.38 -12.82 1.71
-5.04 -12.02 -1.6
-5.38 -12.82 2.2
-5.2 -12.41 -1.18
-5.4 -12.88 -0.73
-5.4 -12.88 -0.24
-5.35 -12.75 3.7
-5.44 -12.85 0.24
-5.44 -12.84 0.73
-2.98 -7.02 -1.48
-5.44 -12.83 1.22
-3.63 -8.57 -1.47
-5.43 -12.82 1.71
-5.08 -12 -1.6
-5.43 -12.82 2.21
-5.32 -12.56 -1.19
-5.42 -12.8 2.7
-5.41 -12.77 -0.73
-5.41 -12.78 3.2
-5.41 -12.76 -0.24
-5.4 -12.74 3.71
-5.45 -12.73 0.24
-5.44 -12.72 0.73
-2.99 -7 -1.48
-5.44 -12.71 1.21
-3.66 -8.57 -1.48
-5.44 -12.71 1.7
-5.13 -11.98 -1.6
-5.46 -12.76 2.2
-5.33 -12.45 -1.18
-5.45 -12.75 2.7
-5.44 -12.73 -0.73
-5.46 -12.75 3.2
-5.45 -12.73 -0.24
-5.45 -12.74 3.71
-5.54 -12.83 0.24
-5.49 -12.73 0.73
-3.02 -7 -1.48
-5.49 -12.72 1.21
-3.7 -8.57 -1.48
-5.48 -12.71 1.7
-5.17 -11.99 -1.6
-5.47 -12.68 2.19
-5.29 -12.25 -1.17
-5.45 -12.64 2.68
-5.42 -12.56 -0.72
-5.46 -12.65 3.18
-5.54 -12.85 -0.24
-5.45 -12.62 3.68
-5.59 -12.82 0.24
-5.58 -12.82 0.73
-3.05 -7 -1.48
-5.58 -12.8 1.22
-3.73 -8.56 -1.48
-5.01 -11.49 1.54
-5.22 -11.98 -1.61
-5.57 -12.79 2.21
-5.28 -12.12 -1.16
-5.56 -12.75 -0.73
-5.55 -12.74 3.21
-5.59 -12.83 -0.24
-5.53 -12.7 3.71
-5.66 -12.87 0.25
-5.64 -12.82 0.73
-3.08 -6.99 -1.49
-5.63 -12.79 1.22
-3.76 -8.55 -1.48
-5.01 -11.38 1.53
-5.27 -11.97 -1.61
-5.63 -12.79 2.21
-5.32 -12.1 -1.16
-5.6 -12.74 2.7
-5.68 -12.92 -0.74
-5.6 -12.72 3.21
-5.68 -12.91 -0.25
-5.59 -12.69 3.72
-5.72 -12.87 0.25
-5.71 -12.86 0.74
-3.1 -6.98 -1.48
-5.68 -12.78 1.22
-3.8 -8.55 -1.48
-5.06 -11.39 1.53
-5.31 -11.95 -1.61
-5.67 -12.75 2.21
-5.38 -12.12 -1.16
-5.65 -12.73 2.71
-5.74 -12.91 -0.74
-5.65 -12.71 3.21
-5.64 -12.69 3.72
-8.04 -17.93 0.34
-5.76 -12.85 0.74
-3.12 -6.97 -1.48
-5.72 -12.76 1.22
-3.83 -8.53 -1.48
-5.1 -11.38 1.53
-5.36 -11.95 -1.61
-5.71 -12.73 2.21
-5.5 -12.27 -1.18
-5.71 -12.73 2.71
-5.78 -12.9 -0.74
-5.7 -12.71 3.22
-8.04 -17.94 -0.34
-5.69 -12.69 3.73
-8.1 -17.9 0.34
-8.09 -17.88 1.03
-3.15 -6.96 -1.48
-5.77 -12.75 1.22
-3.85 -8.52 -1.48
-5.15 -11.37 1.53
-5.41 -11.94 -1.61
-5.76 -12.72 2.21
-5.83 -12.89 -1.24
-5.75 -12.7 2.71
-5.83 -12.89 -0.74
-5.75 -12.71 3.22
-8.11 -17.91 -0.34
-5.74 -12.68 3.73
-8.16 -17.88 0.34
-8.15 -17.86 1.03
-3.18 -6.96 -1.49
-5.82 -12.74 1.23
-3.88 -8.51 -1.48
-5.19 -11.36 1.53
-5.44 -11.93 -1.61
-5.8 -12.71 2.21
-5.88 -12.88 -1.24
-5.79 -12.68 2.71
-5.88 -12.87 -0.74
-5.8 -12.7 3.22
