# .PCD v0.7 - Point Cloud Data file format
VERSION 0.7
FIELDS x y z
SIZE 4 4 4
TYPE F F F
COUNT 1 1 1
WIDTH 2905
HEIGHT 1
VIEWPOINT 0 0 0 1 0 0 0
POINTS 2905
DATA ascii
9.28 -6.44 -2.2
9.57 -6.65 1.02
9.6 -6.67 -1.85
9.53 -6.62 1.42
9.27 -6.44 -1.39
8.61 -5.98 1.66
9.28 -6.45 -0.99
9.41 -6.54 -0.6
12.05 -8.37 3.39
9.61 -6.67 -0.2
8.3 -5.76 2.71
5.97 -4.18 -1.95
9.41 -6.58 0.2
7.53 -5.27 -2.12
7.73 -5.41 0.49
9.25 -6.47 -2.2
7.54 -5.27 0.8
9.59 -6.71 -1.85
8.24 -5.77 1.24
9.44 -6.61 -1.41
9.18 -6.42 1.77
8.98 -6.28 -0.96
9.54 -6.68 -0.61
8.99 -6.29 -0.19
8.51 -5.95 2.78
5.97 -4.21 -1.96
9.33 -6.58 0.2
7.53 -5.31 -2.13
7.42 -5.23 0.48
9.21 -6.49 -2.19
9.41 -6.63 1.01
9.26 -6.53 -1.79
8.31 -5.86 1.25
8.94 -6.3 -1.34
9.16 -6.45 1.77
9.55 -6.73 -1.02
8.83 -6.22 2.1
9.42 -6.64 -0.6
8.14 -5.74 2.3
9.02 -6.36 -0.19
8.43 -5.94 2.76
5.96 -4.23 -1.96
9.06 -6.43 0.19
7.59 -5.39 -2.15
9.38 -6.66 0.6
9.15 -6.49 -2.18
7.75 -5.5 0.83
9.57 -6.79 -1.86
8.37 -5.94 1.26
8.87 -6.3 1.72
9.58 -6.8 -1.03
13.06 -9.27 3.11
8.63 -6.12 -0.55
8.32 -5.9 2.35
9.26 -6.57 -0.2
8.51 -6.04 2.8
5.94 -4.25 -1.96
7.58 -5.42 0.16
7.63 -5.45 -2.16
7.35 -5.25 0.47
9.12 -6.52 -2.18
9.31 -6.65 1
9.25 -6.61 -1.8
9.13 -6.53 1.38
9.18 -6.57 -1.39
11.77 -8.41 2.29
9.39 -6.71 -1.01
8.75 -6.26 2.09
15.9 -11.37 -1.02
10.44 -7.47 2.96
9.16 -6.55 -0.2
10.26 -7.33 3.38
5.93 -4.27 -1.96
7.43 -5.36 0.16
7.6 -5.48 -2.16
7.49 -5.4 0.48
9.12 -6.57 -2.19
7.67 -5.53 0.83
9.07 -6.53 -1.77
8.85 -6.37 1.34
9.14 -6.58 -1.38
10.74 -7.73 2.1
9.3 -6.7 -1
8.75 -6.31 2.1
9.2 -6.63 -0.59
10.38 -7.48 2.95
9.13 -6.57 -0.2
12.28 -8.85 4.06
5.94 -4.31 -1.96
8.09 -5.87 0.17
7.59 -5.5 -2.16
7.27 -5.27 0.47
9.02 -6.54 -2.17
7.61 -5.52 0.82
9.33 -6.77 -1.83
8.27 -6 1.26
8.69 -6.3 -1.32
9.13 -6.62 1.79
9.1 -6.61 -0.98
7.8 -5.66 1.87
9.07 -6.58 -0.59
11.06 -8.02 3.15
9.31 -6.76 -0.2
8.96 -6.5 2.97
6 -4.39 -1.99
8.6 -6.28 0.19
7.59 -5.55 -2.17
7.24 -5.29 0.47
8.88 -6.49 -2.14
9.26 -6.77 1
10.9 -7.97 -2.14
8.36 -6.11 1.27
9.56 -6.99 -1.45
12.41 -9.07 2.44
9.23 -6.75 -1
10.45 -7.64 2.52
7.63 -5.57 2.18
9.29 -6.79 -0.2
8.52 -6.23 2.83
5.98 -4.41 -1.99
7.54 -5.55 0.16
7.75 -5.71 -2.22
7.62 -5.61 0.5
8.95 -6.59 -2.16
7.38 -5.44 0.8
9.34 -6.88 -1.84
11.46 -8.44 1.75
9.35 -6.89 -1.43
8.75 -6.44 1.72
8.89 -6.55 -0.97
7.73 -5.69 1.87
8.2 -6.04 -0.53
8.38 -6.17 2.4
9.52 -7.01 -0.21
11.82 -8.7 3.93
5.96 -4.42 -1.99
7.51 -5.57 0.16
7.77 -5.77 -2.23
7.95 -5.9 0.52
8.84 -6.56 -2.14
8.75 -6.49 0.95
9.07 -6.73 -1.79
8.77 -6.51 1.34
9.26 -6.87 -1.42
8.74 -6.48 1.72
9.08 -6.74 -0.99
7.85 -5.82 1.9
9.01 -6.69 -0.59
11.16 -8.28 3.21
9.28 -6.88 -0.2
13.59 -10.08 4.53
5.97 -4.46 -2
8.6 -6.42 0.19
7.82 -5.84 -2.25
7.36 -5.5 0.48
8.83 -6.6 -2.14
9.32 -6.96 1.02
9.4 -7.02 -1.86
12.81 -9.57 1.96
8.83 -6.6 -1.35
8.11 -6.06 1.6
8.79 -6.57 -0.96
8.41 -6.28 2.04
9.01 -6.73 -0.59
7.59 -5.67 2.19
9.08 -6.79 -0.2
7.69 -5.74 2.57
5.96 -4.48 -2
7.81 -5.88 -2.26
8.42 -6.34 0.55
9.18 -6.91 -2.23
6.58 -4.95 0.72
8.89 -6.69 -1.76
9.21 -6.93 1.41
8.76 -6.6 1.74
9.44 -7.1 -1.03
7.7 -5.8 1.87
8.76 -6.59 -0.57
10.66 -8.02 3.08
9.05 -6.81 -0.2
8.62 -6.49 2.89
5.95 -4.51 -2
7.79 -5.91 -2.26
11.47 -8.7 0.75
8.85 -6.71 -2.16
6.84 -5.19 0.75
8.72 -6.61 -1.73
9.22 -6.99 1.42
9.25 -7.01 -1.42
8.68 -6.58 1.72
9.02 -6.84 -0.99
7.71 -5.84 1.88
8.88 -6.73 -0.58
8.13 -6.16 2.36
8.95 -6.79 -0.2
8.57 -6.49 2.88
5.95 -4.54 -2.01
9.94 -7.59 0.22
7.77 -5.93 -2.26
7.31 -5.58 0.48
8.92 -6.81 -2.18
6.67 -5.09 0.73
8.73 -6.67 -1.74
8.78 -6.7 1.36
9.14 -6.98 -1.41
9.11 -6.96 1.82
8.96 -6.84 -0.99
8.37 -6.39 2.05
9.11 -6.95 -0.6
8.6 -6.56 2.5
9.69 -7.4 -0.21
8.38 -6.39 2.82
5.96 -4.58 -2.01
8.63 -6.64 0.19
7.73 -5.94 -2.25
7.52 -5.78 0.5
8.48 -6.52 -2.08
11.94 -9.18 1.32
9.24 -7.1 -1.85
8.92 -6.86 1.38
8.91 -6.84 -1.38
10.25 -7.88 2.05
8.26 -6.35 -0.91
8.68 -6.67 2.13
11.44 -8.79 -0.76
8.67 -6.66 2.52
8.85 -6.8 -0.19
10.1 -7.77 3.41
5.96 -4.61 -2.02
8.59 -6.65 0.19
7.68 -5.95 -2.24
7.33 -5.67 0.49
8.23 -6.37 -2.02
6.49 -5.03 0.72
8.7 -6.74 -1.74
8.89 -6.88 1.38
8.69 -6.73 -1.35
8.05 -6.24 1.61
8.23 -6.37 -0.91
8.66 -6.71 -0.57
8.61 -6.67 2.51
8.73 -6.76 -0.19
7.76 -6.01 2.63
5.94 -4.63 -2.02
8.01 -6.25 0.18
7.63 -5.95 -2.23
8.01 -6.25 0.53
8.39 -6.55 -2.07
8.84 -6.89 0.98
9.05 -7.05 -1.82
10.02 -7.81 1.56
8.91 -6.95 -1.39
8.42 -6.57 1.69
8.76 -6.83 -0.97
8.94 -6.97 2.2
8.18 -6.38 -0.54
10.66 -8.31 3.12
10.77 -8.4 3.66
5.93 -4.66 -2.02
8.36 -6.57 0.19
7.61 -5.97 -2.23
7.63 -5.99 0.51
8.36 -6.57 -2.07
8.66 -6.8 0.96
8.63 -6.77 -1.74
8.69 -6.82 1.36
7.99 -6.27 1.61
8.55 -6.71 -0.95
8.22 -6.45 -0.55
8.53 -6.7 2.5
8.97 -7.05 -0.2
7.73 -6.07 2.63
5.92 -4.68 -2.02
8.85 -6.99 0.2
7.57 -5.99 -2.23
7.63 -6.03 0.51
8.35 -6.6 -2.07
8.19 -6.48 1.28
9.23 -7.3 -1.44
8.57 -6.78 1.73
8.48 -6.7 -0.95
7.7 -6.09 1.91
8.36 -6.61 -0.56
7.69 -6.08 2.26
11.17 -8.83 -0.25
8.25 -6.52 2.82
5.93 -4.73 -2.03
7.89 -6.29 0.18
7.53 -6 -2.22
7.58 -6.04 0.51
8.26 -6.58 -2.05
8.63 -6.87 0.96
8.51 -6.78 -1.72
8.47 -6.75 1.33
10.1 -8.05 2.05
8.44 -6.72 -0.94
8.32 -6.63 2.07
7.4 -5.9 2.18
10.8 -8.61 -0.24
7.81 -6.22 2.68
5.93 -4.76 -2.04
10.64 -8.54 0.24
7.51 -6.02 -2.22
7.55 -6.06 0.51
8.07 -6.47 -2.01
8.36 -6.71 0.94
9.19 -7.38 -1.87
8.56 -6.87 1.35
8.72 -7 -1.37
10.7 -8.59 2.17
8.55 -6.86 -0.96
7.79 -6.26 1.94
8.53 -6.84 -0.57
7.68 -6.16 2.27
12.1 -9.71 4.16
5.93 -4.79 -2.04
8.55 -6.91 0.19
7.49 -6.05 -2.22
7.22 -5.83 0.49
8.09 -6.54 -2.02
8.6 -6.95 0.97
7.91 -6.4 -1.61
8.45 -6.83 1.33
8.37 -6.76 -1.32
7.84 -6.34 -0.88
7.33 -5.93 1.83
8.43 -6.81 -0.57
8.18 -6.61 2.43
8.86 -7.16 -0.2
7.77 -6.28 2.68
5.91 -4.81 -2.04
8.69 -7.08 0.2
7.46 -6.08 -2.22
8.11 -6.6 -2.03
8.51 -6.92 0.96
11.2 -9.12 -2.29
10.06 -8.19 1.59
8.04 -6.55 -1.27
8 -6.52 1.63
7.82 -6.36 -0.88
7.57 -6.16 1.9
8.93 -7.27 -0.6
10.94 -8.91 3.26
8.82 -7.18 -0.2
10.98 -8.94 3.79
5.9 -4.84 -2.04
8.63 -7.08 0.19
7.44 -6.1 -2.22
8.54 -7 0.58
8.03 -6.58 -2.02
7.66 -6.28 0.87
8.08 -6.62 -1.65
9.12 -7.48 1.45
8.17 -6.69 -1.3
9.37 -7.68 1.92
8.26 -6.77 -0.93
12.02 -9.85 3.02
10.82 -8.87 -0.73
9.79 -8.03 2.92
10.97 -8.99 -0.25
10.03 -8.22 3.48
5.88 -4.85 -2.04
8.19 -6.76 0.19
7.41 -6.11 -2.22
8.54 -7.05 0.58
8.16 -6.74 -2.06
9.13 -7.53 1.04
8.11 -6.69 -1.67
9.09 -7.5 1.45
7.78 -6.42 -1.24
10.77 -8.89 2.21
7.66 -6.32 -0.87
10.22 -8.44 2.58
8.2 -6.77 -0.56
10.11 -8.35 3.03
8.4 -6.93 -0.19
10.81 -8.92 3.76
5.87 -4.88 -2.04
11.24 -9.35 0.26
7.37 -6.13 -2.21
7.92 -6.58 0.54
8.23 -6.85 -2.08
10.92 -9.08 -2.25
9.04 -7.51 1.44
7.69 -6.39 -1.23
9.18 -7.63 1.89
8.12 -6.75 -0.92
7.55 -6.27 1.91
8.19 -6.81 -0.56
10.36 -8.61 3.11
10.72 -8.91 -0.24
7.8 -6.49 2.72
5.87 -4.92 -2.05
8.75 -7.33 0.2
7.33 -6.14 -2.21
8.44 -7.07 0.58
8.12 -6.8 -2.06
9.03 -7.56 1.03
8.04 -6.73 -1.66
8.31 -6.96 1.33
11.02 -9.23 -1.76
7.67 -6.42 1.58
7.77 -6.5 -0.89
8.81 -7.38 2.23
9.38 -7.85 2.82
8.48 -7.1 -0.19
7.76 -6.5 2.71
5.88 -4.96 -2.06
8.75 -7.38 0.2
7.31 -6.16 -2.21
10.59 -8.93 0.73
8.07 -6.8 -2.05
8.46 -7.13 0.97
8.05 -6.79 -1.67
8.43 -7.11 1.35
7.16 -6.04 -1.15
8.84 -7.46 1.83
10.97 -9.25 -1.26
10.78 -9.09 2.74
8.79 -7.41 -0.6
12.27 -10.35 3.71
8.42 -7.1 -0.19
8.38 -7.07 2.94
5.89 -5 -2.07
9.16 -7.78 0.21
7.27 -6.17 -2.2
7.97 -6.77 0.55
8.01 -6.8 -2.04
8.43 -7.16 0.97
7.95 -6.75 -1.65
9.53 -8.09 1.54
7.22 -6.13 -1.16
7.59 -6.44 1.58
8.01 -6.8 -0.92
7.39 -6.28 1.89
8.65 -7.35 -0.59
10.5 -8.92 3.18
10.57 -8.97 -0.24
10.83 -9.2 3.81
5.87 -5.02 -2.07
8.2 -7.01 0.19
7.24 -6.19 -2.2
8.59 -7.34 0.59
7.88 -6.74 -2.02
8.18 -6.99 0.94
7.73 -6.61 -1.61
8.68 -7.42 1.4
7.66 -6.55 -1.24
7.84 -6.7 1.63
7.74 -6.62 -0.89
8.67 -7.41 2.22
8.12 -6.94 -0.56
9.69 -8.28 2.94
16.19 -13.84 -0.37
10.42 -8.91 3.67
5.85 -5.04 -2.07
7.61 -6.55 0.18
7.21 -6.21 -2.2
11.55 -9.94 0.8
7.89 -6.8 -2.02
8.51 -7.33 0.98
7.84 -6.75 -1.64
8.21 -7.07 1.33
7.57 -6.52 1.58
7.87 -6.78 -0.91
8.65 -7.45 2.22
10.85 -9.35 -0.75
7.46 -6.43 2.27
11.27 -9.71 -0.26
10.33 -8.89 3.65
5.85 -5.07 -2.07
7.8 -6.76 0.18
7.19 -6.23 -2.2
7.81 -6.76 -2.01
8.45 -7.32 0.98
7.79 -6.75 -1.63
7.89 -6.84 1.28
7.17 -6.21 -1.16
7.52 -6.51 1.58
7.7 -6.67 -0.89
8.64 -7.49 2.22
10.8 -9.36 -0.75
7.56 -6.55 2.31
11.22 -9.72 -0.26
9.48 -8.21 3.36
5.88 -5.13 -2.09
8.16 -7.12 0.19
7.18 -6.26 -2.2
10.79 -9.42 0.75
7.88 -6.88 -2.03
7.84 -6.84 -1.65
7.98 -6.96 1.3
7.17 -6.26 -1.17
7.49 -6.54 1.57
7.79 -6.8 -0.9
7.45 -6.5 1.92
10.75 -9.38 -0.75
10 -8.73 3.06
8.54 -7.45 -0.2
9.59 -8.37 3.41
5.84 -5.14 -2.08
11.09 -9.75 0.26
7.15 -6.29 -2.2
10.82 -9.51 0.76
7.85 -6.9 -2.03
7.97 -7.01 -1.68
7.88 -6.93 1.29
7.23 -6.36 -1.18
7.47 -6.57 1.58
7.48 -6.58 -0.87
7.19 -6.32 1.86
7.68 -6.75 -0.54
11.27 -9.9 3.46
10.7 -9.41 -0.25
10.65 -9.37 3.8
5.81 -5.14 -2.08
10.69 -9.47 0.25
7.12 -6.3 -2.2
7.9 -7 0.55
7.65 -6.77 -1.99
8.4 -7.44 0.98
6.96 -6.16 -1.47
8.4 -7.44 1.38
7.11 -6.29 -1.17
7.48 -6.62 1.58
7.73 -6.84 -0.9
7.68 -6.8 1.99
11.4 -10.09 -0.8
8.13 -7.2 2.51
6.16 -5.46 -0.14
11.12 -9.84 3.98
5.79 -5.16 -2.08
10.33 -9.21 0.24
7.09 -6.32 -2.19
7.8 -6.96 -2.03
11.18 -9.97 1.31
6.98 -6.23 -1.48
8.34 -7.44 1.37
7.13 -6.36 -1.17
9.66 -8.61 2.05
7.59 -6.76 -0.89
7.74 -6.9 -0.54
9.77 -8.71 3.02
11.39 -10.15 -0.27
7.82 -6.97 2.81
5.73 -5.14 -2.06
8.26 -7.42 0.19
6.85 -6.15 -2.13
8 -7.19 0.56
7.61 -6.83 -1.99
10.77 -9.67 1.27
6.84 -6.14 -1.46
8.59 -7.71 1.42
7.09 -6.37 -1.17
10.74 -9.64 2.29
7.49 -6.73 -0.88
7.58 -6.81 1.98
10.7 -9.61 -0.75
7.95 -7.14 2.47
7.33 -6.58 -0.17
9.55 -8.58 3.44
5.65 -5.1 -2.04
8.2 -7.41 0.19
7.07 -6.39 -2.2
10.94 -9.88 0.77
7.51 -6.78 -1.97
10.63 -9.61 1.25
7.57 -6.84 -1.62
7.94 -7.18 1.31
7.37 -6.66 -1.22
7.61 -6.88 1.62
7.34 -6.63 -0.87
7.52 -6.79 1.97
10.75 -9.71 -0.76
7.46 -6.74 2.32
10.62 -9.6 -0.25
7.71 -6.97 2.78
5.59 -5.08 -2.02
11.28 -10.27 0.27
7.05 -6.41 -2.2
16.51 -15.03 1.17
7.59 -6.9 -1.99
10.56 -9.61 1.25
6.78 -6.17 -1.45
8.68 -7.9 1.44
7.56 -6.88 -1.26
9.93 -9.03 2.13
7.48 -6.81 -0.88
10.65 -9.69 2.8
16.75 -15.24 -1.19
7.46 -6.79 2.33
10.6 -9.65 -0.25
7.58 -6.9 2.75
5.52 -5.06 -2.01
11.28 -10.34 0.27
7.07 -6.48 -2.21
8.02 -7.35 0.57
7.14 -6.54 -1.88
10.48 -9.61 1.24
7.19 -6.6 -1.55
9.07 -8.32 1.51
7.47 -6.85 -1.25
7.31 -6.7 1.57
7.46 -6.84 -0.88
11.69 -10.72 3.08
7.55 -6.93 -0.54
8 -7.34 2.51
7.53 -6.91 2.74
5.5 -5.08 -2
15.54 -14.35 0.37
7.05 -6.51 -2.22
7.48 -6.91 0.53
7.27 -6.71 -1.92
10.44 -9.64 1.24
6.79 -6.27 -1.46
9.05 -8.36 1.51
7.96 -7.35 1.72
7.26 -6.7 -0.86
9.15 -8.45 2.42
7.56 -6.98 -0.18
7.53 -6.95 2.75
5.48 -5.09 -2
16.66 -15.49 0.4
6.98 -6.49 -2.2
10.07 -9.36 0.72
7.16 -6.66 -1.9
11.68 -10.85 1.39
7.31 -6.79 -1.58
13.72 -12.75 2.3
11.35 -10.55 2.45
7.31 -6.79 -0.87
11.42 -10.61 3.03
7.36 -6.84 -0.53
7.47 -6.94 2.35
7.52 -6.99 -0.18
5.68 -5.32 -2.09
10.55 -9.88 0.25
7.03 -6.58 -2.22
10.02 -9.38 0.72
6.77 -6.34 -1.8
7.27 -6.81 0.87
7.33 -6.87 -1.59
8.22 -7.69 1.38
6.97 -6.53 -1.17
7.91 -7.41 1.72
6.28 -5.88 -0.75
9.67 -9.05 2.57
7.32 -6.85 -0.53
10.54 -9.87 3.33
7.55 -7.07 -0.18
9.49 -8.89 3.48
5.83 -5.5 -2.15
10.48 -9.88 0.25
6.88 -6.49 -2.18
8.16 -7.69 0.59
8.84 -8.33 -2.36
10.81 -10.19 1.3
7.29 -6.88 -1.59
9.22 -8.69 1.56
7.25 -6.83 -1.22
7.63 -7.19 1.66
7.15 -6.74 -0.86
7.43 -7 1.98
7.35 -6.93 -0.53
11.31 -10.66 3.59
10.91 -10.29 -0.26
7.73 -7.29 2.85
5.88 -5.58 -2.17
10.46 -9.93 0.25
6.8 -6.46 -2.17
10.84 -10.29 0.78
7.13 -6.76 -1.91
7.98 -7.57 0.96
6.96 -6.6 -1.52
9.18 -8.71 1.55
6.76 -6.42 -1.14
7.41 -7.03 1.62
7.18 -6.82 -0.87
6 -5.7 -0.43
9.71 -9.22 3.09
10.99 -10.43 -0.26
9.38 -8.91 3.47
5.88 -5.62 -2.18
10.21 -9.75 0.25
6.78 -6.48 -2.16
8.3 -7.93 0.6
8.77 -8.38 -2.36
7.26 -6.94 0.88
7.14 -6.83 -1.57
8.56 -8.18 1.45
12.84 -12.27 -2.18
8.28 -7.91 1.81
6.99 -6.68 -0.85
11.55 -11.03 3.1
6.21 -5.94 -0.45
7.99 -7.63 2.55
5.7 -5.45 -0.14
7.38 -7.05 2.74
5.87 -5.65 -2.18
7.26 -6.99 0.18
6.77 -6.51 -2.17
10.4 -10 0.76
8.73 -8.4 -2.35
8.05 -7.74 0.98
6.65 -6.4 -1.46
10.34 -9.94 1.76
7.09 -6.82 -1.21
10.27 -9.88 2.26
7.25 -6.97 -0.88
7.57 -7.29 -0.55
7.96 -7.66 2.55
5.73 -5.52 -0.14
7.75 -7.46 2.88
5.85 -5.67 -2.18
10.05 -9.74 0.24
6.76 -6.55 -2.17
7.79 -7.55 0.57
6.91 -6.69 -1.87
9.71 -9.41 1.18
7.08 -6.86 -1.56
8.18 -7.93 1.4
12.69 -12.3 -2.17
8.25 -7.99 1.82
10.17 -9.85 2.75
6.08 -5.89 -0.44
8.23 -7.98 2.65
5.74 -5.57 -0.14
7.73 -7.49 2.89
5.83 -5.69 -2.18
10.15 -9.9 0.25
6.74 -6.58 -2.17
7.86 -7.67 0.58
6.99 -6.82 -1.9
10.24 -9.99 -2.27
11.97 -11.68 2.05
6.85 -6.68 -1.17
7.35 -7.17 1.63
6.67 -6.51 -0.82
10.12 -9.87 2.75
6.12 -5.97 -0.45
6.08 -5.93 -0.15
7.35 -7.18 2.75
5.79 -5.69 -2.18
9.98 -9.8 0.24
6.72 -6.6 -2.17
11.46 -11.25 0.84
6.92 -6.8 -1.89
8.45 -8.3 1.04
7 -6.88 -1.55
8.4 -8.25 1.45
5.58 -5.48 -0.96
9.03 -8.87 2
5.55 -5.45 -0.68
10.77 -10.58 2.93
6.27 -6.16 -0.46
7.17 -7.05 2.32
6.12 -6.01 -0.15
10.02 -9.84 3.76
5.77 -5.71 -2.18
11.03 -10.91 0.27
6.6 -6.53 -2.14
8.12 -8.03 0.6
6.81 -6.74 -1.86
10.31 -10.2 1.27
10.23 -10.12 -2.28
8.38 -8.29 1.45
5.57 -5.51 -0.96
9.11 -9.01 2.03
5.54 -5.48 -0.68
7.12 -7.04 1.95
5.79 -5.73 -0.43
8.46 -8.37 2.75
6.14 -6.07 -0.15
7.8 -7.71 2.94
5.77 -5.75 -2.18
7.16 -7.13 0.18
6.92 -6.89 -2.25
7.08 -7.05 0.52
6.95 -6.93 -1.91
9.06 -9.03 1.12
6.8 -6.78 -1.52
9.38 -9.35 1.63
6.88 -6.85 -1.19
7.38 -7.35 1.65
5.62 -5.6 -0.69
10.42 -10.38 2.86
6.75 -6.73 -0.5
8.35 -8.32 2.72
6.11 -6.09 -0.15
11.78 -11.73 4.45
5.78 -5.79 -2.19
7.14 -7.16 0.18
6.97 -6.99 -2.28
11.14 -11.17 0.83
6.95 -6.97 -1.91
10.23 -10.26 1.27
10 -10.03 -2.24
7.41 -7.43 1.29
6.83 -6.85 -1.19
9.26 -9.28 2.08
5.92 -5.93 -0.73
10.45 -10.48 2.88
6.77 -6.79 -0.5
7.07 -7.09 2.31
6.09 -6.11 -0.15
7.35 -7.37 2.79
5.77 -5.83 -2.2
6.21 -6.27 0.15
6.48 -6.55 -2.13
10.81 -10.92 0.81
6.93 -7 -1.91
6.46 -6.52 0.8
6.87 -6.94 -1.55
10.18 -10.28 1.78
6.8 -6.87 -1.19
9.23 -9.32 2.08
6.77 -6.83 -0.84
7.35 -7.43 2.03
5.8 -5.86 -0.43
7.08 -7.15 2.32
5.85 -5.91 -0.15
7.3 -7.38 2.78
5.77 -5.87 -2.21
6.2 -6.3 0.15
6.44 -6.55 -2.12
7.7 -7.83 0.58
5.96 -6.06 -1.65
6.4 -6.51 0.8
6.85 -6.97 -1.55
10.13 -10.3 1.77
6.54 -6.65 -1.15
13.43 -13.65 3.03
6.78 -6.89 -0.85
9.81 -9.97 2.72
6.06 -6.17 -0.45
8.53 -8.68 2.81
5.98 -6.08 -0.15
7.63 -7.76 2.92
5.75 -5.89 -2.2
6.93 -7.09 0.17
6.28 -6.43 -2.08
7.67 -7.86 0.58
6.5 -6.65 0.81
7.14 -7.31 -1.62
8.38 -8.58 1.47
6.26 -6.41 -1.1
7.58 -7.76 1.72
6.73 -6.89 -0.84
8.41 -8.61 2.34
5.52 -5.65 -0.41
6.05 -6.2 -0.15
8.01 -8.2 3.07
5.76 -5.94 -2.22
7.2 -7.42 0.18
6.44 -6.64 -2.14
8.2 -8.46 0.62
6.73 -6.94 -1.88
8.95 -9.22 1.12
6.86 -7.07 -1.56
8.35 -8.61 1.47
6.23 -6.42 -1.1
9.87 -10.18 2.25
8.36 -8.62 2.33
5.55 -5.72 -0.42
9.76 -10.06 3.24
6.03 -6.22 -0.15
7.18 -7.4 2.76
5.77 -5.99 -2.23
6.7 -6.95 -2.23
7.52 -7.81 0.57
6.68 -6.93 -1.87
6.45 -6.69 0.81
5.91 -6.14 -1.35
8.57 -8.9 1.52
6.23 -6.47 -1.1
9.95 -10.34 2.27
5.94 -6.17 -0.75
5.49 -5.7 -0.41
7.02 -7.29 2.33
6.05 -6.28 -0.15
7.22 -7.5 2.79
5.75 -6.02 -2.23
5.96 -6.24 0.15
6.62 -6.92 -2.21
6.54 -6.83 0.5
6.62 -6.93 -1.86
10.98 -11.48 1.39
6.66 -6.97 -1.53
8.41 -8.79 1.49
5.78 -6.04 -1.03
9.48 -9.91 2.17
5.84 -6.1 -0.74
7.26 -7.59 2.04
5.61 -5.86 -0.43
8.86 -9.26 2.96
5.96 -6.23 -0.15
7.38 -7.72 2.86
5.74 -6.04 -2.23
5.86 -6.17 0.15
6.64 -6.99 -2.23
6.27 -6.59 0.48
6.61 -6.95 -1.86
6.39 -6.72 0.81
8.33 -8.77 -1.92
8.41 -8.85 1.5
6.31 -6.64 -1.12
11.14 -11.73 2.56
7.23 -7.61 2.04
5.48 -5.77 -0.42
12.19 -12.83 4.08
5.43 -5.72 -0.14
9.71 -10.22 3.78
5.73 -6.07 -2.24
5.96 -6.32 0.15
6.19 -6.56 -2.08
5.87 -6.22 0.45
8.11 -8.59 -2.3
6.13 -6.5 0.78
6.79 -7.19 -1.57
9.71 -10.28 1.74
6.33 -6.71 -1.13
9.27 -9.83 2.14
5.62 -5.95 -0.72
9.77 -10.35 2.77
5.6 -5.93 -0.43
10.33 -10.94 3.47
5.37 -5.69 -0.14
7.81 -8.27 3.05
5.71 -6.1 -2.24
5.97 -6.37 0.15
6.15 -6.57 -2.08
8.91 -9.51 0.68
6.56 -7 -1.87
9.12 -9.73 1.17
6.8 -7.26 -1.58
10.88 -11.62 1.95
6.52 -6.96 -1.17
8.48 -9.05 1.96
7.8 -8.32 -1
8.01 -8.55 2.28
5.82 -6.22 -0.45
8.1 -8.64 2.73
6.09 -6.5 -0.16
7.91 -8.45 3.1
5.68 -6.11 -2.24
5.93 -6.37 0.15
6.47 -6.95 -2.19
6.4 -6.88 0.49
6.42 -6.9 -1.83
6.54 -7.03 0.84
6.58 -7.07 -1.53
7.37 -7.92 1.33
5.78 -6.21 -1.04
9.79 -10.52 2.28
8.41 -9.04 -1.08
13.5 -14.51 3.85
5.78 -6.21 -0.44
8.48 -9.11 2.87
6.05 -6.5 -0.16
8.26 -8.87 3.25
5.67 -6.14 -2.24
5.66 -6.12 0.15
6.43 -6.95 -2.19
6.46 -6.99 0.5
6.48 -7.01 -1.86
6.01 -6.5 0.77
6.54 -7.08 -1.53
8.95 -9.68 1.62
6.14 -6.64 -1.11
10.8 -11.69 2.52
6.22 -6.73 -0.8
8.31 -8.99 2.38
5.77 -6.24 -0.45
10.84 -11.73 3.69
5.93 -6.42 -0.15
9.65 -10.44 3.81
5.66 -6.16 -2.24
5.64 -6.15 0.15
6.1 -6.65 -2.08
8.82 -9.61 0.68
6.24 -6.8 -1.79
6.33 -6.9 0.82
6.25 -6.81 -1.46
8.12 -8.85 1.48
8.92 -9.72 2.09
6.32 -6.88 -0.82
7.23 -7.88 2.08
5.71 -6.22 -0.44
7.85 -8.55 2.68
5.87 -6.4 -0.15
7.76 -8.46 3.08
5.66 -6.21 -2.25
5.75 -6.31 0.15
6.24 -6.85 -2.14
6.49 -7.12 0.5
5.72 -6.27 -1.65
6.11 -6.7 0.79
5.44 -5.97 -1.28
7.71 -8.46 1.41
5.77 -6.33 -1.05
11.64 -12.77 2.74
5.83 -6.39 -0.76
12.51 -13.72 3.61
5.68 -6.23 -0.44
12.4 -13.6 4.25
5.89 -6.46 -0.15
7.11 -7.8 2.83
5.66 -6.25 -2.26
8.68 -9.59 0.23
6.54 -7.23 -2.25
7.63 -8.43 0.6
7.98 -8.82 -2.31
6.04 -6.67 0.79
8.46 -9.35 -2
10.64 -11.75 1.95
5.75 -6.35 -1.05
8.22 -9.08 1.94
5.88 -6.49 -0.77
9.94 -10.98 2.88
5.74 -6.34 -0.45
8.23 -9.09 2.83
7.61 -8.4 3.04
5.64 -6.27 -2.26
6.09 -6.77 0.16
8.48 -9.43 0.66
6.21 -6.91 -1.81
6.13 -6.82 0.8
6.34 -7.05 -1.5
7.95 -8.84 1.46
5.53 -6.15 -1.02
8.78 -9.77 2.08
5.57 -6.19 -0.73
7.98 -8.88 2.32
5.8 -6.45 -0.45
9.76 -10.86 3.37
9.34 -10.39 3.74
5.61 -6.29 -2.26
9.41 -10.55 0.25
5.75 -6.44 -1.99
7.57 -8.48 0.6
6.2 -6.95 -1.81
8.42 -9.43 1.11
6.27 -7.02 -1.49
7.96 -8.92 1.47
6.01 -6.73 -1.11
5.44 -6.1 -0.72
8.05 -9.02 2.35
5.5 -6.16 -0.43
7.74 -8.68 2.69
5.83 -6.54 -0.15
8.39 -9.4 3.37
5.57 -6.29 -2.25
6 -6.78 0.16
5.72 -6.45 -1.99
7.58 -8.55 0.6
6.2 -6.99 -1.82
8.47 -9.56 1.12
6.15 -6.94 -1.47
8.34 -9.41 1.54
8.64 -9.75 2.06
5.47 -6.17 -0.72
10.28 -11.6 3.01
9.01 -10.17 3.14
5.84 -6.6 -0.15
8.33 -9.41 3.37
5.57 -6.33 -2.26
5.59 -6.35 0.15
6.68 -7.59 -2.33
6.36 -7.23 0.5
5.99 -6.81 -1.76
5.67 -6.44 0.75
7.51 -8.54 -1.8
10.15 -11.54 1.89
5.46 -6.21 -1.01
8.6 -9.78 2.06
6.02 -6.84 -0.8
11.74 -13.35 3.46
5.57 -6.34 -0.44
12.29 -13.97 4.3
5.8 -6.59 -0.15
9.34 -10.61 3.79
5.56 -6.36 -2.26
5.6 -6.41 0.15
5.95 -6.81 -2.09
5.68 -6.49 0.45
6.12 -7 -1.81
6.37 -7.29 0.85
6.25 -7.15 -1.51
10.14 -11.6 1.89
5.46 -6.24 -1.02
8.5 -9.72 2.04
5.31 -6.07 -0.71
7.97 -9.12 2.35
5.57 -6.37 -0.44
8.19 -9.36 2.87
5.96 -6.82 -0.16
7.57 -8.66 3.08
5.54 -6.39 -2.27
5.66 -6.52 0.15
5.93 -6.83 -2.09
5.82 -6.7 0.46
5.99 -6.91 -1.78
6.04 -6.96 0.81
6.08 -7.01 -1.47
13 -14.98 2.44
5.41 -6.23 -1.01
8.05 -9.28 1.95
5.96 -6.87 -0.8
7.87 -9.07 2.33
5.47 -6.3 -0.44
8.12 -9.36 2.86
8.11 -9.34 3.31
5.53 -6.41 -2.27
5.61 -6.51 0.15
5.89 -6.84 -2.08
5.52 -6.4 0.44
5.77 -6.69 -1.72
5.39 -6.25 0.72
5.87 -6.81 -1.42
7.76 -9.01 1.46
8.23 -9.55 2
5.46 -6.33 -0.73
8.13 -9.43 2.42
5.46 -6.33 -0.44
8.1 -9.4 2.86
5.74 -6.66 -0.15
5.5 -6.43 -2.27
5.84 -6.82 0.16
7.61 -8.9 -2.28
5.46 -6.38 0.73
8.55 -10 -2.08
8.19 -9.57 1.55
5.76 -6.74 -1.09
8.18 -9.55 1.99
5.26 -6.15 -0.71
8.11 -9.47 2.42
5.27 -6.16 -0.42
8.08 -9.44 2.87
5.55 -6.48 -0.15
8.34 -9.75 3.44
5.49 -6.47 -2.27
5.74 -6.76 -2.05
5.63 -6.62 0.46
6.1 -7.18 -1.83
5.42 -6.37 0.73
5.77 -6.79 -1.41
8.09 -9.52 1.53
8.15 -9.59 1.99
6.13 -7.21 -0.83
5.31 -6.24 -0.43
8.05 -9.47 2.87
7.69 -9.05 3.18
5.5 -6.52 -2.29
5.75 -6.82 0.16
5.76 -6.83 -2.06
5.79 -6.87 0.47
7.54 -8.94 -2.27
5.45 -6.46 0.74
5.75 -6.82 -1.41
8.77 -10.4 1.67
7.3 -8.66 -1.39
5.7 -6.75 -0.77
7.86 -9.32 2.37
5.6 -6.63 -0.45
8.67 -10.28 3.11
5.64 -6.69 -0.15
7.65 -9.06 3.18
5.29 -6.31 -2.21
5.74 -6.85 0.16
5.61 -6.69 -2.02
5.91 -7.05 0.48
5.85 -6.98 -1.77
5.55 -6.63 0.76
5.8 -6.92 -1.43
8.02 -9.58 1.53
6.03 -7.2 -1.15
10.24 -12.22 2.52
5.83 -6.95 -0.79
8.01 -9.55 2.42
8.63 -10.3 3.1
5.65 -6.75 -0.15
9 -10.74 3.75
5.42 -6.51 -2.27
5.7 -6.85 0.16
5.59 -6.71 -2.02
5.66 -6.81 0.46
5.9 -7.09 -1.79
5.52 -6.64 0.76
5.8 -6.98 -1.44
8.67 -10.42 1.66
5.77 -6.94 -1.11
12.96 -15.58 3.21
7.8 -9.37 2.37
5.52 -6.63 -0.45
8.14 -9.79 2.94
5.45 -6.55 -0.15
8.94 -10.75 3.75
5.46 -6.6 -2.3
5.4 -6.53 0.15
6.48 -7.84 -2.35
5.58 -6.75 0.46
5.9 -7.14 -1.8
7.41 -8.96 1.02
5.77 -6.98 -1.44
10.15 -12.28 1.96
5.72 -6.92 -1.1
10.04 -12.15 2.5
5.3 -6.41 -0.73
9.77 -11.82 2.98
5.22 -6.32 -0.43
8.1 -9.8 2.94
5.18 -6.27 -0.14
8.25 -9.98 3.47
5.43 -6.61 -2.29
5.44 -6.63 0.15
5.71 -6.96 -2.08
5.6 -6.82 0.46
5.78 -7.05 -1.77
7.38 -9 1.02
5.68 -6.93 -1.42
8.67 -10.57 1.68
5.68 -6.92 -1.1
10.04 -12.24 2.51
5.45 -6.64 -0.75
8.56 -10.44 2.62
5.1 -6.22 -0.42
8.24 -10.05 3
5.22 -6.36 -0.14
8.18 -9.97 3.45
5.19 -6.37 -2.2
5.55 -6.81 0.15
5.55 -6.82 -2.03
5.55 -6.81 0.46
5.71 -7.01 -1.76
7.24 -8.88 1
5.65 -6.93 -1.42
8.22 -10.09 1.6
5.66 -6.95 -1.1
8.44 -10.36 2.12
5.68 -6.97 -0.79
8.57 -10.51 2.64
8.26 -10.13 3.02
5.4 -6.62 -0.15
7.95 -9.76 3.37
5.3 -6.55 -2.26
5.34 -6.6 0.15
5.79 -7.16 -2.13
7.76 -9.6 0.65
6.44 -7.97 -1.99
7.42 -9.17 1.03
5.6 -6.93 -1.41
7.83 -9.68 1.53
5.5 -6.81 -1.07
8.04 -9.94 2.02
5.62 -6.95 -0.78
8.88 -10.98 2.74
5.38 -6.65 -0.45
8.2 -10.14 3.01
5.49 -6.79 -0.15
8.05 -9.95 3.43
5.38 -6.7 -2.3
5.31 -6.62 0.15
5.68 -7.07 -2.09
11.61 -14.45 0.97
7.47 -9.31 1.04
5.58 -6.95 -1.41
7.81 -9.72 1.53
7.94 -9.88 2.01
5.57 -6.93 -0.78
8.9 -11.08 2.76
5.62 -6.99 -0.47
8.17 -10.18 3.01
5.55 -6.92 -0.15
9.21 -11.47 3.94
5.34 -6.69 -2.29
5.21 -6.54 0.15
5.32 -6.67 -1.97
5.09 -6.39 0.43
5.62 -7.05 -1.75
4.72 -5.92 0.66
5.56 -6.97 -1.41
7.79 -9.77 1.53
5.54 -6.95 -1.09
7.38 -9.26 1.88
5.57 -6.98 -0.78
8.47 -10.63 2.64
5.43 -6.82 -0.46
8.11 -10.17 3
8.11 -10.17 3.49
5.13 -6.48 -2.22
5.5 -6.94 0.15
5.62 -7.09 -2.09
5.17 -6.52 0.44
5.55 -7.01 -1.74
7.36 -9.29 1.04
5.51 -6.96 -1.41
7.75 -9.78 1.53
5.54 -7 -1.1
7.22 -9.11 2.26
5.45 -6.88 -0.46
7.99 -10.08 2.97
4.62 -5.84 -0.13
7.87 -9.93 3.39
5.3 -6.74 -2.3
4.82 -6.13 0.14
5.4 -6.86 -2.02
5.52 -7.01 -1.73
7.16 -9.11 1.01
5.5 -6.99 -1.41
7.68 -9.77 1.53
5.41 -6.88 -1.07
12.2 -15.52 3.13
4.74 -6.03 -0.67
7.42 -9.43 2.33
5.45 -6.92 -0.46
7.98 -10.14 2.98
7.85 -9.98 3.4
5.29 -6.78 -2.3
12.37 -15.85 0.35
5.43 -6.95 -2.04
5.31 -6.8 0.45
5.44 -6.97 -1.72
7.31 -9.37 1.04
5.44 -6.97 -1.4
7.64 -9.79 1.53
5.42 -6.95 -1.08
8.18 -10.48 2.11
4.8 -6.15 -0.68
7.37 -9.45 2.33
5.37 -6.89 -0.46
8.05 -10.32 3.02
4.47 -5.73 -0.13
5.26 -6.79 -2.3
5.39 -6.96 0.15
5.4 -6.97 -2.03
5.24 -6.77 0.45
5.25 -6.77 -1.66
8.83 -11.4 1.26
5.41 -6.99 -1.4
7.06 -9.12 1.42
5.45 -7.03 -1.09
7.79 -10.05 2.01
7.09 -9.15 2.25
4.94 -6.38 -0.42
8 -10.32 3.01
4.58 -5.91 -0.13
7.52 -9.71 3.29
5.22 -6.78 -2.29
5.39 -7 0.15
5.35 -6.95 -2.02
5.02 -6.52 0.43
5.32 -6.91 -1.69
7.53 -9.79 1.08
7.51 -9.76 1.51
5.28 -6.86 -1.06
7.83 -10.16 2.03
5.29 -6.87 -0.76
8.35 -10.85 2.66
4.51 -5.86 -0.39
12.45 -16.17 4.71
7.45 -9.68 3.27
5.02 -6.56 -2.21
5.13 -6.71 0.15
5.33 -6.97 -2.03
5.45 -7.13 0.47
5.41 -7.08 -1.73
5.01 -6.55 0.72
8.91 -11.66 1.8
5.09 -6.66 -1.03
7.12 -9.32 1.86
5.23 -6.84 -0.75
7.24 -9.47 2.32
4.48 -5.86 -0.39
7.86 -10.29 2.99
5.01 -6.55 -0.14
12.11 -15.85 5.35
5.06 -6.67 -2.24
5.11 -6.73 0.15
5.11 -6.73 -1.95
4.97 -6.55 0.43
5.35 -7.05 -1.72
6.92 -9.12 1
5.29 -6.98 -1.39
7.44 -9.8 1.51
5.22 -6.88 -1.06
8.15 -10.74 2.14
4.61 -6.08 -0.67
7.12 -9.39 2.29
8.09 -10.65 3.09
4.82 -6.35 -0.14
6.17 -8.13 2.74
4.98 -6.61 -2.22
5.02 -6.66 0.15
5.37 -7.13 -2.06
5.47 -7.26 0.48
5.3 -7.03 -1.71
6.88 -9.13 1
5.27 -6.99 -1.39
7.39 -9.81 1.51
7.63 -10.13 2.01
6.84 -9.08 2.21
4.85 -6.43 -0.42
6.77 -8.98 2.6
4.87 -6.46 -0.14
8.29 -11 3.69
5.15 -6.89 -2.3
4.32 -5.78 0.13
5.56 -7.43 -2.14
4.81 -6.43 0.42
5.36 -7.17 -1.74
6.82 -9.11 1
7.14 -9.55 1.46
4.78 -6.39 -0.98
7.6 -10.16 2.01
4.61 -6.17 -0.67
7.27 -9.72 2.36
4.83 -6.45 -0.42
9.2 -12.3 3.55
11.9 -15.9 5.32
5.08 -6.84 -2.28
4.82 -6.49 0.14
4.7 -6.34 0.41
5.22 -7.03 -1.7
6.67 -8.98 0.98
7.3 -9.83 1.5
6.87 -9.25 -1.42
7.55 -10.16 2
5.02 -6.76 -0.74
7.22 -9.73 2.36
4.35 -5.86 -0.38
7 -9.43 2.71
4.93 -6.63 -0.14
7.68 -10.34 3.45
4.87 -6.6 -2.2
4.63 -6.28 0.14
5.16 -7 -2.01
4.7 -6.38 0.42
5.24 -7.11 -1.72
10.49 -14.23 1.55
5.12 -6.94 -1.37
7.38 -10 1.53
4.7 -6.38 -0.97
7.6 -10.31 2.03
4.85 -6.58 -0.71
8.37 -11.36 2.74
4.78 -6.48 -0.42
10.54 -14.29 4.1
5.03 -6.82 -0.15
7.67 -10.4 3.46
4.77 -6.52 -2.16
4.67 -6.37 0.14
5.21 -7.11 -2.04
4.69 -6.4 0.42
5.28 -7.21 -1.74
12.75 -17.43 1.89
4.92 -6.72 -1.32
7.19 -9.83 1.5
4.44 -6.06 -0.92
7.03 -9.6 1.88
5.04 -6.88 -0.75
6.92 -9.45 2.28
5.1 -6.97 -0.45
11.75 -16.05 4.59
5.12 -7 -0.15
11.74 -16.05 5.33
5.06 -6.96 -2.31
4.56 -6.28 0.14
4.77 -6.57 -1.87
5.02 -6.91 -1.66
6.4 -8.8 0.95
5.1 -7.01 -1.37
7.15 -9.85 1.49
5.21 -7.16 -1.09
7.89 -10.86 2.13
4.92 -6.78 -0.73
6.88 -9.46 2.27
5.04 -6.93 -0.45
6.34 -8.73 2.49
4.74 -6.53 -0.14
9.34 -12.85 4.26
5 -6.93 -2.29
4.61 -6.4 0.14
10.41 -14.43 0.93
5.02 -6.96 -1.67
6.62 -9.18 0.99
5 -6.93 -1.35
7.11 -9.86 1.49
8.02 -11.12 2.17
8.1 -11.24 2.69
4.99 -6.92 -0.45
6.31 -8.75 2.49
4.69 -6.51 -0.14
7.52 -10.42 3.44
4.82 -6.73 -2.22
4.66 -6.51 0.14
5.16 -7.21 -2.05
6.39 -8.92 0.57
5 -6.99 -1.67
6.63 -9.26 1
5.04 -7.04 -1.37
7.19 -10.04 1.52
7.43 -10.38 2.02
4.81 -6.72 -0.72
7.28 -10.17 2.43
5.01 -7 -0.45
8.12 -11.35 3.22
4.17 -5.83 -0.13
8.24 -11.51 3.79
4.81 -6.76 -2.22
5.08 -7.14 -2.02
4.73 -6.66 0.43
5.06 -7.12 -1.7
4.81 -6.76 0.73
4.95 -6.96 -1.35
8.6 -12.11 1.82
7.42 -10.43 2.03
4.33 -6.09 -0.65
7.16 -10.07 2.4
5.28 -7.42 -0.48
8.19 -11.52 3.26
4.18 -5.88 -0.13
7.21 -10.14 3.33
4.77 -6.76 -2.22
4.64 -6.58 0.14
4.9 -6.94 -1.96
4.52 -6.41 0.41
4.99 -7.07 -1.68
6.37 -9.02 0.97
12.23 -17.33 2.6
4.4 -6.24 -0.94
9.64 -13.67 2.65
4.72 -6.69 -0.72
7.17 -10.15 2.42
4.82 -6.82 -0.44
6.59 -9.34 2.64
7.22 -10.23 3.36
4.88 -6.97 -2.28
4.55 -6.49 0.14
4.69 -6.69 -1.89
4.66 -6.65 0.43
5.18 -7.39 -1.75
6.89 -9.84 1.05
4.95 -7.07 -1.37
7.11 -10.15 1.52
11.38 -16.25 3.14
4.45 -6.35 -0.68
11.33 -16.17 3.84
4.77 -6.81 -0.44
10.16 -14.51 4.09
4.79 -6.83 -0.15
6.18 -8.82 2.89
4.85 -6.97 -2.28
4.63 -6.66 0.14
4.93 -7.09 -1.99
4.75 -6.83 0.44
6.24 -8.97 -2.12
6.26 -9.01 0.96
4.96 -7.13 -1.38
6.62 -9.52 1.42
4.25 -6.12 -0.91
11.34 -16.31 3.15
4.82 -6.93 -0.74
11.37 -16.35 3.87
4.89 -7.03 -0.45
7.9 -11.37 3.2
4.62 -6.65 -0.14
4.76 -6.9 -2.25
4.2 -6.09 0.13
4.87 -7.06 -1.98
4.71 -6.83 0.73
4.89 -7.09 -1.36
6.59 -9.54 1.42
4.31 -6.25 -0.93
11.25 -16.3 3.14
4.76 -6.89 -0.73
7.18 -10.41 2.46
4.25 -6.16 -0.39
7.41 -10.74 3.01
4.62 -6.69 -0.14
10.11 -14.65 4.77
4.76 -6.95 -2.26
4.52 -6.61 0.14
4.5 -6.56 -1.84
4.38 -6.4 0.41
4.82 -7.03 -1.66
4.62 -6.74 0.72
4.91 -7.17 -1.38
6.73 -9.82 1.46
4.25 -6.21 -0.92
11.38 -16.62 3.19
4.61 -6.73 -0.71
7.19 -10.5 2.47
4.25 -6.21 -0.39
10.08 -14.71 4.12
7.01 -10.23 3.32
4.8 -7.06 -2.29
4.36 -6.41 0.14
4.48 -6.59 -1.84
4.5 -6.62 0.42
4.75 -6.98 -1.64
6.18 -9.09 0.96
3.98 -5.85 -1.12
6.68 -9.83 1.46
4.11 -6.05 -0.9
6.96 -10.24 1.96
4.27 -6.28 -0.66
11.14 -16.39 3.85
4.24 -6.24 -0.4
10.03 -14.76 4.12
4.55 -6.7 -0.14
6.99 -10.29 3.33
4.82 -7.14 -2.31
4.14 -6.13 0.13
4.86 -7.2 -2.01
4.61 -6.83 0.43
4.74 -7.02 -1.65
10.56 -15.65 1.65
6.48 -9.6 1.42
4.12 -6.1 -0.9
6.96 -10.31 1.97
4.3 -6.38 -0.67
11.07 -16.41 3.85
4.19 -6.21 -0.39
6 -8.89 2.48
4.66 -6.9 -0.15
4.67 -6.97 -2.25
4.31 -6.43 0.14
4.52 -6.75 -1.88
4.47 -6.67 0.42
4.79 -7.15 -1.67
7.57 -11.31 1.19
4.84 -7.22 -1.38
7.24 -10.8 1.6
4.19 -6.26 -0.93
6.9 -10.29 1.96
4.26 -6.36 -0.67
11.32 -16.89 3.95
5.92 -8.84 2.46
4.66 -6.95 -0.15
4.65 -6.99 -2.25
4.47 -6.72 0.14
4.91 -7.38 -2.05
4.74 -7.14 0.45
6.06 -9.12 -2.13
9.09 -13.68 1.44
4.7 -7.07 -1.34
11.52 -17.32 2.55
4.21 -6.34 -0.93
6.84 -10.28 1.96
4.27 -6.43 -0.68
7.69 -11.56 2.7
4.62 -6.95 -0.44
7.03 -10.58 2.93
4.26 -6.4 -0.13
4.64 -7.03 -2.26
4.37 -6.62 0.14
4.62 -7 -1.94
4.2 -6.36 0.4
4.63 -7.02 -1.63
4.59 -6.95 0.73
4.67 -7.07 -1.34
9.62 -14.58 2.14
4.09 -6.2 -0.91
10.27 -15.56 2.95
4.31 -6.53 -0.68
7.34 -11.12 2.59
4.65 -7.05 -0.44
6.99 -10.59 2.93
4.6 -6.96 -0.15
4.75 -7.26 -2.33
4.3 -6.57 0.14
5.05 -7.71 -2.13
4.5 -6.88 0.43
4.58 -6.99 -1.62
8.73 -13.34 1.39
4.74 -7.24 -1.37
11.32 -17.29 2.54
9.35 -14.28 2.7
4.5 -6.88 -0.72
7.97 -12.17 2.83
4.37 -6.68 -0.42
6.42 -9.81 2.71
4.43 -6.77 -0.14
6.72 -10.25 3.28
4.72 -7.26 -2.32
4.35 -6.7 0.14
4.57 -7.03 -1.94
4.53 -6.96 0.44
4.55 -7 -1.62
9.1 -14 1.46
4.62 -7.11 -1.34
6.25 -9.62 1.41
4.57 -7.03 -1.03
11.08 -17.05 3.22
4.41 -6.79 -0.71
4.39 -6.76 -0.42
6.95 -10.7 2.95
4.28 -6.58 -0.14
7.33 -11.28 3.6
4.6 -7.13 -2.27
4.34 -6.72 0.14
4.54 -7.03 -1.93
4.44 -6.88 -1.59
11.08 -17.17 1.79
4.55 -7.05 -1.33
6.25 -9.69 1.42
4.43 -6.86 -1
7.08 -10.97 2.07
5.47 -8.48 -0.88
6.6 -10.23 2.37
4.3 -6.67 -0.42
6.91 -10.71 2.94
3.99 -6.18 -0.13
5.48 -8.49 2.71
4.53 -7.07 -2.25
4.18 -6.52 0.14
4.42 -6.9 -1.89
4.86 -7.59 0.47
4.48 -6.99 -1.61
8.61 -13.44 1.4
4.58 -7.15 -1.35
4.36 -6.8 -0.99
9.63 -15.04 2.83
4.17 -6.5 -0.68
6.82 -10.65 2.46
4.29 -6.7 -0.42
8.02 -12.52 3.43
3.92 -6.12 -0.13
6.38 -9.96 3.17
4.56 -7.18 -2.28
4.2 -6.61 0.14
4.45 -7 -1.91
4.41 -6.94 0.43
4.44 -6.99 -1.61
8.59 -13.51 1.4
4.54 -7.14 -1.34
11.17 -17.57 2.56
4.44 -6.99 -1.02
7.22 -11.35 2.13
4.44 -6.98 -0.72
6.21 -9.77 2.25
4.25 -6.69 -0.42
7.28 -11.46 3.14
4.06 -6.39 -0.13
6.9 -10.85 3.45
4.25 -6.74 -2.13
4.17 -6.61 0.14
4.46 -7.07 -1.93
4.66 -7.39 0.46
4.41 -6.99 -1.61
8.61 -13.65 1.41
4.5 -7.14 -1.34
9.75 -15.45 2.24
4.43 -7.02 -1.02
7.17 -11.37 2.13
4.37 -6.93 -0.72
6.22 -9.87 2.27
3.85 -6.1 -0.38
7.23 -11.46 3.13
3.97 -6.29 -0.13
5.4 -8.56 2.71
4.67 -7.45 -2.36
4.23 -6.76 0.14
4.67 -7.47 0.46
4.44 -7.09 -1.63
4.48 -7.17 0.74
4.44 -7.09 -1.33
8.99 -14.37 2.08
4.47 -7.14 -1.03
6.73 -10.75 2.01
4.16 -6.64 -0.69
8.94 -14.28 3.28
3.83 -6.12 -0.38
6.36 -10.16 2.77
3.81 -6.08 -0.13
6.56 -10.48 3.31
4.61 -7.43 -2.34
4.22 -6.8 -1.85
4.51 -7.26 0.45
4.33 -6.97 -1.6
4.39 -7.07 -1.32
10.28 -16.55 2.39
4.4 -7.08 -1.02
7.13 -11.48 2.14
3.68 -5.92 -0.61
8.82 -14.21 3.25
3.77 -6.07 -0.37
9.89 -15.92 4.33
4.04 -6.5 -0.13
5.96 -9.6 3.03
4.12 -6.69 -2.11
4.05 -6.58 0.13
4.26 -6.91 -1.87
4.55 -7.38 0.45
4.22 -6.85 -1.56
4.6 -7.46 0.77
6.13 -9.95 -1.85
4.78 -7.75 1.12
4.4 -7.14 -1.03
10.23 -16.6 3.09
3.69 -5.98 -0.61
8.8 -14.27 3.26
3.7 -6 -0.37
8.74 -14.18 3.84
4.09 -6.64 -0.14
6.37 -10.33 3.25
4.01 -6.56 0.13
4.65 -7.61 0.47
4.4 -7.19 -1.64
4.59 -7.5 0.77
4.4 -7.2 -1.34
6.28 -10.27 1.48
4.34 -7.1 -1.02
10.3 -16.85 3.13
4.22 -6.9 -0.71
10.27 -16.79 3.82
3.66 -5.98 -0.37
8.69 -14.21 3.85
4.21 -6.89 -0.14
5.78 -9.45 2.97
4.09 -6.73 -2.11
4.18 -6.88 0.14
4.14 -6.82 -1.84
5.63 -9.28 0.57
4.3 -7.09 -1.61
4.48 -7.38 0.76
4.29 -7.07 -1.31
8.88 -14.63 2.1
4.32 -7.12 -1.02
6.59 -10.86 2.01
4.08 -6.73 -0.69
3.66 -6.02 -0.37
4.04 -6.66 -0.14
6.33 -10.43 3.27
4.04 -6.71 -2.1
3.93 -6.53 0.13
4.13 -6.86 -1.85
5.57 -9.25 0.57
4.62 -7.68 -1.74
8.55 -14.2 1.45
4.3 -7.14 -1.32
5.17 -8.59 1.23
4.31 -7.16 -1.03
6.47 -10.75 1.99
4.09 -6.79 -0.69
9 -14.95 3.39
3.62 -6.01 -0.37
8.61 -14.3 3.85
3.88 -6.44 -0.13
4.04 -6.76 -2.11
4.07 -6.81 0.14
4.14 -6.92 -1.86
3.99 -6.69 0.41
4.23 -7.08 -1.6
4.7 -7.87 0.8
4.3 -7.2 -1.33
4.47 -7.49 1.07
4.28 -7.17 -1.03
8.61 -14.41 2.66
4.05 -6.78 -0.69
6.2 -10.38 2.35
3.58 -5.99 -0.37
7.5 -12.56 3.38
3.97 -6.65 -0.14
7.16 -11.98 3.74
4.16 -7.02 0.14
4.08 -6.89 -1.85
3.92 -6.62 0.4
4.22 -7.12 -1.61
5.36 -9.05 0.92
4.28 -7.22 -1.33
8.55 -14.43 2.06
4.21 -7.11 -1.02
8.53 -14.39 2.65
4 -6.75 -0.69
6.94 -11.71 2.65
3.73 -6.3 -0.38
7.45 -12.58 3.38
3.95 -6.67 -0.14
4.46 -7.59 -2.36
4 -6.8 0.14
5.33 -9.07 -2.43
3.9 -6.64 0.4
4.18 -7.11 -1.6
7.75 -13.19 1.34
4.3 -7.32 -1.35
8.67 -14.76 2.1
4.21 -7.16 -1.02
8.46 -14.39 3.25
4.09 -6.95 -0.42
7.41 -12.62 3.38
4.14 -7.04 -0.14
6.62 -11.26 3.5
4.27 -7.32 -2.27
3.92 -6.73 0.14
4.17 -7.16 -1.91
3.8 -6.52 0.4
4.12 -7.07 -1.59
4.4 -7.55 0.76
4.1 -7.03 -1.29
4.39 -7.54 1.07
4.1 -7.03 -1
6.29 -10.8 1.98
3.93 -6.74 -0.68
6.95 -11.92 2.68
3.83 -6.57 -0.4
8.75 -15.01 4.01
3.83 -6.57 -0.13
5.18 -8.88 2.76
3.85 -6.66 -2.06
3.69 -6.38 0.13
4.1 -7.08 -1.89
3.56 -6.15 0.37
5.17 -8.93 -2.01
4.43 -7.66 0.77
4.23 -7.31 -1.34
4.35 -7.53 1.07
4.13 -7.14 -1.01
6.22 -10.76 1.97
3.91 -6.76 -0.68
8.56 -14.79 3.32
3.78 -6.54 -0.4
5.99 -10.35 2.76
3.71 -6.41 -0.13
8.4 -14.51 4.49
4.08 -7.1 -2.19
5.14 -8.96 0.18
3.93 -6.84 -1.82
4.35 -7.58 0.46
4.13 -7.19 -1.61
4.35 -7.57 0.76
4.19 -7.31 -1.33
4.31 -7.51 1.06
4.12 -7.18 -1.02
4.35 -7.59 1.39
6.51 -11.35 2.54
3.97 -6.93 -0.42
8.64 -15.06 4.01
4.01 -6.98 -0.14
6.11 -10.64 3.29
4.06 -7.14 -2.2
3.61 -6.34 0.13
4.03 -7.08 -1.88
3.98 -6.99 0.42
5.14 -9.02 -2.02
4.28 -7.53 0.76
4.27 -7.51 -1.37
5.78 -10.16 1.44
4.02 -7.06 -1
4.29 -7.54 1.37
4 -7.03 -0.71
7.12 -12.51 2.8
4.01 -7.04 -0.42
8.14 -14.31 3.8
3.94 -6.93 -0.14
8.82 -15.49 4.78
4.13 -7.32 -2.25
3.65 -6.47 0.13
3.87 -6.86 -1.82
3.76 -6.65 0.4
5.18 -9.18 -2.05
4.16 -7.36 0.74
4.11 -7.28 -1.32
4.27 -7.56 1.07
6.85 -12.13 2.21
4.06 -7.19 -0.72
8.54 -15.12 3.38
8.04 -14.24 3.78
8.83 -15.65 4.81
3.95 -7.06 -2.17
3.77 -6.73 0.13
4.95 -8.83 -2.34
3.72 -6.64 0.4
3.95 -7.05 -1.57
4.12 -7.36 0.74
4.03 -7.19 -1.31
4.19 -7.49 1.05
6.45 -11.52 2.09
3.82 -6.82 -0.68
7.26 -12.97 2.89
3.39 -6.05 -0.36
8.02 -14.32 3.79
3.72 -6.65 -0.13
5.71 -10.19 3.13
3.67 -6.61 -2.03
3.75 -6.75 0.13
3.66 -6.59 -1.74
3.69 -6.64 0.4
4.11 -7.41 -1.65
4.2 -7.56 0.76
4.01 -7.22 -1.31
4.09 -7.37 1.04
4.09 -7.36 -1.03
7.94 -14.29 2.59
3.79 -6.82 -0.68
8.06 -14.51 3.23
3.72 -6.7 -0.4
7.98 -14.37 3.8
3.65 -6.57 -0.13
3.66 -6.64 -2.03
3.78 -6.85 0.14
4.91 -8.91 -2.35
3.71 -6.74 0.4
3.95 -7.18 -1.59
4.19 -7.59 0.76
3.98 -7.22 -1.3
4.26 -7.72 1.08
3.97 -7.2 -1.01
4.15 -7.53 1.36
3.47 -6.29 -0.63
8.32 -15.1 3.35
3.84 -6.96 -0.42
8.64 -15.68 4.13
3.67 -6.66 -0.13
8.66 -15.72 4.81
3.69 -6.74 -2.06
3.77 -6.9 0.14
3.85 -7.04 -1.85
3.94 -7.2 0.43
5.06 -9.26 -2.05
4.14 -7.58 0.76
3.99 -7.3 -1.32
3.98 -7.28 1.02
4.24 -7.75 -1.08
6.3 -11.52 2.08
4.02 -7.35 -0.73
7.96 -14.56 3.22
3.88 -7.1 -0.42
6.17 -11.28 2.97
3.65 -6.68 -0.13
8.56 -15.67 4.78
3.78 -6.96 0.14
3.93 -7.25 -1.9
3.97 -7.33 -1.62
4.1 -7.56 0.75
3.93 -7.26 -1.31
4.18 -7.71 1.08
6.26 -11.55 2.08
3.79 -6.99 -0.7
7.14 -13.17 2.91
3.89 -7.17 -0.43
6.57 -12.12 3.18
3.55 -6.54 -0.13
8.33 -15.36 4.68
3.66 -6.8 -2.07
3.77 -7.01 0.14
3.71 -6.91 -1.81
4.29 -7.98 0.48
3.8 -7.07 -1.56
9.14 -17 1.69
3.93 -7.31 -1.31
8.24 -15.33 2.14
3.82 -7.11 -0.99
6.22 -11.56 2.08
3.79 -7.04 -0.7
6.3 -11.71 2.59
3.84 -7.13 -0.42
6.6 -12.28 3.22
3.4 -6.32 -0.13
6.67 -12.4 3.77
3.61 -6.77 -2.06
3.72 -6.97 0.14
3.74 -7.01 -1.84
3.76 -7.05 0.42
8.58 -16.09 1.6
3.86 -7.24 -1.3
6.52 -12.22 1.7
3.75 -7.03 -0.7
9.11 -17.08 3.76
3.73 -6.99 -0.42
6.29 -11.8 3.09
3.52 -6.6 -0.13
7.84 -14.7 4.46
3.66 -6.91 -2.1
3.55 -6.72 0.13
3.74 -7.08 -1.85
7.8 -14.74 0.87
3.83 -7.24 -1.59
6.56 -12.4 1.23
3.94 -7.45 -1.33
6.49 -12.28 1.7
3.66 -6.93 -0.96
8.35 -15.79 2.83
3.65 -6.91 -0.68
7.64 -14.46 3.18
3.59 -6.79 -0.4
6.26 -11.84 3.09
3.44 -6.51 -0.13
9.06 -17.14 5.19
3.57 -6.81 -2.06
3.61 -6.89 0.14
3.63 -6.93 -1.81
4.88 -9.31 0.55
3.78 -7.21 -1.58
6.48 -12.35 1.22
3.87 -7.38 -1.32
5.34 -10.18 1.41
3.77 -7.19 -1
8.43 -16.08 2.88
3.71 -7.08 -0.7
6.59 -12.56 2.76
3.44 -6.56 -0.39
8.66 -16.51 4.31
3.59 -6.84 -0.13
7.74 -14.77 4.47
3.45 -6.65 -2.01
3.44 -6.62 0.13
3.65 -7.02 -1.83
4.11 -7.91 0.47
3.84 -7.39 -1.62
6.4 -12.32 1.21
4.66 -8.96 -1.6
6.65 -12.79 1.77
3.77 -7.25 -1
9.75 -18.75 3.35
3.43 -6.6 -0.65
9.49 -18.26 4
3.54 -6.81 -0.4
7.92 -15.24 3.97
3.75 -7.22 -0.14
5.29 -10.17 3.07
3.64 -7.07 -2.13
3.48 -6.74 0.13
3.65 -7.09 -1.84
4.08 -7.92 0.47
3.72 -7.22 -1.58
6.57 -12.74 1.25
3.67 -7.12 -1.27
6.23 -12.08 1.67
3.71 -7.2 -0.99
8.1 -15.7 2.8
3.56 -6.9 -0.68
8.28 -16.07 3.51
3.4 -6.59 -0.39
7.8 -15.12 3.93
3.39 -6.59 -0.13
5.26 -10.19 3.07
3.63 -7.11 -2.14
3.59 -7.02 0.14
3.65 -7.13 -1.85
4.78 -9.35 0.55
3.72 -7.27 -1.59
6.43 -12.59 1.24
3.64 -7.12 -1.27
7.68 -15.02 2.07
3.65 -7.14 -0.98
6.49 -12.7 2.26
3.57 -6.99 -0.69
7.06 -13.82 3.02
3.42 -6.69 -0.39
8.97 -17.56 4.55
3.34 -6.54 -0.13
6.84 -13.38 4.03
3.55 -7.01 -2.11
3.55 -7 0.14
3.49 -6.88 -1.78
4.75 -9.38 0.55
3.68 -7.27 -1.58
6.35 -12.53 1.23
3.6 -7.09 -1.26
5.14 -10.14 1.4
3.64 -7.18 -0.99
8.61 -16.99 3.02
3.45 -6.81 -0.67
6.29 -12.4 2.7
3.49 -6.89 -0.4
6.01 -11.86 3.07
3.7 -7.3 -0.14
6.22 -12.27 3.69
3.57 -7.11 -2.13
3.37 -6.71 0.13
3.58 -7.13 -1.84
4.72 -9.39 0.55
3.8 -7.56 -1.65
6.28 -12.5 1.22
3.75 -7.46 -1.32
8.41 -16.73 2.3
3.59 -7.14 -0.98
7.59 -15.1 2.68
7.75 -15.42 3.36
3.17 -6.31 -0.37
7.75 -15.42 3.98
3.35 -6.66 -0.13
7.94 -15.81 4.74
3.56 -7.14 -2.14
4.5 -9.04 0.18
3.67 -7.36 -1.9
4.7 -9.43 0.55
3.6 -7.22 -1.57
8.02 -16.1 1.57
3.55 -7.12 -1.26
7.8 -15.65 2.15
3.54 -7.1 -0.97
8.06 -16.17 2.86
3.33 -6.68 -0.65
6.22 -12.48 2.71
3.2 -6.42 -0.38
5.78 -11.6 2.99
6.25 -12.54 -0.24
7.55 -15.14 4.53
3.49 -7.07 -2.11
6.28 -12.7 0.25
3.53 -7.15 -1.84
4.58 -9.27 0.54
3.56 -7.21 -1.56
8.91 -18.03 1.76
3.5 -7.08 -1.25
5.99 -12.13 1.66
3.37 -6.82 -0.93
8.93 -18.08 3.19
3.44 -6.96 -0.68
6.18 -12.52 2.71
5.71 -11.56 2.98
4.52 -9.15 -0.18
8.47 -17.15 5.12
3.49 -7.14 -2.13
3.55 -7.25 0.14
3.56 -7.27 -1.87
3.43 -7.01 0.41
3.48 -7.11 -1.54
3.37 -6.89 0.67
4.47 -9.13 -1.61
5.96 -12.17 1.66
3.57 -7.29 -1
5.81 -11.87 2.09
3.55 -7.24 -0.71
6.08 -12.42 2.69
3.3 -6.74 -0.39
5.76 -11.76 3.02
3.36 -6.86 -0.13
3.49 -7.2 -2.14
5.18 -10.68 0.21
3.48 -7.17 -1.84
4.47 -9.2 0.54
3.47 -7.16 -1.55
3.32 -6.85 0.67
5.21 -10.74 1.47
3.5 -7.22 -0.99
5.77 -11.89 2.09
3.54 -7.29 -0.71
6.69 -13.78 2.98
8.05 -16.6 4.26
3.34 -6.89 -0.13
3.48 -7.23 -2.15
4.42 -9.18 0.18
4.35 -9.03 -2.31
4.43 -9.2 0.54
3.44 -7.14 -1.54
5.7 -11.85 1.15
5.2 -10.81 1.47
3.41 -7.09 -0.97
8.23 -17.1 3.01
3.37 -7.01 -0.68
6.63 -13.78 2.97
7.99 -16.6 4.25
3.49 -7.26 -0.14
3.43 -7.19 -2.13
6.12 -12.83 0.25
3.57 -7.48 -1.91
4.39 -9.21 0.53
4.63 -9.7 -2.09
5.63 -11.81 1.14
3.39 -7.1 -1.25
5.23 -10.96 1.49
3.41 -7.15 -0.97
5.61 -11.76 2.06
3.76 -7.87 -0.76
8.13 -17.04 3.67
3.77 -7.9 -0.46
5.76 -12.08 3.09
6.11 -12.81 -0.25
6.22 -13.04 3.87
3.43 -7.25 -2.15
4.95 -10.48 0.2
3.44 -7.28 -1.86
4.36 -9.22 0.53
3.42 -7.24 -1.56
3.24 -6.85 0.66
3.34 -7.08 -1.24
5.74 -12.13 1.65
3.41 -7.22 -0.98
5.56 -11.76 2.06
3.34 -7.06 -0.68
5.59 -11.82 2.54
3.25 -6.89 -0.4
6.22 -13.17 3.36
5.96 -12.62 -0.24
6.49 -13.72 4.07
3.38 -7.22 0.14
3.36 -7.17 -1.83
4.31 -9.2 0.53
3.38 -7.21 -1.55
7.75 -16.54 1.6
3.33 -7.1 -1.24
6.47 -13.82 1.87
3.35 -7.15 -0.97
5.5 -11.75 2.05
3.4 -7.26 -0.7
5.91 -12.61 2.71
3.34 -7.14 -0.41
5.39 -11.51 2.93
5.93 -12.65 -0.24
6.07 -12.95 3.83
3.21 -6.92 -2.05
3.34 -7.2 0.14
3.3 -7.12 -1.81
3.24 -6.98 0.4
4.27 -9.2 -1.97
5.62 -12.11 1.17
3.3 -7.12 -1.24
7.64 -16.47 2.23
3.41 -7.35 -0.99
5.46 -11.78 2.06
3.3 -7.12 -0.69
7.94 -17.11 3.67
3.59 -7.75 -0.45
5.52 -11.9 3.03
5.95 -12.82 -0.25
6.43 -13.87 4.1
3.3 -7.18 0.14
3.34 -7.26 -1.85
4.31 -9.38 0.54
3.26 -7.09 -1.52
7.27 -15.82 1.52
3.26 -7.1 -1.24
6.99 -15.21 2.06
3.28 -7.14 -0.96
6.06 -13.18 2.3
3.15 -6.86 -0.66
6.05 -13.16 2.82
3.29 -7.16 -0.41
5.82 -12.65 3.22
5.98 -13 -0.25
5.8 -12.61 3.72
5.68 -12.48 0.24
3.27 -7.17 -1.82
5.97 -13.1 0.75
3.24 -7.12 -1.52
5.52 -12.11 1.16
3.15 -6.92 -1.2
7.9 -17.35 2.34
3.25 -7.14 -0.96
6.02 -13.22 2.3
3.21 -7.04 -0.68
6.44 -14.15 3.02
5.05 -11.08 -0.64
5.77 -12.67 3.21
3.28 -7.19 -0.14
5.7 -12.52 3.69
3.37 -7.46 -2.19
5.81 -12.88 0.25
3.18 -7.05 -1.79
5.98 -13.26 0.76
4.13 -9.14 -1.95
5.54 -12.28 1.18
3.44 -7.63 -1.33
6.87 -15.22 2.05
3.26 -7.22 -0.97
5.3 -11.74 2.04
3.28 -7.26 -0.7
7.28 -16.14 3.44
7.82 -17.32 4.39
5.93 -13.15 -0.25
5.67 -12.57 3.69
3.2 -7.16 -2.1
5.8 -12.97 0.25
3.14 -7.01 -1.77
3.99 -8.92 0.51
3.18 -7.11 -1.51
7.07 -15.8 1.51
3.28 -7.33 -1.27
6.09 -13.61 1.83
3.18 -7.11 -0.96
6.31 -14.12 2.45
2.98 -6.65 -0.64
6.35 -14.2 3.02
3.12 -6.97 -0.4
5.35 -11.95 3.02
5.09 -11.38 -0.22
5.81 -13 3.82
3.21 -7.23 -2.12
5.37 -12.12 0.23
3.18 -7.18 -1.81
3.19 -7.2 0.41
3.34 -7.54 -1.6
5.69 -12.85 1.23
3.25 -7.34 -1.27
5.58 -12.6 1.69
3.89 -8.79 -1.18
5.85 -13.19 2.29
3.35 -7.56 -0.72
5.27 -11.89 2.53
3.12 -7.05 -0.4
7.58 -17.1 4.32
3.15 -7.11 -0.14
3.14 -7.15 -2.09
5.29 -12.05 0.23
3.19 -7.27 -1.83
5.79 -13.18 0.75
3.16 -7.19 -1.53
3.2 -7.29 -1.26
5.38 -12.24 1.64
5.27 -12 2.08
3.08 -7.02 -0.67
3.69 -8.41 -0.48
7.37 -16.77 4.23
5.82 -13.26 -0.25
5.91 -13.46 3.94
3.18 -7.3 -2.13
5.25 -12.07 0.23
3.19 -7.34 -1.85
5.63 -12.93 0.74
5.25 -12.07 1.15
3.21 -7.37 -1.27
5.28 -12.14 1.63
3.16 -7.27 -0.97
6.97 -16.03 2.77
3.13 -7.21 -0.69
5.85 -13.44 2.85
5.86 -13.47 3.39
4.9 -11.27 -0.21
5.86 -13.47 3.93
3.21 -7.45 -2.17
3.96 -9.18 0.17
3.1 -7.2 -1.81
5.75 -13.33 0.76
3.08 -7.16 -1.51
5.18 -12.01 1.14
3.15 -7.3 -1.26
5.79 -13.44 1.8
3.08 -7.13 -0.95
5.8 -13.45 2.32
4.93 -11.45 -1.09
5.81 -13.47 2.85
3.1 -7.18 -0.41
5.62 -13.04 3.28
5.63 -13.06 -0.25
5.35 -12.41 3.62
2.96 -6.92 -2.02
3.95 -9.26 0.18
3.95 -9.25 -2.32
5.54 -12.97 0.74
3.09 -7.23 -1.53
5.16 -12.08 1.15
2.94 -6.88 -1.18
5.74 -13.46 1.8
7.05 -16.52 2.84
2.99 -7 -0.67
5.73 -13.41 2.83
3.61 -8.45 -0.48
7.27 -17.03 4.27
4.78 -11.19 -0.21
5.72 -13.39 3.9
3.05 -7.21 -2.1
5.51 -13.04 0.25
5.61 -13.26 0.75
3.28 -7.75 -1.63
7.01 -16.57 1.57
3.01 -7.11 -1.22
7.22 -17.08 2.28
3.04 -7.19 -0.96
5.03 -11.89 2.04
2.96 -6.99 -0.66
5.13 -12.14 2.56
3.05 -7.2 -0.41
5.97 -14.11 3.54
5.55 -13.12 -0.25
5.1 -12.07 3.51
2.99 -7.13 -2.07
5.46 -13.03 0.25
2.89 -6.9 -1.73
5.67 -13.54 0.77
3.21 -7.66 -1.61
5.83 -13.93 1.32
3.3 -7.88 -1.35
6.42 -15.33 2.04
2.84 -6.78 -0.9
7.18 -17.14 2.94
2.93 -7 -0.66
5.08 -12.13 2.56
3.04 -7.25 -0.41
5.9 -14.09 3.53
5.49 -13.11 -0.25
5.61 -13.4 3.89
2.96 -7.13 -2.07
4.9 -11.81 0.22
3.05 -7.35 -1.84
5.56 -13.41 0.76
2.88 -6.96 -1.46
4.99 -12.03 1.14
3.18 -7.66 -1.31
5.11 -12.32 2.11
2.91 -7.03 -0.67
5.04 -12.16 2.56
6.65 -16.04 -0.91
5.74 -13.85 3.46
5.43 -13.1 -0.25
7 -16.89 4.9
2.92 -7.12 -2.06
5.38 -13.1 0.25
2.94 -7.15 -1.79
5.57 -13.58 0.77
2.93 -7.14 -1.5
6.05 -14.75 1.39
3.1 -7.55 -1.29
5.55 -13.52 1.79
2.99 -7.28 -0.97
5.06 -12.32 2.11
2.89 -7.04 -0.67
4.89 -11.9 2.5
6.73 -16.41 -0.93
5.49 -13.36 3.34
5.4 -13.15 -0.25
6.98 -16.99 4.92
2.92 -7.19 -2.08
5.31 -13.07 0.25
3.16 -7.79 -1.94
5.5 -13.54 0.77
2.95 -7.25 -1.52
7.22 -17.77 1.68
3.68 -9.05 -1.55
5.31 -13.05 1.73
2.94 -7.24 -0.96
6.97 -17.14 2.93
2.82 -6.95 -0.66
4.71 -11.58 2.43
3.2 -7.87 -0.45
5.47 -13.45 3.35
4.72 -11.6 -0.22
6.9 -16.98 4.91
2.91 -7.22 -2.09
5.28 -13.12 0.25
5.46 -13.57 0.77
2.83 -7.04 -1.48
6.6 -16.41 1.55
2.94 -7.3 -1.25
2.89 -7.18 -0.95
5.41 -13.45 2.3
4.58 -11.38 -1.07
5.86 -14.57 3.05
4.67 -11.59 -0.65
6.9 -17.14 4.26
6.3 -15.66 -0.29
5.35 -13.29 3.84
2.91 -7.3 -2.11
6.4 -16.04 0.3
3.76 -9.44 -2.35
6.49 -16.28 0.92
2.94 -7.37 -1.54
6.75 -16.93 1.59
2.91 -7.31 -1.25
7.11 -17.84 2.36
3.21 -8.05 -1.06
5.3 -13.29 2.27
3.24 -8.12 -0.77
5.73 -14.37 3.01
7 -17.56 -0.99
4.89 -12.26 3.05
6.26 -15.69 -0.29
6.67 -16.72 4.82
2.54 -6.45 -1.86
6.44 -16.32 0.31
2.91 -7.37 -1.83
5.33 -13.5 0.76
2.78 -7.04 -1.47
6.93 -17.57 1.65
2.83 -7.18 -1.22
4.86 -12.3 1.62
2.86 -7.25 -0.96
5.22 -13.24 2.25
3.2 -8.1 -0.76
4.92 -12.45 2.6
3.17 -8.03 -0.45
5.43 -13.75 3.41
6.21 -15.73 -0.3
5.27 -13.36 3.85
2.88 -7.37 -2.12
6.43 -16.45 0.31
2.78 -7.13 -1.77
6.82 -17.47 0.98
2.75 -7.03 -1.47
6.7 -17.15 1.61
2.87 -7.34 -1.25
6.82 -17.45 2.3
3.02 -7.72 -1.02
4.99 -12.78 2.17
2.69 -6.9 -0.65
4.78 -12.22 2.55
3.13 -8 -0.45
6.58 -16.85 4.18
5.24 -13.41 -0.25
6.62 -16.95 4.88
2.77 -7.17 -2.06
4.95 -12.8 0.24
2.76 -7.14 -1.77
5.28 -13.66 0.77
2.76 -7.15 -1.49
5.7 -14.75 1.38
2.78 -7.18 -1.22
6.41 -16.58 2.18
2.77 -7.16 -0.94
6.39 -16.54 2.81
3.05 -7.89 -0.74
4.67 -12.09 2.52
6.95 -17.97 -1.01
6.51 -16.83 4.17
6.44 -16.65 -0.31
5.29 -13.68 3.93
2.75 -7.18 -2.06
2.45 -6.39 -1.58
6.92 -18.08 1.01
2.65 -6.93 -1.44
4.97 -12.99 1.22
2.74 -7.14 -1.21
6.37 -16.63 2.19
2.72 -7.11 -0.93
4.91 -12.83 2.18
4.31 -11.27 -1.06
4.67 -12.2 2.54
6.83 -17.83 -1
4.68 -12.23 3.02
6.38 -16.65 -0.31
5 -13.05 3.75
2.72 -7.17 -2.06
6.62 -17.49 0.33
2.52 -6.65 0.37
2.52 -6.65 -1.38
2.68 -7.07 -1.2
6.26 -16.52 2.17
2.7 -7.13 -0.94
6.39 -16.87 2.86
2.74 -7.23 -0.68
5.1 -13.47 2.8
4.4 -11.62 -0.65
5.16 -13.61 3.36
5.16 -13.62 -0.25
5.1 -13.47 3.86
2.66 -7.09 -2.03
6.53 -17.42 0.32
2.62 -7 -1.72
4.73 -12.63 0.71
2.45 -6.53 -1.35
6.61 -17.64 1.65
2.53 -6.76 -1.14
5.5 -14.68 1.93
2.76 -7.36 -0.96
6.43 -17.15 2.9
4.26 -11.37 -1.06
5.06 -13.51 2.8
2.72 -7.25 -0.41
4.49 -11.96 -0.22
6.5 -17.34 4.96
2.72 -7.35 -2.1
4.44 -11.97 0.22
2.41 -6.49 -1.6
5.88 -15.86 0.89
2.42 -6.53 -1.35
6.44 -17.36 1.62
2.48 -6.68 -1.13
6.39 -17.23 2.26
2.81 -7.57 -0.99
5.58 -15.05 2.54
7.11 -19.16 -1.79
5.03 -13.57 2.81
6.82 -18.39 -1.03
4.96 -13.36 3.29
2.69 -7.26 -0.14
6.55 -17.67 5.05
2.67 -7.27 -2.07
4.43 -12.08 0.22
2.38 -6.49 -1.6
6.42 -17.48 0.98
2.63 -7.17 -1.49
5.08 -13.85 1.29
2.73 -7.43 -1.25
5.32 -14.49 1.89
2.81 -7.66 -1
5.05 -13.75 2.32
2.52 -6.88 -0.64
4.98 -13.57 2.81
2.54 -6.93 -0.39
2.66 -7.25 -0.13
6.35 -17.3 4.94
2.43 -6.7 -1.91
5.75 -15.84 0.29
2.37 -6.52 -1.6
4.55 -12.54 0.7
2.64 -7.28 -1.5
4.4 -12.11 1.13
2.64 -7.27 -1.22
6.9 -19.01 2.48
2.85 -7.85 -1.02
5.68 -15.64 2.63
2.51 -6.9 -0.64
4.57 -12.59 2.6
2.91 -8.03 -0.45
6.2 -17.08 4.2
2.79 -7.68 -0.14
6.19 -17.04 4.86
2.42 -6.74 -1.92
2.44 -6.81 0.13
2.62 -7.29 -1.79
6.25 -17.4 0.97
2.58 -7.19 -1.48
4.92 -13.72 1.27
6.89 -19.18 2.5
2.14 -5.96 -0.78
5.05 -14.06 2.37
4.39 -12.23 -1.14
4.53 -12.62 2.61
2.57 -7.15 -0.4
4.82 -13.43 3.29
2.61 -7.28 -0.13
6.19 -17.24 4.91
2.43 -6.83 0.13
2.46 -6.93 -1.7
4.82 -13.59 0.76
2.63 -7.41 -1.53
6.09 -17.15 1.59
2.78 -7.84 -1.32
5.43 -15.29 1.99
2.14 -6.03 -0.79
6.14 -17.3 2.91
2.36 -6.64 -0.62
4.49 -12.66 2.61
2.52 -7.1 -0.4
4.77 -13.43 3.29
2.64 -7.44 -0.14
4.71 -13.28 3.78
2.4 -6.82 -1.94
5.94 -16.91 0.31
2.5 -7.11 -1.74
4.79 -13.62 0.76
2.55 -7.25 -1.49
5.8 -16.51 1.53
2.6 -7.4 -1.24
5.45 -15.51 2.02
2.37 -6.75 -0.88
5.47 -15.57 2.61
2.46 -6.99 -0.65
4.5 -12.8 2.64
2.45 -6.96 -0.39
5.45 -15.5 3.79
2.59 -7.36 -0.14
4.81 -13.68 3.89
2.28 -6.55 -1.86
2.18 -6.28 0.12
2.36 -6.79 -1.66
2.51 -7.22 0.4
2.51 -7.23 -1.49
5.4 -15.54 1.44
2.53 -7.28 -1.22
5.98 -17.21 2.24
4.81 -13.84 2.32
2.53 -7.29 -0.67
5.24 -15.09 3.1
6.18 -17.78 4.35
4.67 -13.45 3.82
2.45 -7.14 -2.02
2.43 -7.08 0.13
2.39 -6.97 -1.7
2.47 -7.2 -1.48
2.51 -7.32 0.68
2.38 -6.93 -1.16
5.95 -17.34 2.25
2.47 -7.19 -0.93
2.48 -7.21 -0.67
5.19 -15.1 3.1
2.41 -7.02 -0.39
6.17 -17.96 4.38
2.21 -6.44 -0.12
6.01 -17.51 4.96
2.53 -7.45 -2.11
2.51 -7.39 -1.8
4.35 -12.81 0.71
2.43 -7.17 -1.47
2.39 -7.05 0.65
2.4 -7.08 -1.18
5.84 -17.2 2.23
2.43 -7.17 -0.93
4.51 -13.28 2.22
2.43 -7.15 -0.66
4.83 -14.23 2.92
2.37 -6.99 -0.39
4.7 -13.83 3.37
2.34 -6.88 -0.13
4.52 -13.31 3.77
2.45 -7.3 -2.06
2.43 -7.25 -1.77
2.39 -7.11 0.39
2.39 -7.12 -1.46
4.01 -11.93 1.1
2.4 -7.15 -1.19
5.2 -15.48 2.01
2.46 -7.32 -0.95
4.44 -13.24 2.21
2.62 -7.79 -0.72
4.84 -14.42 2.96
4.03 -11.99 -0.66
4.84 -14.41 3.51
2.34 -6.97 -0.13
2.36 -7.12 -2.01
2.56 -7.71 0.14
2.43 -7.32 -1.78
4.23 -12.74 0.7
2.39 -7.19 -1.47
3.97 -11.96 1.1
2.37 -7.13 -1.19
4.86 -14.65 1.9
2.42 -7.28 -0.94
4.39 -13.24 2.21
2.63 -7.91 -0.73
6.04 -18.19 3.73
2.16 -6.51 -0.36
4.37 -13.17 3.2
2.49 -7.49 -0.14
2.51 -7.66 -2.16
4.13 -12.58 0.69
2.35 -7.16 -1.47
5.7 -17.38 1.6
2.35 -7.16 -1.19
5.29 -16.11 2.08
2.36 -7.18 -0.93
4.33 -13.2 2.2
2.44 -7.45 -0.69
4.68 -14.25 2.92
2.19 -6.68 -0.37
4.48 -13.64 3.31
2.35 -7.25 -2.04
2.51 -7.74 0.14
2.42 -7.48 -1.81
3.97 -12.24 0.67
2.31 -7.13 -1.46
5.64 -17.38 1.6
4.2 -12.95 1.67
2.31 -7.11 -0.92
4.3 -13.25 2.21
2.33 -7.18 -0.66
4.97 -15.33 3.13
2.53 -7.79 -0.43
4.31 -13.28 3.22
2.51 -7.73 -0.14
2.3 -7.19 -2.02
4.8 -14.99 0.27
2.32 -7.23 -1.75
2.14 -6.66 0.37
2.3 -7.18 -1.47
5.74 -17.9 1.64
4.71 -14.71 1.9
2.03 -6.34 -0.82
4.3 -13.41 2.23
2.32 -7.25 -0.67
4.47 -13.94 2.85
4.9 -15.3 -0.84
4.93 -15.4 3.73
2.21 -6.9 -0.13
4.91 -15.31 4.31
2.3 -7.25 -2.04
4.88 -15.4 0.28
2.3 -7.28 -1.76
4.89 -15.44 0.85
2.28 -7.21 -1.47
3.85 -12.17 1.12
2.26 -7.14 -1.19
4.57 -14.43 1.86
3.41 -10.77 -1.39
2.28 -7.21 1.2
2.18 -6.88 -0.63
2.27 -7.17 1.46
4.83 -15.24 3.69
2.47 -7.79 -0.14
2.34 -7.48 -2.1
4.86 -15.52 0.28
4.69 -14.99 0.82
2.25 -7.19 -1.46
4.05 -12.95 1.19
2.25 -7.19 -1.19
2.26 -7.22 0.93
4.39 -14.03 2.33
2.07 -6.63 -0.61
4.2 -13.42 2.73
2.44 -7.8 -0.43
4.01 -12.83 3.1
5.69 -18.21 -0.33
2.3 -7.43 -2.09
2.96 -9.57 -2.31
2.18 -7.07 0.39
2.22 -7.17 -1.46
2.23 -7.2 0.66
2.17 -7.03 0.9
2.5 -8.08 -1.04
4.28 -13.84 2.29
4.12 -13.32 -1.22
4.28 -13.85 2.82
2.45 -7.92 -0.43
4.92 -15.92 3.85
4.67 -15.13 4.24
2.23 -7.31 -2.05
5.04 -16.5 0.3
2.18 -7.12 0.39
2.15 -7.03 -1.43
2.22 -7.26 0.66
2.23 -7.31 -1.21
3.59 -11.75 1.51
2.21 -7.22 -0.93
