# .PCD v0.7 - Point Cloud Data file format
VERSION 0.7
FIELDS x y z
SIZE 4 4 4
TYPE F F F
COUNT 1 1 1
WIDTH 3008
HEIGHT 1
VIEWPOINT 0 0 0 1 0 0 0
POINTS 3008
DATA ascii
1.07 10.99 -1.36
6.3 64.71 10.3
1.06 10.94 -0.96
3.17 32.59 -1.72
0.65 6.46 -1.74
6.51 64.55 1.13
0.79 7.8 -1.81
7.14 70.83 3.73
0.85 8.46 -1.65
6.64 65.93 5.8
0.97 9.58 -1.52
7.18 71.21 8.79
1.01 10.03 -1.24
2.55 25.32 -1.33
0.67 6.46 -1.74
0.81 7.79 -1.81
0.88 8.47 -1.66
0.96 9.26 -1.47
1.03 9.91 -1.22
1.12 10.77 -0.95
1.15 11.06 -0.58
1.31 12.58 -0.22
0.7 6.47 -1.74
7.47 69.47 1.22
0.84 7.8 -1.81
0.91 8.45 -1.65
0.96 8.96 -1.43
1.06 9.91 -1.22
1.19 11.06 -0.97
0.15 1.42 0.28
3.5 32.55 -1.72
0.72 6.47 -1.74
0.87 7.81 -1.81
0.94 8.44 -1.65
1.03 9.24 -1.47
8.12 73.05 11.64
1.23 11.1 -0.98
1.28 11.51 -0.61
0.74 6.47 -1.74
0.9 7.82 -1.82
0.97 8.43 -1.65
1.05 9.21 -1.47
1.27 11.07 -1.37
1.3 11.36 -1
1.33 11.65 -0.2
0.76 6.47 -1.74
0.93 7.84 -1.82
1 8.45 -1.65
1.09 9.18 -1.46
1.15 9.76 -1.21
8.03 67.97 10.84
1.13 9.58 -0.84
3.82 32.33 -1.71
0.79 6.48 -1.75
8.39 68.89 1.21
0.96 7.87 -1.83
1.03 8.47 -1.66
1.11 9.16 -1.46
1.19 9.75 -1.21
1.34 10.98 -0.97
1.35 11.1 -0.59
0.81 6.48 -1.75
0.72 5.74 -1.33
1.06 8.47 -1.66
1.15 9.18 -1.47
1.18 9.45 -1.17
4.04 32.26 -1.7
0.83 6.47 -1.75
0.72 5.62 -1.31
1.09 8.48 -1.66
9.33 72.43 6.39
1.18 9.18 -1.47
1.4 10.89 -0.96
2.38 18.49 -0.98
1.45 11.23 -0.2
0.73 5.54 -1.29
1.12 8.48 -1.66
1.21 9.17 -1.47
1.22 9.25 -1.15
2.51 18.98 -1.67
1.28 9.66 -0.51
0.77 5.63 -1.52
0.74 5.46 -1.27
10.13 74.5 3.94
1.15 8.47 -1.66
1.24 9.15 -1.46
9.45 69.55 8.62
1.26 9.3 -1.15
9.45 69.5 11.11
2.44 17.97 -1.59
1.31 9.65 -0.51
1.67 12.26 -0.22
0.77 5.51 -1.49
0.75 5.37 -1.25
9.64 69.18 6.11
1.31 9.42 -1.51
1.2 8.65 -1.07
1.32 9.47 -0.84
1.35 9.73 -0.51
0.78 5.44 -1.47
9.93 69.48 1.23
0.76 5.32 -1.24
9.9 69.32 3.67
0.81 5.67 -1.11
1.3 9.09 -1.45
1.33 9.34 -1.16
10.23 71.59 11.45
1.33 9.31 -0.82
4.68 32.77 -1.74
0.78 5.3 -1.44
0.77 5.28 -1.23
0.8 5.47 -1.07
10.54 72.02 6.37
10.52 71.87 8.92
1.35 9.21 -1.14
1.41 9.6 -0.85
4.74 32.4 -1.72
0.79 5.27 -1.43
0.78 5.23 -1.22
10.82 72.13 3.82
0.81 5.42 -1.07
10.88 72.52 6.42
1.35 8.97 -1.44
1.42 9.44 -1.17
1.46 9.76 -0.86
2.72 18.12 -0.96
0.8 5.23 -1.42
11.84 77.08 1.36
0.8 5.19 -1.21
11.05 71.98 3.82
0.83 5.4 -1.06
0.91 5.96 -0.95
1.48 9.61 -1.19
1.5 9.79 -0.87
4.97 32.38 -1.72
0.81 5.13 -1.39
11.28 71.78 1.27
0.81 5.14 -1.2
11.36 72.3 3.84
0.85 5.39 -1.06
0.92 5.87 -0.94
1.96 12.49 -1.55
2.79 17.73 -1.57
5.11 32.54 -1.73
0.82 5.1 -1.38
11.55 71.84 1.27
0.82 5.11 -1.19
12.49 77.72 4.13
0.86 5.37 -1.06
0.93 5.8 -0.93
1.57 9.78 -1.22
2.85 17.74 -1.57
3.19 19.83 -1.05
0.83 5.07 -1.38
0.84 5.08 -1.19
11.98 72.94 3.87
0.87 5.32 -1.05
11.58 70.48 6.25
0.94 5.73 -0.92
1.61 9.78 -1.22
2.86 17.42 -1.54
3.37 20.49 -1.09
0.84 4.99 -1.36
0.85 5.08 -1.19
0.89 5.31 -1.05
0.95 5.68 -0.91
1.64 9.77 -1.22
3.39 20.21 -1.07
0.85 4.98 -1.35
0.87 5.05 -1.18
0.9 5.23 -1.03
0.96 5.62 -0.9
2.42 14.14 -1.76
2.86 16.67 -1.48
3.43 20.05 -1.07
0.87 4.97 -1.35
0.88 5.02 -1.18
0.9 5.14 -1.02
0.98 5.58 -0.9
2.46 14.09 -1.76
12.11 69.29 11.14
2.91 16.68 -1.48
5.45 31.2 -1.66
0.88 4.95 -1.35
0.89 5.01 -1.17
0.9 5.07 -1
0.99 5.54 -0.89
2.51 14.06 -1.75
3.25 18.24 -1.62
3.6 20.16 -1.07
3.58 20.09 -0.36
0.9 4.93 -1.34
0.91 4.99 -1.17
0.91 5.01 -0.99
1 5.5 -0.88
1.62 8.91 -1.11
3.18 17.45 -1.55
3.66 20.12 -1.07
3.66 20.09 -0.36
0.91 4.89 -1.33
0.92 4.97 -1.17
0.93 4.99 -0.99
1.01 5.46 -0.88
2.55 13.73 -1.72
14.1 75.95 12.23
3.39 18.24 -1.62
3.74 20.15 -1.07
0.92 4.87 -1.33
0.94 4.95 -1.16
0.94 4.97 -0.98
1.03 5.42 -0.87
14.9 78.7 9.84
2.59 13.66 -1.71
3.43 18.14 -1.62
3.81 20.13 -1.07
0.94 4.87 -1.33
15.14 78.48 1.4
0.95 4.93 -1.16
15.15 78.52 4.19
0.96 4.96 -0.98
1.04 5.38 -0.87
2.65 13.72 -1.72
3.51 18.18 -1.62
3.88 20.13 -1.07
15.13 78.44 -1.39
0.95 4.85 -1.32
0.97 4.92 -1.16
0.97 4.95 -0.98
1.05 5.36 -0.86
2.68 13.64 -1.71
3.4 17.31 -1.54
6.15 31.28 -1.67
0.97 4.82 -1.32
0.98 4.91 -1.15
0.98 4.92 -0.98
1.06 5.31 -0.86
2.78 13.87 -1.74
3.64 18.21 -1.62
2.41 12.06 -0.64
0.98 4.8 -1.31
16.39 80.5 1.43
1 4.9 -1.15
1 4.91 -0.97
1.07 5.28 -0.85
2.83 13.87 -1.74
3.71 18.22 -1.63
4.04 19.85 -1.06
6.33 31.1 -0.55
0.99 4.8 -1.31
1.01 4.89 -1.15
1.01 4.89 -0.97
1.09 5.24 -0.85
2.87 13.86 -1.74
3.79 18.29 -1.63
4.3 20.75 -1.11
1.01 4.78 -1.31
1.02 4.86 -1.15
1.03 4.89 -0.97
1.1 5.21 -0.84
2.92 13.82 -1.73
2.54 12.05 -1.08
6.47 30.69 -1.64
1.02 4.78 -1.31
1.04 4.85 -1.14
1.05 4.91 -0.98
1.11 5.18 -0.84
2.58 12.01 -1.51
2.65 12.34 -1.1
6.53 30.44 -1.63
1.04 4.75 -1.3
1.05 4.83 -1.14
1.06 4.87 -0.97
1.13 5.18 -0.84
2.62 12 -1.51
3.93 18.01 -1.61
6.71 30.74 -1.65
1.05 4.74 -1.3
21.28 95.9 1.71
1.07 4.82 -1.14
1.09 4.9 -0.97
1.15 5.17 -0.84
2.66 12 -1.51
2.73 12.32 -1.1
4.09 18.43 -0.99
1.07 4.72 -1.3
1.08 4.8 -1.14
1.09 4.85 -0.97
1.16 5.14 -0.83
2.76 12.24 -1.54
3.06 13.58 -1.22
6.95 30.8 -1.65
1.08 4.72 -1.3
1.09 4.77 -1.13
1.12 4.91 -0.98
1.17 5.12 -0.83
1.43 6.24 -0.79
3.57 15.58 -1.4
7.05 30.76 -1.65
1.1 4.71 -1.3
1.11 4.79 -1.14
1.13 4.86 -0.97
1.19 5.1 -0.83
1.44 6.19 -0.78
2.84 12.19 -1.1
6.52 28.03 -1.51
1.11 4.7 -1.29
1.12 4.76 -1.13
1.2 5.08 -0.83
1.45 6.14 -0.77
2.86 12.09 -1.09
2.81 11.9 -0.64
1.12 4.68 -1.29
1.14 4.75 -1.13
1.17 4.86 -0.97
1.21 5.06 -0.82
1.46 6.08 -0.77
2.88 12.01 -1.08
2.86 11.91 -0.64
1.14 4.67 -1.29
1.16 4.74 -1.13
1.2 4.91 -0.98
1.23 5.03 -0.82
1.46 6 -0.76
2.96 12.13 -1.09
5.01 20.53 -1.11
1.16 4.67 -1.29
1.17 4.71 -1.12
1.2 4.86 -0.97
1.23 4.98 -0.81
1.47 5.94 -0.75
2.94 11.89 -0.64
1.17 4.67 -1.29
1.18 4.7 -1.12
1.22 4.87 -0.98
1.25 4.98 -0.81
1.48 5.89 -0.75
3.08 12.26 -1.11
7.39 29.4 -1.59
1.19 4.66 -1.29
1.19 4.69 -1.12
1.22 4.8 -0.96
1.49 5.85 -0.74
3.38 13.25 -1.2
7.56 29.68 -1.61
1.2 4.66 -1.29
1.21 4.7 -1.12
1.23 4.76 -0.95
1.5 5.81 -0.74
3.1 11.99 -1.08
6.11 23.64 -1.28
1.22 4.65 -1.29
1.23 4.68 -1.12
1.24 4.74 -0.95
1.51 5.77 -0.73
4.09 15.62 -1.41
6.18 23.57 -1.28
1.24 4.66 -1.29
1.24 4.68 -1.12
1.26 4.75 -0.96
1.52 5.73 -0.73
3.19 11.98 -1.08
8.1 30.48 -1.65
1.26 4.66 -1.29
1.26 4.68 -1.12
1.28 4.74 -0.95
1.53 5.69 -0.72
3.24 12.02 -1.09
3.52 13.06 -0.71
24.28 90.06 -1.63
1.27 4.64 -1.29
1.28 4.68 -1.12
1.29 4.72 -0.95
1.56 5.69 -0.72
3.54 12.93 -1.17
6.31 23.09 -1.25
1.29 4.65 -1.29
24.66 88.97 1.61
1.3 4.67 -1.12
1.31 4.71 -0.95
1.62 5.83 -0.74
3.58 12.92 -1.17
6.15 22.18 -1.21
24.66 88.98 -1.61
1.31 4.66 -1.3
25 89 1.61
1.31 4.67 -1.12
1.32 4.71 -0.95
1.35 4.81 -0.79
1.62 5.77 -0.74
4.52 16.08 -1.46
6.72 23.92 -1.3
25.01 89.03 -1.61
1.36 4.78 -1.33
25.36 89.08 1.62
1.33 4.66 -1.12
1.34 4.69 -0.95
1.37 4.82 -0.79
1.62 5.7 -0.73
4.6 16.15 -1.47
8.33 29.26 -1.59
25.32 88.94 -1.61
1.38 4.78 -1.33
25.71 89.14 1.62
1.34 4.66 -1.12
1.35 4.68 -0.95
1.39 4.84 -0.8
1.62 5.63 -0.72
5.08 17.61 -1.6
5.93 20.55 -1.12
1.38 4.73 -1.32
26.06 89.23 1.62
1.36 4.65 -1.12
1.37 4.68 -0.95
1.41 4.84 -0.8
1.64 5.6 -0.72
5.13 17.57 -1.6
6.69 22.91 -1.25
1.39 4.69 -1.31
26.4 89.25 1.62
1.38 4.65 -1.12
1.38 4.68 -0.95
1.43 4.84 -0.8
1.65 5.59 -0.72
3.9 13.19 -1.2
7.81 26.41 -1.44
1.4 4.67 -1.3
26.76 89.35 1.63
1.39 4.66 -1.12
1.41 4.7 -0.95
1.44 4.82 -0.8
1.67 5.57 -0.71
3.98 13.28 -1.21
4.89 16.33 -0.89
1.41 4.67 -1.31
27.11 89.42 1.63
1.41 4.65 -1.12
1.43 4.7 -0.96
1.46 4.81 -0.8
1.67 5.52 -0.71
4.01 13.22 -1.21
5.8 19.13 -1.05
1.43 4.66 -1.31
27.5 89.51 1.63
1.43 4.65 -1.12
1.44 4.7 -0.96
1.48 4.81 -0.8
1.68 5.46 -0.7
1.94 6.3 -0.58
8.1 26.37 -1.45
1.45 4.66 -1.31
27.83 89.49 1.64
1.45 4.66 -1.13
1.46 4.69 -0.95
1.5 4.81 -0.8
1.69 5.42 -0.7
1.96 6.31 -0.58
7.03 22.6 -1.24
1.46 4.64 -1.3
28.2 89.61 1.64
1.58 5.02 -1.22
1.48 4.69 -0.96
1.51 4.8 -0.8
1.7 5.4 -0.7
1.97 6.27 -0.58
4.89 15.54 -0.85
1.48 4.66 -1.31
28.55 89.66 1.64
1.6 5.03 -1.22
1.49 4.69 -0.96
1.52 4.79 -0.8
1.71 5.38 -0.69
2 6.26 -0.58
4.95 15.53 -0.85
1.5 4.66 -1.31
28.92 89.75 1.65
1.62 5.04 -1.22
1.51 4.7 -0.96
1.54 4.79 -0.8
1.72 5.34 -0.69
2.02 6.26 -0.58
7.19 22.31 -1.23
1.53 4.68 -1.32
29.27 89.79 1.65
1.65 5.05 -1.23
1.53 4.69 -0.96
1.56 4.78 -0.8
1.74 5.32 -0.69
2.04 6.25 -0.58
7.3 22.39 -1.23
1.55 4.69 -1.32
29.64 89.88 1.65
1.64 4.96 -1.21
1.55 4.69 -0.96
1.58 4.79 -0.8
1.74 5.27 -0.68
2.08 6.32 -0.58
5.05 15.31 -0.84
1.57 4.7 -1.33
29.98 89.9 1.65
1.61 4.83 -1.18
1.56 4.68 -0.96
1.6 4.79 -0.8
1.75 5.25 -0.68
2.09 6.27 -0.58
4.23 12.69 -0.7
1.59 4.7 -1.33
30.4 89.97 1.66
1.63 4.83 -1.18
1.58 4.69 -0.96
1.61 4.76 -0.8
1.77 5.23 -0.68
7.53 22.28 -1.23
1.61 4.71 -1.33
30.76 90.03 1.66
1.64 4.79 -1.17
1.6 4.69 -0.96
1.62 4.75 -0.8
1.79 5.24 -0.68
7.67 22.45 -1.24
1.63 4.72 -1.34
31.1 90.07 1.66
1.65 4.79 -1.17
1.61 4.68 -0.96
1.64 4.76 -0.8
1.78 5.17 -0.67
7.64 22.13 -1.23
1.64 4.7 -1.33
31.49 90.2 1.67
1.68 4.83 -1.18
1.63 4.67 -0.96
1.66 4.75 -0.8
1.79 5.14 -0.67
7.8 22.34 -1.24
1.68 4.75 -1.35
31.87 90.26 1.67
1.75 4.94 -1.21
1.65 4.67 -0.96
1.68 4.75 -0.8
1.81 5.11 -0.67
7.81 22.1 -1.23
1.69 4.72 -1.34
32.24 90.31 1.67
1.79 5 -1.23
1.67 4.68 -0.97
1.69 4.74 -0.8
1.81 5.08 -0.66
2.25 6.3 -0.35
1.7 4.71 -1.34
32.63 90.33 1.68
1.82 5.03 -1.24
1.69 4.69 -0.97
1.71 4.74 -0.8
1.83 5.07 -0.66
2.27 6.28 -0.35
1.72 4.71 -1.34
1.84 5.03 -1.24
1.71 4.68 -0.97
1.73 4.74 -0.8
1.83 5.03 -0.66
1.74 4.73 -1.35
32.88 89.17 1.66
1.85 5.02 -1.23
1.72 4.68 -0.97
1.75 4.75 -0.8
1.85 5.01 -0.66
2.27 6.16 -0.34
1.75 4.7 -1.35
1.87 5.02 -1.24
1.74 4.68 -0.97
1.77 4.75 -0.8
1.85 4.97 -0.65
2.28 6.13 -0.34
1.77 4.69 -1.34
33.34 88.5 1.65
1.88 5 -1.23
1.76 4.68 -0.97
1.79 4.74 -0.8
1.86 4.95 -0.65
2.31 6.13 -0.34
1.78 4.69 -1.34
1.89 4.98 -1.23
1.78 4.69 -0.97
1.8 4.74 -0.8
1.88 4.93 -0.65
2.34 6.15 -0.34
1.81 4.69 -1.35
1.9 4.95 -1.22
1.8 4.67 -0.97
1.82 4.74 -0.8
1.88 4.9 -0.64
2.37 6.17 -0.35
1.82 4.68 -1.35
1.92 4.94 -1.22
1.82 4.67 -0.97
1.85 4.75 -0.81
1.9 4.89 -0.64
1.83 4.67 -1.34
35.74 90.97 1.71
1.93 4.92 -1.22
1.84 4.69 -0.98
1.87 4.75 -0.81
1.86 4.67 -1.35
36.1 90.93 1.71
1.94 4.89 -1.21
1.86 4.69 -0.98
1.88 4.74 -0.81
1.91 4.81 -0.64
1.88 4.68 -1.35
1.94 4.84 -1.2
1.88 4.69 -0.98
1.9 4.74 -0.81
1.93 4.8 -0.64
1.9 4.69 -1.36
41.76 103.13 1.94
1.89 4.68 -1.16
1.9 4.69 -0.98
1.92 4.74 -0.81
1.95 4.8 -0.64
1.98 4.84 -1.4
42.18 103.21 1.95
1.91 4.68 -1.17
1.92 4.69 -0.98
1.94 4.75 -0.81
1.96 4.81 -0.64
2.28 5.58 -0.32
2 4.83 -1.4
42.68 103.36 1.95
1.93 4.68 -1.17
1.94 4.69 -0.99
1.96 4.75 -0.81
1.98 4.81 -0.64
2.3 5.57 -0.53
2.25 5.44 -0.31
2 4.8 -1.39
43.1 103.4 1.96
1.95 4.69 -1.17
1.96 4.7 -0.99
1.98 4.74 -0.81
2.33 5.58 -0.53
2.27 5.43 -0.31
2 4.75 -1.38
43.58 103.49 1.96
1.96 4.67 -1.17
1.98 4.71 -0.99
2 4.74 -0.82
2.31 5.49 -0.31
2 4.7 -1.37
44.06 103.64 1.97
1.99 4.68 -1.17
2 4.7 -0.99
2.02 4.75 -0.82
2.09 4.91 -0.65
2.3 5.42 -0.31
2.01 4.69 -1.37
2.01 4.69 -1.18
2.02 4.7 -0.99
2.04 4.75 -0.82
2.1 4.9 -0.65
2.68 6.24 -0.12
2.03 4.67 -1.37
44.94 103.7 1.97
2.04 4.7 -1.18
2.04 4.7 -1
2.06 4.75 -0.82
2.34 5.4 -0.31
2.69 6.22 -0.12
2.05 4.69 -1.37
45.42 103.8 1.98
2.06 4.7 -1.18
2.06 4.7 -1
2.07 4.74 -0.82
2.14 4.89 -0.65
2.12 4.85 -0.46
2.67 6.11 -0.12
2.08 4.71 -1.38
45.86 103.84 1.98
2.07 4.7 -1.19
2.08 4.7 -1
2.09 4.74 -0.82
2.13 4.81 -0.65
2.14 4.84 -0.46
2.63 5.96 -0.11
2.1 4.71 -1.38
46.36 103.95 1.99
2.1 4.7 -1.19
2.1 4.7 -1
2.11 4.74 -0.82
2.14 4.81 -0.65
2.16 4.84 -0.46
2.62 5.88 -0.11
2.12 4.71 -1.38
2.12 4.71 -1.19
2.11 4.7 -1
2.13 4.73 -0.82
2.16 4.81 -0.65
2.17 4.83 -0.46
2.62 5.82 -0.11
2.14 4.72 -1.39
2.14 4.72 -1.2
2.13 4.7 -1
2.15 4.74 -0.82
2.18 4.79 -0.65
2.19 4.83 -0.46
2.35 5.18 -0.3
2.61 5.75 -0.11
2.16 4.72 -1.39
47.73 104.21 2
2.16 4.71 -1.2
2.16 4.71 -1.01
2.17 4.73 -0.82
2.19 4.77 -0.64
2.35 5.12 -0.3
2.61 5.7 -0.11
2.18 4.72 -1.39
2.18 4.71 -1.2
2.18 4.7 -1.01
2.19 4.73 -0.83
2.2 4.75 -0.64
2.25 4.86 -0.47
2.35 5.08 -0.29
2.61 5.64 -0.11
2.21 4.73 -1.4
2.2 4.71 -1.2
2.19 4.7 -1.01
2.21 4.74 -0.83
2.2 4.71 -0.64
2.28 4.89 -0.47
2.35 5.05 -0.29
2.61 5.61 -0.11
2.23 4.74 -1.4
49.17 104.42 2.01
2.22 4.71 -1.2
2.21 4.7 -1.01
2.23 4.74 -0.83
2.21 4.69 -0.64
2.99 6.34 -0.61
2.37 5.02 -0.29
2.61 5.55 -0.11
2.25 4.73 -1.4
49.65 104.52 2.02
2.24 4.72 -1.21
2.24 4.71 -1.01
2.25 4.74 -0.83
2.22 4.67 -0.64
3 6.31 -0.61
2.39 5.03 -0.29
2.62 5.52 -0.11
2.27 4.73 -1.41
50.16 104.62 2.03
2.26 4.71 -1.21
2.26 4.71 -1.02
2.27 4.74 -0.83
2.24 4.66 -0.64
3.03 6.31 -0.61
3.01 6.29 -0.37
2.63 5.49 -0.11
2.29 4.74 -1.41
2.27 4.7 -1.21
2.28 4.71 -1.02
2.29 4.73 -0.83
2.24 4.64 -0.63
2.38 4.92 -0.29
2.63 5.44 -0.11
2.31 4.75 -1.41
51.12 104.81 2.04
2.3 4.71 -1.21
2.3 4.72 -1.02
2.31 4.74 -0.84
2.25 4.61 -0.63
2.4 4.92 -0.29
2.64 5.4 -0.1
2.33 4.74 -1.42
2.32 4.71 -1.21
2.32 4.71 -1.02
2.34 4.75 -0.84
2.27 4.6 -0.63
2.42 4.92 -0.29
2.63 5.35 -0.1
2.35 4.73 -1.42
2.34 4.72 -1.22
2.34 4.71 -1.02
2.36 4.75 -0.84
2.27 4.58 -0.63
2.44 4.92 -0.29
2.64 5.32 -0.1
2.37 4.74 -1.42
52.57 104.99 2.05
2.36 4.71 -1.22
2.36 4.72 -1.03
2.37 4.74 -0.84
2.29 4.57 -0.63
2.46 4.91 -0.29
2.65 5.3 -0.1
2.39 4.74 -1.42
2.38 4.71 -1.22
2.38 4.71 -1.03
2.4 4.75 -0.84
2.31 4.57 -0.63
2.48 4.9 -0.29
2.67 5.28 -0.1
2.42 4.74 -1.43
2.4 4.72 -1.22
2.41 4.73 -1.03
2.42 4.75 -0.85
2.33 4.58 -0.63
2.5 4.9 -0.29
2.67 5.25 -0.1
2.43 4.74 -1.43
2.42 4.72 -1.22
2.42 4.72 -1.03
2.44 4.75 -0.85
2.67 5.2 -0.1
2.45 4.73 -1.43
2.45 4.73 -1.23
2.44 4.72 -1.03
2.47 4.76 -0.85
2.56 4.94 -0.29
2.68 5.18 -0.1
2.47 4.73 -1.43
55.12 105.48 2.08
2.47 4.73 -1.23
2.48 4.75 -0.85
2.58 4.94 -0.29
2.69 5.15 -0.1
2.49 4.73 -1.43
2.49 4.72 -1.23
2.49 4.73 -1.04
2.5 4.75 -0.85
2.7 5.13 -0.1
2.52 4.74 -1.44
2.51 4.73 -1.24
2.51 4.73 -1.04
2.52 4.75 -0.85
2.71 5.1 -0.1
2.54 4.73 -1.44
2.54 4.74 -1.24
2.53 4.73 -1.04
2.55 4.75 -0.85
2.71 5.07 -0.1
2.56 4.73 -1.44
2.56 4.74 -1.24
2.55 4.72 -1.04
2.57 4.75 -0.85
2.73 5.06 -0.1
2.58 4.73 -1.44
2.58 4.74 -1.25
2.58 4.73 -1.05
2.59 4.74 -0.86
2.74 5.04 -0.1
2.6 4.74 -1.45
2.6 4.73 -1.25
2.6 4.72 -1.05
2.61 4.75 -0.86
2.76 5.02 -0.1
2.63 4.75 -1.46
2.62 4.74 -1.25
2.62 4.73 -1.05
2.63 4.75 -0.86
2.77 5.01 -0.1
2.65 4.75 -1.46
2.65 4.74 -1.25
2.64 4.72 -1.05
2.66 4.76 -0.86
2.79 5 -0.1
2.67 4.74 -1.46
2.67 4.75 -1.26
2.66 4.73 -1.05
2.68 4.75 -0.86
2.81 4.99 -0.1
2.7 4.75 -1.46
2.69 4.74 -1.26
2.69 4.73 -1.06
2.7 4.75 -0.86
2.84 5 -0.1
2.72 4.75 -1.47
2.71 4.74 -1.26
2.72 4.75 -1.06
2.72 4.76 -0.87
3.72 6.5 -0.39
2.86 4.99 -0.1
2.75 4.77 -1.47
2.73 4.74 -1.26
2.74 4.75 -1.07
2.75 4.77 -0.87
7.36 12.76 -1.81
3.74 6.48 -0.39
2.88 4.99 -0.1
2.77 4.76 -1.48
2.76 4.75 -1.27
2.76 4.74 -1.07
2.77 4.77 -0.87
7.41 12.74 -1.81
3.76 6.47 -0.39
2.9 4.98 -0.1
2.79 4.75 -1.48
2.79 4.75 -1.27
2.78 4.74 -1.07
2.8 4.77 -0.88
7.46 12.72 -1.81
3.81 6.5 -0.4
2.92 4.99 -0.1
2.81 4.76 -1.48
2.81 4.75 -1.27
2.8 4.74 -1.07
2.81 4.76 -0.88
7.5 12.69 -1.81
3.82 6.47 -0.39
2.95 4.98 -0.1
2.84 4.76 -1.49
2.83 4.75 -1.28
2.83 4.75 -1.07
2.84 4.77 -0.88
7.54 12.66 -1.81
2.97 4.99 -0.1
2.86 4.77 -1.49
2.85 4.75 -1.28
2.85 4.75 -1.08
2.86 4.77 -0.88
7.58 12.62 -1.81
3.03 5.05 -0.31
3 5 -0.1
2.88 4.76 -1.49
2.88 4.76 -1.28
2.87 4.75 -1.08
2.89 4.78 -0.88
3.02 4.99 -0.1
2.91 4.76 -1.49
2.91 4.76 -1.29
2.9 4.75 -1.08
2.92 4.78 -0.89
2.98 4.89 -0.7
3.05 5 -0.1
2.93 4.77 -1.5
2.93 4.76 -1.29
2.92 4.75 -1.08
2.93 4.77 -0.89
3 4.89 -0.7
3.04 4.95 -0.3
3.07 5 -0.1
2.96 4.77 -1.5
2.95 4.76 -1.29
2.94 4.76 -1.09
2.95 4.76 -0.89
3 4.85 -0.7
3.03 4.89 -0.5
3.1 5.01 -0.31
3.1 5 -0.1
2.98 4.78 -1.51
2.97 4.77 -1.3
2.96 4.75 -1.09
3.02 4.85 -0.7
3.08 4.94 -0.31
3.12 5 -0.1
3.01 4.78 -1.51
3 4.77 -1.3
2.98 4.74 -1.09
3.06 4.86 -0.7
3.12 4.96 -0.31
3.14 5 -0.1
3.03 4.78 -1.52
3.02 4.77 -1.3
3.01 4.75 -1.09
3.03 4.78 -0.9
3.07 4.85 -0.7
3.09 4.87 -0.5
3.14 4.95 -0.31
3.17 5 -0.1
3.06 4.79 -1.52
3.05 4.77 -1.31
3.04 4.76 -1.1
3.04 4.76 -0.89
3.11 4.87 -0.51
3.15 4.93 -0.31
3.2 5.01 -0.1
3.09 4.8 -1.53
3.07 4.77 -1.31
3.08 4.78 -1.1
3.07 4.76 -0.9
3.11 4.83 -0.71
3.13 4.86 -0.51
3.17 4.93 -0.31
3.23 5.01 -0.1
3.12 4.82 -1.54
3.09 4.77 -1.31
3.09 4.76 -1.1
3.1 4.78 -0.9
3.13 4.83 -0.71
3.14 4.85 -0.51
3.19 4.92 -0.31
3.25 5.01 -0.1
3.16 4.84 -1.55
3.12 4.78 -1.32
3.11 4.75 -1.1
3.13 4.79 -0.91
3.15 4.82 -0.71
3.17 4.85 -0.51
3.22 4.93 -0.31
3.27 5 -0.1
3.22 4.89 -1.57
3.16 4.79 -1.32
3.13 4.76 -1.11
3.16 4.79 -0.91
3.18 4.83 -0.71
3.19 4.85 -0.51
3.25 4.93 -0.31
3.3 5.01 -0.1
3.66 5.51 -1.77
3.18 4.8 -1.33
3.16 4.77 -1.11
3.18 4.79 -0.91
3.21 4.83 -0.71
3.22 4.85 -0.51
3.28 4.94 -0.31
3.32 5.01 -0.1
3.67 5.5 -1.77
3.2 4.79 -1.33
3.19 4.78 -1.12
3.2 4.79 -0.91
3.23 4.83 -0.71
3.25 4.86 -0.51
3.3 4.94 -0.31
3.35 5.02 -0.11
3.7 5.49 -1.77
3.23 4.79 -1.33
3.21 4.77 -1.12
3.23 4.79 -0.92
3.25 4.83 -0.72
3.28 4.87 -0.51
3.33 4.94 -0.31
3.38 5.02 -0.11
3.72 5.48 -1.77
3.26 4.8 -1.34
3.24 4.77 -1.12
3.26 4.8 -0.92
3.28 4.83 -0.72
3.31 4.88 -0.52
3.36 4.95 -0.31
3.4 5.01 -0.11
3.73 5.45 -1.77
3.29 4.8 -1.34
3.27 4.77 -1.12
3.28 4.79 -0.92
3.3 4.83 -0.72
3.33 4.88 -0.52
3.39 4.95 -0.31
3.43 5.01 -0.11
3.75 5.44 -1.77
3.31 4.81 -1.35
3.3 4.79 -1.13
3.3 4.79 -0.92
3.34 4.84 -0.72
3.36 4.87 -0.52
3.41 4.95 -0.32
3.46 5.02 -0.11
3.77 5.43 -1.77
3.33 4.8 -1.35
3.32 4.78 -1.13
3.32 4.79 -0.92
3.36 4.84 -0.72
3.39 4.88 -0.52
3.43 4.95 -0.32
3.48 5.02 -0.11
3.79 5.42 -1.77
3.36 4.8 -1.35
3.34 4.78 -1.13
3.35 4.79 -0.93
3.38 4.83 -0.72
3.41 4.88 -0.52
3.46 4.95 -0.32
3.51 5.02 -0.11
3.8 5.4 -1.77
3.39 4.81 -1.36
3.37 4.78 -1.14
3.38 4.8 -0.93
3.41 4.83 -0.73
3.44 4.88 -0.52
3.49 4.95 -0.32
3.53 5.01 -0.11
3.81 5.38 -1.77
3.42 4.82 -1.36
3.39 4.78 -1.14
3.41 4.8 -0.93
3.43 4.84 -0.73
3.46 4.87 -0.52
3.52 4.96 -0.32
3.56 5.02 -0.11
3.83 5.36 -1.77
3.45 4.82 -1.37
3.42 4.79 -1.14
3.43 4.8 -0.94
3.46 4.85 -0.73
3.49 4.88 -0.52
3.54 4.95 -0.32
3.59 5.02 -0.11
3.85 5.35 -1.77
3.47 4.82 -1.37
3.46 4.8 -1.15
3.46 4.81 -0.94
3.49 4.84 -0.73
3.52 4.88 -0.53
3.56 4.95 -0.32
3.62 5.03 -0.11
3.87 5.34 -1.77
3.5 4.83 -1.38
3.48 4.8 -1.15
3.49 4.81 -0.94
3.51 4.84 -0.73
3.55 4.89 -0.53
3.59 4.95 -0.32
3.65 5.03 -0.11
3.89 5.32 -1.77
3.53 4.83 -1.38
3.5 4.79 -1.15
3.52 4.82 -0.94
3.54 4.85 -0.74
3.57 4.89 -0.53
3.63 4.96 -0.32
3.67 5.03 -0.11
3.9 5.3 -1.76
3.56 4.83 -1.39
3.53 4.8 -1.16
3.54 4.81 -0.95
3.57 4.85 -0.74
3.6 4.89 -0.53
3.66 4.97 -0.32
3.7 5.03 -0.11
3.92 5.28 -1.76
3.58 4.83 -1.39
3.56 4.81 -1.16
3.56 4.81 -0.95
3.6 4.86 -0.74
3.62 4.89 -0.53
3.69 4.97 -0.32
3.73 5.03 -0.11
3.94 5.27 -1.76
3.6 4.82 -1.39
3.59 4.81 -1.17
3.59 4.81 -0.95
3.63 4.85 -0.74
3.66 4.9 -0.53
3.71 4.97 -0.32
3.76 5.04 -0.11
3.96 5.27 -1.77
3.62 4.82 -1.39
3.62 4.81 -1.17
3.62 4.81 -0.95
3.64 4.85 -0.74
3.68 4.9 -0.54
3.74 4.98 -0.33
3.79 5.04 -0.11
3.98 5.25 -1.76
3.65 4.82 -1.4
3.64 4.81 -1.17
3.65 4.82 -0.96
3.68 4.85 -0.75
3.71 4.89 -0.54
3.77 4.98 -0.33
3.81 5.03 -0.11
3.98 5.22 -1.76
3.68 4.83 -1.4
3.67 4.81 -1.18
3.67 4.81 -0.96
3.7 4.85 -0.75
3.73 4.89 -0.54
3.8 4.98 -0.33
3.84 5.04 -0.11
4 5.21 -1.76
3.72 4.84 -1.41
3.7 4.82 -1.18
3.71 4.82 -0.96
3.74 4.86 -0.75
3.76 4.89 -0.54
3.82 4.97 -0.33
3.88 5.04 -0.11
4.02 5.19 -1.76
3.74 4.83 -1.41
3.74 4.83 -1.19
3.74 4.83 -0.97
3.76 4.86 -0.75
3.79 4.9 -0.54
3.85 4.97 -0.33
3.91 5.05 -0.11
4.04 5.18 -1.76
3.77 4.83 -1.41
3.77 4.83 -1.19
3.77 4.84 -0.97
3.79 4.85 -0.76
3.82 4.9 -0.54
3.87 4.97 -0.33
3.93 5.05 -0.11
4.05 5.16 -1.76
3.8 4.84 -1.42
3.79 4.82 -1.19
3.8 4.84 -0.98
3.82 4.86 -0.76
3.85 4.91 -0.55
3.9 4.97 -0.33
3.96 5.05 -0.11
4.06 5.14 -1.75
3.83 4.84 -1.43
3.82 4.83 -1.2
3.83 4.84 -0.98
3.85 4.87 -0.76
3.88 4.9 -0.55
3.94 4.98 -0.33
3.99 5.05 -0.11
4.08 5.12 -1.75
3.86 4.85 -1.43
3.85 4.83 -1.2
3.85 4.84 -0.98
3.88 4.87 -0.77
3.91 4.91 -0.55
3.97 4.99 -0.33
4.02 5.05 -0.11
4.11 5.12 -1.76
3.88 4.84 -1.43
3.88 4.84 -1.21
3.88 4.84 -0.98
3.91 4.88 -0.77
3.94 4.91 -0.55
4 4.98 -0.33
4.06 5.06 -0.11
4.12 5.1 -1.76
3.91 4.85 -1.44
3.91 4.84 -1.21
3.91 4.84 -0.99
3.94 4.87 -0.77
3.97 4.92 -0.55
4.03 4.99 -0.34
4.09 5.06 -0.11
4.13 5.08 -1.75
3.95 4.85 -1.44
3.94 4.84 -1.21
3.95 4.85 -0.99
3.97 4.87 -0.77
4 4.92 -0.55
4.06 4.99 -0.34
4.11 5.06 -0.11
4.14 5.06 -1.75
3.99 4.86 -1.45
3.97 4.85 -1.22
3.98 4.85 -0.99
4 4.88 -0.77
4.02 4.91 -0.56
4.09 5 -0.34
4.14 5.06 -0.11
4.16 5.04 -1.75
4.01 4.86 -1.45
4.01 4.85 -1.22
4 4.84 -0.99
4.03 4.89 -0.78
4.05 4.91 -0.56
4.12 4.99 -0.34
4.18 5.07 -0.11
4.18 5.04 -1.75
4.03 4.86 -1.46
4.04 4.86 -1.23
4.03 4.85 -1
4.06 4.88 -0.78
4.09 4.92 -0.56
4.14 4.99 -0.34
4.22 5.08 -0.12
4.2 5.02 -1.75
4.07 4.86 -1.46
4.07 4.86 -1.23
4.06 4.86 -1
4.08 4.88 -0.78
4.12 4.92 -0.56
4.17 4.99 -0.34
4.25 5.07 -0.12
4.21 5 -1.75
4.1 4.87 -1.47
4.09 4.85 -1.23
4.09 4.86 -1.01
4.12 4.88 -0.78
4.15 4.93 -0.56
4.21 5 -0.34
4.27 5.07 -0.12
4.23 4.98 -1.75
4.13 4.87 -1.48
4.12 4.86 -1.24
4.12 4.86 -1.01
4.15 4.89 -0.79
4.18 4.93 -0.57
4.24 5 -0.34
4.3 5.07 -0.12
4.24 4.96 -1.75
4.17 4.88 -1.48
4.15 4.85 -1.24
4.15 4.86 -1.01
4.18 4.89 -0.79
4.21 4.93 -0.57
4.27 5 -0.34
4.34 5.08 -0.12
4.26 4.95 -1.75
4.25 4.93 -1.5
4.18 4.85 -1.24
4.18 4.86 -1.02
4.21 4.89 -0.79
4.25 4.94 -0.57
4.3 5 -0.35
4.38 5.08 -0.12
4.28 4.94 -1.75
4.25 4.9 -1.5
4.21 4.85 -1.25
4.22 4.86 -1.02
4.24 4.89 -0.79
4.28 4.94 -0.57
4.34 5.01 -0.35
4.41 5.09 -0.12
4.3 4.92 -1.75
4.27 4.89 -1.5
4.25 4.87 -1.26
4.25 4.87 -1.02
4.27 4.9 -0.8
4.31 4.94 -0.57
4.38 5.01 -0.35
4.43 5.08 -0.12
4.31 4.9 -1.75
4.29 4.88 -1.5
4.3 4.89 -1.27
4.28 4.87 -1.03
4.31 4.9 -0.8
4.33 4.93 -0.57
4.41 5.01 -0.35
4.47 5.09 -0.12
4.32 4.88 -1.75
4.31 4.87 -1.5
4.32 4.88 -1.27
4.3 4.86 -1.03
4.35 4.91 -0.8
4.37 4.94 -0.58
4.44 5.01 -0.35
4.51 5.09 -0.12
4.34 4.87 -1.75
4.34 4.87 -1.5
4.35 4.88 -1.27
4.34 4.87 -1.03
4.37 4.91 -0.81
4.41 4.95 -0.58
4.47 5.01 -0.35
4.55 5.1 -0.12
4.36 4.86 -1.75
4.4 4.9 -1.52
4.37 4.87 -1.27
4.37 4.87 -1.04
4.4 4.91 -0.81
4.45 4.95 -0.58
4.52 5.03 -0.35
4.58 5.1 -0.12
4.38 4.84 -1.75
4.49 4.97 -1.55
4.41 4.88 -1.28
4.4 4.87 -1.04
4.44 4.91 -0.81
4.48 4.96 -0.58
4.55 5.03 -0.36
4.61 5.1 -0.12
4.38 4.82 -1.74
4.45 4.89 -1.53
4.48 4.92 -1.29
4.43 4.87 -1.04
4.47 4.91 -0.82
4.51 4.95 -0.59
4.59 5.04 -0.36
4.64 5.1 -0.12
4.4 4.81 -1.75
4.49 4.9 -1.53
4.51 4.92 -1.3
4.46 4.86 -1.04
4.51 4.92 -0.82
4.54 4.96 -0.59
4.62 5.04 -0.36
4.68 5.11 -0.12
4.42 4.79 -1.74
4.52 4.9 -1.54
4.6 4.98 -1.32
4.54 4.92 -0.82
4.58 4.97 -0.59
4.65 5.04 -0.36
4.72 5.12 -0.12
4.44 4.78 -1.75
4.55 4.9 -1.54
4.57 4.92 -1.3
4.76 5.13 -1.11
4.57 4.92 -0.82
4.62 4.97 -0.59
4.68 5.04 -0.36
4.76 5.12 -0.12
4.45 4.75 -1.74
4.59 4.91 -1.55
4.62 4.94 -1.32
4.79 5.11 -1.11
4.6 4.92 -0.83
4.65 4.97 -0.6
4.71 5.04 -0.36
4.79 5.12 -0.12
4.46 4.73 -1.74
4.62 4.91 -1.56
4.65 4.93 -1.32
4.79 5.09 -1.11
4.65 4.93 -0.83
4.68 4.97 -0.6
4.76 5.05 -0.36
4.83 5.12 -0.12
4.48 4.72 -1.74
4.68 4.94 -1.57
4.69 4.95 -1.33
4.8 5.06 -1.1
4.68 4.94 -0.84
4.71 4.97 -0.6
4.78 5.04 -0.36
4.87 5.13 -0.12
4.49 4.7 -1.74
4.69 4.91 -1.57
4.7 4.92 -1.32
4.8 5.03 -1.1
4.72 4.94 -0.84
4.76 4.98 -0.6
4.82 5.04 -0.37
4.91 5.14 -0.12
4.51 4.68 -1.74
4.71 4.9 -1.57
4.73 4.91 -1.33
4.81 5 -1.1
4.75 4.94 -0.84
4.8 4.99 -0.61
4.87 5.07 -0.37
4.95 5.14 -0.12
4.52 4.67 -1.74
4.75 4.9 -1.57
4.74 4.9 -1.33
4.74 4.9 -1.08
4.79 4.94 -0.84
4.83 4.99 -0.61
4.91 5.06 -0.37
4.99 5.15 -0.13
4.53 4.65 -1.74
4.79 4.91 -1.58
4.78 4.9 -1.33
4.77 4.89 -1.08
4.83 4.95 -0.85
4.86 4.98 -0.61
4.95 5.08 -0.37
5.03 5.16 -0.13
4.55 4.63 -1.74
5.28 5.37 -1.74
4.85 4.94 -1.35
4.81 4.89 -1.09
4.87 4.96 -0.85
4.91 4.99 -0.61
4.98 5.07 -0.37
5.07 5.16 -0.13
4.57 4.61 -1.74
5.32 5.37 -1.75
4.91 4.97 -1.36
4.86 4.91 -1.09
4.92 4.97 -0.86
4.95 5 -0.62
5 5.05 -0.37
5.12 5.17 -0.13
4.58 4.6 -1.74
5.34 5.36 -1.75
4.92 4.94 -1.36
4.92 4.93 -1.1
4.94 4.96 -0.86
5 5.01 -0.62
5.04 5.05 -0.37
5.16 5.18 -0.13
4.59 4.58 -1.74
5.35 5.34 -1.75
4.93 4.91 -1.35
4.97 4.95 -1.11
4.98 4.96 -0.86
5.01 5 -0.62
5.08 5.06 -0.38
4.61 4.56 -1.74
5.38 5.32 -1.75
4.98 4.93 -1.36
5.01 4.96 -1.12
5.03 4.98 -0.87
5.05 5 -0.62
5.14 5.09 -0.38
4.62 4.54 -1.74
5.39 5.3 -1.74
5.03 4.95 -1.37
5.04 4.96 -1.12
5.07 4.98 -0.87
5.09 5.01 -0.62
5.17 5.09 -0.38
4.64 4.53 -1.74
5.4 5.27 -1.74
5.08 4.96 -1.38
5.09 4.97 -1.13
5.11 4.99 -0.88
5.14 5.02 -0.63
5.21 5.09 -0.38
21.86 21.34 -0.53
4.65 4.51 -1.74
5.42 5.25 -1.74
5.12 4.97 -1.39
5.14 4.98 -1.13
5.14 4.99 -0.88
5.19 5.03 -0.63
21.1 20.45 -1.54
4.66 4.49 -1.73
5.44 5.24 -1.74
5.17 4.97 -1.39
5.18 4.99 -1.14
5.2 5.01 -0.89
5.24 5.04 -0.64
21.2 20.41 -1.54
4.67 4.47 -1.73
5.45 5.21 -1.74
5.21 4.99 -1.4
5.22 5 -1.14
13.82 13.22 -1
4.69 4.45 -1.73
5.47 5.19 -1.74
5.27 5 -1.41
13.16 12.5 -1.59
13.93 13.23 -1.01
4.71 4.44 -1.73
5.47 5.16 -1.74
5.34 5.03 -1.43
6.74 6.36 -1.47
6.83 6.45 -1.15
12.69 11.96 -1.53
21.36 20.15 -1.54
4.72 4.42 -1.73
5.5 5.15 -1.74
6.55 6.13 -1.74
6.75 6.32 -1.47
6.77 6.34 -1.14
12.74 11.93 -1.53
21.51 20.14 -1.54
4.73 4.4 -1.73
5.51 5.12 -1.74
6.56 6.1 -1.74
6.75 6.28 -1.46
6.78 6.3 -1.14
12.78 11.89 -1.53
21.61 20.1 -1.55
4.75 4.38 -1.73
5.54 5.11 -1.74
6.58 6.08 -1.74
6.74 6.23 -1.45
6.76 6.25 -1.13
12.15 11.22 -1.45
4.76 4.36 -1.73
5.54 5.08 -1.74
6.6 6.05 -1.74
6.72 6.17 -1.44
6.77 6.21 -1.13
11.2 10.28 -1.33
21.28 19.52 -1.51
4.77 4.35 -1.73
5.55 5.06 -1.73
6.62 6.03 -1.74
6.78 6.18 -1.45
6.76 6.16 -1.12
11.38 10.37 -1.35
21.38 19.48 -1.52
4.79 4.33 -1.73
5.57 5.04 -1.73
6.63 6 -1.74
6.79 6.14 -1.45
6.75 6.11 -1.12
13.46 12.18 -1.59
4.8 4.31 -1.73
5.59 5.02 -1.73
6.64 5.97 -1.74
6.81 6.11 -1.45
6.74 6.06 -1.11
11.55 10.37 -1.36
21.45 19.26 -1.51
4.8 4.28 -1.72
5.61 5 -1.73
6.66 5.94 -1.73
6.78 6.05 -1.44
6.72 5.99 -1.11
11.65 10.4 -1.37
21.5 19.18 -1.51
4.82 4.27 -1.73
5.62 4.98 -1.73
6.68 5.92 -1.74
6.77 5.99 -1.43
6.76 5.99 -1.11
21.58 19.11 -1.51
4.84 4.25 -1.73
5.63 4.96 -1.73
6.7 5.89 -1.73
6.76 5.95 -1.43
6.75 5.94 -1.1
7.48 6.58 -0.87
21.76 19.14 -1.52
4.85 4.24 -1.73
5.64 4.93 -1.73
6.72 5.87 -1.73
6.79 5.93 -1.43
6.76 5.9 -1.1
22.02 19.23 -1.53
4.86 4.22 -1.72
5.66 4.91 -1.73
6.73 5.84 -1.73
6.79 5.9 -1.42
6.72 5.83 -1.09
21.55 18.7 -1.5
4.87 4.19 -1.72
5.68 4.89 -1.73
6.75 5.81 -1.73
6.77 5.83 -1.41
6.76 5.82 -1.1
7.4 6.37 -0.85
21.64 18.63 -1.5
4.88 4.17 -1.72
5.69 4.86 -1.73
6.76 5.78 -1.73
6.69 5.72 -1.39
6.83 5.84 -1.1
7.42 6.34 -0.85
21.72 18.58 -1.5
4.9 4.16 -1.72
5.7 4.84 -1.73
6.8 5.78 -1.73
6.69 5.68 -1.39
6.84 5.81 -1.1
7.44 6.32 -0.85
21.92 18.61 -1.51
4.91 4.14 -1.72
5.72 4.82 -1.73
6.82 5.75 -1.73
6.77 5.71 -1.4
6.83 5.76 -1.1
22.04 18.59 -1.51
4.92 4.12 -1.72
5.73 4.8 -1.72
6.79 5.69 -1.72
6.81 5.7 -1.41
6.87 5.76 -1.1
22.1 18.51 -1.51
4.92 4.1 -1.72
5.75 4.78 -1.73
6.82 5.68 -1.73
6.82 5.67 -1.4
6.87 5.72 -1.1
21.97 18.28 -1.5
4.95 4.08 -1.72
5.76 4.75 -1.72
6.85 5.66 -1.73
6.74 5.56 -1.38
6.88 5.68 -1.1
21.66 17.89 -1.47
4.96 4.07 -1.72
5.76 4.73 -1.72
6.87 5.63 -1.73
6.74 5.53 -1.38
6.88 5.64 -1.09
7.39 6.07 -0.84
21.85 17.92 -1.48
4.98 4.05 -1.72
5.78 4.7 -1.72
6.88 5.61 -1.73
6.76 5.5 -1.38
6.88 5.6 -1.09
21.84 17.78 -1.48
4.98 4.03 -1.72
5.79 4.68 -1.72
6.89 5.57 -1.72
6.76 5.46 -1.38
6.84 5.53 -1.08
22.04 17.82 -1.49
4.98 4 -1.71
5.81 4.67 -1.72
6.91 5.54 -1.72
6.75 5.42 -1.37
6.83 5.48 -1.07
22.14 17.77 -1.49
5 3.98 -1.71
5.83 4.64 -1.72
6.92 5.52 -1.72
6.77 5.39 -1.37
22.27 17.75 -1.49
5.01 3.97 -1.71
5.83 4.61 -1.72
6.95 5.5 -1.72
6.79 5.37 -1.37
6.86 5.43 -1.07
7.42 5.87 -0.83
5.03 3.95 -1.71
5.84 4.59 -1.71
6.96 5.47 -1.72
6.81 5.35 -1.37
6.9 5.42 -1.08
8.42 6.61 -0.56
5.04 3.93 -1.71
5.86 4.57 -1.72
6.97 5.43 -1.72
6.82 5.32 -1.37
6.92 5.39 -1.08
8.47 6.6 -0.56
5.04 3.9 -1.71
5.88 4.55 -1.72
6.99 5.41 -1.72
6.84 5.3 -1.37
6.93 5.36 -1.08
7.4 5.73 -0.82
8.52 6.59 -0.56
5.05 3.89 -1.71
5.89 4.53 -1.72
7 5.38 -1.72
6.84 5.26 -1.37
6.98 5.37 -1.08
7.42 5.71 -0.82
8.56 6.58 -0.57
5.07 3.87 -1.71
5.9 4.5 -1.71
7.02 5.36 -1.72
6.85 5.23 -1.37
7.02 5.36 -1.08
8.61 6.58 -0.57
5.08 3.85 -1.71
5.91 4.48 -1.71
7.03 5.33 -1.71
6.87 5.21 -1.37
7.01 5.31 -1.08
5.09 3.83 -1.71
5.93 4.46 -1.71
7.04 5.3 -1.71
6.88 5.18 -1.36
7.04 5.3 -1.08
7.48 5.63 -0.82
5.1 3.81 -1.71
5.94 4.44 -1.71
7.05 5.27 -1.71
6.91 5.16 -1.37
7.03 5.25 -1.08
7.5 5.6 -0.82
5.1 3.79 -1.7
5.95 4.42 -1.71
7.07 5.25 -1.71
6.92 5.13 -1.36
7.02 5.21 -1.07
7.52 5.58 -0.82
5.12 3.77 -1.7
5.97 4.39 -1.71
7.09 5.22 -1.71
6.94 5.11 -1.36
7.05 5.19 -1.07
7.54 5.55 -0.82
5.13 3.75 -1.7
5.98 4.37 -1.71
7.1 5.19 -1.71
6.98 5.1 -1.37
7.07 5.17 -1.07
7.56 5.53 -0.82
5.14 3.73 -1.7
5.99 4.35 -1.71
7.11 5.16 -1.71
7.01 5.09 -1.37
7.08 5.14 -1.07
7.58 5.5 -0.82
5.15 3.71 -1.7
6.01 4.33 -1.71
7.12 5.13 -1.71
7.04 5.07 -1.37
7.12 5.13 -1.08
7.6 5.48 -0.82
5.16 3.69 -1.7
6.02 4.3 -1.71
7.14 5.11 -1.71
7.08 5.06 -1.38
7.16 5.12 -1.08
7.62 5.45 -0.82
9.3 6.65 -0.6
5.17 3.67 -1.7
6.02 4.28 -1.71
7.15 5.08 -1.71
7.15 5.08 -1.39
7.19 5.1 -1.08
7.64 5.42 -0.82
5.19 3.66 -1.7
6.04 4.26 -1.71
7.17 5.05 -1.7
7.19 5.06 -1.39
7.21 5.08 -1.08
7.65 5.39 -0.82
8.56 6.03 -0.55
5.2 3.64 -1.7
6.05 4.23 -1.71
7.17 5.01 -1.7
7.23 5.06 -1.4
7.25 5.07 -1.09
7.67 5.37 -0.82
5.2 3.61 -1.69
6.07 4.21 -1.7
7.19 4.99 -1.7
7.38 5.12 -1.42
7.35 5.1 -1.1
7.64 5.3 -0.81
5.21 3.59 -1.69
6.08 4.19 -1.7
7.21 4.97 -1.7
7.38 5.09 -1.42
7.42 5.11 -1.11
7.71 5.31 -0.82
5.23 3.58 -1.7
6.08 4.16 -1.7
7.22 4.94 -1.7
7.43 5.09 -1.43
7.45 5.1 -1.11
7.73 5.29 -0.82
9.25 6.33 -0.59
5.23 3.55 -1.69
6.09 4.14 -1.7
7.23 4.91 -1.7
7.5 5.09 -1.44
7.51 5.1 -1.11
7.73 5.25 -0.82
9.33 6.34 -0.59
5.25 3.54 -1.7
6.11 4.12 -1.7
7.24 4.88 -1.7
7.61 5.13 -1.45
7.65 5.16 -1.13
7.77 5.23 -0.82
5.25 3.51 -1.69
6.12 4.1 -1.7
7.26 4.85 -1.7
7.64 5.11 -1.46
7.75 5.18 -1.14
7.8 5.22 -0.82
10.09 6.75 -0.64
5.26 3.49 -1.69
6.13 4.07 -1.7
7.27 4.83 -1.7
7.65 5.08 -1.46
7.74 5.14 -1.14
7.84 5.21 -0.82
10.12 6.72 -0.64
5.27 3.47 -1.69
6.14 4.04 -1.7
7.29 4.81 -1.7
7.69 5.07 -1.46
7.72 5.09 -1.14
7.89 5.2 -0.83
10.15 6.69 -0.64
5.28 3.46 -1.69
6.15 4.02 -1.7
7.3 4.78 -1.7
7.84 5.13 -1.48
7.79 5.1 -1.14
7.94 5.2 -0.83
10.23 6.69 -0.64
5.29 3.43 -1.69
6.16 4 -1.7
7.3 4.74 -1.69
7.87 5.11 -1.49
7.87 5.11 -1.15
7.99 5.19 -0.83
5.29 3.41 -1.69
6.17 3.98 -1.7
7.32 4.71 -1.69
7.93 5.11 -1.49
7.95 5.12 -1.16
8.08 5.21 -0.84
10.15 6.54 -0.63
5.31 3.39 -1.69
6.19 3.95 -1.69
7.33 4.69 -1.69
8.01 5.12 -1.51
8 5.11 -1.17
8.12 5.19 -0.84
5.32 3.38 -1.69
6.19 3.93 -1.69
7.34 4.66 -1.69
8.09 5.13 -1.52
8.07 5.12 -1.17
8.21 5.21 -0.85
8.47 5.38 -0.53
5.33 3.36 -1.69
6.2 3.9 -1.69
7.36 4.63 -1.69
8.19 5.15 -1.53
8.15 5.13 -1.18
8.24 5.19 -0.85
5.34 3.33 -1.69
6.21 3.88 -1.69
7.37 4.6 -1.69
9.02 5.63 -1.68
8.22 5.14 -1.19
8.29 5.18 -0.86
5.34 3.31 -1.68
76.66 47.51 1.57
6.23 3.86 -1.69
7.38 4.57 -1.69
9.03 5.6 -1.68
8.29 5.14 -1.2
8.34 5.17 -0.86
5.35 3.29 -1.68
6.23 3.83 -1.69
7.39 4.55 -1.69
9.04 5.56 -1.68
8.34 5.13 -1.2
8.4 5.17 -0.86
5.36 3.27 -1.68
6.24 3.81 -1.69
7.41 4.52 -1.69
9.06 5.53 -1.68
8.44 5.15 -1.21
8.47 5.17 -0.87
5.38 3.26 -1.68
6.25 3.78 -1.69
7.41 4.49 -1.68
9.07 5.49 -1.68
8.49 5.14 -1.22
8.53 5.17 -0.87
5.38 3.23 -1.68
6.27 3.76 -1.69
7.41 4.46 -1.68
9.09 5.46 -1.68
8.56 5.14 -1.23
8.6 5.17 -0.88
5.39 3.21 -1.68
6.28 3.74 -1.69
7.43 4.43 -1.68
9.1 5.43 -1.68
8.65 5.16 -1.24
8.64 5.15 -0.88
5.4 3.19 -1.68
6.28 3.71 -1.68
7.45 4.41 -1.68
9.11 5.39 -1.68
8.73 5.16 -1.25
8.72 5.15 -0.89
5.41 3.17 -1.68
6.28 3.69 -1.68
7.46 4.38 -1.68
9.12 5.35 -1.68
8.8 5.16 -1.25
8.81 5.17 -0.89
21.35 12.53 -0.43
5.42 3.16 -1.68
6.29 3.66 -1.68
7.47 4.35 -1.68
9.14 5.32 -1.67
8.85 5.15 -1.26
8.88 5.17 -0.9
5.43 3.13 -1.68
6.3 3.64 -1.68
7.47 4.31 -1.68
9.15 5.28 -1.67
8.94 5.16 -1.27
8.93 5.16 -0.9
5.43 3.11 -1.68
6.31 3.61 -1.68
7.49 4.29 -1.68
9.17 5.25 -1.67
9.01 5.16 -1.28
9 5.16 -0.91
5.44 3.09 -1.68
6.32 3.59 -1.68
7.5 4.26 -1.68
9.17 5.21 -1.67
9.1 5.17 -1.29
9.08 5.16 -0.91
5.45 3.07 -1.68
6.32 3.56 -1.67
7.51 4.24 -1.68
9.19 5.18 -1.67
9.19 5.18 -1.29
9.17 5.17 -0.92
5.46 3.05 -1.68
6.33 3.54 -1.67
7.52 4.21 -1.68
9.2 5.14 -1.67
9.25 5.17 -1.3
9.25 5.17 -0.93
5.47 3.03 -1.67
6.34 3.52 -1.67
7.52 4.17 -1.67
9.22 5.11 -1.67
9.33 5.17 -1.31
9.31 5.16 -0.93
5.47 3.01 -1.67
6.36 3.5 -1.67
7.54 4.15 -1.67
9.23 5.08 -1.67
9.45 5.2 -1.32
9.39 5.16 -0.94
5.48 2.99 -1.67
6.36 3.47 -1.67
7.55 4.12 -1.67
9.23 5.03 -1.67
9.52 5.19 -1.33
9.52 5.19 -0.95
5.49 2.97 -1.67
6.37 3.44 -1.67
7.56 4.09 -1.67
9.23 5 -1.66
9.62 5.2 -1.34
9.59 5.19 -0.95
5.5 2.95 -1.67
6.37 3.42 -1.67
7.57 4.06 -1.67
9.25 4.96 -1.66
9.69 5.2 -1.35
9.68 5.2 -0.96
5.51 2.93 -1.67
6.39 3.4 -1.67
7.58 4.03 -1.67
9.27 4.93 -1.66
9.78 5.2 -1.36
9.77 5.2 -0.97
10.15 5.4 -0.6
5.5 2.9 -1.67
6.4 3.38 -1.67
7.58 4 -1.67
9.27 4.89 -1.66
9.9 5.22 -1.37
9.85 5.2 -0.97
5.52 2.89 -1.67
6.41 3.35 -1.67
7.6 3.98 -1.67
9.28 4.85 -1.66
9.94 5.2 -1.38
9.93 5.19 -0.98
5.52 2.87 -1.67
6.41 3.32 -1.67
7.61 3.95 -1.67
9.29 4.82 -1.66
10.06 5.22 -1.39
10.02 5.2 -0.99
5.54 2.85 -1.67
6.42 3.3 -1.67
7.61 3.92 -1.66
9.3 4.78 -1.66
10.13 5.21 -1.4
10.12 5.2 -1
5.54 2.82 -1.67
6.43 3.28 -1.67
7.62 3.88 -1.66
9.32 4.75 -1.66
10.24 5.22 -1.41
10.42 5.31 -1.02
12.92 6.59 -0.76
5.54 2.8 -1.66
6.44 3.26 -1.67
7.63 3.86 -1.66
9.32 4.71 -1.65
10.37 5.24 -1.43
10.33 5.22 -1.01
12.88 6.51 -0.76
5.55 2.78 -1.66
6.45 3.23 -1.66
7.64 3.83 -1.66
9.32 4.67 -1.65
10.4 5.21 -1.43
10.42 5.22 -1.02
12.86 6.44 -0.75
16.99 8.51 5.09
5.57 2.77 -1.67
6.45 3.2 -1.66
7.65 3.8 -1.66
9.33 4.64 -1.65
17 8.44 2.33
12.14 6.03 -1.66
17 8.45 3.01
10.58 5.26 -1.03
16.96 8.43 3.68
12.84 6.38 -0.75
17 8.45 4.38
5.58 2.75 -1.67
17.02 8.38 0.33
6.46 3.18 -1.66
17.03 8.39 1
7.66 3.77 -1.66
17.04 8.39 1.66
9.35 4.61 -1.65
17.05 8.4 2.33
12.13 5.97 -1.66
17.04 8.39 3.01
10.68 5.26 -1.04
12.84 6.32 -0.75
17.04 8.39 -0.33
5.57 2.72 -1.66
17.08 8.34 0.33
6.47 3.16 -1.66
7.66 3.74 -1.66
9.36 4.57 -1.65
12.15 5.93 -1.66
10.87 5.31 -1.06
12.83 6.26 -0.75
17.07 8.33 -0.33
5.57 2.7 -1.66
16.92 8.19 0.33
6.48 3.14 -1.66
7.67 3.71 -1.66
9.38 4.54 -1.65
12.16 5.89 -1.66
12.84 6.22 -0.75
16.96 8.21 -0.33
5.58 2.68 -1.66
6.49 3.11 -1.66
7.68 3.68 -1.66
9.37 4.5 -1.65
12.17 5.84 -1.66
12.83 6.16 -0.75
5.59 2.66 -1.66
6.49 3.09 -1.66
7.69 3.66 -1.66
9.38 4.47 -1.65
12.18 5.8 -1.66
12.31 5.86 -1.19
12.82 6.1 -0.74
14.32 6.81 -0.28
5.6 2.64 -1.66
6.49 3.06 -1.66
7.69 3.63 -1.65
9.39 4.43 -1.64
12.17 5.74 -1.65
12.32 5.81 -1.19
12.83 6.05 -0.74
14.23 6.71 -0.27
5.61 2.62 -1.66
6.5 3.04 -1.66
7.7 3.6 -1.65
9.41 4.4 -1.64
12.18 5.69 -1.65
12.33 5.76 -1.19
12.84 6 -0.74
14.14 6.61 -0.27
5.6 2.59 -1.65
6.51 3.02 -1.66
7.71 3.57 -1.65
9.42 4.36 -1.64
12.19 5.64 -1.65
12.33 5.71 -1.19
12.84 5.95 -0.74
14.11 6.53 -0.27
5.6 2.57 -1.65
6.52 2.99 -1.66
7.72 3.54 -1.65
9.4 4.31 -1.64
12.21 5.6 -1.65
12.36 5.67 -1.19
12.86 5.9 -0.74
14.1 6.47 -0.27
5.62 2.55 -1.65
6.53 2.97 -1.65
7.73 3.51 -1.65
9.43 4.28 -1.64
12.21 5.55 -1.65
12.4 5.63 -1.19
12.86 5.84 -0.74
14.08 6.4 -0.27
5.63 2.54 -1.65
6.52 2.94 -1.65
7.73 3.48 -1.65
9.43 4.25 -1.64
12.21 5.5 -1.64
12.43 5.6 -1.19
12.87 5.8 -0.74
14.06 6.33 -0.27
5.63 2.51 -1.65
6.54 2.92 -1.65
7.73 3.45 -1.65
9.45 4.22 -1.64
12.23 5.45 -1.64
12.46 5.56 -1.19
12.89 5.75 -0.74
14.06 6.27 -0.27
5.63 2.49 -1.65
6.54 2.89 -1.65
7.74 3.42 -1.64
9.46 4.18 -1.64
12.25 5.42 -1.64
12.49 5.52 -1.19
12.91 5.71 -0.74
14.04 6.21 -0.27
5.64 2.47 -1.65
6.55 2.87 -1.65
7.76 3.39 -1.65
9.45 4.14 -1.63
12.27 5.37 -1.64
12.53 5.48 -1.2
12.92 5.65 -0.74
14.05 6.15 -0.27
5.65 2.45 -1.65
6.55 2.84 -1.65
7.77 3.37 -1.65
9.46 4.1 -1.63
12.27 5.32 -1.64
12.58 5.45 -1.2
12.93 5.61 -0.74
14.06 6.1 -0.27
5.66 2.43 -1.65
6.55 2.81 -1.65
7.77 3.33 -1.64
9.47 4.06 -1.63
12.27 5.27 -1.64
12.64 5.42 -1.2
12.98 5.57 -0.74
14.06 6.03 -0.27
5.66 2.41 -1.65
6.57 2.79 -1.65
7.77 3.3 -1.64
9.48 4.03 -1.63
12.28 5.22 -1.64
12.68 5.39 -1.21
13.02 5.54 -0.74
14.06 5.98 -0.27
5.66 2.38 -1.65
6.58 2.77 -1.65
7.78 3.28 -1.64
9.48 4 -1.63
12.29 5.18 -1.64
12.73 5.36 -1.21
13.06 5.5 -0.74
14.07 5.93 -0.27
5.67 2.37 -1.65
6.58 2.75 -1.65
7.78 3.25 -1.64
9.49 3.96 -1.63
12.3 5.14 -1.64
12.82 5.35 -1.22
13.13 5.48 -0.75
14.09 5.88 -0.27
5.68 2.35 -1.65
6.58 2.72 -1.64
7.79 3.22 -1.64
9.5 3.92 -1.63
12.3 5.08 -1.63
12.95 5.35 -1.23
13.2 5.46 -0.75
14.11 5.83 -0.27
5.69 2.33 -1.65
6.58 2.7 -1.64
7.8 3.19 -1.64
9.5 3.89 -1.63
12.31 5.04 -1.63
13.09 5.36 -1.24
13.31 5.45 -0.75
14.12 5.78 -0.27
5.7 2.31 -1.65
6.6 2.67 -1.64
7.79 3.16 -1.63
9.51 3.85 -1.63
12.31 4.99 -1.63
13.2 5.35 -1.25
13.44 5.44 -0.76
14.14 5.73 -0.27
5.69 2.28 -1.64
6.61 2.65 -1.64
7.8 3.13 -1.63
9.52 3.82 -1.62
12.32 4.94 -1.63
13.48 5.41 -1.27
13.53 5.43 -0.76
14.19 5.69 -0.27
5.7 2.26 -1.64
6.61 2.62 -1.64
7.81 3.1 -1.63
9.52 3.78 -1.62
12.34 4.9 -1.63
13.54 5.37 -1.27
13.65 5.42 -0.77
14.27 5.66 -0.27
5.71 2.25 -1.65
6.6 2.6 -1.64
7.82 3.07 -1.63
9.52 3.74 -1.62
12.34 4.85 -1.63
13.69 5.38 -1.29
13.76 5.41 -0.77
14.42 5.67 -0.27
5.73 2.23 -1.65
6.62 2.57 -1.64
7.82 3.04 -1.63
9.53 3.7 -1.62
12.34 4.8 -1.63
13.84 5.38 -1.3
13.91 5.4 -0.78
5.73 2.2 -1.64
6.62 2.55 -1.64
7.82 3.01 -1.63
9.54 3.67 -1.62
12.34 4.75 -1.62
14.02 5.39 -1.31
14.04 5.4 -0.79
5.73 2.18 -1.64
6.63 2.52 -1.64
7.83 2.98 -1.63
9.53 3.63 -1.62
12.35 4.7 -1.62
14.19 5.4 -1.33
14.19 5.4 -0.8
5.74 2.16 -1.64
6.65 2.5 -1.64
7.83 2.95 -1.63
9.53 3.59 -1.61
12.36 4.66 -1.62
14.32 5.4 -1.34
14.34 5.4 -0.8
5.74 2.14 -1.64
6.63 2.47 -1.63
7.85 2.93 -1.63
9.55 3.56 -1.61
12.36 4.61 -1.62
14.49 5.41 -1.35
14.49 5.41 -0.81
5.76 2.13 -1.65
6.63 2.45 -1.63
7.85 2.9 -1.63
9.55 3.53 -1.61
12.36 4.56 -1.62
14.68 5.42 -1.37
14.69 5.42 -0.82
15.45 5.7 -0.29
5.77 2.1 -1.64
6.65 2.43 -1.63
7.84 2.86 -1.62
9.57 3.49 -1.61
12.37 4.51 -1.62
15.29 5.58 -1.42
14.87 5.43 -0.83
5.76 2.08 -1.64
6.66 2.4 -1.63
7.85 2.83 -1.62
9.57 3.45 -1.61
12.37 4.46 -1.61
15.33 5.54 -1.43
15.08 5.44 -0.84
5.77 2.06 -1.64
6.66 2.38 -1.63
7.86 2.81 -1.62
9.56 3.42 -1.61
12.37 4.42 -1.61
15.34 5.48 -1.43
15.28 5.46 -0.85
5.79 2.04 -1.64
6.65 2.35 -1.63
7.87 2.78 -1.62
9.57 3.38 -1.61
12.38 4.37 -1.61
15.47 5.47 -1.44
15.41 5.44 -0.86
5.79 2.02 -1.64
6.66 2.33 -1.63
7.87 2.75 -1.62
9.59 3.35 -1.61
12.36 4.32 -1.61
15.59 5.44 -1.44
15.58 5.44 -0.86
5.8 2 -1.64
6.67 2.3 -1.63
7.86 2.72 -1.62
9.59 3.31 -1.61
12.37 4.27 -1.61
15.81 5.46 -1.46
27.49 9.49 -1.52
5.8 1.98 -1.64
6.68 2.28 -1.63
7.87 2.69 -1.62
9.59 3.27 -1.6
12.38 4.23 -1.61
17.1 5.84 -1.58
27.6 9.42 -1.53
5.81 1.96 -1.64
6.69 2.26 -1.63
7.88 2.66 -1.62
9.58 3.23 -1.6
12.38 4.18 -1.6
17.1 5.77 -1.58
27.77 9.37 -1.54
5.82 1.94 -1.64
6.69 2.23 -1.63
7.89 2.64 -1.62
9.59 3.2 -1.6
12.38 4.13 -1.6
17.12 5.71 -1.58
28 9.35 -1.55
5.83 1.92 -1.64
6.69 2.21 -1.63
7.89 2.6 -1.62
9.59 3.16 -1.6
12.37 4.08 -1.6
17.13 5.65 -1.58
28.12 9.28 -1.55
5.84 1.9 -1.64
6.71 2.19 -1.63
7.89 2.57 -1.61
9.6 3.13 -1.6
12.36 4.03 -1.6
17.12 5.58 -1.58
28.17 9.19 -1.55
5.83 1.88 -1.64
6.71 2.16 -1.63
7.9 2.54 -1.61
9.6 3.09 -1.6
12.36 3.98 -1.59
17.11 5.51 -1.57
28.18 9.08 -1.55
5.84 1.86 -1.64
6.72 2.14 -1.63
7.9 2.52 -1.61
9.6 3.06 -1.6
12.37 3.94 -1.59
17.1 5.44 -1.57
28.26 9 -1.55
5.85 1.84 -1.64
6.72 2.11 -1.63
7.92 2.49 -1.61
9.6 3.02 -1.59
12.36 3.89 -1.59
17.11 5.38 -1.57
28.28 8.89 -1.55
5.86 1.82 -1.64
6.73 2.09 -1.63
7.91 2.46 -1.61
9.61 2.99 -1.59
12.35 3.84 -1.59
17.12 5.32 -1.57
28.19 8.76 -1.55
5.86 1.8 -1.64
6.74 2.07 -1.63
7.91 2.43 -1.61
9.61 2.95 -1.59
12.36 3.79 -1.59
17.08 5.24 -1.56
25.85 7.93 -1.42
5.86 1.78 -1.64
6.76 2.05 -1.63
7.92 2.4 -1.61
9.61 2.92 -1.59
12.36 3.75 -1.59
17.08 5.18 -1.56
25.88 7.85 -1.42
5.87 1.76 -1.64
110.81 33.18 2.02
6.76 2.02 -1.63
7.93 2.38 -1.61
9.61 2.88 -1.59
12.37 3.7 -1.59
17.07 5.11 -1.56
26.18 7.84 -1.43
5.88 1.74 -1.64
6.76 2 -1.63
7.95 2.35 -1.61
9.61 2.84 -1.59
12.36 3.65 -1.58
17.05 5.04 -1.56
26.54 7.85 -1.45
5.88 1.72 -1.64
6.77 1.98 -1.63
7.95 2.32 -1.61
9.62 2.81 -1.59
12.35 3.6 -1.58
17.08 4.99 -1.56
26.69 7.79 -1.46
5.9 1.7 -1.64
6.78 1.96 -1.63
7.94 2.29 -1.61
9.62 2.77 -1.59
12.35 3.56 -1.58
17.05 4.91 -1.55
26.83 7.73 -1.46
5.9 1.68 -1.64
32.67 9.3 0.59
6.79 1.93 -1.63
32.68 9.3 1.78
7.96 2.26 -1.61
32.72 9.31 2.98
9.62 2.74 -1.58
12.35 3.51 -1.58
17.05 4.85 -1.55
26.94 7.67 -1.47
32.74 9.32 -0.59
5.9 1.66 -1.64
6.8 1.91 -1.63
7.97 2.24 -1.61
9.62 2.7 -1.58
12.36 3.47 -1.58
17.01 4.78 -1.55
27.06 7.6 -1.47
5.91 1.64 -1.64
6.79 1.88 -1.63
7.98 2.21 -1.61
9.62 2.66 -1.58
12.35 3.42 -1.57
17.01 4.71 -1.54
5.92 1.62 -1.64
6.81 1.86 -1.63
7.99 2.18 -1.61
9.62 2.63 -1.58
12.33 3.37 -1.57
17.01 4.65 -1.54
27.35 7.47 -1.49
5.92 1.6 -1.64
6.82 1.84 -1.63
7.99 2.15 -1.61
9.63 2.6 -1.58
12.34 3.33 -1.57
17 4.58 -1.54
27.35 7.37 -1.48
5.92 1.57 -1.64
111.55 29.64 2.01
6.82 1.81 -1.63
7.99 2.12 -1.61
9.64 2.56 -1.58
12.34 3.28 -1.57
16.99 4.51 -1.54
27.35 7.27 -1.48
5.93 1.55 -1.64
6.83 1.79 -1.63
8.01 2.1 -1.61
9.63 2.52 -1.58
12.35 3.24 -1.57
17 4.45 -1.54
27.28 7.15 -1.48
5.94 1.53 -1.64
6.83 1.76 -1.63
8.02 2.07 -1.61
9.64 2.49 -1.58
12.35 3.19 -1.57
16.98 4.38 -1.53
27.23 7.03 -1.47
5.95 1.51 -1.65
6.83 1.74 -1.63
8.02 2.04 -1.61
9.65 2.46 -1.58
12.34 3.14 -1.56
16.98 4.32 -1.53
27.21 6.93 -1.47
5.95 1.49 -1.65
6.84 1.72 -1.63
8.02 2.01 -1.61
9.66 2.42 -1.58
12.34 3.09 -1.56
16.95 4.25 -1.53
27.17 6.82 -1.47
5.95 1.47 -1.64
6.86 1.7 -1.63
8.03 1.99 -1.61
9.66 2.39 -1.58
12.34 3.05 -1.56
16.92 4.18 -1.53
27.07 6.69 -1.46
5.95 1.45 -1.64
6.85 1.67 -1.63
8.05 1.96 -1.61
9.67 2.35 -1.58
12.35 3.01 -1.56
16.93 4.12 -1.52
27.09 6.59 -1.46
5.97 1.43 -1.64
6.85 1.64 -1.63
8.05 1.93 -1.61
9.68 2.32 -1.58
12.33 2.96 -1.56
16.92 4.06 -1.52
27.07 6.49 -1.46
5.97 1.41 -1.65
6.86 1.62 -1.63
8.05 1.9 -1.61
9.69 2.29 -1.58
12.33 2.91 -1.56
16.91 4 -1.52
26.97 6.38 -1.45
5.98 1.39 -1.65
6.87 1.6 -1.63
8.05 1.87 -1.61
9.7 2.26 -1.58
12.32 2.87 -1.55
16.89 3.93 -1.52
26.97 6.28 -1.45
5.98 1.37 -1.64
6.89 1.58 -1.63
8.07 1.85 -1.61
9.71 2.22 -1.58
12.33 2.82 -1.55
16.87 3.86 -1.51
27.01 6.18 -1.45
5.98 1.35 -1.64
44.09 9.93 0.79
6.89 1.55 -1.63
44.15 9.94 2.37
8.08 1.82 -1.61
9.7 2.19 -1.58
12.32 2.78 -1.55
16.86 3.8 -1.51
26.89 6.06 -1.44
5.99 1.33 -1.64
6.88 1.52 -1.63
8.09 1.79 -1.61
9.72 2.15 -1.58
12.32 2.73 -1.55
16.85 3.73 -1.51
26.87 5.95 -1.44
6 1.31 -1.65
6.89 1.5 -1.63
8.09 1.76 -1.61
9.73 2.12 -1.58
12.31 2.68 -1.55
16.86 3.67 -1.51
26.86 5.85 -1.44
6 1.29 -1.64
6.9 1.48 -1.63
8.09 1.73 -1.61
9.73 2.09 -1.58
12.32 2.64 -1.55
16.83 3.61 -1.51
26.77 5.74 -1.43
6 1.27 -1.64
6.92 1.46 -1.63
8.1 1.71 -1.61
9.74 2.05 -1.58
12.33 2.6 -1.55
16.8 3.54 -1.5
26.7 5.63 -1.43
6.01 1.24 -1.64
6.91 1.43 -1.63
8.1 1.68 -1.61
9.74 2.02 -1.58
12.34 2.55 -1.55
16.81 3.48 -1.5
26.65 5.51 -1.43
6.02 1.23 -1.65
6.91 1.41 -1.63
8.12 1.65 -1.61
9.75 1.98 -1.58
12.34 2.51 -1.55
16.8 3.42 -1.5
26.63 5.42 -1.42
6.02 1.2 -1.65
6.92 1.38 -1.63
8.12 1.62 -1.61
9.76 1.95 -1.58
12.34 2.47 -1.55
16.78 3.36 -1.5
26.63 5.33 -1.42
6.02 1.18 -1.65
6.93 1.36 -1.63
8.11 1.59 -1.61
9.77 1.92 -1.58
12.35 2.43 -1.55
16.76 3.29 -1.49
26.56 5.22 -1.42
6.02 1.16 -1.64
6.94 1.34 -1.63
8.12 1.56 -1.61
9.78 1.88 -1.58
12.37 2.38 -1.55
16.74 3.22 -1.49
26.5 5.1 -1.41
6.03 1.14 -1.64
6.94 1.31 -1.63
8.14 1.54 -1.61
9.78 1.85 -1.58
12.39 2.34 -1.55
16.74 3.17 -1.49
26.47 5.01 -1.41
6.03 1.12 -1.64
6.94 1.29 -1.63
8.14 1.51 -1.61
9.78 1.81 -1.58
12.38 2.3 -1.55
16.73 3.1 -1.49
26.45 4.9 -1.41
6.04 1.1 -1.65
6.95 1.26 -1.63
8.15 1.48 -1.61
9.8 1.78 -1.58
12.39 2.25 -1.55
16.73 3.04 -1.49
26.45 4.81 -1.41
6.05 1.08 -1.65
6.95 1.24 -1.63
8.15 1.45 -1.61
9.81 1.75 -1.58
12.4 2.21 -1.55
16.71 2.98 -1.48
26.31 4.69 -1.4
6.04 1.06 -1.64
6.96 1.22 -1.63
8.15 1.42 -1.61
9.81 1.71 -1.58
12.41 2.17 -1.55
16.7 2.92 -1.48
26.24 4.58 -1.4
6.05 1.03 -1.64
6.96 1.19 -1.63
8.16 1.39 -1.61
9.81 1.68 -1.58
12.42 2.12 -1.55
16.69 2.85 -1.48
26.26 4.49 -1.4
6.06 1.01 -1.65
6.96 1.17 -1.63
8.17 1.37 -1.61
9.82 1.64 -1.58
12.43 2.08 -1.55
16.71 2.8 -1.48
26.17 4.38 -1.39
6.06 0.99 -1.65
6.97 1.14 -1.63
8.17 1.34 -1.61
9.83 1.61 -1.58
12.43 2.04 -1.55
16.7 2.74 -1.48
26.19 4.29 -1.39
6.06 0.97 -1.65
6.98 1.12 -1.63
8.18 1.31 -1.61
9.83 1.58 -1.58
12.43 1.99 -1.55
16.72 2.68 -1.48
26.19 4.2 -1.39
6.06 0.95 -1.64
6.98 1.09 -1.63
8.18 1.28 -1.61
9.84 1.54 -1.58
12.44 1.95 -1.55
16.72 2.62 -1.48
26.04 4.08 -1.38
6.06 0.93 -1.64
6.99 1.07 -1.63
8.18 1.25 -1.61
9.83 1.51 -1.58
12.46 1.91 -1.55
16.75 2.57 -1.48
26.04 3.99 -1.38
6.07 0.91 -1.65
6.98 1.05 -1.63
8.19 1.23 -1.61
9.85 1.48 -1.58
12.47 1.87 -1.55
16.75 2.51 -1.48
25.93 3.89 -1.37
6.09 0.89 -1.65
6.99 1.02 -1.63
8.2 1.2 -1.61
9.86 1.44 -1.58
12.47 1.83 -1.55
16.76 2.45 -1.48
25.85 3.79 -1.37
6.09 0.87 -1.65
6.99 1 -1.63
8.19 1.17 -1.61
9.86 1.41 -1.58
12.48 1.78 -1.55
16.78 2.39 -1.48
25.85 3.68 -1.37
6.07 0.84 -1.64
7.01 0.97 -1.63
8.2 1.14 -1.61
9.87 1.37 -1.58
12.48 1.74 -1.55
16.78 2.33 -1.48
25.78 3.59 -1.36
6.08 0.82 -1.64
7.01 0.95 -1.63
8.21 1.11 -1.61
9.86 1.34 -1.58
12.49 1.69 -1.55
16.79 2.27 -1.48
25.72 3.48 -1.36
6.09 0.8 -1.65
7 0.92 -1.63
8.22 1.09 -1.61
9.87 1.3 -1.58
12.49 1.65 -1.55
16.8 2.22 -1.48
25.73 3.4 -1.36
6.09 0.78 -1.64
7.01 0.9 -1.63
8.22 1.06 -1.61
9.88 1.27 -1.58
12.49 1.6 -1.55
16.82 2.16 -1.48
25.71 3.3 -1.36
6.09 0.76 -1.65
7.02 0.88 -1.63
8.22 1.03 -1.61
9.89 1.24 -1.58
12.51 1.56 -1.55
16.84 2.11 -1.48
25.72 3.22 -1.36
6.09 0.74 -1.64
7.03 0.85 -1.63
8.23 1 -1.61
9.9 1.2 -1.58
12.52 1.52 -1.55
16.82 2.04 -1.48
25.79 3.13 -1.36
6.1 0.72 -1.65
7.02 0.83 -1.63
8.23 0.97 -1.61
9.9 1.17 -1.58
12.53 1.48 -1.55
16.83 1.98 -1.48
25.81 3.04 -1.36
6.1 0.7 -1.65
7.01 0.8 -1.63
8.23 0.94 -1.61
9.9 1.13 -1.58
12.53 1.43 -1.55
16.85 1.93 -1.48
25.84 2.95 -1.36
6.11 0.68 -1.65
7.03 0.78 -1.63
8.24 0.91 -1.61
9.91 1.1 -1.58
12.53 1.39 -1.55
16.87 1.87 -1.49
25.87 2.87 -1.36
6.11 0.65 -1.65
7.03 0.75 -1.63
8.24 0.88 -1.61
9.91 1.06 -1.58
12.54 1.34 -1.55
16.89 1.81 -1.49
25.93 2.78 -1.37
6.1 0.63 -1.64
7.03 0.73 -1.63
8.24 0.86 -1.61
9.91 1.03 -1.58
12.54 1.3 -1.55
16.88 1.75 -1.48
25.97 2.7 -1.37
6.11 0.61 -1.65
7.04 0.71 -1.63
8.25 0.83 -1.61
9.91 0.99 -1.58
12.56 1.26 -1.55
16.88 1.69 -1.48
25.95 2.6 -1.37
6.12 0.59 -1.65
7.03 0.68 -1.63
8.25 0.8 -1.61
9.92 0.96 -1.58
12.56 1.22 -1.55
16.9 1.63 -1.49
25.96 2.51 -1.37
6.12 0.57 -1.65
7.04 0.66 -1.63
8.26 0.77 -1.61
9.92 0.92 -1.58
12.55 1.17 -1.55
16.9 1.57 -1.49
26.03 2.42 -1.37
6.12 0.55 -1.65
7.04 0.63 -1.63
8.25 0.74 -1.61
9.93 0.89 -1.58
12.56 1.13 -1.55
16.92 1.52 -1.49
26.09 2.34 -1.37
6.11 0.53 -1.64
7.05 0.61 -1.63
8.26 0.71 -1.61
9.93 0.85 -1.58
12.57 1.08 -1.55
16.9 1.45 -1.48
26.18 2.25 -1.38
6.12 0.51 -1.65
7.05 0.58 -1.63
8.26 0.68 -1.61
9.93 0.82 -1.58
12.58 1.04 -1.55
16.92 1.4 -1.49
26.2 2.17 -1.38
6.13 0.49 -1.65
7.04 0.56 -1.63
8.27 0.66 -1.61
9.94 0.79 -1.58
12.59 1 -1.55
16.93 1.34 -1.49
26.21 2.08 -1.38
6.13 0.47 -1.65
7.04 0.53 -1.63
8.27 0.63 -1.61
9.94 0.76 -1.58
12.58 0.96 -1.55
16.94 1.29 -1.49
26.22 1.99 -1.38
6.14 0.44 -1.65
7.05 0.51 -1.63
8.26 0.6 -1.61
9.95 0.72 -1.58
12.58 0.91 -1.55
16.94 1.23 -1.49
26.26 1.9 -1.38
6.12 0.42 -1.64
7.06 0.49 -1.63
8.27 0.57 -1.61
9.95 0.69 -1.58
12.6 0.87 -1.55
16.93 1.17 -1.48
26.29 1.81 -1.38
6.12 0.4 -1.64
7.06 0.46 -1.63
8.27 0.54 -1.61
9.94 0.65 -1.58
12.6 0.82 -1.55
16.94 1.11 -1.49
26.33 1.72 -1.38
6.14 0.38 -1.65
7.04 0.44 -1.63
8.28 0.51 -1.61
9.95 0.62 -1.58
12.61 0.78 -1.55
16.95 1.05 -1.49
26.36 1.63 -1.38
6.14 0.36 -1.65
7.05 0.41 -1.63
8.28 0.48 -1.61
9.95 0.58 -1.58
12.6 0.73 -1.55
16.96 0.99 -1.49
26.38 1.54 -1.39
6.13 0.34 -1.65
7.05 0.39 -1.63
8.27 0.45 -1.61
9.96 0.55 -1.58
12.6 0.69 -1.55
16.97 0.93 -1.49
26.42 1.45 -1.39
6.13 0.31 -1.64
7.06 0.36 -1.63
8.28 0.43 -1.61
9.96 0.51 -1.58
12.61 0.65 -1.55
16.96 0.87 -1.49
26.45 1.36 -1.39
6.13 0.29 -1.64
7.07 0.34 -1.63
8.28 0.4 -1.61
9.96 0.48 -1.58
12.62 0.61 -1.55
16.97 0.81 -1.49
26.49 1.27 -1.39
6.14 0.27 -1.65
7.06 0.31 -1.63
8.29 0.37 -1.61
9.96 0.44 -1.58
12.62 0.56 -1.55
16.97 0.76 -1.49
26.48 1.18 -1.39
6.14 0.25 -1.65
7.06 0.29 -1.63
8.3 0.34 -1.61
9.97 0.41 -1.58
12.62 0.52 -1.55
16.98 0.7 -1.49
26.53 1.09 -1.39
6.14 0.23 -1.65
7.07 0.27 -1.63
8.29 0.31 -1.61
9.97 0.37 -1.58
12.62 0.47 -1.55
16.98 0.64 -1.49
26.55 1 -1.39
6.14 0.21 -1.65
7.08 0.24 -1.64
8.28 0.28 -1.61
9.97 0.34 -1.58
12.63 0.43 -1.55
16.97 0.58 -1.49
26.59 0.91 -1.39
6.14 0.19 -1.65
100.3 3.06 1.75
7.07 0.22 -1.63
8.29 0.25 -1.61
9.97 0.3 -1.58
12.63 0.39 -1.55
16.98 0.52 -1.49
26.63 0.81 -1.4
6.14 0.17 -1.65
7.06 0.19 -1.63
8.3 0.22 -1.61
9.97 0.27 -1.58
12.63 0.34 -1.55
16.98 0.46 -1.49
26.66 0.72 -1.4
6.15 0.14 -1.65
83.79 1.97 1.46
7.06 0.17 -1.63
8.29 0.2 -1.61
9.97 0.24 -1.58
12.63 0.3 -1.55
16.99 0.4 -1.49
26.66 0.63 -1.4
6.15 0.12 -1.65
83.63 1.68 1.46
7.07 0.14 -1.63
8.29 0.17 -1.61
9.97 0.2 -1.58
12.63 0.25 -1.55
16.98 0.34 -1.49
26.67 0.54 -1.4
6.13 0.1 -1.64
7.08 0.12 -1.63
8.28 0.14 -1.61
9.97 0.17 -1.58
12.63 0.21 -1.55
16.99 0.28 -1.49
26.73 0.44 -1.4
