# .PCD v0.7 - Point Cloud Data file format
VERSION 0.7
FIELDS x y z
SIZE 4 4 4
TYPE F F F
COUNT 1 1 1
WIDTH 2826
HEIGHT 1
VIEWPOINT 0 0 0 1 0 0 0
POINTS 2826
DATA ascii
-10.08 13.62 1.48
-8.03 10.86 -2.14
-9.38 12.67 1.94
-8.3 11.21 -1.71
-10.68 14.43 2.84
-8.29 11.21 -1.22
-10.6 14.32 3.46
-8.41 11.36 -0.74
-9.77 13.2 3.79
-8.59 11.6 -0.25
-10.65 14.4 4.8
-8.38 11.4 0.25
-10.01 13.62 0.89
-7 9.53 -2.3
-10.06 13.69 1.49
-8 10.88 -2.14
-9.33 12.69 1.93
-8.32 11.32 -1.73
-9.5 12.92 2.54
-8.29 11.29 -1.23
-10.69 14.54 3.51
-8.33 11.34 -0.74
-9.73 13.25 3.8
-8.68 11.82 -0.26
-10.63 14.47 4.81
-4.11 5.63 -1.87
-8.72 11.95 0.26
-9.79 13.42 0.87
-6.96 9.54 -2.3
-8.92 12.22 1.32
-8.15 11.18 -2.19
-9.35 12.81 1.95
-8.18 11.21 -1.7
-9.45 12.96 2.54
-8.18 11.22 -1.21
-9.87 13.53 3.26
-8.35 11.44 -0.74
-9.7 13.3 3.8
-8.72 11.96 -0.26
-10.56 14.48 4.8
-8.66 11.95 0.26
-9.76 13.48 0.87
-6.94 9.58 -2.3
-8.87 12.24 1.32
-8.13 11.23 -2.2
-9.29 12.82 1.94
-8.2 11.32 -1.72
-9.41 12.99 2.54
-9.83 13.57 3.26
-8.28 11.43 -0.74
-5.27 7.28 2.07
-8.54 11.79 -0.25
-9.54 13.17 4.36
-8.68 12.08 0.26
-9.69 13.47 0.87
-9.89 13.75 1.48
-8.07 11.22 -2.19
-9.26 12.88 1.95
-8.08 11.23 -1.7
-10.14 14.1 2.75
-8.07 11.22 -1.21
-9.75 13.55 3.25
-9.92 13.79 -0.89
-5.26 7.31 2.08
-8.13 11.31 -0.24
-9.49 13.2 4.36
-8.86 12.42 0.27
-9.7 13.59 0.88
-8.69 12.18 1.31
-8 11.21 -2.18
-9.26 12.98 1.96
-8.02 11.24 -1.7
-10.08 14.12 2.75
-8.01 11.23 -1.21
-9.71 13.61 3.25
-8.15 11.42 -0.74
-5.26 7.37 2.09
-8.32 11.66 -0.25
-9.41 13.18 4.34
-8.56 12.09 0.26
-9.6 13.55 0.87
-8.8 12.42 1.33
-7.95 11.22 -2.18
-9.21 13.01 1.96
-7.96 11.23 -1.69
-9.74 13.75 2.67
-7.96 11.23 -1.2
-8.89 12.54 2.99
-9.65 13.63 -0.88
-5.22 7.36 2.08
-8.12 11.46 -0.25
-9.38 13.25 4.35
-8.42 11.98 0.26
-9.5 13.51 0.87
-9.42 13.4 1.43
-7.89 11.22 -2.17
-9.18 13.06 1.96
-7.91 11.25 -1.69
-9.56 13.59 2.63
-7.91 11.25 -1.2
-8.89 12.64 3
-9.57 13.61 -0.87
-5.19 7.38 2.08
-8.16 11.6 -0.25
-6.31 8.97 2.94
-8.03 11.51 0.25
-9.31 13.34 0.85
-8.78 12.58 1.34
-7.82 11.2 -2.16
-9.11 13.06 1.96
-7.83 11.22 -1.68
-9.23 13.22 2.55
-7.84 11.24 -1.2
-8.81 12.62 2.99
-8.05 11.54 -0.74
-5.16 7.39 2.08
-8.46 12.12 -0.26
-5.71 8.18 2.67
-7.93 11.44 0.24
-7.9 11.4 0.73
-8.71 12.56 1.34
-7.78 11.22 -2.16
-9.08 13.1 1.96
-7.84 11.31 -1.69
-9.28 13.4 2.58
-7.81 11.26 -1.2
-8.75 12.63 2.99
-7.92 11.43 -0.73
-5.1 7.36 2.07
-8.97 12.94 4.22
-7.89 11.47 0.24
-7.85 11.41 0.73
-8.7 12.65 1.34
-7.71 11.21 -2.15
-8.98 13.06 1.95
-7.73 11.23 -1.67
-9.29 13.5 2.6
-7.73 11.24 -1.19
-8.7 12.65 2.98
-7.93 11.54 -0.73
-5.11 7.43 2.08
-8.41 12.23 -0.26
-8.85 12.87 4.19
-9.45 13.84 0.29
-7.8 11.42 0.72
-8.71 12.75 1.35
-7.68 11.25 -2.16
-8.82 12.91 1.92
-7.69 11.26 -1.67
-8.99 13.17 2.53
-10.22 14.97 -1.59
-8.63 12.64 2.98
-7.79 11.41 -0.72
-5.09 7.46 2.08
-7.77 11.39 -0.24
-9.05 13.25 4.3
-9.13 13.47 0.28
-9.06 13.38 0.85
-8.59 12.68 1.34
-7.61 11.23 -2.15
-8.62 12.72 1.89
-7.62 11.24 -1.67
-8.81 13.01 2.49
-7.63 11.26 -1.19
-8.59 12.68 2.98
-9.35 13.8 -0.87
-4.64 6.85 1.91
-9.24 13.63 -0.29
-5.15 7.6 2.46
-9.13 13.57 0.29
-8.95 13.31 0.84
-8.52 12.66 1.34
-7.56 11.25 -2.15
-8.56 12.72 1.88
-7.58 11.28 -1.67
-8.93 13.28 2.53
-10.9 16.21 -1.71
-8.56 12.73 2.98
-9.34 13.9 -0.88
-4.61 6.85 1.91
-9.12 13.56 -0.29
-5.67 8.43 2.72
-9 13.49 0.28
-10.4 15.58 0.98
-8.49 12.72 1.34
-7.49 11.23 -2.14
-8.54 12.8 1.89
-7.51 11.25 -1.66
-8.86 13.28 2.53
-7.51 11.26 -1.18
-8.59 12.88 3.01
-8.33 12.48 -0.79
-8.95 13.4 3.72
-9.07 13.59 -0.29
-5.41 8.1 2.61
-7.7 11.62 0.24
-8.86 13.36 0.84
-8.39 12.65 1.33
-7.45 11.24 -2.14
-8.59 12.96 1.91
-7.48 11.28 -1.66
-8.77 13.24 2.52
-10.81 16.3 -1.71
-8.8 13.27 3.09
-7.61 11.48 -0.72
-8.82 13.31 3.69
-7.79 11.75 -0.25
-5.36 8.08 2.6
-8.84 13.43 0.28
-8.79 13.36 0.84
-8.35 12.69 1.33
-7.39 11.23 -2.13
-8.43 12.81 1.88
-7.41 11.26 -1.65
-8.7 13.23 2.51
-7.41 11.26 -1.18
-8.85 13.45 3.13
-7.58 11.52 -0.72
-8.87 13.48 3.73
-7.74 11.77 -0.25
-5.3 8.06 2.59
-8.74 13.39 0.28
-7.5 11.5 0.72
-8.33 12.77 1.33
-7.34 11.25 -2.13
-8.45 12.95 1.9
-7.36 11.29 -1.65
-8.7 13.33 2.52
-7.43 11.39 -1.19
-8.7 13.34 3.1
-8.11 12.43 -0.78
-8.45 12.95 3.57
-8.02 12.29 -0.26
-5.27 8.08 2.58
-8.67 13.39 0.28
-8.68 13.41 0.84
-8.24 12.72 1.33
-7.28 11.24 -2.12
-8.41 12.99 1.9
-7.29 11.26 -1.65
-8.69 13.42 2.53
-7.3 11.27 -1.17
-8.65 13.36 3.09
-10.46 16.15 -1.01
-4.85 7.5 2.06
-10.19 15.74 -0.33
-5.24 8.09 2.58
-8.4 13.07 0.27
-7.25 11.28 0.7
-8.25 12.84 1.34
-7.26 11.29 -2.13
-8.39 13.04 1.9
-8.6 13.38 2.52
-7.4 11.51 -1.2
-8.61 13.39 3.09
-7.41 11.52 -0.72
-4.84 7.53 2.07
-10.24 15.92 -0.33
-7.81 12.23 0.25
-7.26 11.38 0.71
-8.19 12.84 1.33
-7.17 11.24 -2.11
-8.4 13.16 1.92
-7.19 11.28 -1.64
-8.69 13.61 2.56
-7.19 11.27 -1.17
-8.56 13.41 3.09
-7.99 12.53 -0.78
-8.32 13.04 3.57
-7.38 11.56 -0.24
-4.8 7.52 2.39
-7.68 12.13 0.25
-8.5 13.43 0.83
-8.08 12.76 1.32
-7.14 11.28 -2.11
-8.38 13.24 1.92
-7.15 11.3 -1.64
-8.61 13.6 2.55
-10.46 16.52 -1.71
-8.54 13.49 3.1
-10.28 16.24 -1.01
-8.32 13.15 3.59
-9.79 15.47 -0.32
-8.03 12.69 4.02
-7.52 11.97 0.25
-7.48 11.91 0.74
-7.92 12.6 1.3
-7.09 11.28 -2.11
-8.35 13.29 1.93
-7.08 11.27 -1.63
-8.59 13.67 2.56
-7.09 11.29 -1.17
-8.51 13.54 3.11
-10.03 15.97 -0.99
-8.15 12.98 3.54
-7.61 12.12 -0.25
-7.96 12.67 4.01
-7.58 12.15 0.25
-7.93 12.71 1.31
-7.05 11.31 -2.11
-8.29 13.29 1.92
-7.05 11.3 -1.64
-8.64 13.86 2.59
-7.22 11.57 -1.19
-8.52 13.66 3.13
-8.13 13.03 3.55
-7.58 12.15 -0.25
-4.37 7.01 2.21
-7.53 12.18 0.25
-7.47 12.07 0.74
-7.86 12.7 1.31
-6.97 11.26 -2.1
-8.26 13.36 1.93
-6.98 11.28 -1.63
-8.54 13.8 2.57
-6.99 11.29 -1.16
-8.51 13.75 3.14
-7.45 12.04 -0.74
-8.09 13.07 3.55
-8.36 13.51 4.26
-7.47 12.18 0.25
-7.43 12.12 0.74
-6.91 11.27 -2.09
-8.24 13.43 1.94
-6.94 11.31 -1.63
-8.47 13.81 2.57
-7.17 11.69 -1.2
-8.48 13.82 3.15
-8.76 14.28 -0.88
-4.65 7.58 2.05
-7.5 12.22 -0.25
-8.19 13.35 4.2
-7.39 12.15 0.25
-7.44 12.23 0.75
-6.18 10.16 -2.31
-7.4 12.15 1.24
-6.85 11.25 -2.09
-8.19 13.45 1.93
-6.88 11.3 -1.62
-8.41 13.82 2.56
-6.87 11.29 -1.16
-8.29 13.63 3.1
-7.26 11.92 -0.73
-7.96 13.08 3.53
-8.71 14.31 -0.29
-4.97 8.17 2.56
-7.25 12 0.24
-7.33 12.14 0.74
-6.12 10.14 -2.3
-7.99 13.23 1.35
-6.81 11.28 -2.09
-8.14 13.48 1.93
-6.83 11.32 -1.62
-8.35 13.83 2.56
-6.89 11.41 -1.17
-8.25 13.66 3.1
-8.68 14.38 -0.88
-7.87 13.03 3.51
-7.1 11.76 -0.24
-4.75 7.86 2.46
-7.33 12.23 0.25
-7.27 12.13 0.74
-6.07 10.13 -2.3
-7.95 13.27 1.35
-6.76 11.28 -2.08
-8.09 13.51 1.93
-6.77 11.3 -1.62
-8.19 13.68 2.53
-6.78 11.31 -1.15
-8.28 13.82 3.13
-9.56 15.95 -0.97
-7.86 13.12 3.53
-7.07 11.8 -0.24
-4.81 8.03 2.51
-7.26 12.21 0.25
-7.77 13.06 0.8
-6.04 10.15 -2.3
-7.91 13.29 1.35
-6.71 11.28 -2.08
-8.03 13.5 1.93
-6.74 11.33 -1.62
-8.16 13.72 2.53
-6.82 11.47 -1.17
-8.1 13.61 3.08
-7.13 11.98 -0.73
-4.48 7.52 2.02
-7.03 11.82 -0.24
-8.14 13.69 4.27
-8.68 14.71 0.3
-7.72 13.08 0.8
-6.01 10.18 -2.3
-7.86 13.33 1.35
-6.65 11.27 -2.07
-7.95 13.46 1.92
-6.67 11.3 -1.61
-8.09 13.72 2.52
-6.67 11.3 -1.15
-7.98 13.52 3.05
-9.37 15.89 -0.97
-4.45 7.54 2.02
-7 11.85 -0.24
-8.04 13.62 4.24
-8.45 14.43 0.29
-7.23 12.36 0.75
-5.98 10.21 -2.3
-7.79 13.31 1.35
-6.61 11.3 -2.07
-7.88 13.47 1.92
-6.62 11.32 -1.61
-7.97 13.62 2.5
-6.63 11.33 -1.15
-8 13.67 3.08
-7.18 12.27 -0.75
-4.42 7.56 2.02
-6.8 11.62 -0.24
-7.84 13.4 4.16
-8.4 14.47 0.29
-6.67 11.48 0.7
-5.94 10.23 -2.3
-7.76 13.37 1.35
-6.55 11.29 -2.07
-7.82 13.47 1.91
-6.56 11.3 -1.6
-7.77 13.38 2.45
-6.57 11.32 -1.15
-7.76 13.38 3.01
-9.31 16.04 -0.97
-4.42 7.61 2.03
-6.78 11.67 -0.24
-4.54 7.83 2.43
-8.3 14.41 0.29
-7.91 13.73 0.83
-5.9 10.23 -2.3
-7.64 13.25 1.34
-6.51 11.29 -2.06
-7.77 13.49 1.91
-6.53 11.32 -1.6
-7.79 13.52 2.47
-6.53 11.33 -1.14
-7.52 13.06 2.93
-9.25 16.05 -0.97
-7.98 13.84 3.69
-6.78 11.76 -0.24
-7.74 13.44 4.16
-6.57 11.5 0.23
-6.62 11.58 0.7
-5.86 10.26 -2.3
-7.52 13.16 1.33
-4.28 7.48 -1.36
-7.67 13.43 1.9
-6.51 11.39 -1.61
-7.72 13.5 2.46
-6.46 11.31 -1.14
-7.37 12.9 2.89
-9.19 16.09 -0.97
-7.26 12.7 3.38
-8.34 14.6 -0.29
-7.68 13.44 4.15
-8.23 14.51 0.29
-6.66 11.75 0.71
-4.22 7.45 -1.66
-7.52 13.25 1.33
-4.22 7.44 -1.35
-7.6 13.41 1.89
-6.42 11.32 -1.6
-7.68 13.54 2.46
-4.27 7.53 -0.76
-7.31 12.88 2.88
-7.84 13.82 -0.83
-7.2 12.69 3.37
-8.37 14.75 -0.3
-4.16 7.34 2.26
-8.17 14.52 0.29
-4.21 7.48 0.45
-4.18 7.43 -1.66
-7.75 13.78 1.38
-4.17 7.42 -1.35
-7.51 13.36 1.88
-4.22 7.5 -1.06
-7.59 13.5 2.45
-4.22 7.5 -0.75
-7.27 12.93 2.88
-4.24 7.53 -0.45
-4.23 7.52 -0.15
-4.13 7.34 2.26
-4.2 7.54 0.15
-4.16 7.46 0.45
-4.15 7.44 -1.66
-7.73 13.87 1.39
-4.14 7.43 -1.35
-7.58 13.59 1.91
-4.17 7.47 -1.05
-7.87 14.12 2.56
-4.17 7.48 -0.75
-7.3 13.1 2.92
-4.18 7.49 -0.45
-7.11 12.76 3.37
-4.17 7.48 -0.15
-4.11 7.36 2.26
-4.14 7.49 0.15
-4.1 7.42 0.44
-4.11 7.44 -1.65
-4.11 7.44 0.74
-4.12 7.45 -1.35
-7.4 13.39 1.88
-4.13 7.47 -1.05
-7.87 14.23 2.58
-4.13 7.47 -0.75
-4.17 7.53 1.67
-4.14 7.48 -0.45
-7.83 14.16 3.73
-4.12 7.45 -0.15
-4.08 7.38 2.26
-4.09 7.46 0.15
-4.07 7.42 0.44
-4.09 7.46 -1.65
-4.07 7.42 0.74
-4.1 7.46 -1.35
-4.08 7.44 1.04
-4.11 7.48 -1.05
-4.11 7.49 1.35
-4.1 7.48 -0.75
-4.11 7.49 1.66
-4.1 7.47 -0.45
-4.09 7.45 1.96
-4.09 7.45 -0.15
-4.06 7.4 2.26
-4.06 7.46 0.15
-4.05 7.45 0.44
-4.07 7.48 -1.66
-4.05 7.43 0.74
-4.07 7.49 -1.35
-4.05 7.44 1.04
-4.08 7.5 -1.05
-4.07 7.48 1.35
-4.08 7.49 -0.75
-4.06 7.46 1.65
-4.07 7.47 -0.45
-4.06 7.46 1.96
-4.07 7.48 -0.15
-4.03 7.47 0.15
-4.03 7.46 0.44
-4.06 7.52 -1.66
-4.02 7.44 0.74
-4.05 7.51 -1.35
-4.02 7.45 1.04
-4.05 7.51 -1.05
-4.04 7.49 1.35
-4.06 7.51 -0.75
-4.03 7.47 1.65
-4.04 7.48 -0.45
-4.03 7.46 1.96
-4.04 7.49 -0.15
-4.05 7.51 2.29
-4.01 7.49 0.15
-4 7.48 0.44
-4.04 7.56 -1.67
-3.99 7.46 0.74
-4.04 7.55 -1.36
-3.99 7.46 1.04
-4.03 7.53 -1.05
-4 7.48 1.34
-4.03 7.54 -0.75
-4.01 7.48 1.65
-4.02 7.51 -0.45
-4.01 7.49 1.96
-4.01 7.49 -0.15
-4.01 7.5 2.28
-3.99 7.52 0.15
-3.98 7.5 0.44
-4.04 7.61 -1.67
-3.97 7.48 0.74
-4.02 7.58 -1.36
-3.96 7.46 1.04
-4.02 7.56 -1.05
-3.97 7.49 1.34
-4.01 7.56 -0.75
-3.97 7.48 1.65
-4 7.53 -0.45
-3.99 7.51 1.96
-3.98 7.51 -0.15
-3.99 7.51 2.28
-3.97 7.55 0.15
-3.96 7.53 0.45
-5.49 10.43 -2.29
-3.94 7.49 0.74
-4.01 7.61 -1.36
-3.94 7.49 1.04
-4 7.61 -1.06
-3.95 7.5 1.34
-3.99 7.59 -0.75
-3.94 7.49 1.64
-3.99 7.59 -0.45
-3.96 7.53 1.96
-3.97 7.55 -0.15
-3.96 7.53 2.28
-3.98 7.63 0.15
-3.95 7.57 0.45
-5.46 10.46 -2.29
-3.94 7.55 0.75
-3.93 7.53 1.04
-5.95 11.41 -1.58
-3.93 7.53 1.34
-3.91 7.49 1.64
-6.3 12.07 -0.71
-3.94 7.55 1.97
-6.16 11.8 -0.23
-3.93 7.54 2.28
-6.08 11.75 0.23
-5.43 10.49 -2.3
-5.86 11.33 -2.02
-3.93 7.6 1.05
-5.87 11.35 -1.57
-3.91 7.56 1.35
-7.18 13.88 -1.37
-3.88 7.5 1.64
-6.13 11.84 -0.7
-3.91 7.56 1.97
-6.15 11.89 -0.23
-3.92 7.57 2.28
-6.19 12.06 0.71
-5.39 10.51 -2.3
-13.39 26.1 2.57
-5.83 11.37 -2.02
-3.94 7.67 1.06
-7.12 13.89 -1.92
-3.9 7.61 1.35
-5.88 11.46 -1.13
-3.88 7.55 1.65
-6.13 11.94 -0.7
-3.88 7.57 1.96
-5.97 11.64 -0.23
-3.9 7.61 2.29
-7.15 14.06 0.28
-6.17 12.13 0.71
-5.35 10.52 -2.29
-13.27 26.1 2.56
-5.76 11.33 -2.01
-6.76 13.3 1.83
-5.78 11.36 -1.56
-5.79 11.39 -1.12
-3.87 7.61 1.66
-6.06 11.92 -0.7
-3.87 7.62 1.97
-5.98 11.76 -0.23
-4.74 9.32 2.8
-5.98 11.86 0.23
-7.01 13.9 0.82
-5.32 10.55 -2.3
-13.16 26.08 2.56
-6.93 13.73 -2.44
-6.77 13.41 1.84
-6.06 12.01 -1.65
-7.18 14.23 -1.39
-12.21 24.2 -1.42
-3.82 7.57 1.96
-5.93 11.75 -0.23
-3.96 7.84 2.35
-7.03 14.06 0.27
-6.98 13.96 0.82
-5.29 10.57 -2.3
-13.07 26.14 2.56
-5.67 11.35 -2.01
-6.68 13.37 1.84
-5.69 11.38 -1.56
-14.12 28.23 5
-7.12 14.24 -1.39
-7.47 14.94 3.25
-12.09 24.18 -1.42
-3.78 7.56 1.95
-5.94 11.88 -0.23
-4.4 8.79 2.63
-6.06 12.23 0.24
-6.88 13.89 0.81
-5.25 10.6 -2.3
-12.97 26.17 2.56
-5.63 11.37 -2.01
-6.65 13.42 1.84
-5.64 11.38 -1.56
-13.98 28.22 4.99
-7.08 14.28 -1.39
-7.42 14.98 3.25
-11.98 24.18 -1.41
-3.74 7.54 1.94
-5.92 11.95 -0.23
-3.79 7.65 2.29
-5.94 12.1 0.24
-6.82 13.88 0.81
-5.21 10.61 -2.3
-12.82 26.11 2.54
-6.78 13.81 -2.44
-6.93 14.11 1.93
-6.97 14.2 -1.94
-6.55 13.34 2.35
-5.9 12.01 -1.17
-4.38 8.91 1.93
-5.91 12.03 -0.7
-3.71 7.55 1.94
-5.9 12.02 -0.23
-3.75 7.63 2.28
-7.21 14.8 0.29
-6.79 13.94 0.81
-5.18 10.63 -2.3
-12.73 26.13 2.54
-5.54 11.36 -2
-6.85 14.07 1.92
-5.54 11.37 -1.55
-6.49 13.33 2.35
-5.56 11.4 -1.11
-4.5 9.23 2
-7 14.37 -0.84
-3.69 7.57 1.94
-7.55 15.51 -0.3
-3.73 7.65 2.28
-7.18 14.87 0.29
-6.9 14.28 0.83
-5.12 10.61 -2.29
-12.62 26.13 2.54
-6.83 14.14 1.93
-5.5 11.4 -1.55
-6.47 13.4 2.36
-6.83 14.15 -1.38
-4.47 9.27 2
-7.11 14.73 -0.86
-4.13 8.56 2.19
-7.49 15.51 -0.3
-4.41 9.14 2.72
-11.74 24.54 0.47
-6.84 14.3 0.83
-5.11 10.67 -2.3
-12.51 26.14 2.54
-5.43 11.35 -1.99
-6.72 14.05 1.91
-5.45 11.38 -1.55
-6.81 14.22 2.5
-6.83 14.26 -1.38
-4.42 9.24 1.99
-6.13 12.81 -0.74
-4.09 8.55 2.19
-5.5 11.49 -0.22
-4.45 9.3 2.76
-11.61 24.49 0.47
-6.92 14.59 0.85
-5.04 10.64 -2.29
-12.39 26.14 2.53
-5.39 11.37 -1.99
-6.73 14.19 2.49
-5.52 11.63 -1.13
-11.48 24.2 -0.47
-11.52 24.5 0.47
-6.96 14.81 0.86
-5 10.63 -2.28
-12.29 26.13 2.53
-5.36 11.39 -1.99
-12.75 27.1 3.68
-5.35 11.38 -1.54
-6.69 14.23 2.49
-6.79 14.43 -1.4
-6.84 14.54 -0.84
-11.38 24.2 -0.47
-4.15 8.82 2.61
-11.42 24.5 0.47
-11.76 25.23 1.46
-4.97 10.67 -2.29
-12.17 26.12 2.52
-5.31 11.39 -1.99
-12.62 27.08 3.67
-5.31 11.39 -1.54
-5.47 11.74 -1.13
-11.35 24.36 -1.41
-11.27 24.19 -0.47
-3.43 7.36 2.18
-11.31 24.51 0.47
-11.64 25.23 1.46
-4.92 10.67 -2.28
-12.04 26.1 2.51
-5.26 11.39 -1.99
-12.5 27.09 3.66
-5.26 11.41 -1.54
-12.98 28.13 4.91
-11.14 24.15 -2.33
-5.29 11.46 -0.66
-11.16 24.19 -0.47
-3.4 7.37 2.17
-11.21 24.51 0.47
-11.53 25.23 1.45
-4.89 10.7 -2.29
-11.95 26.13 2.51
-5.22 11.42 -1.99
-12.38 27.09 3.66
-5.23 11.44 -1.54
-12.86 28.13 4.9
-11.04 24.14 -2.32
-5.85 12.8 -0.74
-4.37 9.56 2.43
-11.07 24.21 -0.46
-4.2 9.18 2.71
-11.1 24.49 0.47
-11.42 25.2 1.45
-4.85 10.7 -2.28
-11.84 26.11 2.51
-5.16 11.38 -1.98
-12.27 27.07 3.65
-5.17 11.39 -1.54
-12.74 28.1 4.89
-5.18 11.42 -1.1
-5.81 12.82 -0.74
-4.3 9.47 2.4
-6.66 14.69 -0.28
-4.18 9.21 2.71
-11.01 24.51 0.47
-11.32 25.19 1.45
-4.81 10.7 -2.28
-11.73 26.11 2.5
-12.15 27.05 3.64
-6.25 13.92 -1.87
-12.62 28.1 4.88
-10.85 24.15 -2.32
-3.33 7.4 1.58
-10.85 24.16 -1.39
-4.29 9.54 2.42
-5.62 12.52 -0.24
-4.15 9.24 2.71
-5.53 12.44 0.24
-11.22 25.2 1.45
-4.76 10.71 -2.28
-11.62 26.11 2.5
-5.07 11.39 -1.97
-12.05 27.07 3.64
-5.07 11.39 -1.53
-12.5 28.09 4.87
-10.75 24.16 -2.31
-5.56 12.5 -0.72
-3.32 7.47 1.89
-5.16 11.59 -0.22
-4.12 9.26 2.72
-10.8 24.5 0.47
-11.12 25.23 1.45
-4.73 10.72 -2.28
-11.52 26.13 2.5
-5.03 11.41 -1.97
-11.93 27.06 3.63
-5.03 11.42 -1.53
-12.37 28.07 4.86
-5.47 12.4 -1.19
-10.66 24.18 -1.38
-4.3 9.75 2.46
-5.64 12.79 -0.24
-10.69 24.48 0.47
-11.02 25.23 1.44
-4.69 10.73 -2.28
-11.41 26.14 2.5
-11.82 27.07 3.63
-4.99 11.42 -1.53
-12.25 28.06 4.85
-10.54 24.13 -2.3
-5 11.45 -0.65
-5.59 12.8 -0.24
-3.37 7.71 2.25
-10.59 24.49 0.47
-10.91 25.23 1.44
-4.65 10.75 -2.28
-11.28 26.08 2.49
-4.93 11.39 -1.97
-11.71 27.07 3.62
-4.94 11.42 -1.53
-12.13 28.05 4.84
-10.44 24.14 -2.3
-3.25 7.51 1.59
-4.95 11.45 -0.65
-5.56 12.86 -0.24
-4.05 9.36 2.73
-5.4 12.6 0.24
-10.79 25.2 1.44
-4.61 10.76 -2.27
-11.2 26.15 2.49
-5.97 13.93 -2.4
-11.58 27.03 3.61
-6.02 14.05 -1.88
-12.01 28.04 4.83
-10.35 24.16 -2.3
-5.89 13.74 2.91
-10.36 24.17 -1.38
-9.49 22.15 -0.42
-3.27 7.63 2.22
-4.97 11.7 0.22
-10.7 25.23 1.44
-4.56 10.75 -2.27
-11.09 26.13 2.48
-4.84 11.41 -1.96
-11.47 27.04 3.61
-4.84 11.41 -1.52
-11.89 28.02 4.82
-10.25 24.16 -2.3
-5.85 13.79 2.91
-10.26 24.19 -1.38
-9.39 22.14 -0.42
-3.24 7.64 2.22
-4.96 11.8 0.22
-10.61 25.24 1.44
-4.52 10.76 -2.27
-10.98 26.14 2.48
-4.8 11.41 -1.96
-11.36 27.04 3.6
-4.82 11.47 -1.53
-11.78 28.04 4.82
-10.15 24.15 -2.29
-10.17 24.2 -1.38
-5.56 13.24 3.32
-9.31 22.16 -0.42
-3.21 7.63 2.22
-10.2 24.52 0.46
-5.94 14.27 0.81
-4.48 10.77 -2.27
-10.86 26.11 2.47
-5.02 12.07 -2.07
-11.24 27.01 3.59
-4.82 11.6 -1.54
-11.67 28.05 4.81
-10.05 24.15 -2.29
-5.81 13.96 2.94
-5.1 12.26 -0.7
-5.52 13.26 3.32
-9.22 22.17 -0.42
-3.18 7.64 2.22
-4.92 11.94 0.23
-5.87 14.24 0.81
-4.44 10.77 -2.26
-10.77 26.13 2.47
-4.7 11.41 -1.96
-11.13 26.99 3.58
-4.71 11.44 -1.52
-11.55 28.03 4.8
-9.96 24.16 -2.29
-5.78 14.02 2.95
-4.72 11.46 -0.65
-5.45 13.21 3.3
-5.97 14.48 -0.27
-3.16 7.67 2.22
-4.91 12.02 0.23
-5.89 14.43 0.82
-4.39 10.76 -2.26
-10.67 26.14 2.47
-4.66 11.43 -1.95
-11.02 27.01 3.58
-6.71 16.44 -2.18
-11.43 28.01 4.79
-9.86 24.16 -2.28
-5.75 14.08 2.96
-9.87 24.18 -1.37
-5.42 13.28 3.31
-5.93 14.53 -0.27
-3.14 7.68 2.22
-9.89 24.48 0.46
-5.74 14.21 0.8
-4.36 10.78 -2.26
-10.56 26.13 2.47
-4.62 11.44 -1.95
-5.88 14.56 1.93
-4.62 11.43 -1.51
-11.32 28.02 4.79
-4.94 12.22 -1.15
-5.67 14.03 2.94
-4.67 11.56 -0.65
-5.38 13.31 3.31
-5.88 14.55 -0.27
-4.77 11.92 0.22
-5.73 14.33 0.81
-4.32 10.79 -2.26
-5.7 14.24 1.34
-4.57 11.43 -1.95
-5.75 14.39 1.9
-4.58 11.45 -1.51
-11.19 27.98 4.77
-9.67 24.17 -2.28
-5.63 14.07 2.95
-9.67 24.18 -1.36
-5.33 13.32 3.31
-5.14 12.86 -0.24
-5.63 14.08 4.06
-4.72 11.93 0.22
-5.73 14.48 0.82
-4.27 10.78 -2.25
-5.67 14.33 1.35
-4.59 11.59 -1.97
-10.69 26.99 3.56
-6.53 16.5 -2.18
-11.08 27.99 4.77
-4.58 11.57 -1.09
-5.54 13.99 2.92
-9.59 24.21 -1.36
-5.27 13.32 3.31
-4.72 11.92 -0.22
-3.78 9.55 2.75
-4.69 11.97 0.22
-5.61 14.33 0.81
-4.23 10.8 -2.25
-5.59 14.28 1.34
-4.48 11.42 -1.94
-5.73 14.63 1.93
-4.5 11.47 -1.51
-10.97 27.99 4.76
-4.53 11.56 -1.09
-5.48 13.98 2.92
-9.48 24.19 -1.36
-5.25 13.39 3.32
-4.71 12.03 -0.23
-5.6 14.3 4.11
-4.7 12.12 0.23
-5.56 14.34 0.81
-4.18 10.78 -2.25
-5.55 14.31 1.34
-4.45 11.47 -1.95
-5.52 14.24 1.88
-4.45 11.48 -1.51
-10.85 27.97 4.75
-9.38 24.17 -2.27
-5.41 13.95 2.91
-9.38 24.18 -1.36
-5.2 13.4 3.32
-4.72 12.17 -0.23
-5.46 14.08 4.05
-9.39 24.46 0.46
-5.51 14.35 0.81
-4.14 10.79 -2.25
-5.5 14.33 1.34
-4.39 11.44 -1.94
-5.32 13.86 1.82
-4.41 11.49 -1.51
-5.24 13.65 2.32
-9.28 24.17 -2.26
-5.33 13.89 2.89
-5.59 14.55 -0.82
-5.17 13.47 3.33
-4.69 12.21 -0.23
-5.37 13.98 4.01
-4.67 12.29 0.23
-5.43 14.31 0.8
-4.1 10.8 -2.25
-5.47 14.41 1.35
-4.34 11.43 -1.94
-5.06 13.32 1.75
-4.36 11.47 -1.51
-5.11 13.45 2.28
-4.45 11.72 -1.1
-5.33 14.03 2.92
-4.78 12.57 -0.7
-5.09 13.41 3.31
-5.14 13.54 -0.25
-5.25 13.83 3.96
-4.45 11.84 0.22
-5.37 14.3 0.8
-4.06 10.8 -2.24
-5.44 14.47 1.35
-4.33 11.51 -1.95
-4.97 13.23 1.74
-4.31 11.48 -1.51
-5.09 13.53 2.29
-4.66 12.41 -1.16
-5.31 14.14 2.94
-4.32 11.48 -0.64
-5.12 13.61 3.36
-4.66 12.39 -0.23
-4.93 13.12 3.75
-5.3 14.25 0.8
-4.03 10.82 -2.24
-5.4 14.5 1.35
-4.26 11.45 -1.93
-4.94 13.28 1.74
-4.27 11.47 -1.5
-5.04 13.53 2.29
-4.3 11.56 -1.08
-5.26 14.15 2.93
-4.61 12.4 -0.69
-5.14 13.81 3.4
-4.61 12.38 -0.23
-5.06 13.59 3.88
-5.01 13.62 0.25
-5.27 14.33 0.8
-3.98 10.82 -2.24
-5.36 14.57 1.36
-4.22 11.47 -1.94
-5.22 14.17 1.85
-4.22 11.47 -1.5
-5.14 13.95 2.35
-4.25 11.54 -1.08
-5.05 13.73 2.84
-5.37 14.59 -0.81
-5.11 13.88 3.42
-5.05 13.73 3.92
-4.96 13.63 0.25
-4.53 12.45 0.69
-3.94 10.82 -2.24
-4.98 13.69 1.27
-5.84 16.05 -2.7
-4.84 13.31 1.74
-4.17 11.46 -1.5
-5.03 13.83 2.33
-4.19 11.52 -1.07
-4.99 13.71 2.84
-5.2 14.3 -0.8
-5.06 13.91 3.42
-4.23 11.61 -0.22
-4.83 13.28 3.79
-4.94 13.73 0.25
-5.1 14.17 0.79
-3.9 10.83 -2.24
-4.13 11.46 -1.93
-5.17 14.35 1.87
-4.13 11.46 -1.5
-5.06 14.06 2.37
-5.3 14.71 -1.37
-4.92 13.66 2.82
-4.13 11.47 -0.64
-4.99 13.87 3.4
-5.35 14.87 -0.28
-4.78 13.28 3.78
-4.9 13.76 0.26
-5.22 14.65 0.82
-3.86 10.83 -2.24
-4.89 13.72 1.27
-4.08 11.46 -1.93
-4.73 13.29 1.73
-4.25 11.93 -1.56
-5.04 14.14 2.38
-5.27 14.8 -1.37
-5.05 14.17 2.92
-5.1 14.32 -0.8
-4.96 13.91 3.41
-5.38 15.09 -0.28
-4.75 13.32 3.79
-4.89 13.86 0.26
-5.22 14.82 0.82
-3.82 10.83 -2.23
-4.84 13.75 1.28
-4.04 11.47 -1.93
-4.69 13.3 1.73
-4.05 11.49 -1.5
-5 14.18 2.38
-5.32 15.11 -1.4
-4.98 14.12 2.91
-4.1 11.63 -0.65
-4.84 13.73 3.36
-4.12 11.68 -0.22
-4.64 13.16 3.74
-4.79 13.75 0.25
-4.78 13.72 0.76
-3.77 10.83 -2.23
-4.78 13.72 1.27
-4 11.48 -1.92
-4.63 13.28 1.73
-4 11.49 -1.49
-4.83 13.87 2.33
-5.36 15.37 -1.42
-4.89 14.05 2.89
-4.03 11.56 -0.64
-4.76 13.66 3.34
-4.11 11.79 -0.22
-4.56 13.1 3.72
-4.76 13.81 0.25
-4.73 13.74 0.76
-3.73 10.82 -2.22
-4.68 13.6 1.26
-4 11.61 -1.95
-4.77 13.83 1.8
-7.84 22.75 -2.96
-4.76 13.81 2.31
-3.96 11.5 -1.06
-4.84 14.05 2.89
-4.02 11.67 -0.65
-4.7 13.65 3.33
-4.07 11.81 -0.22
-4.57 13.25 3.76
-4.69 13.78 0.25
-4.69 13.78 0.76
-3.69 10.83 -2.22
-4.65 13.67 1.26
-3.91 11.48 -1.92
-4.74 13.9 1.8
-3.92 11.5 -1.49
-4.68 13.74 2.3
-3.92 11.52 -1.06
-4.48 13.16 2.7
-3.93 11.54 -0.64
-4.63 13.61 3.32
-4.04 11.86 -0.22
-4.49 13.17 3.73
-4.62 13.71 0.25
-4.04 11.99 0.66
-3.65 10.83 -2.22
-4.64 13.77 1.27
-3.87 11.48 -1.92
-4.74 14.08 1.82
-3.87 11.51 -1.49
-4.66 13.83 2.31
-5.22 15.5 -1.43
-4.72 14.01 2.87
-3.89 11.54 -0.64
-4.52 13.42 3.27
-3.95 11.72 -0.22
-4.45 13.21 3.74
-4.04 12.14 0.22
-3.61 10.84 -2.22
-4.6 13.82 1.27
-4.68 14.05 1.82
-3.83 11.49 -1.49
-4.65 13.95 2.33
-4.08 12.26 -1.13
-4.4 13.2 2.7
-4.53 13.61 3.31
-4.85 14.55 -0.27
-4.37 13.11 3.7
-3.99 12.11 0.22
-4.06 12.33 0.68
-3.57 10.84 -2.22
-4.56 13.86 1.28
-3.77 11.47 -1.91
-4.55 13.83 1.79
-3.78 11.5 -1.49
-4.6 13.96 2.33
-4.05 12.29 -1.13
-4.43 13.45 2.75
-3.83 11.62 -0.64
-4.48 13.62 3.31
-4.02 12.22 -0.22
-4.35 13.21 3.73
-4 12.3 0.23
-4.04 12.43 0.68
-3.52 10.84 -2.22
-4.51 13.86 1.27
-3.74 11.51 -1.92
-4.49 13.81 1.78
-4.65 14.31 -1.85
-4.46 13.72 2.29
-4.66 14.32 -1.32
-4.4 13.52 2.76
-3.88 11.94 -0.66
-4.43 13.63 3.31
-4.65 14.29 -0.26
-4.33 13.33 3.75
-4.41 13.73 0.25
-3.93 12.23 0.67
-3.48 10.84 -2.21
-4.45 13.85 1.27
-3.69 11.49 -1.91
-4.45 13.85 1.79
-3.7 11.5 -1.48
-4.39 13.65 2.27
-4.59 14.3 -1.31
-4.35 13.54 2.76
-4.55 14.15 -0.78
-4.4 13.69 3.32
-4.59 14.27 -0.26
-4.49 13.99 3.94
-3.96 12.48 0.23
-3.95 12.45 0.68
-3.45 10.85 -2.21
-4.45 14.01 1.29
-3.65 11.48 -1.91
-4.45 14 1.8
-3.66 11.52 -1.48
-4.34 13.65 2.27
-4.54 14.31 -1.31
-4.3 13.55 2.76
-4.17 13.13 -0.72
-4.38 13.79 3.34
-4.54 14.31 -0.26
-4.37 13.77 3.87
-3.94 12.57 0.23
-3.92 12.49 0.69
-3.41 10.86 -2.21
-4.36 13.91 1.28
-4.5 14.34 -2.38
-4.5 14.36 1.85
-4.5 14.35 -1.85
-4.31 13.75 2.28
-4.51 14.36 -1.32
-4.23 13.5 2.75
-3.6 11.46 -0.63
-4.34 13.84 3.35
-4.51 14.36 -0.26
-4.32 13.76 3.86
-3.87 12.48 0.23
-4.28 13.81 0.76
-3.37 10.86 -2.21
-4.32 13.95 1.28
-3.56 11.5 -1.91
-4.35 14.04 1.8
-3.57 11.52 -1.48
-4.25 13.72 2.27
-4.48 14.44 -1.32
-4.01 12.95 2.64
-3.92 12.65 -0.69
-4.36 14.05 3.4
-3.89 12.55 -0.23
-4.27 13.76 3.86
-3.64 11.89 0.65
-3.32 10.85 -2.21
-4.33 14.14 1.29
-3.53 11.54 -1.91
-4.3 14.03 1.8
-3.53 11.54 -1.48
-4.22 13.8 2.29
-3.86 12.6 -1.15
-3.98 13 2.64
-3.88 12.68 -0.7
-4.28 13.98 3.37
-3.84 12.56 -0.23
-4.21 13.76 3.86
-3.64 12.03 0.22
-3.76 12.45 0.68
-3.28 10.85 -2.2
-4.26 14.09 1.29
-4.26 14.08 1.81
-3.48 11.52 -1.48
-4.32 14.3 2.37
-4.74 15.7 -1.43
-3.97 13.15 2.67
-4.65 15.4 -0.84
-4.01 13.28 3.2
-3.61 11.96 -0.22
-4.26 14.09 3.94
-3.58 11.99 0.22
-4.27 14.3 0.78
-3.24 10.86 -2.2
-4.22 14.14 1.29
-3.43 11.5 -1.9
-4.19 14.02 1.8
-3.44 11.52 -1.48
-4.29 14.37 2.38
-3.46 11.58 -1.06
-3.95 13.24 2.69
-3.47 11.61 -0.64
-4.12 13.81 3.33
-4.32 14.46 -0.26
-4.24 14.19 3.97
-3.56 12.08 0.22
-4.14 14.04 0.77
-3.2 10.87 -2.2
-4.17 14.13 1.29
-3.4 11.53 -1.9
-4.13 14.01 1.79
-6.66 22.59 -2.89
-4.29 14.56 2.4
-3.65 12.38 -1.13
-3.88 13.16 2.67
-3.4 11.53 -0.63
-4.09 13.86 3.34
-4.21 14.27 -0.26
-4.16 14.12 3.94
-3.51 12.05 0.22
-3.48 11.96 0.65
-3.16 10.86 -2.2
-4.06 13.94 1.27
-3.35 11.52 -1.9
-4.1 14.1 1.8
-3.36 11.54 -1.48
-4.11 14.13 2.33
-3.57 12.28 -1.12
-3.85 13.24 2.68
-3.35 11.51 -0.63
-3.9 13.41 3.22
-3.53 12.15 -0.22
-4.11 14.13 3.94
-3.45 12.02 0.66
-3.12 10.85 -2.19
-4.02 14.01 1.27
-3.31 11.53 -1.9
-4.1 14.26 1.82
-3.31 11.54 -1.47
-4.07 14.18 2.34
-3.51 12.23 -1.11
-3.83 13.33 2.7
-3.51 12.21 -0.67
-3.84 13.38 3.21
-3.48 12.1 -0.22
-4.08 14.21 3.96
-3.43 12.12 0.22
-3.41 12.03 0.66
-3.08 10.86 -2.19
-3.98 14.05 1.28
-3.26 11.52 -1.9
-4.06 14.31 1.83
-3.39 11.98 -1.53
-4.17 14.73 2.42
-3.59 12.66 -1.15
-3.78 13.35 2.7
-3.38 11.94 -0.65
-3.81 13.45 3.23
-4.33 15.28 -0.28
-4.02 14.19 3.95
-4.08 14.61 0.26
-3.32 11.88 0.65
-3.04 10.87 -2.19
-3.96 14.15 1.29
-4.31 15.43 1.97
-3.23 11.55 -1.47
-4.03 14.43 2.37
-6.49 23.21 -2.11
-3.74 13.38 2.7
-3.61 12.91 -0.7
-3.77 13.5 3.24
-3.38 12.1 -0.22
-3.99 14.27 3.97
-3.3 11.96 0.22
-3.88 14.08 0.77
-3 10.88 -2.19
-3.9 14.14 1.28
-3.18 11.52 -1.89
-4.07 14.74 1.88
-3.19 11.56 -1.47
-3.94 14.27 2.34
-3.35 12.14 -1.1
-3.71 13.46 2.71
-3.57 12.93 -0.7
-3.8 13.78 3.3
-4.16 15.09 -0.27
-3.94 14.27 3.97
-3.84 14.11 0.26
-3.84 14.12 0.77
-2.96 10.88 -2.19
-3.78 13.88 1.26
-3.14 11.53 -1.89
-4.17 15.33 1.95
-3.14 11.53 -1.47
-3.88 14.25 2.34
-3.3 12.12 -1.1
-3.69 13.55 2.73
-3.57 13.1 -0.71
-3.77 13.87 3.32
-3.36 12.35 -0.22
-3.89 14.28 3.97
-3.21 11.95 0.22
-3.79 14.1 0.77
-2.92 10.87 -2.19
-3.69 13.74 1.24
-3.1 11.53 -1.89
-3.93 14.62 1.86
-3.1 11.55 -1.47
-3.87 14.41 2.36
-4.16 15.51 -1.4
-3.65 13.59 2.74
-4.04 15.04 -0.82
-3.68 13.71 3.28
-3.32 12.37 -0.22
-2.25 8.4 2.33
-3.26 12.32 0.22
-3.22 12.15 0.66
-2.88 10.87 -2.19
-3.69 13.92 1.26
-3.06 11.56 -1.89
-3.72 14.06 1.79
-3.11 11.74 -1.49
-3.8 14.35 2.35
-3.14 11.86 -1.07
-3.61 13.64 2.74
-6.04 22.81 -1.24
-3.6 13.6 3.25
-3.88 14.67 -0.26
-3.8 14.34 3.97
-3.77 14.45 0.26
-3.13 11.99 0.65
-2.84 10.88 -2.19
-3.61 13.82 1.25
-3.02 11.55 -1.89
-3.67 14.07 1.79
-3.02 11.56 -1.47
-3.74 14.34 2.35
-3.09 11.84 -1.07
-3.7 14.16 2.84
-3.94 15.1 -0.82
-3.6 13.77 3.29
-3.84 14.7 -0.27
-2.19 8.4 2.33
-3.67 14.24 0.26
-3.07 11.93 0.65
-2.8 10.87 -2.18
-3.56 13.81 1.25
-2.97 11.55 -1.89
-3.63 14.1 1.79
-2.98 11.58 -1.47
-3.7 14.35 2.35
-3.02 11.71 -1.06
-3.54 13.73 2.76
-3.88 15.08 -0.82
-3.56 13.83 3.3
-3.88 15.08 -0.27
-2.17 8.42 2.33
-3.64 14.35 0.26
-3.04 11.97 0.65
-2.76 10.87 -2.18
-3.5 13.8 1.25
-3.79 14.93 -2.44
-3.63 14.29 1.81
-2.94 11.6 -1.47
-3.63 14.3 2.34
-6.19 24.39 -2.2
-3.62 14.25 2.86
-3.84 15.11 -0.82
-3.51 13.85 3.3
-5.79 22.83 -0.41
-3.64 14.58 0.26
-2.99 11.97 0.65
-2.72 10.87 -2.18
-3.45 13.8 1.24
-2.88 11.53 -1.88
-3.58 14.31 1.81
-2.89 11.55 -1.46
-3.57 14.27 2.33
-2.93 11.72 -1.06
-3.56 14.27 2.86
-3.77 15.1 -0.82
-3.45 13.81 3.29
-5.7 22.82 -0.41
-2.97 12.06 0.22
-2.94 11.93 0.64
-2.68 10.88 -2.18
-3.41 13.86 1.25
-2.86 11.61 -1.89
-3.58 14.52 1.84
-3.68 14.93 -1.89
-3.51 14.27 2.33
-5.72 23.24 -2.09
-3.5 14.22 2.85
-3.69 14.98 -0.81
-3.42 13.87 3.3
-2.92 12.05 0.22
-3.69 15.21 0.82
-2.64 10.89 -2.18
-3.54 14.6 1.31
-2.81 11.58 -1.89
-3.47 14.33 1.81
-2.8 11.57 -1.46
-3.44 14.2 2.31
-3.67 15.15 -1.36
-3.39 13.99 2.8
-3.71 15.31 -0.83
-3.32 13.69 3.25
-3.43 14.15 -0.25
-2.88 12.05 0.22
-3.42 14.34 0.77
-2.6 10.9 -2.18
-3.57 14.95 1.34
-2.76 11.55 -1.88
-2.76 11.57 -1.46
-3.37 14.13 2.3
-3.65 15.27 -1.37
-3.7 15.48 -0.83
-3.25 13.59 3.23
-2.82 12 0.22
-3.48 14.82 0.8
-2.56 10.89 -2.17
-3.47 14.78 1.33
-3.54 15.08 -2.45
-6.29 26.76 3.38
-2.72 11.57 -1.46
-3.32 14.12 2.3
-3.55 15.09 -1.36
-3.6 15.29 -0.82
-3.19 13.58 3.22
-3.4 14.48 -0.26
-3.26 14.08 0.25
-2.73 11.79 0.63
-2.52 10.89 -2.17
-3.45 14.91 1.34
-2.67 11.55 -1.88
-6.19 26.76 3.37
-2.68 11.58 -1.46
-3.24 14.01 2.28
-3.59 15.51 -1.39
-3.47 14.97 -0.81
-3.11 13.42 3.18
-3.37 14.55 -0.26
-3.21 14.09 0.25
-3.29 14.45 0.78
-2.48 10.89 -2.17
-3.37 14.79 1.33
-2.63 11.55 -1.88
-6.09 26.72 3.37
-2.64 11.57 -1.46
-3.18 13.98 2.27
-2.68 11.76 -1.06
-3.41 14.99 -0.81
-3.09 13.57 3.21
-2.67 11.72 -0.21
-2.82 12.6 0.23
-3.24 14.44 0.78
-2.44 10.9 -2.17
-3.27 14.61 1.31
-2.59 11.57 -1.88
-5.99 26.71 3.36
-2.6 11.59 -1.46
-3.1 13.83 2.24
-2.64 11.77 -1.06
-6.41 28.61 5.7
-3.36 15 -0.81
-3.04 13.54 3.2
-3.33 14.84 -0.27
-2.78 12.59 0.23
-3.18 14.42 0.77
-2.41 10.92 -2.17
-3.23 14.65 1.31
-2.56 11.61 -1.88
-5.89 26.69 3.36
-2.56 11.58 -1.46
-3.06 13.86 2.25
-2.6 11.77 -1.05
-2.58 11.69 -0.63
-2.97 13.48 3.19
-2.65 11.99 -0.21
-2.74 12.62 0.23
-2.77 12.75 0.68
-2.37 10.92 -2.17
-3.16 14.58 1.3
-2.51 11.56 -1.87
-5.79 26.69 3.35
-2.51 11.58 -1.46
-2.99 13.76 2.23
-2.53 11.66 -1.04
-2.62 12.08 -0.22
-1.86 8.57 2.35
-3.2 15.03 0.27
-2.75 12.92 0.69
-2.33 10.92 -2.17
-3.16 14.83 1.33
-2.47 11.58 -1.87
-3.24 15.2 1.91
-3.11 14.57 -1.83
-2.92 13.68 2.22
-3.3 15.47 -1.38
-6.11 28.68 5.7
-5.14 24.13 -1.29
-2.58 12.09 -0.22
-1.83 8.59 2.35
-2.69 12.85 0.23
-2.29 10.92 -2.17
-3.08 14.69 1.31
-2.43 11.59 -1.88
-5.59 26.69 3.35
-2.43 11.59 -1.45
-2.88 13.75 2.23
-3.23 15.44 -1.38
-3.18 15.19 -0.81
-3.05 14.58 -0.26
-2.64 12.83 0.23
-2.25 10.94 -2.17
-3.08 14.98 1.34
-2.38 11.57 -1.87
-5.5 26.69 3.35
-2.39 11.62 -1.46
-2.83 13.76 2.23
-3.09 14.99 -1.34
-5.89 28.59 5.67
-3.09 14.99 -0.8
-2.49 12.09 -0.22
-1.77 8.59 2.35
-2.61 12.88 0.23
-2.21 10.93 -2.17
-3 14.85 1.33
-2.36 11.65 -1.88
-5.4 26.69 3.34
-2.5 12.34 -1.55
-2.48 12.27 -1.1
-5.79 28.61 5.67
-4.9 24.2 -1.29
-2.47 12.21 -0.22
-1.78 8.81 2.41
-2.42 12.2 0.22
-2.93 14.75 0.79
-2.17 10.93 -2.17
-2.93 14.73 1.31
-2.3 11.59 -1.87
-5.3 26.69 3.34
-2.31 11.6 -1.45
-5.5 27.68 4.47
-2.44 12.29 -1.1
-5.69 28.61 5.67
-2.39 12.01 -0.64
-2.44 12.27 -0.22
-1.72 8.65 2.36
-2.4 12.3 0.22
-2.38 12.2 0.65
-2.13 10.92 -2.16
-2.36 12.08 1.08
-2.26 11.59 -1.87
-5.21 26.69 3.34
-2.26 11.6 -1.45
-5.4 27.66 4.46
-2.3 11.8 -1.05
-5.58 28.6 5.66
-2.39 12.22 -0.65
-2.39 12.25 -0.22
-1.72 8.8 2.4
-2.79 14.57 0.26
-2.33 12.16 0.65
-2.09 10.92 -2.16
-4.96 25.92 2.31
-5.11 26.67 3.33
-2.91 15.2 -1.9
-5.29 27.64 4.46
-2.91 15.2 -1.35
-5.47 28.57 5.65
-2.29 11.94 -0.64
-4.64 24.21 -0.43
-2.29 12.21 0.22
-2.28 12.15 0.65
-2.05 10.92 -2.16
-4.87 25.91 2.31
-2.18 11.58 -1.87
-5.01 26.65 3.33
-2.18 11.61 -1.45
-5.19 27.65 4.46
-2.97 15.81 -1.41
-5.36 28.55 5.65
-2.23 11.89 -0.63
-2.69 14.34 -0.25
-2.76 14.98 0.27
-2.02 10.93 -2.16
-4.78 25.93 2.31
-2.14 11.6 -1.87
-4.92 26.66 3.33
-2.14 11.63 -1.45
-5.1 27.65 4.45
-2.82 15.28 -1.36
-5.27 28.57 5.65
-2.68 14.53 -0.77
-2.64 14.33 -0.25
-2.67 14.78 0.26
-2.63 14.56 0.78
-1.98 10.94 -2.16
-4.69 25.92 2.3
-2.11 11.65 -1.87
-4.82 26.64 3.32
-2.11 11.64 -1.45
-5 27.64 4.45
-5.16 28.56 5.64
-2.62 14.52 -0.77
-2.6 14.36 -0.25
-1.61 8.88 2.42
-2.59 14.61 0.26
-2.26 12.74 0.68
-1.94 10.92 -2.16
-4.59 25.9 2.3
-2.06 11.6 -1.87
-2.64 14.89 1.86
-2.06 11.61 -1.45
-4.9 27.63 4.44
-2.77 15.64 -1.39
-5.06 28.57 5.64
-2.58 14.56 -0.77
-2.55 14.41 -0.26
-1.6 9.02 2.45
-2.17 12.48 0.22
-1.45 8.37 -1.96
-2.57 14.8 0.79
-1.9 10.93 -2.16
-2.59 14.93 1.33
-2.02 11.62 -1.87
-4.64 26.73 3.33
-2.66 15.29 -1.91
-4.79 27.61 4.44
-4.96 28.57 5.64
-2.53 14.6 -0.78
-2.15 12.39 -0.22
-2.12 12.49 0.22
-1.43 8.4 -1.97
-2.08 12.25 0.65
-1.86 10.94 -2.16
-4.4 25.89 2.3
-2.52 14.84 -2.38
-2.54 14.92 1.86
-1.98 11.64 -1.45
-4.7 27.62 4.44
-2.61 15.37 -1.36
-4.86 28.56 5.63
-2.11 12.43 -0.66
-2.12 12.45 -0.22
-2.08 12.52 0.22
-1.43 8.57 -2.01
-2.05 12.34 0.66
-1.82 10.95 -2.16
-2.48 14.93 1.32
-1.93 11.6 -1.86
-4.43 26.62 3.31
-1.94 11.64 -1.45
-4.6 27.62 4.43
-2.08 12.47 -1.11
-4.75 28.56 5.63
-2.07 12.45 -0.66
-2.57 15.43 -0.27
-2.38 14.59 0.26
-1.4 8.57 -2.01
-2.04 12.52 0.66
-1.78 10.95 -2.16
-2.44 14.99 1.33
-1.89 11.62 -1.86
-4.33 26.61 3.31
-2.03 12.47 -1.55
-4.5 27.62 4.43
-2.03 12.45 -1.1
-4.65 28.57 5.63
-2.38 14.62 -0.78
-1.44 8.81 2.06
-2.49 15.28 -0.27
-2.31 14.52 0.26
-1.37 8.58 -2
-2.01 12.64 0.67
-1.74 10.94 -2.15
-1.99 12.49 1.11
-1.85 11.62 -1.86
-4.24 26.62 3.31
-1.85 11.63 -1.45
-4.4 27.6 4.43
-2.46 15.45 -1.37
-4.55 28.58 5.63
-1.98 12.43 -0.66
-1.4 8.77 2.05
-2.45 15.35 -0.27
-1.51 9.47 2.57
-2.39 15.31 0.27
-1.33 8.55 -2
-2.32 14.9 0.79
-1.71 10.95 -2.15
-4.03 25.88 2.29
-1.81 11.61 -1.86
-4.15 26.63 3.31
-1.82 11.65 -1.45
-4.3 27.61 4.43
-2.41 15.44 -1.37
-4.45 28.57 5.62
-2.28 14.62 -0.78
-1.37 8.76 2.05
-2.38 15.29 -0.27
-1.46 9.35 2.53
-4.15 27.22 0.48
-1.3 8.54 -1.99
-2.31 15.14 0.8
-1.67 10.95 -2.15
-2.39 15.71 1.39
-2.34 15.4 -2.47
-4.06 26.65 3.31
-2.37 15.59 -1.94
-4.2 27.61 4.42
-2.36 15.47 -1.37
-4.35 28.56 5.62
-2.33 15.29 -0.81
-1.85 12.15 -0.21
-1.43 9.42 2.55
-2.23 14.97 0.26
-1.26 8.47 -1.98
-1.81 12.18 0.65
-1.63 10.96 -2.15
-4.22 28.35 2.51
-1.73 11.63 -1.86
-2.22 14.94 1.85
-1.73 11.66 -1.45
-4.11 27.61 4.42
-2.31 15.53 -1.37
-4.25 28.56 5.61
-2.26 15.21 -0.81
-1.4 9.44 2.56
-1.76 12.12 0.21
-1.23 8.44 -1.97
-1.76 12.12 0.64
-1.59 10.96 -2.15
-1.69 11.63 1.03
-1.69 11.62 -1.86
-4.27 29.4 3.65
-1.69 11.66 -1.45
-4 27.54 4.41
-2.27 15.63 -1.38
-4.14 28.54 5.61
-1.71 11.77 -0.62
-3.46 23.81 -0.42
-1.32 9.11 2.47
-1.74 12.28 0.22
-1.2 8.44 -1.97
-4.26 30.06 1.59
-1.55 10.96 -2.15
-2.19 15.43 1.36
-2.24 15.85 -2.54
-4.25 29.98 3.72
-3.44 24.29 -3.01
-4.15 29.31 4.69
-1.79 12.65 -1.12
-4.04 28.5 5.59
-1.68 11.89 -0.63
-2.06 14.57 -0.26
-1.29 9.13 2.47
-1.69 12.25 0.22
-1.17 8.45 -1.97
-1.72 12.44 0.66
-1.51 10.96 -2.15
-4.22 30.55 2.7
-1.61 11.66 -1.87
-4.14 30.02 3.72
-1.61 11.66 -1.45
-4.05 29.31 4.69
-1.75 12.71 -1.12
-1.65 11.95 -0.63
-1.69 12.23 -0.22
-1.26 9.11 2.47
-1.64 12.16 0.21
-1.14 8.5 -1.98
-1.67 12.41 0.66
-1.48 10.96 -2.15
-4.15 30.8 2.72
-1.57 11.63 -1.86
-4.04 30.03 3.72
-1.57 11.69 -1.45
-3.97 29.46 4.71
-2.12 15.74 -1.39
-1.64 12.15 -0.64
-2.08 15.43 -0.27
-1.23 9.1 2.46
-1.96 14.92 0.26
-1.12 8.53 -1.99
-1.61 12.29 0.65
-1.44 10.97 -2.15
-4.04 30.79 2.72
-1.56 11.9 -1.9
-1.58 12.04 -1.49
-2.07 15.76 -1.39
-1.61 12.3 -0.65
-2.02 15.39 -0.27
-1.2 9.15 2.47
-1.53 12.04 0.21
-1.09 8.57 -1.99
-1.54 12.08 0.64
-1.4 10.97 -2.15
-3.93 30.81 2.72
-1.49 11.66 -1.86
-4.9 38.42 4.76
-1.49 11.67 -1.44
-1.57 12.35 -1.09
-1.57 12.33 -0.65
-1.57 12.34 -0.22
-1.2 9.43 2.55
-1.52 12.28 0.22
-1.06 8.58 -1.99
-1.5 12.1 0.64
-1.36 10.96 -2.15
-4.45 35.9 3.16
-1.44 11.66 -1.86
-4.76 38.46 4.76
-1.45 11.7 -1.45
-1.53 12.37 -1.09
-1.53 12.34 -0.65
-1.54 12.4 -0.22
-1.16 9.39 2.53
-1.72 14.28 0.25
-1.04 8.59 -2
-1.46 12.14 0.64
-1.32 10.97 -2.15
-4.36 36.18 3.19
-1.51 12.52 -2
-4.64 38.5 4.76
-1.89 15.65 -1.38
-1.56 12.96 -0.68
-1.52 12.65 -0.22
-1.68 14.37 0.25
-1 8.59 -2
-1.7 14.57 0.77
-1.28 10.97 -2.15
-1.68 14.33 1.26
-1.36 11.66 -1.86
-4.49 38.37 4.74
-1.37 11.67 -1.44
-1.83 15.67 -1.38
-1.51 12.94 -0.68
-1.44 12.35 -0.22
-1.64 14.45 0.25
-0.97 8.58 -1.99
-1.24 10.97 -2.15
-1.42 12.52 1.1
-1.32 11.67 -1.86
-4.34 38.25 4.73
-1.33 11.71 -1.45
-1.8 15.88 -1.4
-1.42 12.53 -0.66
-1.46 12.88 -0.23
-1.39 12.67 0.22
-0.94 8.57 -1.99
-1.39 12.64 0.67
-1.21 10.97 -2.14
-1.57 14.3 1.26
-1.29 11.73 -1.87
-1.29 11.7 -1.45
-1.66 15.08 -1.33
-1.37 12.48 -0.66
-1.39 12.64 -0.22
-1.03 9.35 2.52
-1.35 12.67 0.22
-0.91 8.57 -1.99
-1.26 11.79 0.62
-1.17 10.96 -2.14
-1.52 14.28 1.26
-1.24 11.67 -1.86
-4.15 38.99 4.82
-1.24 11.69 -1.44
-1.6 15.05 -1.32
-1.34 12.62 -0.67
-1.34 12.61 -0.22
-1.32 12.78 0.22
-0.88 8.56 -1.99
-1.13 10.99 -2.15
-1.48 14.38 1.26
-1.2 11.68 -1.86
-1.48 14.4 1.78
-1.21 11.72 -1.45
-1.3 12.6 -1.11
-1.31 12.68 -0.67
-1.31 12.72 -0.22
-1.3 13.08 0.23
-0.86 8.6 -1.99
-1.42 14.27 0.75
-1.09 11 -2.15
-1.44 14.44 1.27
-1.26 12.65 -2.01
-3.9 39.22 4.84
-1.17 11.72 -1.45
-1.26 12.62 -1.11
-1.57 15.74 -0.83
-1.3 13.07 -0.23
-1.32 13.25 3.57
-1.16 12.05 0.21
-0.83 8.67 -2.01
-1.06 11 -2.15
-1.39 14.52 1.28
-1.12 11.67 -1.86
-1.12 11.7 -1.44
-1.22 12.69 -0.67
-1.38 14.38 -0.25
-1.22 13.21 0.23
-0.8 8.69 -2.01
-1.09 11.79 0.62
-1.02 10.99 -2.15
-3.59 38.84 3.41
-1.08 11.69 -1.86
-1.09 11.77 -1.45
-1.57 17.04 -1.5
-1.19 12.83 -0.68
-1.25 13.55 3.14
-1.32 14.29 -0.25
-1.17 12.62 3.4
-1.3 14.62 0.26
-0.77 8.7 -2.02
-1.32 14.8 0.78
-0.98 10.99 -2.14
-3.45 38.8 3.41
-1.61 18.09 -2.88
-1.04 11.72 -1.44
-1.26 14.13 -1.24
-1.26 14.21 -0.75
-1.2 13.48 3.13
-1.34 15.04 -0.26
-1.12 12.63 3.4
-0.74 8.68 -2.01
-1 11.71 0.62
-0.94 11 -2.15
-3.33 39.04 3.43
-1 11.68 -1.86
-3.37 39.44 4.86
-1 11.71 -1.44
-1.41 16.56 -1.45
-1.36 15.94 -0.84
-1.24 14.49 3.36
-1.28 15.03 -0.26
-1.13 13.24 3.56
-1.07 13.05 0.23
-0.7 8.56 -1.98
-1.19 14.53 0.76
-0.9 11 -2.15
-3.15 38.52 3.38
-0.96 11.69 -1.86
-0.97 11.84 -1.04
-1.31 16 -0.84
-1.19 14.5 3.36
-1.18 14.41 -0.25
-1.19 14.5 3.9
-1.01 12.85 0.23
-0.67 8.54 -1.98
-0.92 11.73 0.62
-0.87 11.01 -2.15
-1.11 14.1 -2.24
-3.12 39.63 4.88
-0.92 11.74 -1.45
-0.93 11.79 -1.03
-1.18 15.01 2.93
-1.25 15.85 -0.83
-1.07 13.63 3.16
-1.19 15.11 -0.26
-0.99 12.62 3.39
-1.14 15.1 0.26
-0.64 8.54 -1.98
-0.88 11.73 0.62
-0.83 11.01 -2.15
-0.88 11.69 -1.86
-2.91 38.65 4.76
-0.9 11.94 -1.05
-1.13 15.02 -0.79
-1.02 13.57 3.14
-1.13 15.01 -0.26
-0.95 12.63 3.39
-1.07 14.97 0.26
-0.61 8.59 -1.99
-0.78 11 -2.14
-2.76 38.73 3.4
-1.11 15.56 -2.47
-1.11 15.61 -1.37
-1.08 15.1 2.94
-1.07 15.03 -0.79
-1.04 14.53 3.36
-1.07 15.02 -0.26
-0.9 12.63 3.39
-0.42 6.19 -1.66
-0.84 12.37 0.22
-0.59 8.64 -2
-0.75 11 -2.14
-1.05 15.42 1.35
-0.79 11.71 -1.86
-0.8 11.74 -1.45
-1.07 15.72 -1.38
-1.05 15.5 3.02
-1.02 15.04 -0.79
-0.92 13.64 3.16
-1.02 15.03 -0.26
-0.86 12.63 3.39
-0.4 6.14 -1.65
-0.96 14.89 0.26
-0.56 8.62 -2
-0.76 11.83 0.62
-0.71 11 -2.14
-0.77 11.89 1.04
-0.75 11.69 -1.86
-0.76 11.75 -1.45
-0.93 14.42 2.81
-0.97 15.03 -0.79
-0.87 13.56 3.14
-0.98 15.13 -0.26
-0.8 12.39 3.33
-0.38 6.15 -1.65
-0.92 15.07 0.26
-0.52 8.57 -1.98
-0.72 11.82 0.62
-0.67 11.01 -2.14
-0.93 15.17 1.33
-0.71 11.72 -1.86
-0.97 15.89 -1.96
-0.88 14.4 2.8
-0.91 14.96 -0.79
-0.82 13.52 3.13
-0.91 15 -0.26
-0.75 12.38 3.32
-0.35 6.15 -1.65
-0.87 15.12 0.26
-0.49 8.46 -1.96
-0.63 11.01 -2.14
-0.87 15.19 1.33
-0.67 11.72 -1.86
-0.67 11.74 -1.44
-0.82 14.34 2.79
-0.71 12.37 -0.65
-0.83 14.46 3.34
-0.71 12.32 -0.22
-0.81 14.11 3.79
-0.33 6.14 -1.65
-0.81 15.09 0.26
-0.46 8.44 -1.95
-0.64 11.81 0.62
-0.59 11.02 -2.14
-0.63 11.72 -1.86
-0.63 11.75 -1.44
-0.67 12.42 -1.09
-0.77 14.29 2.78
-0.67 12.36 -0.65
-0.79 14.64 3.38
-0.66 12.29 -0.21
-0.67 12.45 3.34
-0.31 6.13 -1.65
-0.76 15.13 0.26
-0.43 8.46 -1.96
-0.77 15.26 0.8
-0.56 11.01 -2.14
-1.63 32.31 2.83
-0.6 11.81 -1.87
-0.77 15.31 2.43
-0.72 14.26 2.78
-0.62 12.36 -0.65
-0.73 14.42 3.33
-0.76 15.03 -0.26
-0.63 12.48 3.35
-0.29 6.14 -1.65
-0.57 12.04 0.21
-0.4 8.58 -1.98
-0.55 11.81 0.62
-0.52 11.02 -2.15
-0.55 11.71 -1.86
-0.55 11.76 -1.45
-0.73 15.57 2.47
-0.56 11.82 -1.04
-0.54 11.58 2.25
-0.56 11.87 -0.62
-0.54 11.57 2.67
-0.71 15.06 -0.26
-0.53 11.21 3.01
-0.27 6.15 -1.65
-0.52 12.02 0.21
-0.38 8.69 -2.01
-0.51 11.64 0.61
-0.48 11.02 -2.14
-0.5 11.53 1.01
-0.51 11.72 -1.86
-0.5 11.54 1.42
-0.51 11.77 -1.45
-0.5 11.56 1.83
-0.52 12.01 -1.05
-0.5 11.55 2.25
-0.52 11.9 -0.62
-0.5 11.54 2.67
-0.66 15.08 -0.26
-0.49 11.21 3.01
-0.25 6.18 -1.66
-0.46 11.49 0.2
-0.35 8.72 -2.01
-0.46 11.49 0.6
-0.44 11.01 -2.14
-0.46 11.52 1.01
-0.46 11.43 -1.81
-0.46 11.55 1.42
-0.46 11.44 -1.41
-0.46 11.56 1.83
-0.46 11.45 -1
-0.46 11.59 2.26
-0.46 11.48 -0.6
-0.46 11.57 2.67
-0.46 11.47 -0.2
-0.56 13.94 3.74
-0.23 6.2 -1.66
-0.42 11.49 0.2
-0.32 8.75 -2.02
-0.42 11.51 0.6
-0.4 11.01 -2.14
-0.42 11.55 1.01
-0.42 11.41 -1.81
-0.42 11.44 -1.41
-0.42 11.44 -1
-0.52 14.3 2.78
-0.42 11.47 -0.6
-0.49 13.32 3.08
-0.42 11.45 -0.2
-0.5 13.78 3.69
-0.21 6.21 -1.66
-0.29 8.72 -2.01
-0.37 11.01 -2.14
-0.38 11.41 -1.81
-1.48 44.57 5.48
-0.38 11.44 -1.41
-0.52 15.68 2.48
-0.38 11.45 -1
-1.49 45.06 8.76
-0.38 11.49 -0.6
-0.45 13.46 3.11
-0.44 13.39 3.59
-0.19 6.21 -1.66
-0.35 11.79 0.21
-0.26 8.66 -2
-0.36 12.05 0.63
-0.33 11.02 -2.14
-0.94 31.55 2.76
-0.34 11.42 -1.81
-1.01 33.87 4.16
-0.35 11.79 -1.45
-0.47 15.65 2.48
-0.47 15.88 -1.39
-0.36 12.09 2.35
-0.35 11.89 -0.62
-0.38 12.72 -0.22
-0.41 13.9 3.73
-0.17 6.22 -1.67
-0.23 8.5 -1.96
-0.29 11.03 -2.14
-0.84 31.54 2.76
-0.31 11.74 -1.86
-0.85 32.13 3.95
-0.31 11.77 -1.45
-0.41 15.63 2.48
-0.67 25.29 -2.21
-0.36 13.56 2.64
-0.32 12.01 -0.63
-0.38 14.21 3.28
-0.34 12.71 -0.22
-0.37 13.77 3.69
-0.14 6.23 -1.67
-0.27 11.98 0.21
-0.19 8.5 -1.96
-0.73 32.25 1.69
-0.25 11.02 -2.14
-0.73 31.95 2.8
-0.27 11.74 -1.86
-0.73 32.21 3.96
-0.27 11.86 -1.46
-0.36 15.65 2.48
-0.57 25.29 -2.21
-1.04 45.97 8.94
-0.56 24.55 -1.29
-0.28 12.55 -0.22
-0.12 6.22 -1.67
-0.24 12.21 0.21
-0.16 8.51 -1.97
-0.63 32.28 1.69
-0.21 11.01 -2.14
-0.61 31.5 2.76
-0.24 12.64 -2
-0.85 43.91 5.39
-0.31 15.75 2.5
-0.23 11.84 -1.04
-0.24 12.4 2.41
-0.48 24.57 -1.29
-0.28 14.67 3.39
-0.24 12.57 -0.22
-0.24 12.51 3.35
-0.1 6.22 -1.67
-0.19 11.93 0.21
-0.13 8.51 -1.96
-0.19 11.95 0.63
-0.17 11.01 -2.14
-0.5 31.74 2.78
-0.18 11.75 -1.86
-0.54 34.45 4.23
-0.18 11.78 -1.45
-0.7 44.4 7.03
-0.24 15.07 -1.32
-0.21 13.13 2.55
-0.2 12.59 -0.66
-0.24 15.27 3.53
-0.19 12.21 -0.21
-0.2 12.48 3.34
-0.08 6.25 -1.67
-0.15 12.3 0.21
-0.11 8.47 -1.96
-0.16 12.68 0.66
-0.14 11.01 -2.14
-0.39 31.56 2.76
-0.15 11.72 -1.86
-0.4 32.5 3.99
-0.15 11.78 -1.45
-0.19 15.43 2.44
-0.31 25.32 -2.22
-0.15 12.4 2.41
-0.15 12.49 -0.65
-0.19 15.34 3.54
-0.15 11.98 -0.21
-0.05 6.25 -1.67
-0.11 12.26 0.21
-0.07 8.44 -1.95
-0.1 11.96 0.63
-0.1 11.02 -2.14
-0.28 31.9 2.79
-0.28 32.53 3.99
-0.1 11.79 -1.45
-0.13 14.85 2.35
-0.1 11.82 -1.03
-0.13 14.52 2.82
-0.11 12.49 -0.65
-0.13 15.39 3.55
-0.21 23.78 -0.42
-0.11 12.55 3.36
-0.03 6.27 -1.68
-0.05 8.47 -1.95
-0.06 11.02 -2.14
-0.17 31.79 2.78
-0.06 11.75 -1.86
-0.18 32.87 4.04
-0.06 11.79 -1.45
-0.09 16.13 2.55
-0.06 11.86 -1.04
-0.09 16.02 3.11
-0.13 24.55 -1.29
-0.08 14.48 3.34
-0.07 12.47 -0.22
-0.07 12.45 3.34
-0.01 6.31 -1.69
-0.02 12.31 0.21
-0.02 8.5 -1.96
-0.02 12.5 0.66
-0.02 11.03 -2.14
-0.02 12.49 1.09
-0.02 11.77 -1.86
-0.06 33.29 4.09
-0.02 12.5 -1.54
-0.03 16.05 2.54
-0.02 11.91 -1.04
-0.02 12.29 2.39
-0.05 24.54 -1.29
-0.03 14.62 3.37
-0.03 14.53 3.89
0.01 6.31 -1.69
0.01 8.52 -1.97
0.02 11.03 -2.14
0.05 33.56 2.94
0.02 11.77 -1.86
0.02 15.86 1.95
0.02 15.84 2.51
0.02 13.47 2.62
0.02 12.46 -0.65
0.02 12.01 -0.21
0.03 6.33 -1.7
0.06 12.01 0.21
0.04 8.54 -1.97
0.06 12.65 0.66
0.06 11.04 -2.15
0.16 31.58 2.76
0.06 11.76 -1.86
0.07 14.23 1.75
0.06 11.82 -1.45
0.08 15.91 2.52
0.07 13.46 2.62
0.06 12.47 -0.65
0.08 15.42 3.56
0.07 13.93 3.73
0.05 6.39 -1.71
0.1 12.14 0.21
0.07 8.54 -1.97
0.1 12.43 0.65
0.09 11.04 -2.15
0.28 33.87 2.96
0.1 11.8 -1.87
0.12 14.17 1.74
0.1 11.83 -1.45
0.12 13.8 2.19
0.1 11.86 -1.04
0.1 12.27 2.39
0.12 14.64 3.38
0.11 12.97 -0.23
0.08 6.41 -1.72
0.15 12.49 0.22
0.1 8.53 -1.97
0.15 13.02 0.68
0.13 11.04 -2.15
0.38 31.69 2.77
0.14 11.78 -1.87
0.41 34.66 4.26
0.14 11.82 -1.45
0.19 16.19 2.56
0.19 16.04 3.12
0.15 12.87 -0.67
0.16 13.34 3.08
0.15 12.86 -0.22
0.1 6.42 -1.72
0.19 12.5 0.22
0.13 8.53 -1.97
0.2 13 0.68
0.17 11.03 -2.14
0.18 11.79 -1.87
0.23 15.17 1.86
0.18 11.81 -1.45
0.23 15.41 2.44
0.19 12.83 -1.12
0.2 13.43 2.61
0.2 13.31 3.07
0.2 13.08 -0.23
0.19 12.6 3.38
0.12 6.42 -1.72
0.23 12.45 0.22
0.16 8.53 -1.97
0.25 13.03 0.68
0.21 11.03 -2.15
0.63 33.33 2.92
0.22 11.78 -1.87
0.28 14.88 1.83
0.22 11.81 -1.45
0.26 13.68 2.17
0.24 12.88 -1.13
0.25 13.31 2.59
0.25 13.34 -0.7
0.24 12.57 2.9
0.25 13.08 -0.23
0.28 15 4.02
0.14 6.43 -1.72
0.28 12.58 0.22
0.19 8.51 -1.97
0.29 12.99 0.68
0.24 11.04 -2.15
0.71 32.16 2.81
0.26 11.78 -1.87
0.31 14.11 1.73
0.26 11.81 -1.45
0.34 15.54 2.46
0.26 11.84 -1.04
0.3 13.35 -0.7
0.26 11.55 2.67
0.29 13.07 -0.23
0.27 12.3 3.3
0.17 6.43 -1.72
0.32 12.44 0.22
0.22 8.48 -1.96
0.32 12.21 0.64
0.29 11.04 -2.15
0.85 32.85 2.88
0.3 11.78 -1.87
0.36 14.1 1.73
0.31 11.82 -1.45
0.39 15.07 2.39
0.31 11.84 -1.04
0.35 13.36 2.6
0.34 13.33 -0.7
0.43 16.46 3.8
0.34 13.06 -0.23
0.32 12.3 3.3
0.19 6.44 -1.73
0.36 12.4 0.22
0.25 8.46 -1.95
0.35 12.15 0.64
0.32 11.05 -2.15
0.35 12 1.05
0.34 11.81 -1.87
0.41 14.09 1.73
0.44 15.05 2.38
0.41 14.08 2.74
0.39 13.3 -0.7
1.18 40.32 9.31
0.38 13.04 -0.23
0.35 12.04 3.23
0.21 6.45 -1.73
1.12 34.61 0.6
0.27 8.37 -1.93
0.39 12.13 0.64
0.36 11.04 -2.15
0.4 12.32 1.08
0.47 14.37 1.77
0.38 11.84 -1.45
0.46 14.31 2.27
0.38 11.85 -1.04
1.3 40.06 7.79
0.43 13.29 -0.7
0.45 13.93 3.22
0.41 12.51 -0.22
0.39 12.15 3.26
0.23 6.42 -1.72
0.46 12.79 0.22
0.3 8.36 -1.93
0.44 12.33 0.65
0.4 11.04 -2.15
1.14 31.97 2.8
0.42 11.78 -1.87
0.51 14.37 1.77
0.42 11.82 -1.45
0.52 14.42 2.29
0.48 13.48 2.62
0.48 13.28 -0.7
0.5 14 3.23
0.43 12.12 3.25
0.25 6.43 -1.72
1.36 34.39 0.6
0.33 8.36 -1.93
0.5 12.73 0.67
0.44 11.04 -2.15
1.27 31.96 2.8
0.47 11.8 -1.87
0.6 15.25 1.87
0.52 13.23 -1.63
0.58 14.64 2.32
0.47 11.92 -1.04
0.54 13.53 2.63
0.49 12.45 -0.65
0.59 14.86 3.43
0.57 14.46 3.88
0.28 6.41 -1.72
0.36 8.36 -1.93
0.48 11.06 -2.15
0.52 12.19 1.07
0.51 11.81 -1.87
0.67 15.52 1.91
0.51 11.85 -1.46
0.63 14.61 2.32
0.51 11.85 -1.04
0.56 13.13 2.56
0.54 12.64 2.92
0.55 12.73 -0.22
0.51 11.97 3.21
0.3 6.37 -1.71
0.59 12.6 0.22
0.39 8.36 -1.93
0.56 12.03 0.63
0.51 11.04 -2.15
0.58 12.37 1.08
0.55 11.8 -1.87
0.72 15.37 1.89
0.55 11.83 -1.45
0.63 13.6 2.16
0.59 12.69 -1.11
0.61 13.15 2.56
0.59 12.67 -0.66
0.59 12.59 2.91
0.59 12.58 -0.22
0.56 12.03 3.23
0.32 6.36 -1.71
0.42 8.35 -1.93
0.61 12.14 0.64
0.55 11.04 -2.15
0.61 12.27 1.07
0.6 11.91 -1.89
1.56 31.19 3.83
0.59 11.87 -1.04
0.7 13.97 2.72
0.66 13.21 -0.69
0.71 14.25 3.29
0.65 12.96 -0.23
0.6 11.99 3.22
0.34 6.32 -1.7
0.45 8.35 -1.93
0.68 12.65 0.66
0.59 11.05 -2.15
0.65 12.24 1.07
0.63 11.82 -1.88
0.78 14.68 1.8
0.63 11.86 -1.46
0.77 14.35 2.28
0.63 11.87 -1.04
0.7 13.12 2.55
0.71 13.22 -0.69
0.8 14.97 3.46
0.69 12.95 -0.23
0.68 12.69 3.4
0.36 6.31 -1.69
0.7 12.38 0.22
0.47 8.35 -1.93
0.7 12.23 0.64
0.63 11.05 -2.15
1.83 32.16 2.82
0.67 11.81 -1.87
0.8 14.13 1.74
0.67 11.87 -1.46
0.69 12.05 -1.06
0.7 12.39 2.41
0.75 13.18 -0.69
0.8 14.05 3.25
0.68 11.96 -0.21
0.72 12.68 3.4
0.38 6.3 -1.69
0.75 12.46 0.22
0.5 8.34 -1.93
0.67 11.05 -2.15
0.76 12.55 1.1
0.71 11.84 -1.88
0.88 14.57 1.79
0.71 11.86 -1.46
0.84 13.97 2.22
0.72 11.87 -1.04
0.92 15.26 2.97
0.79 13.16 -0.69
0.85 14.03 3.24
0.91 15.06 4.04
0.4 6.23 -1.67
0.79 12.42 0.22
0.53 8.36 -1.93
0.78 12.26 0.64
0.7 11.04 -2.15
0.77 12.09 1.06
0.75 11.8 -1.87
0.93 14.54 1.79
0.75 11.85 -1.46
0.89 13.95 2.21
0.76 11.88 -1.04
0.89 13.96 2.72
0.84 13.14 -0.69
0.76 11.91 -0.21
0.85 13.33 3.58
0.41 6.16 -1.65
0.56 8.37 -1.94
0.74 11.02 -2.15
2.17 32.18 2.82
0.8 11.83 -1.88
0.92 13.69 1.68
0.88 13.11 -1.15
0.86 12.77 2.49
0.82 12.14 -0.64
3.05 45.32 10.49
0.89 13.21 3.55
0.43 6.12 -1.65
0.59 8.36 -1.94
0.85 12.05 0.63
0.78 11.03 -2.15
2.35 33.18 2.91
0.84 11.83 -1.88
1.06 14.97 1.84
0.84 11.87 -1.46
0.97 13.69 2.17
0.84 11.86 -1.04
0.9 12.79 2.49
0.93 13.14 -0.69
3.22 45.56 10.54
0.91 12.88 -0.23
0.89 12.64 3.4
0.46 6.12 -1.64
0.62 8.35 -1.93
0.91 12.26 0.64
0.82 11.04 -2.15
2.41 32.3 2.83
0.88 11.79 -1.87
1.04 13.94 1.72
0.99 13.36 2.12
0.89 11.88 -1.04
0.96 12.82 2.5
1.02 13.71 3.17
0.96 12.9 -0.23
0.9 12.14 3.26
0.48 6.12 -1.64
0.94 12.03 0.21
0.65 8.33 -1.93
0.86 11.04 -2.15
2.76 35.39 3.11
0.92 11.82 -1.88
1.08 13.91 1.71
0.93 11.97 -1.47
1.04 13.34 2.12
0.93 11.89 -1.04
1.11 14.22 2.77
1.02 13.11 -0.69
1 12.9 -0.23
0.5 6.12 -1.64
0.98 12.04 0.21
0.68 8.32 -1.93
3.76 46.15 2.43
0.9 11.02 -2.15
1.15 14.14 1.24
0.97 11.86 -1.88
1.14 14.03 1.73
0.97 11.87 -1.46
0.97 11.87 -1.04
1.13 13.85 2.7
1.07 13.11 -0.69
1.05 12.89 2.99
1.05 12.88 -0.23
0.88 10.74 2.89
0.52 6.12 -1.65
3.86 45.43 0.8
0.71 8.32 -1.93
1.05 12.35 0.65
0.94 11.04 -2.15
1.2 14.09 1.24
1 11.81 -1.88
1.19 13.98 1.72
1.01 11.87 -1.46
1.18 13.87 2.21
1.11 13.05 -1.15
1.1 12.9 2.52
1.12 13.14 -0.69
1.09 12.85 -0.23
0.91 10.77 2.9
0.54 6.11 -1.64
4.04 45.72 0.8
0.74 8.33 -1.93
1.08 12.2 0.64
0.98 11.05 -2.16
1.24 14.08 1.24
1.23 13.89 1.71
1.05 11.9 -1.47
1.23 13.91 2.21
1.05 11.87 -1.04
1.3 14.76 2.88
1.16 13.14 -0.69
1.13 12.84 -0.22
1 11.37 3.06
0.56 6.11 -1.65
4.06 44.18 0.77
0.76 8.32 -1.93
3.11 33.87 1.78
1.01 11.05 -2.16
1.28 13.96 1.23
1.09 11.85 -1.88
1.26 13.75 1.69
1.09 11.89 -1.47
1.22 13.32 2.12
1.09 11.87 -1.04
1.36 14.78 2.88
1.21 13.14 -0.69
1.12 12.25 2.84
1.18 12.83 -0.22
1.3 14.2 3.82
0.58 6.12 -1.65
4.37 45.91 0.81
0.79 8.33 -1.93
3.43 36.01 1.9
1.05 11.05 -2.16
1.33 13.95 1.23
1.13 11.84 -1.88
1.28 13.49 1.66
1.13 11.89 -1.47
1.27 13.34 2.12
1.24 13.01 2.54
1.64 17.25 -0.91
1.15 12.08 2.8
1.22 12.8 -0.22
1.24 12.98 3.49
0.6 6.12 -1.65
4.36 44.22 0.78
0.82 8.33 -1.93
4.56 46.2 2.43
1.09 11.06 -2.16
1.38 13.95 1.23
1.28 12.97 -2.06
1.33 13.48 1.66
1.17 11.88 -1.47
1.44 14.61 2.33
1.18 11.91 -1.05
1.24 12.56 2.45
1.7 17.23 -0.91
1.21 12.21 2.83
1.26 12.76 -0.22
1.13 11.42 3.08
0.63 6.12 -1.65
4.51 43.99 0.77
0.85 8.33 -1.93
1.42 13.88 0.73
1.13 11.05 -2.16
1.43 13.97 1.23
1.21 11.86 -1.89
1.38 13.48 1.66
1.22 11.89 -1.47
1.42 13.81 2.2
1.22 11.89 -1.05
1.29 12.55 2.45
1.77 17.23 -0.91
1.22 11.93 2.77
