# .PCD v0.7 - Point Cloud Data file format
VERSION 0.7
FIELDS x y z
SIZE 4 4 4
TYPE F F F
COUNT 1 1 1
WIDTH 2884
HEIGHT 1
VIEWPOINT 0 0 0 1 0 0 0
POINTS 2884
DATA ascii
21.87 23.36 -1.68
4.32 4.58 -1.69
13.49 14.3 0.34
4.98 5.28 -1.68
13.47 14.28 1.03
5.89 6.24 -1.67
13.46 14.28 1.72
7.14 7.57 -1.65
9.2 9.76 -1.65
12.51 13.27 -1.59
21.96 23.3 -1.68
4.34 4.57 -1.69
13.58 14.31 0.34
5 5.26 -1.68
13.56 14.29 1.03
5.9 6.22 -1.67
13.56 14.29 1.72
7.17 7.55 -1.65
9.23 9.72 -1.65
12.54 13.22 -1.59
21.97 23.15 -1.67
33.53 35.33 -0.85
4.36 4.55 -1.69
13.69 14.31 0.35
5.01 5.24 -1.67
13.66 14.29 1.04
5.92 6.19 -1.66
13.67 14.29 1.73
7.2 7.53 -1.65
9.27 9.69 -1.65
12.63 13.21 -1.6
22.03 23.04 -1.67
33.52 35.06 -0.85
4.36 4.53 -1.69
13.76 14.29 0.35
5.04 5.23 -1.68
13.76 14.29 1.04
5.95 6.18 -1.67
13.74 14.27 1.73
7.22 7.5 -1.65
9.31 9.67 -1.65
12.69 13.18 -1.6
22.15 23.01 -1.67
4.38 4.52 -1.69
5.06 5.22 -1.68
5.97 6.16 -1.67
7.24 7.47 -1.65
9.34 9.64 -1.65
12.82 13.23 -1.61
22.24 22.95 -1.67
4.4 4.5 -1.69
5.07 5.19 -1.68
5.99 6.14 -1.67
7.27 7.45 -1.65
9.38 9.61 -1.65
12.94 13.25 -1.62
22.49 23.04 -1.69
4.42 4.5 -1.69
5.09 5.18 -1.68
6.01 6.11 -1.67
7.29 7.41 -1.65
9.41 9.57 -1.65
12.84 13.06 -1.6
22.08 22.47 -1.65
32.19 32.74 -0.8
4.43 4.48 -1.69
5.11 5.16 -1.68
6.02 6.09 -1.66
7.32 7.39 -1.65
9.45 9.54 -1.65
12.93 13.06 -1.61
22.68 22.92 -1.69
32.3 32.63 -0.8
4.44 4.45 -1.68
5.13 5.15 -1.68
6.05 6.07 -1.67
7.34 7.36 -1.65
9.49 9.51 -1.65
12.85 12.89 -1.59
22.47 22.54 -1.67
32.3 32.4 -0.8
4.45 4.44 -1.68
5.14 5.12 -1.68
6.07 6.05 -1.67
7.36 7.33 -1.64
9.51 9.48 -1.65
12.78 12.73 -1.58
22.43 22.35 -1.66
32.69 32.57 -0.81
4.48 4.43 -1.69
5.17 5.11 -1.68
6.1 6.03 -1.67
7.38 7.3 -1.64
9.53 9.43 -1.65
12.85 12.71 -1.58
22.13 21.9 -1.63
32.83 32.49 -0.81
4.5 4.42 -1.69
5.18 5.09 -1.68
6.12 6.01 -1.67
7.41 7.29 -1.65
9.56 9.4 -1.65
39.59 38.92 8.79
13 12.77 -1.59
22.15 21.77 -1.63
4.51 4.4 -1.69
5.19 5.07 -1.68
6.13 5.98 -1.66
7.44 7.26 -1.65
9.59 9.37 -1.65
39.75 38.81 8.8
13.09 12.78 -1.6
22.22 21.69 -1.63
4.52 4.38 -1.69
5.21 5.05 -1.68
6.15 5.96 -1.67
39.27 38.08 4.79
7.46 7.23 -1.64
9.62 9.33 -1.65
13.08 12.69 -1.59
22.3 21.62 -1.63
4.53 4.36 -1.68
5.23 5.04 -1.68
6.18 5.95 -1.67
7.47 7.2 -1.64
40.06 38.58 6.83
9.65 9.29 -1.64
13.13 12.65 -1.6
22.41 21.58 -1.63
4.55 4.35 -1.69
5.23 5.01 -1.67
6.19 5.92 -1.67
7.5 7.18 -1.64
9.68 9.26 -1.64
13.19 12.61 -1.6
22.55 21.57 -1.64
34.11 32.63 -0.82
4.57 4.34 -1.69
5.26 4.99 -1.67
6.22 5.91 -1.67
7.53 7.15 -1.64
9.69 9.21 -1.64
13.31 12.64 -1.61
22.62 21.48 -1.63
34.21 32.49 -0.82
4.58 4.32 -1.69
5.28 4.98 -1.68
6.23 5.88 -1.66
40.49 38.19 4.87
7.55 7.13 -1.64
40.2 37.92 6.79
9.73 9.17 -1.64
40.3 38.01 8.77
13.37 12.61 -1.61
13.83 13.05 -1
35.72 33.69 -0.86
4.59 4.3 -1.68
5.3 4.97 -1.68
40.63 38.05 2.92
6.25 5.85 -1.66
40.89 38.29 4.9
7.58 7.1 -1.64
9.76 9.14 -1.64
13.44 12.59 -1.61
4.61 4.29 -1.69
40.73 37.88 0.97
5.32 4.95 -1.68
40.81 37.96 2.92
6.27 5.83 -1.66
7.59 7.06 -1.64
40.97 38.11 6.87
9.79 9.11 -1.64
13.51 12.56 -1.61
22.78 21.18 -1.63
4.62 4.27 -1.68
40.73 37.64 0.97
5.32 4.92 -1.67
41.19 38.06 2.94
6.3 5.82 -1.67
41.78 38.61 4.98
7.62 7.04 -1.64
9.8 9.06 -1.64
43.09 39.82 9.29
13.54 12.51 -1.61
22.82 21.09 -1.63
4.64 4.26 -1.69
5.34 4.9 -1.67
6.32 5.8 -1.67
7.65 7.02 -1.64
42.67 39.16 7.11
9.83 9.02 -1.64
13.58 12.46 -1.61
22.87 20.99 -1.63
4.65 4.24 -1.69
5.38 4.91 -1.68
6.33 5.77 -1.66
7.67 6.99 -1.64
42.46 38.69 7.05
9.86 8.99 -1.64
13.62 12.41 -1.61
22.98 20.94 -1.63
4.66 4.22 -1.68
5.4 4.88 -1.68
6.34 5.74 -1.66
7.69 6.96 -1.64
41.2 37.28 6.82
9.88 8.94 -1.64
13.6 12.31 -1.6
23.03 20.84 -1.63
4.68 4.2 -1.69
5.41 4.86 -1.68
6.37 5.72 -1.66
7.71 6.93 -1.64
9.91 8.91 -1.64
13.65 12.27 -1.61
23.05 20.71 -1.62
4.69 4.19 -1.69
5.42 4.83 -1.68
6.39 5.71 -1.67
7.73 6.9 -1.64
9.94 8.87 -1.64
13.71 12.23 -1.61
22.84 20.38 -1.6
4.71 4.17 -1.69
5.44 4.82 -1.68
6.4 5.68 -1.66
7.76 6.88 -1.64
9.96 8.83 -1.63
13.78 12.21 -1.61
23.33 20.68 -1.63
4.72 4.16 -1.69
5.46 4.8 -1.68
6.41 5.64 -1.66
7.79 6.85 -1.64
9.98 8.78 -1.63
13.82 12.17 -1.61
23.37 20.57 -1.63
4.73 4.14 -1.68
5.48 4.79 -1.68
6.44 5.63 -1.66
7.81 6.82 -1.64
9.97 8.72 -1.63
13.85 12.1 -1.61
4.75 4.12 -1.68
5.49 4.77 -1.68
6.45 5.6 -1.66
7.83 6.79 -1.64
10.04 8.72 -1.63
13.89 12.05 -1.61
23.4 20.31 -1.62
4.76 4.1 -1.68
5.5 4.74 -1.68
6.48 5.58 -1.66
7.86 6.77 -1.64
10.07 8.67 -1.63
13.95 12.01 -1.61
23.51 20.25 -1.63
4.78 4.09 -1.69
5.52 4.72 -1.68
6.5 5.56 -1.66
7.88 6.74 -1.64
10.08 8.62 -1.63
13.98 11.96 -1.61
23.39 20 -1.61
4.79 4.07 -1.68
5.54 4.71 -1.68
6.51 5.53 -1.66
7.9 6.71 -1.64
10.14 8.61 -1.63
14.02 11.91 -1.61
23.37 19.87 -1.61
4.8 4.05 -1.68
5.56 4.69 -1.68
6.52 5.51 -1.66
7.93 6.69 -1.64
10.17 8.58 -1.63
14.06 11.87 -1.61
23.59 19.91 -1.62
4.82 4.04 -1.68
5.57 4.67 -1.68
6.54 5.48 -1.66
7.94 6.65 -1.64
10.21 8.55 -1.64
14.1 11.81 -1.61
23.56 19.75 -1.61
4.83 4.02 -1.68
5.58 4.64 -1.68
6.57 5.46 -1.66
7.97 6.63 -1.64
10.23 8.51 -1.63
14.14 11.76 -1.61
23.6 19.64 -1.61
4.85 4.01 -1.69
5.61 4.63 -1.68
6.59 5.44 -1.66
7.99 6.6 -1.64
33.51 27.68 5.34
10.25 8.47 -1.63
14.17 11.71 -1.61
23.66 19.54 -1.61
4.86 3.99 -1.68
5.62 4.61 -1.68
6.6 5.41 -1.66
8.02 6.58 -1.64
10.29 8.44 -1.63
14.22 11.66 -1.61
23.72 19.46 -1.61
4.87 3.97 -1.68
5.64 4.59 -1.68
6.61 5.39 -1.66
8.03 6.54 -1.64
10.32 8.41 -1.63
14.24 11.61 -1.61
23.78 19.37 -1.61
4.88 3.95 -1.68
5.65 4.57 -1.68
6.64 5.37 -1.66
8.05 6.51 -1.64
10.35 8.37 -1.63
14.29 11.56 -1.61
23.85 19.29 -1.61
4.9 3.94 -1.68
5.66 4.55 -1.68
6.66 5.35 -1.66
8.08 6.49 -1.64
10.37 8.33 -1.63
14.33 11.51 -1.61
23.85 19.15 -1.6
4.92 3.92 -1.68
43.62 34.78 0.97
5.67 4.52 -1.68
6.67 5.32 -1.66
8.1 6.46 -1.64
10.39 8.28 -1.63
14.37 11.46 -1.61
23.93 19.08 -1.6
4.93 3.9 -1.68
5.7 4.51 -1.68
43.8 34.68 2.93
6.69 5.29 -1.66
8.12 6.43 -1.64
33.83 26.78 5.3
10.42 8.25 -1.63
14.39 11.39 -1.61
23.94 18.96 -1.6
4.94 3.88 -1.68
5.72 4.5 -1.68
6.7 5.27 -1.66
43.9 34.51 4.89
8.15 6.41 -1.64
10.45 8.22 -1.63
14.45 11.35 -1.61
24.08 18.93 -1.61
4.95 3.87 -1.68
39.37 30.75 0.87
5.73 4.48 -1.68
6.73 5.25 -1.66
8.16 6.37 -1.64
10.48 8.18 -1.63
14.45 11.29 -1.6
24.08 18.81 -1.6
4.97 3.85 -1.68
5.75 4.46 -1.68
6.74 5.23 -1.66
8.19 6.35 -1.64
10.51 8.15 -1.63
14.48 11.23 -1.6
24.13 18.71 -1.6
4.99 3.84 -1.69
5.77 4.44 -1.68
6.76 5.21 -1.66
8.21 6.32 -1.64
10.53 8.1 -1.63
14.54 11.19 -1.61
24.19 18.62 -1.6
5 3.82 -1.68
5.78 4.41 -1.68
6.77 5.18 -1.66
8.23 6.29 -1.64
10.55 8.06 -1.63
32.27 24.67 6.43
14.55 11.12 -1.6
24.27 18.55 -1.6
5 3.8 -1.68
40.69 30.87 0.89
5.8 4.4 -1.68
6.79 5.16 -1.66
8.26 6.27 -1.64
10.59 8.04 -1.63
14.58 11.06 -1.6
24.35 18.48 -1.6
5.02 3.78 -1.68
5.81 4.37 -1.68
6.82 5.13 -1.66
8.28 6.24 -1.64
10.61 8 -1.63
14.61 11.01 -1.6
24.43 18.4 -1.6
5.04 3.77 -1.68
43.29 32.39 0.94
5.81 4.35 -1.68
6.84 5.11 -1.66
8.29 6.2 -1.64
10.65 7.96 -1.63
14.66 10.97 -1.6
24.45 18.29 -1.6
5.05 3.75 -1.68
5.83 4.33 -1.68
6.85 5.09 -1.66
8.32 6.18 -1.64
10.66 7.92 -1.63
33.77 25.08 6.66
14.68 10.9 -1.6
24.55 18.23 -1.6
5.06 3.73 -1.68
5.85 4.31 -1.68
6.86 5.06 -1.66
8.34 6.15 -1.64
36.55 26.95 5.58
10.7 7.89 -1.63
33.93 25.01 6.68
14.71 10.85 -1.6
24.63 18.16 -1.6
5.07 3.71 -1.68
5.87 4.29 -1.68
6.89 5.04 -1.66
35.7 26.13 3.87
8.37 6.13 -1.64
10.72 7.84 -1.63
14.75 10.79 -1.6
24.67 18.06 -1.6
5.09 3.7 -1.68
5.88 4.27 -1.68
6.91 5.02 -1.66
8.38 6.09 -1.64
10.75 7.81 -1.63
14.78 10.74 -1.6
24.8 18.03 -1.61
5.1 3.68 -1.68
5.89 4.25 -1.68
6.93 5 -1.66
8.4 6.06 -1.64
10.78 7.77 -1.63
14.8 10.68 -1.6
24.77 17.87 -1.6
5.11 3.66 -1.68
5.9 4.23 -1.68
6.94 4.97 -1.66
34.97 25.04 3.76
8.42 6.03 -1.64
10.78 7.72 -1.63
14.83 10.62 -1.6
24.86 17.8 -1.6
5.12 3.64 -1.68
5.91 4.2 -1.68
6.96 4.94 -1.66
8.45 6 -1.64
10.82 7.69 -1.63
14.88 10.58 -1.6
24.97 17.75 -1.61
5.13 3.62 -1.68
5.93 4.19 -1.68
6.98 4.92 -1.66
34.17 24.11 3.66
8.46 5.97 -1.64
10.84 7.65 -1.63
36.33 25.64 7.04
14.9 10.52 -1.6
25.03 17.67 -1.61
5.15 3.6 -1.68
5.94 4.16 -1.68
7 4.9 -1.66
34.62 24.25 3.7
8.47 5.93 -1.64
10.87 7.62 -1.63
35.55 24.9 6.87
14.93 10.46 -1.59
38.96 27.29 10.98
5.16 3.59 -1.68
21.59 15.01 0.46
5.95 4.14 -1.67
7.02 4.88 -1.66
8.49 5.9 -1.64
10.89 7.57 -1.63
14.96 10.4 -1.59
21.58 15.01 -1.38
21.59 15.01 -0.46
35.09 24.39 11.45
5.18 3.57 -1.68
21.61 14.91 0.46
5.97 4.12 -1.67
21.6 14.91 1.38
7.04 4.86 -1.66
21.6 14.9 2.3
8.51 5.88 -1.64
21.56 14.88 3.22
10.91 7.53 -1.63
37.41 25.82 7.2
15.01 10.36 -1.6
21.64 14.94 -1.38
21.64 14.93 -0.46
5.19 3.56 -1.69
21.7 14.87 0.46
5.98 4.1 -1.67
21.77 14.92 1.38
7.05 4.83 -1.66
21.7 14.87 2.3
8.54 5.85 -1.64
10.94 7.5 -1.63
15.01 10.29 -1.59
25.03 17.15 -1.59
37.79 25.9 -0.8
5.19 3.53 -1.68
37.89 25.77 0.8
6 4.08 -1.68
21.92 14.9 1.39
7.07 4.81 -1.66
37.53 25.52 3.97
8.56 5.82 -1.64
10.96 7.46 -1.63
37.05 25.2 7.1
15.05 10.24 -1.59
36.71 24.97 8.63
25.07 17.05 -1.59
37.96 25.82 -0.8
5.2 3.51 -1.68
40.28 27.19 0.85
6.02 4.06 -1.68
21.97 14.83 1.39
7.09 4.79 -1.66
8.56 5.78 -1.64
10.99 7.42 -1.63
35.16 23.73 6.72
15.11 10.2 -1.6
25.16 16.99 -1.59
36.72 24.78 10.23
5.22 3.5 -1.68
40.29 26.99 0.85
6.02 4.03 -1.67
7.11 4.76 -1.66
34.37 23.02 3.62
8.58 5.75 -1.64
11.02 7.38 -1.63
21.58 14.46 4.11
15.14 10.14 -1.59
25.35 16.98 -1.6
36.47 24.43 11.76
5.23 3.48 -1.68
40.92 27.23 0.86
6.03 4.01 -1.67
7.12 4.74 -1.66
37.69 25.08 3.96
8.61 5.73 -1.64
11.03 7.34 -1.63
21.6 14.37 4.11
15.17 10.09 -1.59
25.48 16.95 -1.6
5.25 3.47 -1.68
40.8 26.94 0.85
6.05 3.99 -1.67
40.28 26.6 2.53
7.13 4.71 -1.66
8.62 5.69 -1.64
34.28 22.64 5.04
11.06 7.3 -1.63
21.63 14.29 4.11
15.24 10.06 -1.6
40.19 26.54 9.36
25.7 16.97 -1.61
40 26.42 11.07
5.25 3.44 -1.68
40.66 26.64 0.85
6.08 3.98 -1.68
40.38 26.45 2.53
7.15 4.69 -1.66
35.93 23.54 3.76
8.64 5.66 -1.64
11.09 7.26 -1.63
15.24 9.98 -1.59
40.28 26.39 9.36
25.81 16.91 -1.62
5.27 3.42 -1.68
40.66 26.43 0.85
6.08 3.95 -1.67
38.29 24.89 2.39
7.17 4.66 -1.66
8.65 5.62 -1.63
37.58 24.43 5.5
11.11 7.22 -1.63
40.59 26.39 7.67
15.27 9.93 -1.59
40.58 26.39 9.41
25.95 16.87 -1.62
5.28 3.41 -1.68
41.06 26.5 0.85
6.1 3.93 -1.67
40.85 26.37 2.55
7.19 4.64 -1.66
8.68 5.6 -1.64
41.02 26.47 5.99
11.13 7.18 -1.63
35.04 22.62 6.61
15.32 9.89 -1.59
25.89 16.71 -1.62
5.29 3.39 -1.68
6.1 3.91 -1.67
39.19 25.1 2.44
7.21 4.62 -1.66
40.99 26.25 4.26
8.7 5.57 -1.64
11.15 7.14 -1.63
15.36 9.83 -1.6
26 16.65 -1.62
5.31 3.37 -1.68
6.12 3.89 -1.67
39.19 24.9 2.43
7.21 4.58 -1.66
37.49 23.82 3.89
8.73 5.54 -1.64
40.7 25.86 5.92
11.17 7.1 -1.62
37.29 23.69 7
15.36 9.76 -1.59
26.07 16.56 -1.62
5.31 3.35 -1.68
6.13 3.87 -1.67
7.22 4.55 -1.66
8.74 5.51 -1.64
11.19 7.05 -1.62
15.39 9.7 -1.59
26.16 16.49 -1.62
5.32 3.33 -1.68
45.55 28.52 0.94
6.15 3.85 -1.67
39.22 24.56 2.43
7.24 4.53 -1.66
8.75 5.48 -1.64
11.21 7.02 -1.62
37.92 23.74 7.09
15.42 9.66 -1.59
26.27 16.45 -1.62
36.48 22.84 9.94
5.34 3.31 -1.68
6.16 3.82 -1.67
39.31 24.42 2.43
7.26 4.51 -1.66
8.77 5.45 -1.64
11.24 6.98 -1.62
40.65 25.25 7.58
15.46 9.6 -1.59
26.37 16.38 -1.63
36.52 22.68 9.92
5.36 3.3 -1.69
6.17 3.8 -1.67
39.21 24.16 2.41
7.28 4.48 -1.66
37.55 23.14 3.86
8.78 5.41 -1.63
11.26 6.94 -1.62
34.43 21.21 6.41
15.47 9.53 -1.59
26.51 16.33 -1.63
39.45 24.31 10.7
35.52 21.88 11.18
5.36 3.28 -1.68
42.78 26.15 0.88
6.19 3.78 -1.67
39.69 24.26 2.44
7.29 4.45 -1.66
38.66 23.63 3.96
8.81 5.38 -1.64
11.27 6.89 -1.62
39.29 24.01 7.29
15.5 9.48 -1.59
40.36 24.67 9.19
26.68 16.31 -1.64
39.44 24.11 10.67
39.05 23.87 12.26
5.36 3.25 -1.68
33.48 20.31 0.68
6.2 3.76 -1.68
42.77 25.95 2.62
7.29 4.42 -1.66
37.98 23.04 3.89
8.82 5.35 -1.63
11.31 6.86 -1.62
15.52 9.42 -1.59
39.02 23.67 8.87
26.92 16.33 -1.65
33.5 20.32 -0.68
5.38 3.24 -1.68
33.51 20.16 0.68
6.22 3.74 -1.68
33.51 20.16 2.05
7.32 4.4 -1.66
33.48 20.15 3.42
8.83 5.31 -1.63
42.68 25.68 6.12
11.34 6.82 -1.63
15.55 9.36 -1.59
27.07 16.29 -1.66
36.71 22.09 9.89
5.39 3.22 -1.68
6.22 3.71 -1.67
33.6 20.07 2.05
7.33 4.38 -1.66
33.56 20.04 3.42
8.85 5.29 -1.63
11.37 6.79 -1.63
39.27 23.45 7.24
15.58 9.31 -1.59
42.63 25.46 9.65
27.18 16.24 -1.66
5.41 3.21 -1.69
6.23 3.69 -1.67
7.35 4.35 -1.66
8.88 5.26 -1.63
11.37 6.74 -1.62
39.38 23.33 7.25
15.56 9.22 -1.58
27.08 16.05 -1.65
42.58 25.22 11.42
5.41 3.18 -1.68
6.24 3.67 -1.67
7.34 4.32 -1.66
8.9 5.23 -1.63
11.41 6.71 -1.62
38.89 22.87 7.15
15.55 9.14 -1.58
27.17 15.98 -1.65
5.42 3.16 -1.68
6.27 3.65 -1.67
7.37 4.3 -1.66
8.92 5.2 -1.64
11.44 6.67 -1.63
15.61 9.1 -1.58
27.38 15.97 -1.66
35.79 20.88 9.57
5.43 3.14 -1.68
6.27 3.63 -1.67
7.38 4.27 -1.66
8.93 5.17 -1.63
11.48 6.64 -1.63
43.18 24.99 7.9
15.66 9.06 -1.58
27.6 15.97 -1.67
5.45 3.13 -1.68
48.5 27.84 0.98
6.28 3.6 -1.67
7.4 4.25 -1.66
8.94 5.13 -1.63
11.49 6.6 -1.63
15.74 9.03 -1.59
24.64 14.14 -1.49
5.46 3.11 -1.68
48.61 27.68 0.98
6.3 3.59 -1.67
7.41 4.22 -1.66
38.89 22.14 3.92
8.98 5.11 -1.64
11.51 6.55 -1.63
15.75 8.97 -1.59
24.56 13.99 -1.48
5.47 3.09 -1.68
6.31 3.56 -1.67
48.67 27.49 2.93
7.42 4.19 -1.66
9 5.08 -1.64
11.54 6.52 -1.63
15.77 8.91 -1.58
24.74 13.97 -1.49
5.47 3.07 -1.68
6.32 3.54 -1.67
7.44 4.17 -1.66
48.79 27.35 4.89
9.01 5.05 -1.64
41.72 23.38 5.87
11.56 6.48 -1.63
15.78 8.85 -1.58
25.1 14.07 -1.51
5.48 3.04 -1.68
6.33 3.52 -1.67
7.45 4.14 -1.66
42.77 23.77 4.28
9.03 5.02 -1.64
48.91 27.18 6.87
11.58 6.44 -1.63
15.85 8.81 -1.59
25.17 13.99 -1.51
5.49 3.03 -1.68
6.34 3.5 -1.67
7.48 4.12 -1.66
9.04 4.99 -1.64
11.61 6.4 -1.63
15.86 8.75 -1.58
25.23 13.91 -1.51
5.51 3.01 -1.68
6.35 3.47 -1.67
7.49 4.09 -1.66
37.08 20.28 3.7
9.06 4.96 -1.64
11.61 6.35 -1.63
48.99 26.79 8.84
15.9 8.69 -1.59
25.33 13.85 -1.51
43.53 23.81 11.45
5.52 2.99 -1.68
6.37 3.45 -1.67
7.49 4.06 -1.66
9.09 4.93 -1.64
11.63 6.31 -1.63
15.93 8.64 -1.59
25.49 13.83 -1.52
5.52 2.97 -1.68
6.38 3.43 -1.67
7.51 4.04 -1.66
36.96 19.88 3.67
9.11 4.9 -1.64
11.67 6.28 -1.63
15.93 8.57 -1.58
49.1 26.41 10.84
25.64 13.79 -1.53
5.54 2.95 -1.68
6.39 3.41 -1.67
7.52 4.01 -1.66
9.11 4.86 -1.64
11.68 6.23 -1.63
15.96 8.51 -1.58
49.35 26.33 10.87
25.75 13.74 -1.53
5.55 2.94 -1.68
6.4 3.39 -1.67
7.55 3.99 -1.66
9.13 4.83 -1.64
41.07 21.73 5.7
11.71 6.2 -1.63
15.99 8.46 -1.58
25.83 13.67 -1.53
49.34 26.11 12.89
5.56 2.92 -1.68
6.41 3.36 -1.67
7.55 3.96 -1.66
9.15 4.8 -1.64
41.11 21.59 5.7
11.71 6.15 -1.62
16.02 8.41 -1.58
25.83 13.56 -1.53
48.04 25.22 14.54
5.57 2.9 -1.68
46.22 24.07 0.91
6.42 3.34 -1.67
7.56 3.93 -1.66
38.16 19.87 3.76
9.16 4.77 -1.64
11.72 6.1 -1.62
16.06 8.36 -1.58
25.96 13.52 -1.53
5.57 2.87 -1.68
6.44 3.32 -1.67
7.58 3.91 -1.66
9.19 4.74 -1.64
41.93 21.63 5.79
11.75 6.06 -1.62
16.07 8.29 -1.58
26 13.42 -1.53
5.58 2.86 -1.68
46.8 23.95 0.92
6.45 3.3 -1.67
7.59 3.88 -1.66
9.18 4.7 -1.63
42.11 21.55 5.81
11.77 6.02 -1.62
16.12 8.25 -1.58
25.83 13.22 -1.52
5.6 2.84 -1.68
6.45 3.27 -1.67
47.63 24.17 2.8
7.61 3.86 -1.66
9.21 4.67 -1.64
42.23 21.43 5.81
11.79 5.98 -1.62
16.14 8.19 -1.58
25.96 13.17 -1.53
47.18 23.95 14.18
5.61 2.82 -1.68
47.02 23.67 0.92
6.47 3.26 -1.67
47.71 24.02 2.8
7.62 3.83 -1.66
9.23 4.65 -1.64
11.79 5.94 -1.62
16.17 8.14 -1.58
26.12 13.15 -1.53
47.16 23.74 14.15
5.62 2.8 -1.68
6.48 3.23 -1.67
47.8 23.83 2.8
7.63 3.8 -1.66
43.25 21.57 4.23
9.25 4.61 -1.64
11.81 5.89 -1.62
16.19 8.07 -1.58
26.09 13.01 -1.53
47.27 23.57 14.15
5.62 2.78 -1.68
47.21 23.34 0.92
6.49 3.21 -1.67
7.64 3.78 -1.66
43.4 21.46 4.24
9.26 4.58 -1.64
11.83 5.85 -1.62
16.18 8 -1.58
26.18 12.95 -1.53
5.63 2.76 -1.68
47.36 23.21 0.92
6.5 3.19 -1.67
7.66 3.75 -1.66
9.27 4.54 -1.63
11.85 5.81 -1.62
42.54 20.85 7.5
16.22 7.95 -1.58
47.01 23.04 -0.91
5.64 2.74 -1.68
47.47 23.07 0.92
6.5 3.16 -1.67
7.68 3.73 -1.66
9.28 4.51 -1.64
11.88 5.77 -1.62
16.23 7.89 -1.58
47.15 22.92 -0.92
5.65 2.72 -1.68
6.52 3.14 -1.67
7.68 3.7 -1.66
9.31 4.48 -1.64
11.89 5.73 -1.62
16.27 7.84 -1.58
47.21 22.73 -0.91
48.78 23.49 14.51
5.66 2.7 -1.68
6.52 3.11 -1.67
49.66 23.71 2.88
7.68 3.67 -1.66
9.32 4.45 -1.64
11.89 5.67 -1.62
46.54 22.22 8.17
16.29 7.78 -1.58
47.09 22.48 12.05
5.67 2.68 -1.68
6.55 3.1 -1.67
7.7 3.64 -1.66
49.77 23.53 4.82
9.33 4.41 -1.63
11.91 5.63 -1.62
46.39 21.94 8.13
16.3 7.71 -1.58
47.2 22.32 12.05
49.93 23.61 14.8
5.68 2.66 -1.68
6.55 3.07 -1.67
7.73 3.62 -1.66
47.45 22.25 4.59
9.33 4.38 -1.63
49.67 23.29 6.74
11.94 5.6 -1.62
16.33 7.66 -1.58
5.69 2.64 -1.68
6.56 3.05 -1.67
7.74 3.59 -1.66
9.36 4.35 -1.63
11.94 5.55 -1.62
46.32 21.52 8.09
16.37 7.61 -1.58
5.7 2.63 -1.68
6.57 3.02 -1.67
48.02 22.12 2.77
7.75 3.57 -1.66
47.51 21.88 4.58
9.37 4.32 -1.63
11.98 5.52 -1.62
45.87 21.13 8
16.4 7.55 -1.58
48.06 22.14 14.18
5.71 2.61 -1.68
48.01 21.91 0.92
6.58 3 -1.67
7.75 3.54 -1.66
47.59 21.72 4.58
9.39 4.29 -1.64
11.99 5.47 -1.62
46.11 21.04 8.03
16.41 7.49 -1.58
47.43 21.65 12.04
5.71 2.58 -1.68
47.62 21.54 0.91
6.6 2.98 -1.67
7.76 3.51 -1.66
47.62 21.54 4.57
9.41 4.25 -1.64
12.01 5.43 -1.62
46.15 20.88 8.02
16.43 7.43 -1.58
49.75 22.5 10.61
47.66 21.56 12.08
5.72 2.57 -1.68
6.6 2.96 -1.67
7.78 3.49 -1.66
47.67 21.36 4.57
9.42 4.22 -1.63
12.04 5.4 -1.62
16.45 7.37 -1.58
47.76 21.4 12.08
5.74 2.55 -1.68
50 22.21 0.96
6.6 2.93 -1.67
51.13 22.71 2.93
7.8 3.46 -1.66
47.75 21.21 4.57
9.43 4.19 -1.64
12.06 5.36 -1.62
22.15 9.84 3.84
16.49 7.32 -1.58
47.89 21.27 12.1
47.83 21.24 14.02
5.75 2.53 -1.68
50.53 22.22 0.96
6.62 2.91 -1.67
7.8 3.43 -1.66
47.82 21.03 4.57
9.45 4.16 -1.64
12.07 5.31 -1.62
21.95 9.65 3.8
16.51 7.26 -1.58
21.98 9.67 4.67
26.56 11.68 -1.52
5.76 2.51 -1.68
50.81 22.14 0.97
6.63 2.89 -1.67
7.8 3.4 -1.65
9.47 4.13 -1.64
48.8 21.27 6.54
12.09 5.27 -1.62
22.06 9.62 3.81
16.54 7.21 -1.58
22.06 9.62 4.68
26.59 11.59 -1.52
49.92 21.76 12.57
5.76 2.49 -1.68
6.64 2.86 -1.67
52.49 22.65 3
7.81 3.37 -1.65
48.33 20.85 4.6
9.48 4.09 -1.64
48.95 21.12 6.55
12.11 5.23 -1.62
22.13 9.55 3.82
16.55 7.14 -1.58
22.25 9.6 4.71
26.64 11.49 -1.52
48.32 20.85 12.15
48.29 20.84 14.09
5.77 2.47 -1.68
50.64 21.64 0.96
6.66 2.84 -1.67
48.75 20.83 2.78
7.83 3.35 -1.66
48.35 20.66 4.6
9.49 4.05 -1.63
47.04 20.1 6.28
12.14 5.19 -1.62
22.24 9.5 3.83
16.59 7.09 -1.58
26.68 11.4 -1.52
48.57 20.75 12.2
48.3 20.64 14.07
5.78 2.44 -1.68
6.66 2.82 -1.67
48.92 20.69 2.78
7.85 3.32 -1.66
48.77 20.63 4.63
9.51 4.02 -1.64
47.15 19.95 6.29
12.17 5.15 -1.62
16.64 7.04 -1.58
48.44 20.49 12.14
5.79 2.43 -1.68
6.67 2.79 -1.67
48.67 20.38 2.77
7.86 3.29 -1.66
49.08 20.55 4.66
9.52 3.99 -1.63
47.24 19.78 6.29
12.18 5.1 -1.62
49.8 20.86 8.55
16.67 6.98 -1.58
5.8 2.41 -1.68
6.68 2.77 -1.67
48.87 20.29 2.77
7.86 3.27 -1.66
49.48 20.55 4.69
9.53 3.96 -1.63
47.54 19.74 6.32
12.2 5.07 -1.62
16.69 6.93 -1.58
47.85 19.87 10.07
5.79 2.38 -1.68
6.7 2.75 -1.67
7.88 3.24 -1.66
9.54 3.92 -1.63
47.58 19.56 6.32
12.22 5.02 -1.62
16.71 6.87 -1.58
48.65 20 10.22
59.46 24.44 -1.12
5.8 2.36 -1.68
6.7 2.73 -1.67
7.89 3.21 -1.66
9.55 3.89 -1.63
52.19 21.26 6.92
12.23 4.98 -1.62
16.73 6.81 -1.58
48.62 19.8 10.21
49 19.96 14.18
5.82 2.35 -1.68
6.7 2.7 -1.67
7.9 3.18 -1.66
52.93 21.34 4.99
9.56 3.85 -1.63
12.25 4.94 -1.62
16.76 6.75 -1.58
48.78 19.67 10.22
49.12 19.8 12.23
5.83 2.33 -1.68
6.71 2.68 -1.67
50.17 20.02 2.83
7.91 3.16 -1.66
9.59 3.83 -1.63
12.26 4.89 -1.62
16.8 6.71 -1.58
5.83 2.3 -1.68
6.73 2.66 -1.67
49.64 19.61 2.8
7.92 3.13 -1.66
52.77 20.85 4.96
9.6 3.79 -1.63
12.27 4.85 -1.62
58.06 22.94 9.89
16.81 6.64 -1.58
5.83 2.28 -1.68
6.74 2.64 -1.67
7.93 3.1 -1.66
9.61 3.76 -1.64
12.29 4.81 -1.62
49.17 19.23 8.36
16.8 6.57 -1.58
49.65 19.42 12.31
5.85 2.26 -1.68
6.75 2.61 -1.67
7.94 3.07 -1.66
52.69 20.39 4.94
9.62 3.72 -1.63
12.3 4.76 -1.62
49.39 19.11 8.39
16.82 6.51 -1.58
49.9 19.31 12.35
5.86 2.24 -1.68
6.75 2.58 -1.67
7.96 3.05 -1.66
9.63 3.69 -1.63
51.51 19.73 6.77
12.32 4.72 -1.62
16.85 6.45 -1.58
49.98 19.15 12.36
5.87 2.23 -1.68
6.76 2.56 -1.67
56.41 21.38 3.16
7.97 3.02 -1.66
52.77 20 4.94
9.65 3.66 -1.63
12.33 4.67 -1.62
49.89 18.91 8.45
16.87 6.39 -1.58
5.87 2.2 -1.68
6.77 2.54 -1.67
7.97 2.99 -1.66
9.66 3.62 -1.63
12.35 4.64 -1.62
16.88 6.34 -1.58
26.82 10.06 -1.5
50.34 18.89 12.41
5.87 2.18 -1.68
6.79 2.52 -1.67
7.99 2.96 -1.66
9.67 3.59 -1.63
12.38 4.6 -1.62
49.83 18.5 8.42
16.89 6.27 -1.58
26.91 9.99 -1.5
50.37 18.7 12.4
5.89 2.16 -1.68
6.79 2.5 -1.67
8 2.94 -1.66
9.67 3.55 -1.63
12.4 4.55 -1.62
16.91 6.21 -1.58
27.05 9.94 -1.51
5.9 2.15 -1.68
6.79 2.47 -1.67
8.01 2.91 -1.66
9.69 3.52 -1.63
12.41 4.51 -1.62
16.93 6.15 -1.58
27.08 9.84 -1.51
50.8 18.45 12.48
5.9 2.12 -1.68
61.55 22.12 1.14
6.8 2.44 -1.67
8.02 2.88 -1.66
9.7 3.49 -1.63
12.42 4.46 -1.62
16.93 6.09 -1.57
5.91 2.1 -1.68
6.82 2.42 -1.67
8.02 2.85 -1.65
9.73 3.46 -1.64
12.44 4.42 -1.62
16.94 6.02 -1.57
5.91 2.08 -1.68
6.83 2.4 -1.67
8.03 2.82 -1.66
9.73 3.42 -1.63
12.46 4.38 -1.62
16.96 5.96 -1.57
5.92 2.06 -1.68
6.84 2.38 -1.67
8.05 2.8 -1.66
9.74 3.38 -1.63
12.47 4.34 -1.62
16.98 5.9 -1.57
25.14 8.74 -1.39
5.93 2.04 -1.68
6.83 2.35 -1.67
8.07 2.78 -1.66
9.75 3.35 -1.63
12.49 4.3 -1.62
17.01 5.86 -1.57
25.09 8.64 -1.39
5.94 2.02 -1.68
6.85 2.33 -1.67
8.07 2.74 -1.66
9.77 3.32 -1.63
12.49 4.25 -1.62
17.09 5.81 -1.58
5.95 2 -1.68
6.86 2.31 -1.67
8.07 2.72 -1.66
9.78 3.29 -1.63
12.5 4.2 -1.62
17.08 5.74 -1.58
5.94 1.98 -1.68
6.87 2.29 -1.67
8.09 2.69 -1.66
9.78 3.25 -1.63
12.52 4.16 -1.62
17.08 5.68 -1.58
5.95 1.96 -1.68
6.87 2.26 -1.67
8.1 2.66 -1.66
9.8 3.22 -1.63
12.54 4.12 -1.62
17.12 5.63 -1.58
5.96 1.94 -1.68
6.87 2.23 -1.67
8.1 2.63 -1.66
9.81 3.19 -1.63
12.55 4.08 -1.62
17.16 5.58 -1.58
5.97 1.92 -1.68
6.89 2.21 -1.67
8.12 2.61 -1.66
9.83 3.16 -1.63
12.56 4.03 -1.62
17.18 5.52 -1.58
5.98 1.9 -1.68
6.9 2.19 -1.67
8.12 2.58 -1.66
9.84 3.12 -1.63
12.58 3.99 -1.62
17.19 5.45 -1.58
5.98 1.87 -1.68
6.91 2.17 -1.67
8.13 2.55 -1.66
9.85 3.09 -1.64
12.59 3.94 -1.62
17.23 5.4 -1.58
5.98 1.85 -1.68
6.92 2.14 -1.67
8.15 2.52 -1.66
9.85 3.05 -1.63
12.61 3.91 -1.62
17.26 5.34 -1.58
6 1.84 -1.68
6.92 2.12 -1.67
8.16 2.5 -1.66
9.86 3.02 -1.63
67.04 20.51 8.61
12.62 3.86 -1.62
17.31 5.3 -1.58
6.01 1.82 -1.68
6.93 2.09 -1.67
8.18 2.47 -1.66
9.88 2.99 -1.63
12.61 3.81 -1.62
17.33 5.24 -1.58
6.01 1.79 -1.68
6.93 2.07 -1.67
8.17 2.44 -1.66
9.9 2.95 -1.64
12.64 3.77 -1.62
70.34 20.98 11.63
17.34 5.17 -1.58
6.01 1.77 -1.68
6.95 2.05 -1.67
8.18 2.41 -1.66
9.9 2.92 -1.63
12.66 3.73 -1.62
17.35 5.11 -1.58
25.15 7.41 -1.37
6.03 1.75 -1.68
6.96 2.02 -1.67
8.19 2.38 -1.66
9.91 2.88 -1.63
12.66 3.68 -1.62
17.39 5.06 -1.58
25.22 7.34 -1.38
6.03 1.73 -1.68
6.95 2 -1.67
8.2 2.36 -1.66
9.92 2.85 -1.63
12.67 3.64 -1.62
17.4 5 -1.58
6.04 1.71 -1.68
6.96 1.97 -1.67
8.21 2.33 -1.66
9.93 2.81 -1.64
12.69 3.6 -1.62
17.42 4.94 -1.58
25.66 7.27 -1.4
6.05 1.69 -1.68
6.98 1.95 -1.67
8.21 2.3 -1.66
9.95 2.78 -1.64
12.69 3.55 -1.62
22.31 6.24 3.67
17.41 4.87 -1.58
6.05 1.67 -1.68
6.99 1.93 -1.67
8.23 2.27 -1.66
9.95 2.74 -1.63
12.71 3.51 -1.62
22.06 6.09 3.63
17.41 4.8 -1.58
22.24 6.13 4.48
6.05 1.65 -1.68
6.99 1.9 -1.67
8.23 2.24 -1.66
9.96 2.71 -1.63
12.73 3.46 -1.62
22.27 6.06 3.66
17.43 4.74 -1.58
22.14 6.03 4.46
6.06 1.63 -1.68
6.99 1.88 -1.67
8.24 2.21 -1.66
9.98 2.68 -1.64
12.74 3.42 -1.62
22.32 5.99 3.66
17.46 4.69 -1.58
22.29 5.98 4.49
6.08 1.61 -1.68
7 1.85 -1.67
8.24 2.18 -1.66
9.99 2.65 -1.64
12.75 3.37 -1.62
17.49 4.63 -1.58
22.37 5.92 4.5
33.38 8.83 -0.6
6.07 1.59 -1.68
7.02 1.83 -1.67
8.24 2.15 -1.66
10.01 2.61 -1.64
12.75 3.33 -1.62
17.47 4.56 -1.58
27.88 7.28 -1.51
6.07 1.56 -1.68
7.02 1.81 -1.67
8.25 2.13 -1.66
10.01 2.58 -1.64
12.78 3.29 -1.62
17.48 4.5 -1.58
27.9 7.19 -1.51
6.09 1.54 -1.68
7.03 1.78 -1.67
8.27 2.1 -1.66
10.01 2.54 -1.64
12.79 3.24 -1.62
17.5 4.44 -1.58
27.93 7.08 -1.51
6.1 1.52 -1.68
7.02 1.76 -1.67
8.26 2.07 -1.66
10.02 2.5 -1.64
12.8 3.2 -1.62
17.52 4.38 -1.58
27.74 6.93 -1.5
6.11 1.5 -1.68
7.04 1.73 -1.67
8.28 2.04 -1.66
10.04 2.47 -1.64
12.8 3.15 -1.62
17.53 4.32 -1.58
27.84 6.85 -1.5
6.11 1.48 -1.68
7.05 1.71 -1.68
8.28 2.01 -1.66
10.05 2.44 -1.64
12.82 3.11 -1.62
17.54 4.25 -1.58
27.88 6.76 -1.5
6.11 1.46 -1.68
7.06 1.69 -1.68
8.3 1.98 -1.66
10.05 2.4 -1.64
12.84 3.07 -1.62
17.55 4.19 -1.58
27.97 6.68 -1.51
6.12 1.44 -1.68
7.06 1.66 -1.67
8.29 1.95 -1.66
10.05 2.36 -1.64
12.85 3.02 -1.62
17.56 4.13 -1.58
28.05 6.59 -1.51
6.12 1.42 -1.68
7.07 1.64 -1.67
8.3 1.92 -1.66
10.07 2.33 -1.64
12.86 2.98 -1.62
17.57 4.07 -1.58
6.13 1.4 -1.68
7.08 1.61 -1.68
8.32 1.9 -1.66
10.07 2.29 -1.64
12.88 2.93 -1.62
17.6 4.01 -1.58
28.16 6.41 -1.51
42.04 9.57 -0.75
6.13 1.37 -1.68
7.09 1.59 -1.68
8.32 1.87 -1.66
10.08 2.26 -1.64
12.88 2.89 -1.62
17.59 3.95 -1.58
28.11 6.3 -1.51
42.07 9.43 -0.75
6.13 1.35 -1.68
7.1 1.57 -1.68
8.32 1.84 -1.66
10.09 2.23 -1.64
12.91 2.85 -1.62
17.61 3.88 -1.58
6.13 1.33 -1.68
7.1 1.54 -1.68
8.34 1.81 -1.66
10.09 2.19 -1.64
12.92 2.81 -1.62
17.62 3.83 -1.58
6.15 1.31 -1.68
7.1 1.52 -1.68
8.35 1.78 -1.66
10.1 2.16 -1.64
12.93 2.76 -1.62
17.64 3.77 -1.58
42.31 9.04 -0.76
6.16 1.29 -1.69
7.11 1.49 -1.68
8.36 1.75 -1.66
10.11 2.12 -1.64
12.93 2.71 -1.62
17.67 3.71 -1.58
42.3 8.87 -0.75
6.16 1.27 -1.69
7.12 1.47 -1.68
8.36 1.72 -1.66
10.12 2.09 -1.64
12.94 2.67 -1.62
17.7 3.65 -1.58
6.16 1.25 -1.68
7.14 1.45 -1.68
8.36 1.69 -1.66
10.12 2.05 -1.64
12.95 2.62 -1.62
17.7 3.59 -1.58
29.33 5.94 -0.52
6.17 1.23 -1.69
7.14 1.42 -1.68
8.38 1.67 -1.66
10.13 2.02 -1.64
12.98 2.58 -1.62
17.74 3.53 -1.58
6.18 1.21 -1.69
7.14 1.4 -1.68
8.39 1.64 -1.66
10.14 1.98 -1.64
12.98 2.54 -1.62
17.75 3.47 -1.58
28.37 5.55 -1.52
29.18 5.7 -0.52
6.18 1.19 -1.69
7.15 1.37 -1.68
8.39 1.61 -1.66
10.16 1.95 -1.64
12.99 2.49 -1.62
17.8 3.41 -1.59
28.35 5.44 -1.51
29.24 5.61 -0.52
6.19 1.16 -1.69
7.15 1.35 -1.68
8.39 1.58 -1.66
10.18 1.92 -1.64
13 2.45 -1.62
17.79 3.35 -1.58
28.38 5.34 -1.51
6.19 1.14 -1.69
7.17 1.32 -1.68
8.4 1.55 -1.66
10.17 1.88 -1.64
13.01 2.4 -1.62
17.79 3.29 -1.58
28.45 5.25 -1.52
30.22 5.58 -0.54
6.19 1.12 -1.69
7.17 1.3 -1.68
8.42 1.53 -1.66
10.17 1.84 -1.64
13.02 2.36 -1.63
17.82 3.23 -1.58
28.49 5.16 -1.52
6.2 1.1 -1.69
7.16 1.27 -1.68
8.43 1.5 -1.66
10.19 1.81 -1.64
13.03 2.31 -1.63
17.81 3.16 -1.58
28.46 5.06 -1.52
6.21 1.08 -1.69
7.17 1.25 -1.68
8.44 1.47 -1.66
10.2 1.77 -1.64
13.03 2.27 -1.62
17.83 3.1 -1.58
6.22 1.06 -1.69
7.18 1.22 -1.68
8.43 1.44 -1.66
10.2 1.74 -1.64
13.04 2.22 -1.62
17.79 3.03 -1.58
28.55 4.86 -1.52
6.21 1.04 -1.69
7.18 1.2 -1.68
8.44 1.41 -1.66
10.2 1.7 -1.64
13.07 2.18 -1.63
17.8 2.97 -1.58
6.21 1.02 -1.69
7.19 1.17 -1.68
8.44 1.38 -1.66
10.2 1.67 -1.64
13.08 2.14 -1.63
17.79 2.91 -1.58
28.63 4.68 -1.52
6.22 0.99 -1.69
7.18 1.15 -1.68
8.46 1.35 -1.67
10.21 1.63 -1.64
13.09 2.09 -1.63
17.82 2.84 -1.58
27.46 4.38 -1.46
6.23 0.97 -1.69
7.19 1.12 -1.68
8.46 1.32 -1.66
10.23 1.6 -1.64
13.09 2.04 -1.63
17.86 2.79 -1.58
6.23 0.95 -1.69
7.2 1.1 -1.68
8.46 1.29 -1.66
10.24 1.56 -1.64
13.1 2 -1.63
6.22 0.93 -1.69
7.21 1.08 -1.68
8.46 1.26 -1.66
10.26 1.53 -1.64
13.1 1.95 -1.63
17.89 2.67 -1.58
6.23 0.91 -1.69
7.21 1.05 -1.68
8.47 1.23 -1.66
10.24 1.49 -1.64
13.11 1.91 -1.63
17.9 2.6 -1.58
28.81 4.19 -1.53
6.24 0.89 -1.69
7.21 1.02 -1.68
8.49 1.21 -1.67
10.26 1.46 -1.64
13.13 1.86 -1.63
17.91 2.54 -1.58
28.82 4.09 -1.53
6.24 0.86 -1.69
7.21 1 -1.68
8.49 1.17 -1.67
10.26 1.42 -1.64
13.13 1.82 -1.63
17.91 2.48 -1.58
28.86 3.99 -1.53
6.24 0.84 -1.69
7.22 0.97 -1.68
8.48 1.14 -1.66
10.27 1.39 -1.64
13.14 1.77 -1.63
17.94 2.42 -1.58
28.79 3.89 -1.52
6.23 0.82 -1.68
7.23 0.95 -1.68
8.49 1.12 -1.66
10.28 1.35 -1.64
13.16 1.73 -1.63
17.92 2.36 -1.58
28.81 3.79 -1.52
6.24 0.8 -1.69
7.22 0.92 -1.68
8.5 1.09 -1.67
10.27 1.32 -1.64
13.17 1.69 -1.63
17.94 2.3 -1.58
28.89 3.7 -1.53
6.24 0.78 -1.69
7.22 0.9 -1.68
8.51 1.06 -1.67
10.29 1.28 -1.64
13.17 1.64 -1.63
17.96 2.23 -1.58
28.81 3.58 -1.52
6.25 0.76 -1.69
7.22 0.87 -1.68
8.51 1.03 -1.67
10.3 1.25 -1.64
13.17 1.59 -1.63
18 2.18 -1.59
28.92 3.5 -1.53
6.26 0.73 -1.69
7.23 0.85 -1.68
8.5 1 -1.66
10.32 1.21 -1.65
13.18 1.55 -1.63
18.01 2.11 -1.59
29.05 3.41 -1.53
6.24 0.71 -1.68
7.24 0.82 -1.68
8.5 0.97 -1.66
10.31 1.17 -1.64
13.19 1.5 -1.63
18.01 2.05 -1.59
29.07 3.31 -1.53
6.25 0.69 -1.69
7.24 0.8 -1.68
8.51 0.94 -1.66
10.31 1.14 -1.64
13.21 1.46 -1.63
18.03 1.99 -1.59
29.03 3.21 -1.53
6.25 0.67 -1.68
7.24 0.77 -1.68
8.52 0.91 -1.67
10.31 1.1 -1.64
13.21 1.41 -1.63
18.04 1.93 -1.59
29.12 3.11 -1.53
6.26 0.65 -1.69
7.24 0.75 -1.68
8.52 0.88 -1.66
10.32 1.07 -1.64
13.2 1.36 -1.63
18.06 1.87 -1.59
6.26 0.63 -1.69
7.24 0.72 -1.68
8.51 0.85 -1.66
10.33 1.03 -1.64
13.21 1.32 -1.63
18.07 1.81 -1.59
29.26 2.92 -1.54
6.26 0.6 -1.69
7.26 0.7 -1.68
8.52 0.82 -1.66
10.33 1 -1.64
13.23 1.28 -1.63
18.07 1.74 -1.59
6.26 0.58 -1.68
7.26 0.68 -1.68
8.52 0.79 -1.66
10.33 0.96 -1.64
13.23 1.23 -1.63
18.08 1.68 -1.59
29.28 2.72 -1.54
6.26 0.56 -1.68
7.25 0.65 -1.68
8.53 0.76 -1.66
10.33 0.93 -1.64
13.24 1.19 -1.63
18.09 1.62 -1.59
6.27 0.54 -1.69
7.25 0.63 -1.68
8.54 0.74 -1.67
10.34 0.89 -1.64
13.22 1.14 -1.63
18.11 1.56 -1.59
6.27 0.52 -1.69
7.26 0.6 -1.68
8.52 0.7 -1.66
10.35 0.85 -1.64
13.24 1.09 -1.63
18.09 1.49 -1.59
29.31 2.42 -1.54
6.27 0.5 -1.68
7.27 0.58 -1.68
8.54 0.68 -1.66
10.36 0.82 -1.65
13.24 1.05 -1.63
18.09 1.43 -1.59
6.27 0.47 -1.68
7.27 0.55 -1.68
8.53 0.64 -1.66
10.34 0.78 -1.64
13.26 1 -1.63
18.1 1.37 -1.59
6.28 0.45 -1.69
7.26 0.52 -1.68
8.55 0.62 -1.67
10.35 0.75 -1.64
13.26 0.96 -1.63
18.1 1.31 -1.59
6.28 0.43 -1.69
7.27 0.5 -1.68
8.54 0.59 -1.66
10.36 0.71 -1.64
13.25 0.91 -1.63
18.12 1.25 -1.59
29.54 2.03 -1.55
6.28 0.41 -1.69
7.27 0.47 -1.68
8.53 0.56 -1.66
10.36 0.68 -1.64
13.26 0.87 -1.63
18.12 1.18 -1.59
29.55 1.93 -1.55
6.27 0.39 -1.68
7.28 0.45 -1.68
8.54 0.53 -1.66
10.37 0.64 -1.65
13.26 0.82 -1.63
18.11 1.12 -1.59
29.6 1.83 -1.55
6.28 0.37 -1.69
7.28 0.43 -1.68
8.55 0.5 -1.66
10.36 0.61 -1.64
13.27 0.78 -1.63
18.12 1.06 -1.59
29.63 1.73 -1.56
6.28 0.34 -1.69
7.27 0.4 -1.68
8.55 0.47 -1.66
10.37 0.57 -1.64
13.27 0.73 -1.63
18.12 0.99 -1.59
29.66 1.63 -1.56
6.29 0.32 -1.69
7.28 0.37 -1.68
8.55 0.44 -1.66
10.37 0.53 -1.65
13.27 0.68 -1.63
18.14 0.93 -1.59
6.29 0.3 -1.69
7.28 0.35 -1.68
8.54 0.41 -1.66
10.37 0.5 -1.64
13.28 0.64 -1.63
18.14 0.87 -1.59
6.28 0.28 -1.68
7.3 0.33 -1.69
8.55 0.38 -1.66
10.38 0.46 -1.65
13.29 0.59 -1.63
18.16 0.81 -1.59
29.78 1.33 -1.56
6.29 0.26 -1.69
7.29 0.3 -1.68
8.55 0.35 -1.66
10.37 0.43 -1.64
13.3 0.55 -1.63
18.16 0.75 -1.59
29.78 1.22 -1.56
6.3 0.24 -1.69
7.28 0.27 -1.68
8.57 0.32 -1.67
10.38 0.39 -1.65
13.3 0.5 -1.63
18.17 0.68 -1.59
6.3 0.21 -1.69
7.29 0.25 -1.68
8.56 0.29 -1.67
10.39 0.35 -1.65
13.29 0.45 -1.63
18.18 0.62 -1.59
6.29 0.19 -1.69
7.28 0.22 -1.68
8.56 0.26 -1.66
10.39 0.32 -1.65
13.31 0.41 -1.63
18.19 0.56 -1.59
6.3 0.17 -1.69
7.29 0.2 -1.68
8.56 0.23 -1.66
10.39 0.28 -1.65
13.31 0.36 -1.63
18.18 0.49 -1.59
6.3 0.15 -1.69
7.3 0.17 -1.68
8.57 0.2 -1.67
10.39 0.25 -1.65
13.32 0.32 -1.64
18.19 0.43 -1.59
29.8 0.7 -1.56
6.31 0.13 -1.69
7.28 0.15 -1.68
8.58 0.17 -1.67
10.39 0.21 -1.65
13.32 0.27 -1.64
18.19 0.37 -1.59
29.8 0.6 -1.56
6.31 0.11 -1.69
7.29 0.12 -1.68
8.58 0.14 -1.67
10.4 0.17 -1.65
13.32 0.22 -1.64
18.21 0.3 -1.59
6.31 0.08 -1.69
7.29 0.1 -1.68
8.57 0.12 -1.67
10.4 0.14 -1.65
13.33 0.18 -1.64
18.22 0.24 -1.59
29.88 0.4 -1.57
6.3 0.06 -1.69
7.3 0.07 -1.68
8.58 0.09 -1.67
10.41 0.1 -1.65
13.33 0.13 -1.64
18.2 0.18 -1.59
6.31 0.04 -1.69
7.3 0.05 -1.69
8.58 0.05 -1.67
10.4 0.07 -1.65
13.34 0.08 -1.64
18.23 0.11 -1.59
29.88 0.19 -1.57
6.31 0.02 -1.69
7.28 0.02 -1.68
8.59 0.02 -1.67
10.4 0.03 -1.65
13.35 0.04 -1.64
18.21 0.05 -1.59
29.88 0.09 -1.57
6.31 -0 -1.69
7.29 -0 -1.68
8.59 -0 -1.67
10.4 -0.01 -1.65
13.35 -0.01 -1.64
18.23 -0.01 -1.59
6.32 -0.02 -1.69
7.3 -0.03 -1.68
8.59 -0.03 -1.67
10.42 -0.04 -1.65
13.35 -0.05 -1.64
18.24 -0.07 -1.6
6.31 -0.05 -1.69
7.3 -0.05 -1.68
8.59 -0.06 -1.67
10.42 -0.08 -1.65
13.34 -0.1 -1.64
18.21 -0.14 -1.59
6.31 -0.07 -1.69
7.3 -0.08 -1.69
8.59 -0.09 -1.67
10.41 -0.11 -1.65
13.35 -0.14 -1.64
18.21 -0.2 -1.59
6.31 -0.09 -1.69
7.29 -0.1 -1.68
8.6 -0.12 -1.67
10.42 -0.15 -1.65
13.35 -0.19 -1.64
18.22 -0.26 -1.59
6.32 -0.11 -1.69
7.29 -0.13 -1.68
8.6 -0.15 -1.67
10.43 -0.18 -1.65
13.35 -0.23 -1.64
18.24 -0.32 -1.6
6.32 -0.13 -1.69
7.3 -0.15 -1.69
8.58 -0.18 -1.67
10.42 -0.22 -1.65
13.34 -0.28 -1.64
18.23 -0.39 -1.6
6.31 -0.15 -1.69
7.31 -0.18 -1.69
8.59 -0.21 -1.67
10.43 -0.25 -1.65
13.35 -0.33 -1.64
18.21 -0.45 -1.59
6.31 -0.18 -1.69
7.3 -0.21 -1.69
8.6 -0.24 -1.67
10.42 -0.29 -1.65
13.36 -0.38 -1.64
18.23 -0.51 -1.6
6.32 -0.2 -1.69
7.3 -0.23 -1.69
8.6 -0.27 -1.67
10.42 -0.33 -1.65
13.36 -0.42 -1.64
18.26 -0.57 -1.6
59.46 -1.87 -1.04
6.32 -0.22 -1.7
7.3 -0.25 -1.69
8.6 -0.3 -1.67
10.42 -0.36 -1.65
13.36 -0.47 -1.64
18.26 -0.64 -1.6
6.32 -0.24 -1.7
7.3 -0.28 -1.69
8.59 -0.33 -1.67
10.43 -0.4 -1.65
13.35 -0.51 -1.64
18.25 -0.7 -1.6
29.99 -1.15 -1.57
6.31 -0.26 -1.69
7.31 -0.31 -1.69
8.59 -0.36 -1.67
10.42 -0.44 -1.65
13.36 -0.56 -1.64
18.22 -0.76 -1.6
6.32 -0.29 -1.69
7.3 -0.33 -1.69
8.6 -0.39 -1.67
10.43 -0.47 -1.65
13.36 -0.6 -1.64
18.24 -0.83 -1.6
6.32 -0.31 -1.69
7.29 -0.36 -1.69
8.61 -0.42 -1.68
10.43 -0.51 -1.65
13.36 -0.65 -1.64
18.24 -0.89 -1.6
6.32 -0.33 -1.7
7.3 -0.38 -1.69
8.61 -0.45 -1.68
10.43 -0.54 -1.65
13.35 -0.7 -1.64
18.27 -0.95 -1.6
29.97 -1.57 -1.57
6.32 -0.35 -1.7
7.3 -0.41 -1.69
8.59 -0.48 -1.67
10.43 -0.58 -1.65
13.36 -0.74 -1.64
18.28 -1.02 -1.6
29.96 -1.67 -1.57
6.31 -0.37 -1.69
7.3 -0.43 -1.69
8.59 -0.51 -1.67
10.42 -0.62 -1.65
13.36 -0.79 -1.64
18.28 -1.08 -1.6
29.96 -1.77 -1.57
6.31 -0.4 -1.69
7.3 -0.46 -1.69
8.59 -0.54 -1.67
10.43 -0.65 -1.65
13.37 -0.84 -1.64
18.32 -1.15 -1.61
29.95 -1.88 -1.57
6.32 -0.42 -1.7
7.29 -0.48 -1.69
8.6 -0.57 -1.68
10.42 -0.69 -1.65
13.36 -0.88 -1.64
18.33 -1.21 -1.61
6.33 -0.44 -1.7
7.29 -0.51 -1.69
8.6 -0.6 -1.68
10.42 -0.73 -1.65
13.35 -0.93 -1.64
18.35 -1.28 -1.61
30.04 -2.1 -1.58
6.31 -0.46 -1.7
7.29 -0.53 -1.69
8.59 -0.63 -1.67
10.41 -0.76 -1.65
13.36 -0.98 -1.64
18.35 -1.34 -1.61
6.3 -0.48 -1.69
7.3 -0.56 -1.69
8.59 -0.66 -1.67
10.42 -0.8 -1.66
13.36 -1.02 -1.65
18.38 -1.41 -1.61
6.31 -0.5 -1.7
7.3 -0.58 -1.69
8.59 -0.69 -1.67
10.42 -0.83 -1.66
13.37 -1.07 -1.65
18.36 -1.47 -1.61
6.3 -0.53 -1.7
7.28 -0.61 -1.69
8.6 -0.72 -1.68
10.41 -0.87 -1.66
13.36 -1.12 -1.65
18.4 -1.54 -1.62
30 -2.51 -1.58
6.31 -0.55 -1.7
7.28 -0.63 -1.69
8.59 -0.75 -1.68
10.41 -0.91 -1.66
13.35 -1.16 -1.65
18.4 -1.6 -1.62
6.32 -0.57 -1.7
7.29 -0.66 -1.69
8.58 -0.78 -1.67
10.42 -0.94 -1.66
13.35 -1.21 -1.65
18.41 -1.67 -1.62
30.09 -2.73 -1.58
6.3 -0.59 -1.7
7.29 -0.69 -1.69
8.58 -0.81 -1.68
10.41 -0.98 -1.66
13.35 -1.26 -1.65
18.39 -1.73 -1.62
30.08 -2.83 -1.58
6.3 -0.62 -1.7
7.3 -0.71 -1.69
8.58 -0.84 -1.68
10.41 -1.02 -1.66
13.36 -1.31 -1.65
18.42 -1.8 -1.62
30.09 -2.94 -1.58
6.3 -0.64 -1.7
7.28 -0.74 -1.69
8.58 -0.87 -1.68
10.4 -1.05 -1.66
13.35 -1.35 -1.65
18.43 -1.87 -1.62
30.05 -3.04 -1.58
6.3 -0.66 -1.7
7.27 -0.76 -1.69
8.58 -0.9 -1.68
10.4 -1.09 -1.66
13.36 -1.39 -1.65
18.42 -1.92 -1.62
30.12 -3.14 -1.59
6.3 -0.68 -1.7
7.28 -0.79 -1.69
8.57 -0.93 -1.68
10.41 -1.12 -1.66
13.35 -1.44 -1.65
18.43 -1.99 -1.62
30.03 -3.24 -1.58
6.29 -0.7 -1.7
7.28 -0.81 -1.69
8.57 -0.96 -1.68
10.39 -1.16 -1.66
13.36 -1.49 -1.65
18.43 -2.05 -1.62
30.02 -3.35 -1.58
6.28 -0.72 -1.69
7.28 -0.84 -1.69
8.57 -0.99 -1.68
10.39 -1.19 -1.66
13.37 -1.54 -1.65
18.45 -2.12 -1.62
30 -3.45 -1.58
6.29 -0.75 -1.7
7.26 -0.86 -1.69
8.58 -1.02 -1.68
10.4 -1.23 -1.66
13.36 -1.59 -1.65
18.46 -2.19 -1.63
29.96 -3.56 -1.58
6.3 -0.77 -1.7
7.27 -0.89 -1.69
8.58 -1.05 -1.68
10.39 -1.27 -1.66
13.37 -1.63 -1.65
18.45 -2.26 -1.63
29.96 -3.66 -1.58
6.29 -0.79 -1.7
7.27 -0.91 -1.69
8.57 -1.07 -1.68
10.4 -1.31 -1.66
13.37 -1.68 -1.65
18.45 -2.31 -1.63
29.93 -3.76 -1.58
6.28 -0.81 -1.7
7.28 -0.94 -1.69
8.57 -1.11 -1.68
10.38 -1.34 -1.66
13.39 -1.73 -1.66
18.46 -2.38 -1.63
29.89 -3.86 -1.58
6.28 -0.83 -1.7
7.27 -0.96 -1.69
8.57 -1.14 -1.68
10.37 -1.37 -1.66
13.39 -1.77 -1.66
18.46 -2.45 -1.63
29.89 -3.96 -1.58
6.27 -0.85 -1.7
7.25 -0.99 -1.69
8.58 -1.17 -1.68
10.39 -1.41 -1.66
13.39 -1.82 -1.66
18.47 -2.51 -1.63
29.84 -4.06 -1.58
6.28 -0.88 -1.7
7.25 -1.01 -1.69
8.57 -1.2 -1.68
10.35 -1.45 -1.66
13.38 -1.87 -1.66
18.49 -2.58 -1.63
29.76 -4.16 -1.57
6.27 -0.9 -1.7
7.25 -1.04 -1.69
8.56 -1.23 -1.68
10.38 -1.49 -1.66
13.39 -1.92 -1.66
18.5 -2.65 -1.64
29.4 -4.21 -1.56
6.26 -0.92 -1.7
7.26 -1.07 -1.69
8.56 -1.26 -1.68
10.38 -1.53 -1.66
13.39 -1.97 -1.66
18.51 -2.72 -1.64
28.98 -4.26 -1.54
6.26 -0.94 -1.7
7.25 -1.09 -1.69
8.55 -1.29 -1.68
10.37 -1.56 -1.66
13.38 -2.01 -1.66
18.52 -2.79 -1.64
28.6 -4.3 -1.52
6.26 -0.96 -1.7
7.24 -1.11 -1.69
8.56 -1.32 -1.68
10.37 -1.6 -1.66
13.38 -2.06 -1.66
18.55 -2.86 -1.64
28.31 -4.36 -1.5
6.26 -0.99 -1.7
7.24 -1.14 -1.69
8.56 -1.35 -1.68
10.37 -1.63 -1.66
12.35 -1.94 -1.54
12.42 -1.96 -1.1
28.16 -4.43 -1.49
6.26 -1.01 -1.7
7.24 -1.16 -1.69
8.55 -1.37 -1.68
10.38 -1.67 -1.66
12.2 -1.96 -1.52
12.46 -2.01 -1.1
28.05 -4.51 -1.49
6.24 -1.03 -1.69
7.25 -1.19 -1.7
8.54 -1.41 -1.68
10.38 -1.71 -1.67
12.02 -1.98 -1.5
11.95 -1.96 -1.06
27.89 -4.59 -1.48
6.24 -1.05 -1.7
7.24 -1.22 -1.7
8.53 -1.43 -1.68
10.36 -1.74 -1.66
11.94 -2.01 -1.49
11.8 -1.98 -1.05
27.75 -4.66 -1.47
6.25 -1.07 -1.7
7.23 -1.24 -1.69
8.52 -1.46 -1.68
10.36 -1.78 -1.67
11.86 -2.04 -1.48
11.63 -2 -1.03
27.66 -4.75 -1.47
6.25 -1.09 -1.7
7.23 -1.26 -1.69
8.51 -1.49 -1.68
10.37 -1.81 -1.67
11.66 -2.04 -1.45
11.47 -2.01 -1.02
27.57 -4.83 -1.47
6.24 -1.12 -1.7
7.23 -1.29 -1.7
8.49 -1.52 -1.68
10.35 -1.85 -1.67
11.5 -2.05 -1.43
11.32 -2.02 -1.01
27.52 -4.92 -1.47
6.23 -1.14 -1.7
7.23 -1.32 -1.7
8.49 -1.55 -1.68
10.34 -1.89 -1.67
11.35 -2.07 -1.42
11.14 -2.03 -0.99
27.45 -5 -1.46
6.23 -1.16 -1.7
7.23 -1.34 -1.7
8.5 -1.58 -1.68
10.33 -1.92 -1.66
11.15 -2.07 -1.39
11 -2.04 -0.98
6.23 -1.18 -1.7
7.22 -1.37 -1.7
8.51 -1.61 -1.68
10.33 -1.96 -1.66
10.98 -2.08 -1.37
10.83 -2.05 -0.96
6.23 -1.2 -1.7
7.21 -1.39 -1.7
8.5 -1.64 -1.68
10.33 -1.99 -1.67
10.79 -2.08 -1.35
10.67 -2.06 -0.95
6.22 -1.22 -1.7
7.21 -1.42 -1.7
8.49 -1.67 -1.68
10.33 -2.03 -1.67
10.64 -2.09 -1.33
10.59 -2.08 -0.94
6.21 -1.24 -1.7
7.22 -1.45 -1.7
8.49 -1.7 -1.68
10.33 -2.07 -1.67
10.51 -2.1 -1.32
10.46 -2.09 -0.93
6.21 -1.27 -1.7
7.21 -1.47 -1.7
8.49 -1.73 -1.68
10.31 -2.1 -1.67
10.36 -2.11 -1.3
10.32 -2.1 -0.92
6.21 -1.29 -1.7
7.2 -1.49 -1.7
8.49 -1.76 -1.69
10.31 -2.14 -1.67
10.23 -2.12 -1.28
10.21 -2.12 -0.91
6.21 -1.31 -1.7
7.19 -1.52 -1.7
8.48 -1.79 -1.69
10.31 -2.18 -1.67
10.08 -2.13 -1.26
10.1 -2.13 -0.9
10.54 -2.22 -0.56
6.21 -1.33 -1.7
7.19 -1.54 -1.7
8.47 -1.82 -1.68
10.31 -2.21 -1.67
9.93 -2.13 -1.25
9.97 -2.14 -0.89
6.2 -1.35 -1.7
7.19 -1.57 -1.7
8.47 -1.85 -1.69
10.3 -2.25 -1.67
9.9 -2.16 -1.24
9.88 -2.15 -0.88
6.2 -1.37 -1.7
7.19 -1.59 -1.7
8.47 -1.88 -1.69
9.69 -2.15 -1.57
9.78 -2.17 -1.23
9.78 -2.17 -0.88
6.2 -1.4 -1.7
7.17 -1.62 -1.7
8.46 -1.91 -1.69
9.57 -2.16 -1.55
9.63 -2.17 -1.21
9.66 -2.18 -0.87
6.19 -1.42 -1.7
7.17 -1.64 -1.7
8.45 -1.94 -1.69
9.51 -2.18 -1.54
9.52 -2.18 -1.2
9.56 -2.19 -0.86
6.2 -1.44 -1.71
7.17 -1.67 -1.7
8.44 -1.97 -1.69
9.37 -2.18 -1.52
9.39 -2.18 -1.18
9.47 -2.2 -0.85
10.66 -2.48 -0.19
6.18 -1.46 -1.7
7.17 -1.69 -1.7
8.44 -2 -1.69
9.32 -2.2 -1.52
9.25 -2.19 -1.17
9.38 -2.22 -0.84
10.53 -2.49 -0.19
6.18 -1.49 -1.7
7.15 -1.72 -1.7
8.44 -2.03 -1.69
9.3 -2.23 -1.51
9.16 -2.2 -1.16
9.29 -2.23 -0.84
10.45 -2.51 -0.19
6.18 -1.51 -1.7
7.14 -1.74 -1.7
8.44 -2.06 -1.69
9.31 -2.27 -1.52
9.09 -2.22 -1.15
9.19 -2.24 -0.83
6.18 -1.53 -1.71
7.14 -1.77 -1.7
8.43 -2.09 -1.69
9.31 -2.3 -1.52
9.01 -2.23 -1.14
9.12 -2.26 -0.82
10.24 -2.53 -0.18
6.17 -1.55 -1.71
7.15 -1.8 -1.7
8.42 -2.12 -1.69
9.34 -2.35 -1.52
8.94 -2.24 -1.13
9.03 -2.27 -0.81
6.16 -1.57 -1.7
7.14 -1.82 -1.7
8.41 -2.14 -1.69
10.24 -2.61 -1.67
8.89 -2.26 -1.13
8.96 -2.28 -0.81
73.59 -18.74 -1.33
6.15 -1.59 -1.7
7.13 -1.84 -1.7
8.41 -2.17 -1.69
10.23 -2.64 -1.67
8.82 -2.28 -1.12
8.89 -2.3 -0.8
9.71 -2.51 -0.53
9.88 -2.55 -0.18
6.14 -1.61 -1.7
7.12 -1.87 -1.7
8.41 -2.21 -1.69
10.21 -2.68 -1.67
8.78 -2.3 -1.11
8.82 -2.31 -0.8
9.65 -2.53 -0.52
6.16 -1.64 -1.71
7.12 -1.89 -1.7
8.4 -2.23 -1.69
10.22 -2.72 -1.67
8.73 -2.32 -1.11
8.8 -2.34 -0.8
9.04 -2.41 -0.49
6.14 -1.66 -1.7
7.12 -1.92 -1.7
8.38 -2.26 -1.69
10.21 -2.75 -1.67
8.71 -2.35 -1.11
8.79 -2.37 -0.8
9 -2.43 -0.49
6.13 -1.67 -1.7
53.76 -14.69 0.97
7.12 -1.94 -1.7
8.37 -2.29 -1.69
10.2 -2.79 -1.68
8.71 -2.38 -1.11
8.76 -2.39 -0.79
8.93 -2.44 -0.49
6.12 -1.7 -1.7
7.11 -1.97 -1.7
8.38 -2.32 -1.69
10.18 -2.82 -1.67
8.7 -2.41 -1.11
8.71 -2.41 -0.79
8.91 -2.47 -0.48
6.12 -1.72 -1.7
7.09 -1.99 -1.7
8.37 -2.35 -1.69
9.01 -2.53 -1.48
8.75 -2.46 -1.12
8.7 -2.44 -0.79
6.12 -1.74 -1.71
7.09 -2.02 -1.7
8.37 -2.38 -1.69
9 -2.56 -1.48
8.74 -2.49 -1.12
8.71 -2.48 -0.79
6.11 -1.76 -1.7
7.09 -2.04 -1.7
8.36 -2.41 -1.69
8.81 -2.54 -1.45
8.72 -2.51 -1.11
8.71 -2.51 -0.79
6.09 -1.78 -1.7
7.09 -2.07 -1.7
8.35 -2.44 -1.69
8.73 -2.55 -1.44
8.72 -2.55 -1.12
8.7 -2.54 -0.79
6.09 -1.8 -1.7
7.08 -2.09 -1.7
8.34 -2.47 -1.69
10.14 -3 -1.67
8.72 -2.58 -1.12
8.7 -2.57 -0.79
6.1 -1.83 -1.71
7.06 -2.12 -1.7
8.34 -2.5 -1.69
10.14 -3.04 -1.68
8.71 -2.61 -1.12
8.7 -2.61 -0.79
6.08 -1.84 -1.7
7.06 -2.14 -1.7
8.33 -2.53 -1.69
10.14 -3.07 -1.68
8.71 -2.64 -1.12
8.7 -2.64 -0.8
6.09 -1.87 -1.71
7.06 -2.17 -1.71
8.32 -2.55 -1.69
10.13 -3.11 -1.68
8.71 -2.67 -1.12
9.71 -2.98 -0.53
6.07 -1.89 -1.7
7.06 -2.19 -1.71
8.31 -2.58 -1.69
10.11 -3.14 -1.68
8.71 -2.71 -1.12
8.72 -2.71 -0.8
9.63 -2.99 -0.53
6.07 -1.91 -1.71
7.05 -2.22 -1.71
8.31 -2.61 -1.69
10.1 -3.18 -1.68
8.72 -2.74 -1.12
8.71 -2.74 -0.8
9.78 -3.07 -0.54
6.06 -1.93 -1.71
7.03 -2.24 -1.7
8.31 -2.64 -1.69
10.1 -3.21 -1.68
8.72 -2.77 -1.12
8.71 -2.77 -0.8
6.07 -1.95 -1.71
7.03 -2.27 -1.71
22.54 -7.26 1.24
8.3 -2.67 -1.69
10.1 -3.25 -1.68
8.71 -2.81 -1.12
8.72 -2.81 -0.8
6.06 -1.97 -1.71
7.02 -2.29 -1.71
22.43 -7.31 1.24
8.28 -2.7 -1.69
10.09 -3.29 -1.68
8.71 -2.84 -1.12
8.72 -2.84 -0.8
6.05 -2 -1.71
38.07 -12.56 0.7
7.02 -2.32 -1.71
22.36 -7.38 1.23
8.27 -2.73 -1.69
10.08 -3.32 -1.68
8.71 -2.87 -1.13
8.71 -2.87 -0.8
6.05 -2.02 -1.71
38.05 -12.7 0.7
7.01 -2.34 -1.71
8.26 -2.76 -1.69
10.06 -3.36 -1.68
8.72 -2.91 -1.13
8.71 -2.91 -0.8
9.76 -3.26 -0.54
6.04 -2.04 -1.71
38.16 -12.89 0.7
6.99 -2.36 -1.7
8.26 -2.79 -1.69
10.06 -3.4 -1.68
8.72 -2.95 -1.13
8.71 -2.94 -0.8
9.76 -3.3 -0.54
10.18 -3.44 -0.19
6.03 -2.06 -1.71
22.37 -7.64 0.41
6.98 -2.38 -1.7
8.25 -2.82 -1.69
10.05 -3.43 -1.68
8.71 -2.98 -1.13
8.72 -2.98 -0.81
9.72 -3.32 -0.54
9.98 -3.41 -0.18
6.03 -2.08 -1.71
22.35 -7.71 0.41
6.98 -2.41 -1.71
22.31 -7.7 1.24
8.23 -2.84 -1.69
10.05 -3.47 -1.68
8.72 -3.01 -1.13
8.71 -3.01 -0.81
9.74 -3.36 -0.54
6.02 -2.1 -1.71
6.98 -2.44 -1.71
22.3 -7.78 1.24
8.22 -2.87 -1.69
10.05 -3.51 -1.69
8.73 -3.05 -1.14
8.71 -3.04 -0.81
9.74 -3.4 -0.54
6.01 -2.12 -1.71
6.97 -2.46 -1.71
22.29 -7.87 1.24
8.22 -2.9 -1.69
10.03 -3.54 -1.68
8.73 -3.08 -1.14
8.71 -3.07 -0.81
9.76 -3.45 -0.54
6.01 -2.14 -1.71
6.95 -2.48 -1.7
22.27 -7.95 1.24
8.21 -2.93 -1.69
10.02 -3.58 -1.69
8.73 -3.12 -1.14
8.72 -3.11 -0.81
6 -2.17 -1.71
6.94 -2.51 -1.7
8.2 -2.96 -1.69
10.01 -3.61 -1.69
8.72 -3.15 -1.14
8.73 -3.15 -0.81
6 -2.19 -1.71
37.97 -13.85 0.71
6.94 -2.53 -1.71
22.19 -8.09 1.24
8.18 -2.98 -1.69
10.01 -3.65 -1.69
8.74 -3.19 -1.14
8.73 -3.19 -0.81
37.98 -13.85 -0.71
5.98 -2.2 -1.71
6.94 -2.56 -1.71
22.18 -8.17 1.24
8.18 -3.01 -1.69
9.99 -3.68 -1.69
8.75 -3.22 -1.14
8.72 -3.22 -0.81
5.98 -2.23 -1.71
6.93 -2.58 -1.71
22.16 -8.25 1.24
8.17 -3.04 -1.69
9.74 -3.63 -1.65
8.76 -3.26 -1.15
8.73 -3.25 -0.82
5.97 -2.25 -1.71
6.92 -2.6 -1.71
8.17 -3.07 -1.7
9.65 -3.63 -1.63
8.76 -3.3 -1.15
8.75 -3.29 -0.82
5.97 -2.27 -1.71
6.9 -2.63 -1.7
8.15 -3.1 -1.69
9.58 -3.65 -1.62
8.75 -3.33 -1.15
8.75 -3.33 -0.82
5.96 -2.29 -1.71
6.9 -2.65 -1.71
8.14 -3.13 -1.7
9.52 -3.66 -1.62
8.76 -3.37 -1.15
8.75 -3.36 -0.82
5.94 -2.31 -1.71
6.9 -2.68 -1.71
8.13 -3.16 -1.7
9.49 -3.69 -1.61
8.77 -3.41 -1.16
8.75 -3.4 -0.82
32.72 -12.71 -0.61
5.94 -2.33 -1.71
6.89 -2.71 -1.71
8.13 -3.19 -1.7
9.47 -3.72 -1.61
8.78 -3.45 -1.16
8.76 -3.44 -0.82
5.94 -2.36 -1.71
6.87 -2.73 -1.71
8.12 -3.22 -1.7
9.48 -3.76 -1.62
8.79 -3.49 -1.16
8.77 -3.48 -0.83
5.93 -2.38 -1.71
6.87 -2.75 -1.71
8.11 -3.24 -1.7
9.49 -3.8 -1.62
8.8 -3.52 -1.16
8.78 -3.51 -0.83
5.92 -2.39 -1.71
6.85 -2.77 -1.71
8.09 -3.27 -1.7
9.91 -4.01 -1.69
8.81 -3.56 -1.17
8.79 -3.55 -0.83
5.91 -2.41 -1.71
6.86 -2.8 -1.71
8.08 -3.3 -1.7
9.89 -4.04 -1.69
8.83 -3.6 -1.17
8.79 -3.59 -0.83
28.03 -11.45 -1.59
5.9 -2.43 -1.71
6.85 -2.82 -1.71
8.07 -3.33 -1.7
9.87 -4.07 -1.69
8.84 -3.65 -1.17
8.81 -3.63 -0.83
27.98 -11.54 -1.59
5.9 -2.46 -1.71
6.83 -2.84 -1.71
8.07 -3.36 -1.7
9.86 -4.11 -1.69
8.78 -3.66 -1.17
8.82 -3.67 -0.84
5.9 -2.48 -1.72
6.82 -2.87 -1.71
8.06 -3.39 -1.7
9.86 -4.15 -1.69
8.76 -3.69 -1.17
8.84 -3.72 -0.84
5.89 -2.5 -1.71
6.81 -2.89 -1.71
8.04 -3.41 -1.7
9.85 -4.18 -1.7
8.79 -3.73 -1.17
8.84 -3.75 -0.84
5.86 -2.51 -1.71
6.8 -2.92 -1.71
8.04 -3.44 -1.7
9.83 -4.21 -1.69
8.82 -3.78 -1.18
8.84 -3.79 -0.84
5.86 -2.54 -1.71
6.79 -2.94 -1.71
8.03 -3.47 -1.7
9.81 -4.25 -1.69
13.17 -5.7 -1.76
19.48 -8.43 -1.86
5.85 -2.56 -1.71
6.78 -2.96 -1.71
8.02 -3.5 -1.7
9.8 -4.28 -1.69
13.16 -5.75 -1.76
19.44 -8.49 -1.86
5.86 -2.59 -1.72
6.77 -2.99 -1.71
8.01 -3.53 -1.7
9.79 -4.32 -1.7
13.16 -5.8 -1.77
19.4 -8.56 -1.86
5.84 -2.6 -1.71
6.76 -3.01 -1.71
7.99 -3.56 -1.7
9.78 -4.35 -1.7
13.15 -5.86 -1.77
19.36 -8.62 -1.85
5.83 -2.62 -1.71
6.76 -3.04 -1.71
7.98 -3.59 -1.7
9.77 -4.39 -1.7
13.18 -5.92 -1.77
19.31 -8.68 -1.85
5.81 -2.64 -1.71
6.75 -3.06 -1.71
7.97 -3.61 -1.7
9.76 -4.42 -1.7
13.17 -5.97 -1.78
19.28 -8.74 -1.85
21.19 -9.61 -1.22
29.88 -13.55 -0.57
5.82 -2.66 -1.72
6.73 -3.08 -1.71
7.98 -3.65 -1.71
9.75 -4.46 -1.7
13.17 -6.03 -1.78
19.23 -8.8 -1.85
21.12 -9.66 -1.22
29.61 -13.55 -0.57
5.81 -2.68 -1.72
6.72 -3.11 -1.71
7.96 -3.67 -1.7
9.74 -4.5 -1.7
13.16 -6.08 -1.78
19.19 -8.87 -1.85
21.08 -9.74 -1.22
29.54 -13.64 -0.57
5.8 -2.71 -1.72
6.72 -3.13 -1.71
7.94 -3.7 -1.7
9.73 -4.53 -1.7
13.16 -6.13 -1.78
19.15 -8.92 -1.85
21.04 -9.81 -1.22
29.37 -13.69 -0.57
5.78 -2.72 -1.71
6.71 -3.16 -1.71
7.93 -3.73 -1.7
9.71 -4.57 -1.7
13.16 -6.19 -1.79
19.1 -8.98 -1.85
21.01 -9.88 -1.22
29.2 -13.74 -0.56
5.78 -2.74 -1.71
6.7 -3.18 -1.71
7.92 -3.76 -1.7
9.69 -4.6 -1.7
13.16 -6.24 -1.79
19.06 -9.04 -1.85
21.18 -10.05 -1.23
29.06 -13.78 -0.56
5.77 -2.76 -1.72
6.68 -3.2 -1.71
7.92 -3.79 -1.71
9.68 -4.64 -1.7
13.15 -6.3 -1.79
19.02 -9.11 -1.85
25.55 -12.23 -1.48
28.98 -13.87 -0.56
5.77 -2.79 -1.72
6.67 -3.22 -1.71
7.91 -3.82 -1.71
9.67 -4.67 -1.7
13.14 -6.35 -1.79
18.99 -9.17 -1.84
25.49 -12.31 -1.48
5.76 -2.8 -1.72
48.69 -23.73 0.95
6.67 -3.25 -1.71
7.89 -3.84 -1.71
9.66 -4.71 -1.7
13.14 -6.41 -1.8
18.95 -9.23 -1.84
25.47 -12.41 -1.48
48.68 -23.72 -0.95
5.74 -2.82 -1.71
48.55 -23.87 0.94
6.66 -3.27 -1.71
7.88 -3.87 -1.71
9.65 -4.74 -1.7
13.14 -6.46 -1.8
18.92 -9.3 -1.84
25.5 -12.54 -1.49
48.64 -23.91 -0.95
5.73 -2.84 -1.71
48.39 -24 0.94
6.65 -3.3 -1.71
7.87 -3.91 -1.71
9.62 -4.77 -1.7
13.15 -6.52 -1.8
18.92 -9.39 -1.85
28.01 -13.89 -1.64
5.73 -2.86 -1.72
48.39 -24.21 0.94
6.63 -3.32 -1.71
7.87 -3.94 -1.71
9.61 -4.81 -1.7
13.14 -6.57 -1.8
18.97 -9.49 -1.86
27.97 -13.99 -1.64
48.74 -24.39 -0.95
5.72 -2.89 -1.72
48.37 -24.41 0.95
6.62 -3.34 -1.71
7.84 -3.96 -1.71
9.59 -4.84 -1.7
13.14 -6.63 -1.81
19.01 -9.59 -1.86
48.66 -24.56 -0.95
5.71 -2.91 -1.72
48.37 -24.61 0.95
6.61 -3.36 -1.71
7.83 -3.98 -1.71
9.59 -4.88 -1.7
13.12 -6.68 -1.81
18.95 -9.64 -1.86
5.69 -2.92 -1.71
48.35 -24.82 0.95
6.61 -3.39 -1.71
7.82 -4.01 -1.71
9.56 -4.91 -1.7
13.12 -6.73 -1.81
18.95 -9.73 -1.86
48.67 -24.98 -0.95
5.68 -2.94 -1.71
48.39 -25.05 0.95
6.59 -3.41 -1.71
7.81 -4.04 -1.71
9.55 -4.94 -1.7
13.12 -6.79 -1.81
18.97 -9.82 -1.87
5.68 -2.96 -1.72
48.34 -25.24 0.95
6.57 -3.43 -1.71
7.8 -4.07 -1.71
9.54 -4.98 -1.71
13.11 -6.84 -1.82
18.94 -9.89 -1.87
5.67 -2.98 -1.72
48.32 -25.42 0.95
6.57 -3.46 -1.71
7.79 -4.1 -1.71
9.53 -5.01 -1.71
13.1 -6.89 -1.82
18.97 -9.98 -1.88
5.66 -3 -1.72
48.33 -25.64 0.95
6.56 -3.48 -1.71
7.77 -4.12 -1.71
9.52 -5.05 -1.71
13.09 -6.94 -1.82
18.97 -10.06 -1.88
5.64 -3.02 -1.71
48.31 -25.87 0.96
6.55 -3.51 -1.72
7.75 -4.15 -1.71
9.51 -5.09 -1.71
13.1 -7.01 -1.82
18.96 -10.15 -1.88
5.63 -3.04 -1.72
48.28 -26.07 0.96
6.54 -3.53 -1.72
7.75 -4.18 -1.71
9.48 -5.12 -1.71
13.09 -7.07 -1.83
18.96 -10.24 -1.89
48.53 -26.21 -0.96
5.63 -3.06 -1.72
48.26 -26.27 0.96
6.52 -3.55 -1.71
7.74 -4.21 -1.71
9.49 -5.17 -1.71
13.08 -7.12 -1.83
19.03 -10.36 -1.9
5.63 -3.09 -1.72
48.29 -26.5 0.96
6.5 -3.57 -1.71
7.72 -4.23 -1.71
9.48 -5.21 -1.71
13.07 -7.17 -1.83
18.98 -10.42 -1.89
5.61 -3.1 -1.72
48.28 -26.72 0.96
6.5 -3.6 -1.71
7.7 -4.26 -1.71
9.48 -5.24 -1.72
13.06 -7.23 -1.83
