# .PCD v0.7 - Point Cloud Data file format
VERSION 0.7
FIELDS x y z
SIZE 4 4 4
TYPE F F F
COUNT 1 1 1
WIDTH 2903
HEIGHT 1
VIEWPOINT 0 0 0 1 0 0 0
POINTS 2903
DATA ascii
14.68 27.82 1.65
4.18 7.92 -1.74
5.29 10.02 -1.79
8.28 15.69 2.18
8.12 15.39 -2.14
8.25 15.65 2.8
8.36 15.86 -1.57
14.53 27.54 6.05
8.63 16.35 -0.97
13.88 26.32 -0.52
8.61 16.31 4.94
2.97 5.59 -1.7
8.95 16.83 0.33
3.48 6.55 -1.71
9.13 17.16 1.02
4.2 7.9 -1.74
9.28 17.44 1.73
5.31 9.99 -1.79
8.32 15.65 2.18
8.13 15.28 -2.12
14.61 27.46 4.93
9.52 17.9 -1.77
8.76 16.47 3.63
11.46 21.54 -1.28
12.66 23.8 6.22
9.07 17.05 -0.34
8.66 16.27 4.94
2.99 5.58 -1.7
8.96 16.7 0.33
3.5 6.52 -1.71
4.23 7.89 -1.74
9.06 16.9 1.68
5.34 9.96 -1.79
14.68 27.36 3.81
8.09 15.08 -2.1
14.31 26.67 4.79
9.46 17.64 -1.75
9.36 17.45 -1.04
13.67 25.49 6.68
9.28 17.3 -0.34
11.92 22.21 6.75
3.02 5.58 -1.7
9.01 16.65 0.33
3.52 6.5 -1.71
13.36 24.69 1.47
4.25 7.86 -1.74
9.14 16.91 1.68
5.37 9.93 -1.79
8.57 15.85 -2.21
8.67 16.02 -1.59
11.34 20.96 -1.25
9.14 16.9 -0.34
8.79 16.24 4.95
3.03 5.56 -1.7
9.12 16.72 0.33
3.54 6.49 -1.71
14.84 27.22 1.62
4.28 7.84 -1.74
9.25 16.96 1.69
5.4 9.91 -1.79
15.01 27.52 3.85
8.33 15.28 -2.14
11.91 21.85 -2.18
9.15 16.78 3.72
9.5 17.43 -1.04
12.19 22.35 5.88
9.15 16.78 -0.33
9.11 16.7 5.1
3.05 5.55 -1.7
9.36 17.02 0.34
3.56 6.48 -1.71
9.23 16.8 1
4.3 7.82 -1.73
9.32 16.96 1.69
5.42 9.87 -1.78
8.26 15.02 -2.1
8.83 16.06 -1.6
9.29 16.9 -1.01
13.88 25.24 6.65
9.25 16.83 -0.34
12.48 22.7 6.94
3.06 5.53 -1.69
9.57 17.26 0.34
3.59 6.47 -1.71
9.55 17.23 1.03
4.32 7.8 -1.73
9.29 16.75 1.68
5.45 9.84 -1.78
8.41 15.17 -2.13
13.12 23.66 4.29
8.91 16.07 -1.61
9.27 16.72 -1
9.31 16.79 -0.34
3.09 5.52 -1.7
9.47 16.94 0.34
3.61 6.45 -1.71
9.61 17.2 1.03
4.35 7.78 -1.73
9.5 17 1.7
5.49 9.83 -1.78
8.44 15.09 -2.12
8.97 16.06 -1.61
12.45 22.28 4.96
12.24 21.9 -1.31
9.57 17.12 -0.34
12.93 23.14 7.1
3.11 5.51 -1.7
9.6 17.03 0.34
3.62 6.43 -1.7
4.38 7.77 -1.73
9.74 17.29 1.74
5.52 9.8 -1.78
9.64 17.12 2.41
8.48 15.05 -2.12
9.04 16.05 -1.61
14.08 24.98 6.62
9.7 17.21 -0.34
9.71 17.23 5.3
3.13 5.51 -1.7
9.91 17.44 0.35
3.65 6.42 -1.7
9.6 16.9 1.02
4.4 7.74 -1.73
9.81 17.27 1.74
5.55 9.77 -1.78
12.58 22.14 3.13
8.5 14.96 -2.11
12.78 22.5 4.1
9.12 16.05 -1.61
14.09 24.8 5.54
9.63 16.95 -1.02
13.01 22.89 6.08
9.68 17.04 -0.34
10.86 19.11 5.89
3.15 5.49 -1.7
9.49 16.57 0.33
3.67 6.4 -1.7
15.1 26.36 1.59
4.42 7.72 -1.73
9.54 16.66 1.68
5.58 9.75 -1.78
8.58 14.98 -2.12
14.15 24.7 4.51
9.18 16.03 -1.62
9.52 16.63 3.72
9.61 16.78 -1.01
12.78 22.32 5.94
9.71 16.96 -0.34
10.93 19.09 5.89
3.16 5.47 -1.69
12.4 21.48 0.43
3.69 6.4 -1.71
9.65 16.72 1.01
4.45 7.7 -1.73
5.61 9.71 -1.78
13.06 22.63 3.21
8.62 14.92 -2.12
10.23 17.72 3.24
9.31 16.12 -1.63
13.19 22.85 5.13
9.84 17.05 -1.03
12.47 21.6 -0.44
11.02 19.09 5.91
3.18 5.46 -1.69
9.69 16.65 0.34
3.71 6.38 -1.7
15.06 25.89 1.57
4.47 7.69 -1.73
16.99 29.2 2.96
5.64 9.69 -1.78
13.27 22.82 3.24
8.68 14.92 -2.12
13.24 22.75 4.17
9.42 16.19 -1.64
10 17.19 -1.04
10.26 17.64 4.71
9.74 16.73 -0.34
10.34 17.78 5.51
3.2 5.45 -1.69
9.74 16.6 0.34
3.72 6.35 -1.7
14.77 25.18 1.53
4.5 7.67 -1.73
15.04 25.65 2.6
5.67 9.66 -1.77
13.33 22.73 3.24
8.7 14.84 -2.11
13.41 22.86 4.2
9.43 16.08 -1.63
10.05 17.14 -1.04
10.41 17.75 4.75
9.74 16.6 -0.34
9.86 16.8 5.22
3.22 5.45 -1.7
9.9 16.74 0.34
3.75 6.34 -1.7
14.84 25.11 1.53
4.52 7.64 -1.73
13.42 22.7 2.31
5.7 9.64 -1.77
10.58 17.9 2.55
8.76 14.82 -2.11
10.51 17.78 3.27
9.5 16.07 -1.63
10.48 17.73 4
9.9 16.75 -1.02
10.44 17.66 4.74
9.84 16.64 -0.34
10.29 17.41 5.42
3.23 5.43 -1.69
9.66 16.22 0.33
3.77 6.33 -1.7
13.49 22.64 1.38
4.54 7.62 -1.72
10.08 16.91 1.72
5.73 9.61 -1.77
10.61 17.81 2.55
8.83 14.82 -2.12
10.56 17.73 3.27
9.56 16.04 -1.63
10.54 17.69 4
9.92 16.65 -1.02
10.48 17.58 4.73
9.82 16.48 -0.33
10.35 17.37 5.42
3.25 5.41 -1.69
10 16.65 0.34
3.79 6.32 -1.7
10.17 16.93 1.03
4.56 7.59 -1.72
10.7 17.81 1.82
5.76 9.59 -1.77
10.68 17.78 2.55
8.87 14.77 -2.12
9.76 16.25 3
9.7 16.14 -1.65
15.57 25.92 5.88
9.93 16.53 -1.01
15.61 25.99 7
13.59 22.63 -0.46
12.43 20.69 6.47
3.27 5.4 -1.69
10.19 16.84 0.34
3.82 6.3 -1.7
10.2 16.86 1.03
4.59 7.58 -1.72
5.77 9.54 -1.77
10.26 16.95 2.43
8.92 14.74 -2.12
15.64 25.84 4.78
9.72 16.06 -1.64
9.05 14.96 3.4
9.96 16.46 -1.01
13.69 22.62 -0.46
3.29 5.39 -1.69
10.37 17.01 0.35
3.83 6.28 -1.7
10.18 16.68 1.02
4.61 7.57 -1.72
18.35 30.09 3.08
5.81 9.52 -1.77
10.36 16.99 2.44
8.98 14.72 -2.12
17.96 29.45 5.46
9.92 16.27 -1.67
9.18 15.05 3.43
9.96 16.34 -1
10.02 16.43 -0.34
3.31 5.38 -1.69
10.49 17.08 0.35
3.85 6.26 -1.7
15.21 24.74 1.52
4.64 7.55 -1.72
15.78 25.67 2.64
5.84 9.5 -1.77
10.39 16.91 2.44
9.01 14.66 -2.11
17.26 28.09 5.22
10.03 16.32 -1.68
9.25 15.05 3.43
10.06 16.36 -1.01
9.84 16.01 4.34
10.25 16.68 5.25
3.33 5.37 -1.69
10.37 16.74 0.34
3.87 6.25 -1.7
10.36 16.72 1.03
4.66 7.52 -1.72
11.01 17.77 1.83
5.87 9.47 -1.76
11 17.76 2.56
9.06 14.63 -2.11
18.21 29.39 5.48
9.93 16.03 -1.65
9.46 15.27 3.49
10.14 16.37 -1.01
16.56 26.73 7.26
9.94 16.04 -0.33
10.32 16.66 5.25
3.34 5.35 -1.69
10.62 17.02 0.35
3.9 6.24 -1.7
11.08 17.76 1.1
4.68 7.49 -1.72
11.06 17.71 1.83
5.89 9.44 -1.76
11.03 17.66 2.56
9.11 14.6 -2.11
11 17.62 3.29
11.25 18.03 -1.86
11 17.62 4.04
9.96 15.96 -0.99
11.02 17.65 4.8
10.2 16.35 -0.34
10.39 16.64 5.26
3.36 5.34 -1.69
10.65 16.93 0.35
3.92 6.22 -1.7
4.7 7.47 -1.72
5.92 9.4 -1.76
11.1 17.63 2.56
9.16 14.55 -2.11
11.03 17.53 3.28
12.14 19.29 -1.99
11.06 17.57 4.04
10.8 17.16 -1.06
11.05 17.56 4.79
12.48 19.83 -0.41
10.45 16.61 5.26
3.38 5.33 -1.69
10.61 16.74 0.35
3.93 6.2 -1.69
4.73 7.46 -1.72
18.84 29.72 3.08
5.95 9.38 -1.76
11.18 17.64 2.56
9.19 14.5 -2.11
11.14 17.57 3.3
10.32 16.28 -1.69
10.49 16.55 3.81
10.2 16.08 -1
11.12 17.53 4.79
10.24 16.16 -0.33
10.52 16.59 5.26
3.4 5.31 -1.69
17.12 26.79 0.56
3.95 6.19 -1.69
10.72 16.78 1.04
4.75 7.44 -1.72
18.95 29.65 3.08
5.98 9.36 -1.76
13.75 21.51 3.13
9.23 14.44 -2.1
10.31 16.13 -1.67
12.39 19.39 -1.21
18.8 29.41 -0.61
10.59 16.57 5.27
3.41 5.3 -1.69
17.14 26.62 0.55
3.98 6.18 -1.7
17.1 26.56 1.66
4.77 7.41 -1.71
6.01 9.33 -1.76
13.73 21.33 3.11
9.27 14.39 -2.1
10.34 16.06 -1.67
10.7 16.62 -1.04
15.62 24.27 6.66
17.17 26.66 -0.55
10.65 16.54 5.27
3.43 5.29 -1.69
17.22 26.55 0.55
4 6.16 -1.7
17.23 26.56 1.66
4.79 7.39 -1.71
6.03 9.3 -1.76
9.3 14.34 -2.1
11.33 17.46 3.3
10.1 15.58 -1.62
10.54 16.25 -1.02
10.3 15.88 4.37
12.64 19.49 -0.41
3.45 5.27 -1.69
17.6 26.93 0.56
4.02 6.15 -1.69
11.24 17.2 1.08
4.82 7.38 -1.71
19.22 29.41 3.07
6.05 9.26 -1.75
9.34 14.3 -2.1
11.45 17.53 3.32
10.15 15.54 -1.62
11.25 17.21 4
12.63 19.32 -1.21
10.66 16.3 4.5
15.02 22.98 -0.48
11.17 17.09 5.47
3.46 5.26 -1.69
17.7 26.88 0.56
4.03 6.12 -1.69
11.3 17.16 1.08
4.85 7.36 -1.71
6.08 9.23 -1.75
9.38 14.25 -2.09
17.18 26.1 4.95
10.25 15.57 -1.63
17.19 26.12 6.08
11.57 17.57 -1.1
15.1 22.93 -0.48
3.48 5.25 -1.69
17.68 26.65 0.56
4.05 6.11 -1.69
4.87 7.34 -1.71
12.35 18.62 1.95
6.11 9.21 -1.75
14.48 21.83 3.22
9.42 14.2 -2.09
18.23 27.48 5.22
10.36 15.62 -1.64
12.67 19.11 -1.2
15.4 23.22 6.43
15.11 22.79 -0.48
15.48 23.33 7.5
3.5 5.23 -1.69
18.83 28.16 0.59
4.07 6.09 -1.69
14.27 21.34 1.35
4.89 7.31 -1.71
6.14 9.18 -1.75
9.45 14.14 -2.09
14.39 21.52 4.1
10.54 15.76 -1.66
14.34 21.45 5.01
12.77 19.1 -1.2
14.32 21.41 5.95
11.07 16.55 -0.35
3.51 5.21 -1.68
4.1 6.08 -1.69
19.53 29 1.83
4.91 7.28 -1.71
14.53 21.57 2.28
6.16 9.15 -1.75
14.46 21.47 3.18
9.5 14.1 -2.09
10.42 15.46 2.95
10.65 15.81 -1.67
11.63 17.26 4.04
11.14 16.53 -1.04
12.34 18.32 5.1
11.04 16.39 -0.34
3.53 5.2 -1.68
19.02 28.04 0.59
4.11 6.07 -1.69
14.69 21.65 1.37
4.93 7.27 -1.71
14.55 21.45 2.27
6.18 9.11 -1.74
14.43 21.28 3.16
9.53 14.05 -2.09
10.55 15.55 2.98
10.61 15.64 -1.65
11.01 16.23 3.81
18.72 27.6 -1.75
15.62 23.02 6.42
11.11 16.37 -0.35
14.09 20.78 6.73
3.55 5.19 -1.68
19.14 28.02 0.59
4.13 6.04 -1.69
14.61 21.37 1.36
4.95 7.25 -1.71
14.61 21.38 2.27
6.21 9.08 -1.74
12.45 18.22 2.71
9.57 14 -2.08
11.64 17.04 3.27
11.07 16.2 -1.72
10.93 15.99 3.77
11.26 16.47 -1.05
11.4 16.68 4.66
11.2 16.39 -0.35
12.45 18.22 5.91
3.57 5.18 -1.69
14.64 21.25 0.45
4.15 6.02 -1.69
14.67 21.3 1.36
4.97 7.22 -1.7
12.59 18.27 1.94
6.24 9.05 -1.74
18.72 27.18 4.05
9.6 13.94 -2.08
16.17 23.48 4.52
10.78 15.65 -1.66
11 15.98 3.77
11.11 16.13 -1.03
12.24 17.77 4.98
17.2 24.97 -0.53
3.58 5.16 -1.68
12.72 18.33 0.39
4.17 6.02 -1.69
12.69 18.29 1.17
4.99 7.19 -1.7
18.84 27.15 2.89
6.26 9.03 -1.74
16.36 23.59 3.52
9.64 13.89 -2.08
18.7 26.95 5.2
10.99 15.84 -1.69
11.09 15.99 3.78
12.73 18.34 -1.17
11.78 16.97 4.77
12.75 18.38 -0.39
3.6 5.15 -1.68
11.18 16 0.34
4.19 6 -1.69
18.88 27.01 1.73
5.01 7.18 -1.7
6.29 9 -1.74
16.42 23.49 3.52
9.69 13.86 -2.08
11.36 16.25 -1.73
11.26 16.11 3.82
12.8 18.31 -1.17
11.39 16.29 4.59
11.53 16.5 -0.35
3.62 5.14 -1.69
18.99 26.97 0.58
4.21 5.98 -1.69
11.13 15.81 1.01
5.03 7.15 -1.7
16.58 23.55 2.52
6.31 8.97 -1.74
9.72 13.81 -2.07
12.59 17.88 3.46
11.39 16.19 -1.73
11.22 15.93 3.79
11.24 15.96 -1.02
12.48 17.72 5
3.63 5.12 -1.68
11.46 16.16 0.35
4.23 5.97 -1.69
11.11 15.66 1.01
5.06 7.13 -1.7
11.33 15.97 1.71
6.33 8.93 -1.73
9.76 13.77 -2.07
12.32 17.38 3.37
15.02 21.18 -2.27
11.28 15.91 3.79
11.42 16.11 -1.04
11.68 16.48 -0.35
10.79 15.22 5
3.66 5.12 -1.69
11.47 16.06 0.34
4.25 5.95 -1.69
16.82 23.55 1.52
5.08 7.11 -1.7
14.5 20.3 2.18
6.37 8.91 -1.73
9.8 13.72 -2.07
11.16 15.63 -1.68
11.75 16.46 3.93
12.36 17.3 -1.11
17.87 25.02 -0.54
10.78 15.09 4.97
3.67 5.1 -1.68
11.35 15.78 0.34
4.25 5.91 -1.68
11.43 15.9 1.03
5.09 7.08 -1.7
11.45 15.92 1.72
6.39 8.88 -1.73
9.84 13.67 -2.07
11.25 15.63 3.05
11.19 15.56 -1.68
11.39 15.84 -1.02
12.99 18.06 5.14
11.47 15.95 -0.34
11.44 15.91 5.25
3.68 5.08 -1.68
11.44 15.78 0.34
4.29 5.92 -1.69
11.48 15.84 1.03
5.11 7.05 -1.69
11.57 15.96 1.72
6.42 8.86 -1.73
11.41 15.74 2.39
9.88 13.63 -2.07
11.59 15.99 -1.73
11.9 16.42 -1.06
11.79 16.27 4.64
11.51 15.88 -0.34
16.02 22.1 7.31
3.71 5.07 -1.68
14.53 19.9 0.43
4.31 5.9 -1.69
11.59 15.87 1.03
5.14 7.04 -1.69
14.59 19.97 2.16
6.44 8.82 -1.73
11.47 15.71 2.39
9.93 13.6 -2.07
11.68 15.99 -1.73
11.92 16.32 -1.06
16.09 22.04 6.3
11.75 16.09 -0.35
11.13 15.24 5.06
3.72 5.06 -1.68
11.94 16.23 0.35
4.33 5.88 -1.68
11.56 15.71 1.02
5.17 7.02 -1.69
11.52 15.66 1.7
6.47 8.79 -1.73
16.23 22.05 3.36
9.97 13.55 -2.07
11.94 16.23 -1.76
11.8 16.04 3.87
11.8 16.04 -1.04
11.74 15.96 4.57
11.71 15.91 -0.34
13.78 18.73 6.23
3.74 5.05 -1.68
11.85 16 0.35
4.34 5.86 -1.68
11.68 15.77 1.03
5.18 6.99 -1.69
11.6 15.66 1.71
6.5 8.77 -1.73
13.29 17.94 2.74
10 13.5 -2.06
12.17 16.43 3.24
11.95 16.13 -1.76
11.82 15.96 3.86
11.89 16.05 -1.05
11.55 15.59 4.48
11.8 15.93 -0.35
10.75 14.51 4.84
3.76 5.03 -1.68
11.86 15.9 0.35
4.37 5.85 -1.68
11.72 15.71 1.03
5.2 6.97 -1.69
15.3 20.5 2.24
6.52 8.73 -1.73
16.22 21.73 3.33
10.05 13.46 -2.06
11.77 15.78 3.12
12.09 16.19 -1.77
11.84 15.87 3.85
11.9 15.95 -1.04
11.52 15.43 4.45
11.91 15.96 -0.35
11.25 15.08 5.04
3.76 5.01 -1.68
18.16 24.16 0.53
4.38 5.83 -1.68
11.77 15.66 1.03
5.23 6.95 -1.69
11.62 15.46 1.69
6.54 8.71 -1.72
12.36 16.44 2.53
10.09 13.42 -2.06
12.06 16.05 3.18
11.97 15.93 -1.74
10.98 14.61 3.55
12.06 16.05 -1.05
12.97 17.26 4.98
11.95 15.9 -0.35
11.97 15.92 5.34
3.78 5 -1.68
11.97 15.81 0.35
4.4 5.81 -1.68
11.87 15.68 1.03
5.25 6.93 -1.69
11.7 15.45 1.7
6.56 8.67 -1.72
12.25 16.18 2.49
10.13 13.38 -2.06
12.24 16.16 3.21
12.79 16.9 -1.85
12.23 16.15 3.94
12.22 16.14 -1.06
13.6 17.96 5.2
12.12 16.01 -0.35
12.03 15.89 5.34
3.81 4.99 -1.68
12.12 15.9 0.35
4.41 5.78 -1.68
12.07 15.83 1.04
5.27 6.92 -1.69
11.89 15.6 1.72
6.59 8.64 -1.72
12.29 16.12 2.49
10.17 13.34 -2.06
12.29 16.13 -1.77
12 15.74 3.85
12.18 15.98 -1.05
11.64 15.26 4.43
12.11 15.89 -0.35
10.36 13.58 4.58
3.82 4.97 -1.68
12.25 15.95 0.35
4.43 5.76 -1.68
12.12 15.78 1.04
5.29 6.89 -1.69
11.89 15.48 1.71
6.61 8.61 -1.72
10.19 13.27 -2.05
12.38 16.11 3.22
12.33 16.05 -1.77
12.33 16.05 3.93
12.32 16.04 -1.06
11.48 14.95 4.35
12.26 15.96 -0.35
9.96 12.97 4.38
3.84 4.97 -1.68
12.33 15.95 0.35
4.45 5.76 -1.68
12.18 15.75 1.04
5.31 6.86 -1.69
11.99 15.51 1.72
6.64 8.59 -1.72
12.72 16.45 2.55
10.25 13.26 -2.06
48.43 62.64 12.54
12.37 16 -1.77
11.34 14.67 3.6
12.36 15.99 -1.06
14.31 18.51 5.4
12.2 15.78 -0.35
11.63 15.04 5.09
3.85 4.94 -1.68
12.83 16.47 0.36
4.47 5.74 -1.68
12.91 16.57 1.1
5.33 6.84 -1.68
12.83 16.47 1.83
6.66 8.55 -1.72
12.76 16.38 2.55
10.3 13.22 -2.06
12.69 16.29 3.27
12.81 16.45 -1.82
14.37 18.45 4.55
12.74 16.35 -1.09
12.55 16.11 4.72
12.49 16.03 -0.35
9.98 12.82 4.35
3.87 4.93 -1.68
12.74 16.25 0.36
4.49 5.72 -1.68
12.57 16.03 1.07
5.35 6.83 -1.69
12.75 16.26 1.81
6.67 8.51 -1.71
14.45 18.43 2.88
10.34 13.18 -2.06
12.73 16.24 3.27
12.75 16.27 -1.81
12.63 16.1 3.98
12.44 15.86 -1.06
12.38 15.79 4.63
15.75 20.08 -0.45
12.46 15.9 5.41
3.89 4.92 -1.68
12.68 16.05 0.36
4.5 5.7 -1.68
14.55 18.42 1.23
5.37 6.8 -1.69
14.53 18.39 2.05
6.7 8.49 -1.71
14.52 18.38 2.88
10.38 13.15 -2.06
12.79 16.2 3.27
13.17 16.67 -1.86
12.67 16.04 3.97
12.73 16.12 -1.08
11.67 14.77 4.35
12.5 15.82 -0.35
10.14 12.84 4.38
3.91 4.91 -1.68
14.6 18.34 0.41
4.52 5.68 -1.67
14.52 18.24 1.22
5.4 6.78 -1.68
13.02 16.35 1.83
6.73 8.46 -1.71
14.46 18.16 2.85
10.43 13.1 -2.06
11.98 15.05 3.05
14.67 18.43 -2.06
17.64 22.16 5.5
12.87 16.17 -1.08
12.65 15.89 4.69
12.84 16.14 -0.36
16.29 20.47 7.01
3.92 4.89 -1.68
13.02 16.24 0.36
4.54 5.66 -1.68
21.05 26.25 1.76
5.41 6.75 -1.68
14.2 17.71 1.99
6.75 8.42 -1.71
12.81 15.97 2.51
10.46 13.05 -2.05
17.69 22.06 4.48
14.72 18.35 -2.06
13.88 17.31 4.31
12.89 16.07 -1.08
14.45 18.02 5.33
12.72 15.87 -0.36
3.93 4.87 -1.68
13.25 16.41 0.37
4.56 5.65 -1.68
13.28 16.45 1.11
5.42 6.72 -1.68
14.34 17.77 2
6.78 8.4 -1.71
12.95 16.05 2.53
10.51 13.02 -2.05
14.52 17.98 3.66
13.09 16.22 -1.82
13.07 16.19 -1.09
16.46 20.4 6.05
13.09 16.22 -0.36
10.48 12.98 4.47
3.95 4.86 -1.68
13.1 16.11 0.36
4.57 5.63 -1.67
13.15 16.17 1.09
5.45 6.71 -1.68
17.87 21.97 2.48
6.8 8.36 -1.71
13.04 16.03 2.54
10.55 12.97 -2.05
12.93 15.9 -1.79
12.89 15.86 3.97
13.03 16.03 -1.08
12.77 15.7 4.67
13.25 16.3 -0.37
3.97 4.85 -1.68
13.26 16.19 0.37
4.59 5.61 -1.67
13.31 16.26 1.1
5.48 6.69 -1.68
13.23 16.15 1.83
6.82 8.33 -1.7
10.14 12.38 -1.97
13.55 16.55 3.39
13.25 16.19 -1.83
12.94 15.8 3.97
13.17 16.09 -1.09
12.77 15.6 4.65
13.37 16.33 -0.37
13.4 16.36 5.67
3.99 4.84 -1.68
18.02 21.85 0.49
4.61 5.59 -1.67
13.44 16.3 1.11
5.5 6.66 -1.68
6.85 8.3 -1.7
10.06 12.19 -1.94
13.7 16.61 3.41
13.37 16.21 -1.84
13.73 16.64 -1.13
12.79 15.51 4.64
13.39 16.23 -0.37
4.01 4.83 -1.68
13.36 16.1 0.37
4.63 5.58 -1.67
13.45 16.21 1.1
5.5 6.63 -1.67
6.87 8.28 -1.7
10.11 12.18 -1.94
14.26 17.18 3.54
13.41 16.16 -1.84
18.08 21.78 -1.48
12.82 15.45 4.64
13.83 16.67 -0.38
4.01 4.8 -1.68
13.32 15.94 0.36
4.65 5.56 -1.67
13.49 16.13 1.1
5.53 6.61 -1.68
6.89 8.25 -1.7
16.99 20.32 3.25
10.21 12.21 -1.95
14.32 17.13 3.54
13.28 15.89 -1.81
13.94 16.67 -1.14
13.15 15.73 4.73
13.68 16.36 -0.37
4.03 4.79 -1.68
13.77 16.35 0.37
4.66 5.54 -1.67
13.91 16.52 1.13
5.56 6.6 -1.68
17.18 20.4 2.33
6.92 8.22 -1.7
14.1 16.75 2.69
10.24 12.16 -1.95
21.89 26 5.38
13.41 15.92 -1.82
13.94 16.55 -1.13
13.69 16.25 -0.37
11.91 14.14 4.95
4.05 4.78 -1.68
13.6 16.04 0.37
4.67 5.51 -1.67
13.79 16.26 1.12
5.58 6.58 -1.68
23.79 28.05 3.22
6.94 8.19 -1.7
10.23 12.06 -1.94
11.55 13.62 2.83
14.25 16.8 -1.93
15.27 18 4.59
13.96 16.45 -1.13
13.99 16.49 -0.38
17.17 20.25 7.11
4.07 4.77 -1.68
13.48 15.79 0.36
4.69 5.5 -1.67
17.33 20.31 1.4
5.59 6.55 -1.67
13.82 16.19 1.86
6.97 8.16 -1.7
16.46 19.28 3.11
10.25 12.01 -1.94
14.35 16.82 -1.93
14.28 16.73 -1.15
13.74 16.09 -0.37
4.08 4.75 -1.68
14.17 16.48 0.38
4.71 5.48 -1.67
13.96 16.24 1.12
5.6 6.52 -1.67
13.99 16.28 1.88
6.99 8.13 -1.7
10.28 11.96 -1.94
14.25 16.57 3.46
14.52 16.89 -1.95
14.27 16.6 -1.15
15.25 17.74 5.4
13.85 16.11 -0.37
4.1 4.73 -1.68
13.75 15.87 0.37
4.73 5.46 -1.67
16.93 19.55 1.36
5.63 6.5 -1.67
16.74 19.33 2.24
7.01 8.1 -1.7
13.59 15.69 2.55
10.28 11.87 -1.93
11.68 13.48 2.82
14.08 16.26 -1.13
15.59 18.01 5.5
14 16.16 -0.37
15.47 17.87 6.33
4.11 4.71 -1.68
16.03 18.38 0.43
4.75 5.44 -1.67
15.98 18.33 1.27
5.65 6.48 -1.67
15.96 18.29 2.12
7.03 8.06 -1.69
15.86 18.18 2.96
10.36 11.87 -1.93
15.8 18.11 3.81
13.87 15.9 -1.85
15.67 17.97 4.63
14.26 16.35 -1.14
13.23 15.17 4.65
14.2 16.28 -0.38
4.13 4.71 -1.68
13.84 15.77 0.37
4.76 5.42 -1.67
14.15 16.12 1.12
5.68 6.47 -1.67
15.98 18.2 2.12
7.05 8.03 -1.69
14.08 16.04 2.62
10.17 11.58 -1.89
19.38 22.08 -2.57
14.39 16.39 -1.14
14.3 16.29 -0.38
15.2 17.31 6.17
4.15 4.69 -1.68
13.87 15.68 0.37
4.78 5.41 -1.67
17.07 19.3 1.35
5.69 6.43 -1.67
22.73 25.71 3
7.07 8 -1.69
15.72 17.78 2.91
9.96 11.26 -1.85
24.87 28.12 5.95
14.85 16.8 -1.96
14.09 15.94 4.14
14.82 16.76 -1.17
13.39 15.14 4.67
14.47 16.36 -0.38
12.58 14.22 5.09
4.17 4.68 -1.68
13.91 15.63 0.37
4.8 5.39 -1.67
14.36 16.14 1.13
5.71 6.41 -1.67
7.1 7.98 -1.69
16.54 18.58 3.05
9.98 11.21 -1.84
14.03 15.76 -1.85
14.56 16.36 4.26
14.72 16.54 -1.16
24.79 27.86 8.61
14.35 16.12 -0.38
14.51 16.3 5.85
4.17 4.65 -1.68
14.5 16.17 0.38
4.82 5.38 -1.67
14.73 16.43 1.16
5.73 6.39 -1.67
7.12 7.94 -1.69
15 16.73 2.76
9.97 11.12 -1.83
16.39 18.28 -2.15
14.68 16.37 4.27
14.67 16.37 -1.15
14.53 16.21 -0.38
14.47 16.15 5.81
4.19 4.64 -1.68
14.5 16.06 0.38
4.84 5.36 -1.67
14.9 16.5 1.17
5.74 6.36 -1.67
7.13 7.9 -1.69
14.05 15.56 2.57
9.41 10.42 -1.72
18.02 19.96 -2.35
14.64 16.22 4.25
15 16.62 -1.17
14.55 16.12 -0.38
20.18 22.36 8.07
4.21 4.63 -1.68
14.54 15.99 0.38
4.85 5.34 -1.67
14.59 16.05 1.14
5.77 6.35 -1.67
14.61 16.07 1.9
7.15 7.87 -1.68
14.15 15.57 2.58
9.91 10.9 -1.81
24.99 27.49 5.88
15.03 16.53 -1.95
14.8 16.28 -1.15
18.94 20.84 6.5
16.57 18.23 -0.43
18.63 20.49 7.42
4.23 4.62 -1.68
14.64 16 0.38
4.87 5.32 -1.66
15.15 16.56 1.18
5.79 6.32 -1.67
14.97 16.36 1.94
7.18 7.84 -1.68
9.6 10.49 -1.75
14.77 16.14 3.47
15.33 16.75 -1.99
13.11 14.32 3.77
17.39 19.01 -1.35
18.76 20.5 6.42
14.78 16.15 -0.38
16.43 17.95 6.52
4.24 4.6 -1.68
14.73 15.98 0.38
4.89 5.31 -1.67
5.8 6.29 -1.66
7.2 7.81 -1.68
14.93 16.2 2.71
9.7 10.52 -1.76
14.53 15.76 3.39
15.14 16.43 -1.95
14.27 15.48 4.09
14.83 16.09 -1.15
18.68 20.26 6.36
14.79 16.05 -0.38
18.05 19.59 7.14
4.25 4.58 -1.67
14.9 16.06 0.38
4.91 5.29 -1.67
5.82 6.27 -1.66
15.18 16.36 1.95
7.21 7.78 -1.68
14.3 15.41 2.58
9.76 10.52 -1.76
25.45 27.43 5.93
15.26 16.45 -1.96
14.3 15.41 4.09
15.2 16.39 -1.17
14.82 15.97 -0.38
15.58 16.8 6.14
4.27 4.57 -1.67
14.81 15.85 0.38
4.93 5.27 -1.67
14.73 15.77 1.13
5.84 6.25 -1.66
15.02 16.08 1.92
7.23 7.74 -1.68
15.09 16.15 2.71
9.7 10.38 -1.74
15.36 16.44 3.56
17.65 18.89 -2.26
14.34 15.35 4.08
20.6 22.05 -1.58
15.65 16.76 -0.4
15.69 16.79 6.16
4.29 4.55 -1.68
15.52 16.48 0.4
4.94 5.24 -1.66
15.44 16.4 1.18
5.86 6.23 -1.66
15 15.94 1.92
7.25 7.7 -1.68
14.64 15.55 2.62
9.73 10.33 -1.74
19.12 20.31 4.42
17.74 18.84 -2.26
15.42 16.39 -1.18
17.08 18.14 5.75
15.37 16.33 -0.39
4.3 4.54 -1.68
15.49 16.34 0.39
4.95 5.23 -1.66
16.86 17.78 1.28
5.88 6.2 -1.66
14.48 15.27 1.84
7.28 7.67 -1.68
14.75 15.55 2.63
9.72 10.25 -1.73
13.07 13.78 3.01
15.33 16.16 -1.95
16.8 17.72 4.75
15.46 16.31 -1.18
20.82 21.96 6.99
15.39 16.23 -0.39
13.84 14.6 5.39
4.32 4.53 -1.68
25.52 26.75 0.65
4.97 5.21 -1.66
15.58 16.33 1.18
5.89 6.17 -1.66
14.58 15.28 1.85
7.3 7.65 -1.67
14.4 15.1 2.56
9.73 10.2 -1.73
15.34 16.08 3.52
15.52 16.26 -1.97
16.84 17.65 4.74
15.24 15.98 -1.16
20.39 21.38 6.82
15.14 15.87 -0.38
13.87 14.54 5.38
4.33 4.51 -1.67
17.81 18.54 0.45
4.99 5.19 -1.66
17.09 17.78 1.29
5.91 6.15 -1.66
19.46 20.26 2.46
7.32 7.62 -1.67
14.4 14.99 2.55
9.7 10.09 -1.72
15.36 15.99 3.51
15.54 16.18 -1.96
20.71 21.56 5.81
15.47 16.11 -1.17
17.45 18.16 5.81
15.22 15.84 -0.38
17.3 18.01 6.69
4.35 4.49 -1.68
15.53 16.06 0.39
5.01 5.18 -1.66
15.4 15.93 1.16
5.93 6.13 -1.66
15.62 16.15 1.97
7.34 7.59 -1.67
14.54 15.03 2.57
9.73 10.06 -1.72
17.61 18.21 4.01
18.04 18.65 -2.27
14.53 15.03 4.06
15.63 16.16 -1.18
17.53 18.12 5.82
15.28 15.81 -0.38
18.28 18.9 7.05
4.36 4.48 -1.68
15.37 15.78 0.38
5.02 5.15 -1.66
15.83 16.25 1.19
5.96 6.12 -1.66
17.68 18.15 2.22
7.36 7.55 -1.67
14.57 14.96 2.56
9.76 10.02 -1.72
17.64 18.11 4
18.04 18.52 -2.26
14.58 14.97 4.06
15.42 15.83 -1.16
15.3 15.71 -0.38
17.2 17.66 6.61
4.38 4.46 -1.68
17.75 18.1 0.44
5.04 5.14 -1.66
17.75 18.1 1.33
5.97 6.09 -1.66
17.75 18.1 2.22
7.38 7.53 -1.67
16.07 16.39 2.82
9.81 10 -1.72
15.16 15.46 3.43
15.68 15.99 -1.96
14.67 14.96 4.07
15.51 15.81 -1.16
15.42 15.72 -0.38
4.39 4.45 -1.67
15.76 15.96 0.39
5.05 5.12 -1.66
16.26 16.47 1.21
5.99 6.07 -1.66
14.93 15.12 1.86
7.4 7.5 -1.67
15.96 16.16 2.79
9.86 9.98 -1.72
17.77 17.99 4
17.97 18.2 -2.24
14.03 14.21 3.88
15.7 15.9 -1.17
15.71 15.9 -0.39
4.4 4.42 -1.67
15.84 15.93 0.39
5.08 5.11 -1.66
16.15 16.24 1.2
6.01 6.04 -1.66
16.41 16.5 2.04
7.43 7.47 -1.67
16.12 16.21 2.81
9.89 9.95 -1.72
15.38 15.46 3.45
16.72 16.81 -2.07
14.12 14.2 3.89
15.7 15.79 -1.17
22.39 22.52 7.33
15.91 16 -0.39
4.42 4.41 -1.67
15.75 15.73 0.39
5.1 5.09 -1.66
18.44 18.42 1.37
6.04 6.03 -1.66
18.49 18.46 2.29
7.44 7.43 -1.66
15.73 15.7 2.73
9.91 9.9 -1.72
15.24 15.21 3.41
21.4 21.36 -2.65
15.47 15.45 4.25
15.85 15.83 -1.17
18.71 18.68 6.1
15.63 15.61 -0.39
4.44 4.4 -1.67
15.91 15.78 0.39
5.1 5.06 -1.66
6.04 5.99 -1.65
18.48 18.33 2.28
7.46 7.4 -1.66
16.52 16.38 2.86
9.93 9.84 -1.72
15.28 15.15 3.41
18.28 18.13 -2.25
15.63 15.5 4.28
16.26 16.13 -1.2
16.24 16.1 -0.4
4.45 4.39 -1.67
15.96 15.72 0.39
5.12 5.05 -1.66
16.28 16.03 1.2
6.06 5.97 -1.65
15.45 15.22 1.9
7.48 7.37 -1.66
9.93 9.78 -1.71
16.58 16.33 -2.04
16.04 15.8 4.38
16.41 16.16 -1.21
17.08 16.82 5.53
16.31 16.06 -0.4
4.46 4.37 -1.67
16.82 16.45 0.41
5.15 5.03 -1.66
16.92 16.56 1.24
6.07 5.94 -1.65
16.94 16.57 2.07
7.5 7.34 -1.66
9.97 9.75 -1.71
15.34 15.01 3.4
16.4 16.04 -2.01
15.93 15.58 4.33
16.67 16.31 -1.22
17.21 16.84 5.56
16.48 16.12 -0.4
20.76 20.31 7.78
4.47 4.35 -1.67
16.45 15.98 0.4
5.16 5.02 -1.66
16.97 16.49 1.24
6.09 5.92 -1.65
16.99 16.51 2.07
7.52 7.31 -1.66
17.17 16.68 2.94
9.99 9.71 -1.71
16.19 15.73 3.57
16.4 15.93 -2
16.1 15.64 4.36
16.2 15.74 -1.18
17.23 16.74 5.55
16.5 16.03 -0.4
13.62 13.24 5.09
4.49 4.33 -1.67
16.35 15.77 0.4
5.18 5 -1.66
17.05 16.44 1.24
6.11 5.9 -1.65
17.15 16.55 2.09
7.53 7.27 -1.66
17.2 16.6 2.93
10.03 9.68 -1.71
15.51 14.97 3.41
16.67 16.08 -2.03
16.09 15.52 4.35
16.82 16.23 -1.22
17.37 16.76 5.57
16.51 15.93 -0.4
23.83 22.99 8.87
4.51 4.32 -1.67
17.14 16.42 0.41
5.19 4.97 -1.66
17.19 16.47 1.25
6.13 5.88 -1.65
17.26 16.54 2.09
7.55 7.24 -1.66
17.27 16.55 2.94
10.06 9.64 -1.71
16.92 16.21 3.71
16.66 15.96 -2.02
16.18 15.51 4.36
17.89 17.14 5.72
16.62 15.93 -0.4
14.19 13.59 5.26
4.53 4.31 -1.68
16.51 15.72 0.4
5.21 4.96 -1.66
17.25 16.42 1.25
6.15 5.85 -1.65
17.01 16.19 2.05
7.58 7.21 -1.66
19.13 18.21 3.24
10.06 9.57 -1.7
17.01 16.19 3.72
16.74 15.93 -2.02
16.99 16.17 4.56
17.23 16.4 -1.25
17.53 16.69 5.59
16.77 15.96 -0.4
18.95 18.04 7.01
4.54 4.29 -1.67
16.53 15.63 0.4
5.22 4.94 -1.66
19.28 18.23 1.39
6.16 5.83 -1.65
15.77 14.91 1.9
7.59 7.18 -1.66
19.19 18.15 3.24
10.09 9.54 -1.7
16.49 15.59 3.59
17.26 16.32 -2.08
17.06 16.13 4.56
16.71 15.8 -1.21
17.56 16.6 5.58
16.85 15.93 -0.4
19.02 17.99 7.02
4.55 4.27 -1.67
19.35 18.16 0.46
5.24 4.92 -1.66
18.13 17.02 1.3
6.18 5.8 -1.65
17.01 15.97 2.04
7.61 7.15 -1.65
19.28 18.1 3.25
10.11 9.49 -1.7
19.22 18.04 4.17
17.04 16 -2.04
16.39 15.38 4.37
19.38 18.19 -1.39
19.15 17.97 6.06
19.4 18.21 -0.46
20.98 19.69 7.71
4.56 4.25 -1.67
19.42 18.11 0.46
5.26 4.91 -1.66
6.2 5.78 -1.65
15.7 14.64 1.88
7.62 7.11 -1.65
19.47 18.16 3.27
10.13 9.44 -1.7
16.3 15.2 3.53
19.39 18.08 -2.32
16.29 15.19 4.33
19.48 18.16 -1.4
21.04 19.61 6.64
17.05 15.9 -0.41
4.57 4.23 -1.67
20.51 18.98 0.49
5.27 4.88 -1.66
6.22 5.76 -1.65
15.94 14.75 1.9
7.65 7.08 -1.65
18.84 17.44 3.15
10.15 9.4 -1.7
21.11 19.54 4.56
19.47 18.02 -2.32
16.37 15.16 4.34
17.14 15.86 -1.22
20.32 18.81 -0.48
4.6 4.23 -1.67
17.49 16.08 0.41
5.29 4.86 -1.66
21.24 19.53 1.51
6.24 5.74 -1.65
19.05 17.52 2.26
7.67 7.05 -1.65
21.16 19.46 3.53
10.18 9.36 -1.7
21.16 19.45 4.55
20.79 19.11 -2.47
16.65 15.31 4.4
33.21 30.53 -2.36
20.36 18.72 -0.48
17.79 16.35 6.47
4.61 4.21 -1.67
21.33 19.47 0.5
5.31 4.85 -1.66
21.29 19.43 1.51
6.25 5.7 -1.64
19.04 17.38 2.26
7.69 7.02 -1.65
10.19 9.31 -1.69
21.35 19.49 -1.52
20.99 19.16 6.56
18.32 16.72 -0.43
20.86 19.04 7.57
4.61 4.18 -1.67
17.46 15.83 0.41
5.33 4.83 -1.66
18.32 16.61 1.3
6.27 5.68 -1.64
19.75 17.9 2.33
7.7 6.98 -1.65
10.22 9.27 -1.69
17 15.41 3.63
18.43 16.71 -2.18
16.76 15.19 4.4
18.42 16.7 -1.3
18.34 16.63 -0.43
4.63 4.17 -1.67
17.59 15.84 0.41
5.35 4.81 -1.66
6.29 5.66 -1.65
18.89 17.01 2.22
7.71 6.94 -1.64
18.14 16.33 3
10.24 9.22 -1.69
16.99 15.3 3.62
19.43 17.49 -2.29
16.9 15.22 4.42
18.46 16.62 -1.3
18.37 16.54 -0.43
4.65 4.16 -1.67
17.65 15.78 0.41
5.35 4.78 -1.66
18.19 16.27 1.28
6.31 5.65 -1.65
18.29 16.36 2.15
7.73 6.91 -1.64
10.26 9.17 -1.69
17.1 15.29 3.63
18.58 16.61 -2.18
18.59 16.62 -1.31
18.42 16.47 -0.43
20.11 17.98 7.23
4.66 4.14 -1.67
17.76 15.77 0.41
5.37 4.77 -1.66
18.64 16.55 1.31
6.33 5.62 -1.65
18.31 16.25 2.14
7.75 6.88 -1.64
18.25 16.2 3
10.28 9.12 -1.69
18.65 16.56 -2.18
16.83 14.94 4.38
18.69 16.59 -1.31
19.54 17.35 -0.46
19.76 17.54 7.08
4.68 4.13 -1.67
17.78 15.68 0.41
5.39 4.75 -1.66
6.34 5.59 -1.64
18.44 16.26 2.15
7.77 6.86 -1.64
18.22 16.07 2.98
10.3 9.08 -1.69
17.45 15.38 -2.03
16.97 14.96 4.4
18.77 16.55 -1.31
24.2 21.34 7.45
18.67 16.46 -0.43
4.68 4.1 -1.67
18.31 16.03 0.42
5.41 4.73 -1.66
18.29 16.02 1.27
6.36 5.57 -1.64
18.27 16 2.13
7.79 6.82 -1.64
18.56 16.25 3.03
10.33 9.04 -1.69
18.74 16.41 3.95
17.04 14.92 -1.98
16.76 14.68 4.33
18.87 16.53 -1.31
17.81 15.59 -0.41
20.37 17.84 7.25
4.7 4.09 -1.67
18.22 15.85 0.42
5.42 4.72 -1.66
18.27 15.89 1.27
6.38 5.55 -1.64
20.57 17.89 2.38
7.81 6.79 -1.64
20.47 17.81 3.33
10.35 9 -1.68
20.44 17.78 4.29
17.1 14.87 -1.98
20.39 17.73 5.25
20.78 18.08 -1.44
20.34 17.69 6.22
18.83 16.38 -0.44
20.41 17.75 7.25
4.72 4.07 -1.67
18.24 15.75 0.42
5.43 4.69 -1.66
18.43 15.91 1.28
6.4 5.53 -1.64
19.91 17.19 2.3
7.83 6.76 -1.64
18.71 16.16 3.04
10.38 8.96 -1.68
20.51 17.71 4.29
17.15 14.81 -1.98
20.44 17.65 5.25
19.27 16.64 -1.33
20.41 17.63 6.23
19.25 16.62 -0.44
24.99 21.58 8.85
4.73 4.06 -1.67
18.59 15.94 0.43
5.45 4.67 -1.66
18.91 16.21 1.31
6.42 5.5 -1.64
7.85 6.73 -1.64
18.65 15.99 3.02
10.38 8.9 -1.68
18.61 15.96 3.88
17.19 14.74 -1.98
19.16 16.43 -1.32
18.8 16.12 -0.43
20.17 17.3 7.12
4.74 4.04 -1.67
5.47 4.66 -1.66
19.02 16.2 1.31
6.43 5.47 -1.64
22.8 19.41 2.62
7.87 6.7 -1.64
18.45 15.71 2.98
10.41 8.86 -1.68
17.27 14.7 -1.98
19.18 16.33 -1.32
18.56 15.8 5.63
18.93 16.11 -0.43
18.99 16.17 6.68
4.75 4.02 -1.67
18.83 15.92 0.43
5.48 4.64 -1.66
19.2 16.23 1.32
6.45 5.45 -1.64
19.3 16.32 2.21
7.89 6.67 -1.64
10.43 8.82 -1.68
18.79 15.89 3.9
17.37 14.69 -1.99
20.35 17.21 -1.4
25.24 21.34 7.63
18.84 15.93 -0.43
4.76 4 -1.67
18.89 15.86 0.43
5.5 4.62 -1.66
19.33 16.23 1.32
6.47 5.43 -1.64
19.38 16.27 2.21
7.91 6.64 -1.63
10.45 8.77 -1.68
19.1 16.04 3.95
17.44 14.64 -1.99
25.3 21.24 6.42
20.52 17.23 -1.4
18.95 15.9 -0.43
4.78 3.99 -1.67
19.1 15.92 0.43
5.51 4.59 -1.66
19.4 16.18 1.32
6.49 5.41 -1.64
19.53 16.28 2.22
7.92 6.6 -1.63
18.44 15.37 2.95
10.47 8.73 -1.67
19.72 16.44 4.07
17.55 14.63 -2
25.39 21.16 6.42
18.9 15.75 -1.29
18.88 15.74 5.67
19.11 15.93 -0.43
4.79 3.97 -1.67
19.21 15.9 0.44
5.53 4.57 -1.66
19.59 16.22 1.33
6.5 5.38 -1.64
25.44 21.06 2.89
7.94 6.58 -1.63
18.39 15.22 2.93
10.49 8.68 -1.67
19.69 16.3 4.05
17.65 14.61 -2
24.95 20.65 6.29
18.9 15.65 -1.29
21.77 18.03 6.53
22.73 18.82 -0.52
21.71 17.98 7.55
4.81 3.96 -1.67
19.42 15.97 0.44
5.55 4.56 -1.66
19.91 16.37 1.35
6.52 5.36 -1.64
19.39 15.94 2.2
7.96 6.54 -1.63
18.41 15.14 2.93
10.51 8.64 -1.67
21 17.27 4.31
17.72 14.57 -2.01
21.1 17.35 5.31
19.14 15.73 -1.3
18.06 14.85 5.4
19.29 15.86 -0.44
4.82 3.93 -1.67
19.48 15.89 0.44
5.56 4.54 -1.66
22.01 17.97 1.49
6.53 5.33 -1.64
21.98 17.94 2.48
7.98 6.51 -1.63
21.97 17.93 3.48
10.53 8.59 -1.67
21.96 17.92 4.49
17.77 14.5 -2.01
21.14 17.25 5.3
19.16 15.64 -1.3
18.05 14.73 5.38
19.32 15.77 -0.44
4.83 3.92 -1.67
20.12 16.3 0.45
5.58 4.52 -1.66
22.07 17.89 1.49
6.55 5.31 -1.64
22.07 17.89 2.49
7.99 6.48 -1.63
21.99 17.82 3.48
10.55 8.55 -1.67
25.61 20.76 5.22
17.8 14.43 -2
21.01 17.03 5.26
19.34 15.68 -1.3
18.11 14.68 5.38
19.55 15.84 -0.44
4.85 3.9 -1.67
29.25 23.54 0.66
5.59 4.49 -1.66
19.92 16.02 1.34
6.57 5.29 -1.64
8.01 6.45 -1.63
22.11 17.79 3.48
10.56 8.5 -1.66
22.07 17.76 4.49
17.8 14.32 -2
20.99 16.89 5.24
19.39 15.6 -1.3
18.12 14.58 5.37
19.66 15.82 -0.44
4.86 3.88 -1.67
21.39 17.09 0.48
5.6 4.48 -1.66
20.41 16.31 1.37
6.59 5.26 -1.64
8.04 6.42 -1.63
27.51 21.98 4.32
10.58 8.45 -1.66
22.11 17.67 4.48
17.85 14.27 -2
22.05 17.62 5.49
19.67 15.72 -1.32
18.21 14.55 5.38
19.63 15.69 -0.44
21.97 17.56 7.54
4.88 3.87 -1.67
20.67 16.39 0.46
5.62 4.46 -1.66
22.15 17.56 1.48
6.6 5.24 -1.64
20.61 16.34 2.3
8.05 6.39 -1.63
10.6 8.41 -1.66
17.89 14.19 -2
19.87 15.76 -1.33
22.1 17.53 6.51
19.86 15.75 -0.44
4.88 3.84 -1.66
20.02 15.77 0.44
5.64 4.44 -1.66
20.77 16.36 1.39
6.62 5.22 -1.64
19.91 15.68 2.22
8.07 6.36 -1.63
28.04 22.09 4.38
10.62 8.36 -1.66
27.98 22.04 5.64
17.91 14.11 -1.99
19.87 15.65 -1.33
20.08 15.82 -0.45
4.89 3.82 -1.66
20.58 16.1 0.46
5.66 4.43 -1.66
20.78 16.26 1.38
6.64 5.2 -1.64
19.89 15.56 2.21
8.08 6.32 -1.63
30.46 23.83 4.75
10.65 8.33 -1.66
19.31 15.11 3.88
17.95 14.05 -1.99
28.02 21.92 8.21
20.08 15.71 -0.44
4.91 3.81 -1.67
20.23 15.71 0.45
5.66 4.4 -1.65
20.83 16.18 1.38
6.66 5.18 -1.64
21.1 16.4 2.34
8.1 6.29 -1.62
10.67 8.29 -1.66
21.05 16.36 4.22
17.99 13.98 -1.99
19.12 14.86 4.71
20.45 15.89 -1.36
20.29 15.76 -0.45
21.14 16.43 7.17
4.93 3.8 -1.67
20.71 15.97 0.46
5.68 4.38 -1.66
20.82 16.06 1.38
6.68 5.15 -1.64
20.5 15.81 2.26
8.12 6.26 -1.62
35.27 27.2 5.47
10.68 8.24 -1.66
22.06 17.02 4.41
18.03 13.91 -1.99
20.39 15.72 -1.35
20.43 15.76 -0.45
4.94 3.78 -1.67
20.72 15.87 0.46
5.7 4.36 -1.66
20.91 16.01 1.38
6.69 5.12 -1.64
20.91 16.02 2.3
8.14 6.24 -1.62
21.16 16.21 3.27
10.7 8.2 -1.66
18.06 13.83 -1.99
21.19 16.23 5.19
20.53 15.72 -1.35
20.34 15.58 -0.45
4.94 3.76 -1.66
21.05 16 0.46
5.72 4.34 -1.66
20.5 15.58 1.35
6.71 5.1 -1.64
20.99 15.95 2.31
8.17 6.21 -1.62
10.73 8.15 -1.65
18.09 13.75 -1.99
25.4 19.3 -1.67
20.53 15.6 -0.45
22.29 16.94 7.5
4.96 3.74 -1.66
21.14 15.95 0.46
5.73 4.33 -1.66
20.53 15.49 1.35
6.73 5.08 -1.64
25.5 19.24 2.79
8.18 6.17 -1.62
10.74 8.1 -1.65
21.6 16.3 4.29
18.14 13.69 -1.99
20.93 15.79 -1.37
21.35 16.11 7.17
4.98 3.73 -1.67
21.83 16.35 0.48
5.74 4.3 -1.66
25.5 19.1 1.67
6.75 5.05 -1.64
25.54 19.12 2.79
8.18 6.12 -1.62
23.52 17.62 3.61
10.76 8.06 -1.65
19.21 14.38 3.8
18.19 13.62 -1.99
21.25 15.91 -1.39
25.67 19.23 7.4
21.07 15.78 -0.46
4.98 3.71 -1.66
23.86 17.74 0.52
5.75 4.28 -1.66
23.73 17.65 1.55
6.77 5.03 -1.64
23.56 17.52 2.57
8.2 6.1 -1.62
23.34 17.35 3.57
10.78 8.01 -1.65
23.36 17.37 4.61
18.23 13.55 -1.99
21.1 15.69 -1.38
25.69 19.1 7.39
20.8 15.47 -0.45
5 3.69 -1.67
21.46 15.85 0.47
5.77 4.26 -1.66
6.77 5 -1.64
22.27 16.45 2.42
8.23 6.08 -1.62
23.62 17.45 3.61
10.78 7.96 -1.65
23.28 17.19 4.58
18.26 13.49 -1.99
19.41 14.33 4.69
14.12 10.43 -0.92
21.32 15.75 -0.46
5 3.67 -1.66
5.79 4.24 -1.66
6.79 4.98 -1.64
8.24 6.04 -1.62
10.8 7.92 -1.64
23.28 17.07 4.57
14.16 10.39 -1.54
14.14 10.37 -0.92
26.18 19.2 7.49
21.46 15.74 -0.46
5.02 3.65 -1.66
22.46 16.34 0.48
5.8 4.22 -1.66
28.69 20.87 1.86
6.82 4.96 -1.64
26.46 19.25 2.86
8.24 5.99 -1.61
10.83 7.88 -1.64
14.18 10.32 -1.53
23.22 16.9 5.58
14.16 10.31 -0.92
23.11 16.81 6.6
21.33 15.52 -0.46
5.04 3.64 -1.66
23.73 17.14 0.51
5.81 4.2 -1.65
22.58 16.31 1.46
6.83 4.94 -1.64
8.27 5.97 -1.62
31.35 22.65 4.75
10.84 7.83 -1.64
23.29 16.83 6.63
21.7 15.68 -0.47
5.05 3.62 -1.67
24.33 17.45 0.52
5.82 4.18 -1.65
6.85 4.91 -1.64
23 16.5 2.48
8.28 5.94 -1.61
10.86 7.79 -1.64
18.43 13.22 -1.98
22.5 16.14 -1.45
5.06 3.6 -1.66
26.13 18.6 0.56
5.84 4.16 -1.66
31.63 22.52 2.03
6.86 4.88 -1.64
23.1 16.45 2.48
8.3 5.91 -1.61
10.87 7.74 -1.64
18.47 13.15 -1.98
22.19 15.8 5.3
22.48 16.01 -1.45
22.96 16.35 6.51
26.61 18.95 -0.57
22.9 16.31 7.53
5.06 3.58 -1.66
5.86 4.14 -1.66
6.87 4.86 -1.64
8.32 5.88 -1.61
10.9 7.7 -1.64
18.51 13.08 -1.98
22.45 15.87 -1.44
25.29 17.88 -0.54
25.07 17.72 8.23
5.08 3.56 -1.66
23.08 16.19 0.49
5.87 4.12 -1.65
23.5 16.49 1.5
6.9 4.84 -1.64
23.22 16.29 2.48
8.32 5.84 -1.61
25.27 17.73 3.79
10.92 7.67 -1.64
25.28 17.74 4.89
18.55 13.02 -1.98
25.4 17.82 -1.63
30.8 21.61 8.69
25.34 17.78 -0.54
5.09 3.55 -1.66
25.41 17.7 0.54
5.88 4.1 -1.66
25.37 17.68 1.62
6.91 4.82 -1.64
25.38 17.68 2.71
8.34 5.81 -1.61
25.4 17.69 3.8
10.94 7.62 -1.64
25.35 17.66 4.89
18.59 12.95 -1.98
25.29 17.62 5.99
22.45 15.64 -1.43
25.28 17.61 7.11
23.4 16.3 -0.5
25.22 17.57 8.24
5.11 3.53 -1.66
5.89 4.07 -1.65
6.93 4.79 -1.64
25.49 17.63 2.71
8.36 5.78 -1.61
10.95 7.57 -1.63
21.62 14.95 4.16
17.56 12.14 -1.87
22.08 15.27 5.22
23.29 16.11 -1.48
23.5 16.25 6.6
25.73 17.79 8.38
5.12 3.51 -1.66
5.91 4.05 -1.65
6.94 4.76 -1.64
25.05 17.19 2.66
8.38 5.75 -1.61
24.31 16.68 3.62
10.97 7.53 -1.63
25.44 17.46 4.89
15.04 10.32 -1.6
22.42 15.39 -1.43
5.12 3.49 -1.66
26.49 18.04 0.56
5.93 4.04 -1.66
32.99 22.48 2.09
6.96 4.74 -1.64
8.41 5.73 -1.61
10.99 7.49 -1.63
16.18 11.02 -1.71
22.99 15.66 -1.46
23.79 16.21 -0.5
23.35 15.91 7.57
5.13 3.47 -1.66
5.94 4.02 -1.66
26.28 17.77 1.66
6.98 4.72 -1.64
25.71 17.39 2.72
8.41 5.69 -1.61
24.79 16.76 3.67
11 7.44 -1.63
14.89 10.07 -1.57
23.38 15.81 -1.48
24.63 16.66 6.87
5.13 3.44 -1.66
26.03 17.48 0.55
5.94 3.99 -1.65
24.83 16.67 1.57
6.99 4.69 -1.64
8.43 5.66 -1.61
24.86 16.69 3.68
11.02 7.4 -1.63
23.4 15.71 4.46
14.97 10.05 -1.58
23.41 15.71 -1.48
25.39 17.05 7.06
23.59 15.84 -0.5
25.33 17 8.17
5.15 3.43 -1.66
5.95 3.97 -1.65
24.9 16.59 1.57
7.01 4.67 -1.64
25.37 16.9 2.67
8.45 5.63 -1.61
11.03 7.35 -1.63
15.46 10.3 -1.63
23.69 15.78 -1.49
5.17 3.42 -1.66
5.97 3.95 -1.65
24.89 16.46 1.56
7.01 4.64 -1.63
26.13 17.28 2.74
8.48 5.61 -1.61
11.04 7.3 -1.63
15.16 10.03 -1.59
24.33 16.09 -1.53
29.7 19.64 8.22
24.14 15.96 -0.51
5.18 3.4 -1.66
5.99 3.93 -1.65
27.05 17.75 1.7
7.04 4.62 -1.64
25.8 16.93 2.7
8.49 5.57 -1.61
24.92 16.36 3.66
11.06 7.26 -1.62
24.57 16.13 4.65
15.42 10.12 -1.61
25.66 16.84 5.97
23.97 15.73 -1.5
29.34 19.26 8.1
24.16 15.86 -0.5
5.19 3.38 -1.66
27.22 17.73 0.57
6 3.91 -1.65
27.21 17.73 1.7
7.05 4.59 -1.64
27.14 17.68 2.83
8.5 5.54 -1.61
27.03 17.61 3.96
11.08 7.22 -1.62
15.41 10.04 -1.61
24.19 15.76 -1.51
27.41 17.86 -0.57
5.2 3.36 -1.66
25.2 16.29 0.52
6 3.88 -1.65
26.24 16.96 1.64
7.07 4.57 -1.64
27.2 17.58 2.83
8.52 5.51 -1.61
11.1 7.18 -1.62
27.03 17.47 5.1
15.4 9.96 -1.6
25.4 16.42 -1.58
26.53 17.15 7.29
5.21 3.35 -1.66
25.36 16.27 0.53
6.01 3.86 -1.65
26.34 16.9 1.64
7.08 4.55 -1.64
26.15 16.78 2.72
8.54 5.48 -1.61
11.11 7.13 -1.62
25.37 16.28 4.77
15.46 9.92 -1.61
25.59 16.42 -1.59
24.72 15.86 -0.51
5.22 3.33 -1.66
25.71 16.37 0.53
6.03 3.84 -1.65
7.09 4.52 -1.63
8.56 5.45 -1.61
33.47 21.31 4.87
11.12 7.08 -1.62
15.54 9.89 -1.61
29.6 18.84 -1.84
25.11 15.98 -0.52
5.23 3.31 -1.66
26.69 16.86 0.55
6.05 3.82 -1.65
26.19 16.54 1.62
7.11 4.49 -1.63
27.25 17.22 2.82
8.58 5.42 -1.61
11.14 7.04 -1.62
26.77 16.92 5.02
15.55 9.83 -1.61
27.66 17.48 -1.71
25.1 15.86 -0.52
5.24 3.28 -1.66
26.63 16.69 0.55
6.06 3.8 -1.65
27.38 17.16 1.69
7.13 4.47 -1.64
27.32 17.12 2.82
8.59 5.39 -1.61
27.18 17.04 3.94
11.16 6.99 -1.62
25.66 16.08 4.8
15.56 9.75 -1.61
24.4 15.3 5.6
25.54 16.01 -0.53
5.26 3.27 -1.66
6.06 3.77 -1.65
26.02 16.19 1.61
7.15 4.45 -1.64
33.63 20.92 3.46
8.61 5.35 -1.61
26.45 16.45 3.82
11.18 6.96 -1.62
25.34 15.77 4.73
15.57 9.69 -1.6
28.68 17.84 -1.77
25.86 16.09 7.03
25.58 15.91 -0.53
24.6 15.3 7.76
5.27 3.25 -1.66
26.16 16.15 0.54
6.08 3.75 -1.65
7.16 4.42 -1.64
8.63 5.32 -1.61
27.22 16.8 3.93
11.18 6.9 -1.61
25.68 15.85 4.78
15.58 9.62 -1.6
25.61 15.8 -1.58
25.63 15.81 -0.53
29.08 17.95 9.16
5.29 3.24 -1.66
28.9 17.7 0.59
6.1 3.73 -1.65
7.17 4.39 -1.63
8.65 5.3 -1.61
27.24 16.68 3.92
11.2 6.86 -1.61
25.84 15.83 4.8
15.58 9.54 -1.6
25.75 15.77 -1.58
23.76 14.55 6.43
25.7 15.74 -0.53
5.3 3.22 -1.66
26.47 16.09 0.54
6.11 3.72 -1.65
7.18 4.37 -1.63
8.67 5.27 -1.61
26.62 16.18 3.82
11.22 6.82 -1.61
27.27 16.57 5.05
15.57 9.46 -1.59
25.9 15.74 -1.59
24.04 14.61 6.49
26.41 16.05 -0.54
31.18 18.95 9.78
5.29 3.19 -1.66
26.58 16.03 0.54
6.12 3.69 -1.65
7.2 4.34 -1.64
25.79 15.55 2.63
8.68 5.23 -1.6
26.76 16.14 3.84
11.24 6.78 -1.61
27.3 16.46 5.05
15.61 9.41 -1.59
23.53 14.19 5.34
26.15 15.77 -1.6
29.24 17.63 7.88
5.31 3.18 -1.66
26.72 15.99 0.54
6.13 3.67 -1.65
7.22 4.32 -1.64
26.21 15.68 2.67
8.69 5.2 -1.6
11.26 6.73 -1.61
27.39 16.39 5.06
15.67 9.37 -1.6
26.26 15.71 -1.6
24.27 14.52 6.53
26.59 15.91 -0.54
5.33 3.16 -1.66
26.72 15.86 0.54
6.14 3.65 -1.65
26.52 15.75 1.62
7.23 4.29 -1.63
26.32 15.63 2.68
8.71 5.17 -1.6
11.27 6.69 -1.61
15.69 9.31 -1.6
26.41 15.68 -1.61
26.63 15.81 -0.54
26.03 15.45 8.11
5.34 3.15 -1.66
26.82 15.8 0.54
6.16 3.63 -1.65
26.92 15.86 1.64
7.23 4.26 -1.63
29.88 17.61 3.03
8.73 5.15 -1.61
29.7 17.5 4.23
11.29 6.65 -1.61
29.59 17.44 5.44
15.69 9.25 -1.59
23.66 13.95 5.34
30.23 17.81 -1.84
29.33 17.28 7.86
26.89 15.84 -0.54
30.94 18.23 9.62
5.35 3.13 -1.66
6.17 3.61 -1.65
29.97 17.51 1.82
7.25 4.24 -1.63
8.75 5.11 -1.6
11.31 6.61 -1.61
27.52 16.08 5.05
15.71 9.18 -1.59
23.85 13.94 5.37
33.6 19.64 8.98
27.15 15.87 -0.55
5.35 3.1 -1.66
27.51 15.95 0.56
6.18 3.58 -1.65
7.27 4.21 -1.63
25.96 15.05 2.62
8.76 5.08 -1.6
11.33 6.57 -1.61
25.82 14.97 4.73
15.73 9.12 -1.59
29.54 17.12 -1.79
23.71 13.74 6.33
5.37 3.09 -1.66
27.61 15.87 0.56
6.19 3.56 -1.65
7.28 4.19 -1.63
26.44 15.2 2.67
8.78 5.05 -1.6
29.65 17.05 4.2
11.34 6.52 -1.61
26.88 15.45 4.91
15.76 9.06 -1.59
27.64 15.89 -1.67
23.76 13.66 6.33
27.49 15.8 -0.55
5.38 3.07 -1.66
29.34 16.74 0.59
6.2 3.54 -1.65
7.3 4.16 -1.63
8.8 5.02 -1.6
37.04 21.14 5.24
11.36 6.48 -1.61
25.75 14.69 4.7
15.78 9 -1.59
27.78 15.85 -1.68
33.44 19.08 8.89
29.51 16.84 -0.59
24.21 13.81 7.47
5.4 3.05 -1.66
29.36 16.61 0.59
6.22 3.52 -1.65
33.7 19.07 2.03
7.3 4.13 -1.63
33.62 19.03 3.38
8.82 4.99 -1.6
26.76 15.14 3.78
11.38 6.44 -1.61
26.18 14.82 4.76
15.8 8.94 -1.59
28.2 15.96 -1.7
24.22 13.71 6.43
28.29 16.01 -0.57
5.4 3.03 -1.66
6.24 3.5 -1.65
29.27 16.43 1.76
7.32 4.11 -1.63
31.87 17.89 3.2
8.83 4.96 -1.6
26.61 14.94 3.75
11.39 6.4 -1.6
26.87 15.09 4.88
15.81 8.88 -1.59
31.83 17.87 7.1
28.1 15.78 -1.69
28.14 15.8 7.45
28.13 15.79 -0.56
5.4 3.01 -1.66
31.95 17.79 0.64
6.24 3.47 -1.65
31.97 17.8 1.92
7.33 4.08 -1.63
8.85 4.93 -1.6
26.52 14.76 3.73
11.45 6.38 -1.61
26.9 14.97 4.88
15.85 8.82 -1.59
28.15 15.67 -1.69
28.56 15.9 7.55
5.42 2.99 -1.66
6.24 3.45 -1.65
29.41 16.25 1.76
7.36 4.07 -1.63
26.96 14.89 2.69
8.87 4.9 -1.6
26.57 14.68 3.73
11.45 6.33 -1.61
27.01 14.92 4.89
15.85 8.76 -1.58
28.34 15.66 -1.7
5.44 2.98 -1.66
31.39 17.2 0.62
6.25 3.43 -1.65
32.82 17.98 1.96
7.36 4.03 -1.63
28.3 15.5 2.82
8.89 4.87 -1.6
11.43 6.26 -1.6
25.83 14.15 4.66
15.87 8.7 -1.58
33.08 18.12 8.71
30 16.44 -0.6
5.45 2.96 -1.66
33.1 17.99 0.66
6.27 3.41 -1.65
7.37 4 -1.63
32.77 17.81 3.26
8.9 4.84 -1.6
11.45 6.22 -1.6
26.99 14.67 4.86
15.9 8.64 -1.58
28.7 15.59 -1.71
28.98 15.75 -0.58
5.45 2.93 -1.66
33.38 17.98 0.66
6.28 3.39 -1.65
7.38 3.98 -1.63
8.92 4.81 -1.6
27.6 14.87 3.85
11.46 6.17 -1.6
15.9 8.57 -1.58
31.05 16.73 -1.85
30.98 16.69 9.43
5.46 2.92 -1.66
33.38 17.85 0.66
6.29 3.37 -1.65
33.28 17.8 1.98
7.4 3.96 -1.63
8.93 4.77 -1.6
11.47 6.13 -1.6
15.93 8.52 -1.58
33.52 17.93 -1.99
31.57 16.89 8.27
5.48 2.9 -1.66
6.3 3.34 -1.65
33.31 17.66 1.98
7.42 3.93 -1.63
33.27 17.64 3.29
8.94 4.74 -1.6
11.48 6.09 -1.6
26.19 13.89 4.7
15.95 8.46 -1.58
29.33 15.55 -1.74
33.3 17.66 8.7
5.49 2.89 -1.66
6.31 3.32 -1.65
7.43 3.9 -1.63
33.43 17.57 3.3
8.96 4.71 -1.6
33.24 17.47 4.61
11.49 6.04 -1.59
26.2 13.77 4.69
15.96 8.39 -1.58
33.44 17.58 7.34
33.41 17.56 8.71
38.59 20.29 -0.76
5.5 2.86 -1.66
6.33 3.3 -1.65
31.38 16.35 1.85
7.43 3.87 -1.63
8.98 4.68 -1.6
11.51 6 -1.59
26.01 13.55 4.65
15.98 8.33 -1.58
30.19 15.73 -1.78
30.13 15.7 -0.59
5.5 2.85 -1.66
30.56 15.8 0.6
6.35 3.29 -1.65
31.37 16.22 1.85
7.45 3.85 -1.63
8.99 4.65 -1.6
11.53 5.96 -1.59
27.3 14.12 4.87
16 8.27 -1.58
32.51 16.82 -1.92
33.1 17.12 8.6
30.16 15.6 -0.59
5.52 2.83 -1.66
6.36 3.26 -1.65
7.46 3.83 -1.63
9.01 4.62 -1.6
11.55 5.92 -1.59
16.01 8.21 -1.57
28.19 14.46 7.31
30.44 15.61 -0.6
5.52 2.81 -1.66
7.48 3.8 -1.63
9.02 4.58 -1.6
32.56 16.55 4.49
11.56 5.88 -1.59
16.03 8.15 -1.57
33.41 16.99 7.29
31.47 16 -0.62
30.64 15.58 9.21
5.54 2.79 -1.66
6.38 3.21 -1.65
7.49 3.78 -1.63
9.04 4.56 -1.6
11.57 5.83 -1.59
26.55 13.38 4.71
16.06 8.09 -1.57
31.5 15.87 -1.85
31.44 15.84 -0.61
5.54 2.77 -1.66
31.46 15.71 0.61
6.39 3.19 -1.65
7.49 3.74 -1.63
32.38 16.17 3.17
9.06 4.52 -1.6
11.59 5.79 -1.59
27.32 13.64 4.84
16.08 8.03 -1.57
31.71 15.84 -1.86
30.89 15.43 7.97
31.36 15.66 -0.61
5.55 2.75 -1.66
6.4 3.17 -1.65
43.38 21.47 2.54
7.5 3.71 -1.63
34.02 16.84 3.32
9.07 4.49 -1.6
30.48 15.09 4.18
11.6 5.74 -1.59
16.07 7.95 -1.57
31.74 15.71 -1.86
33.46 16.56 8.62
31.4 15.54 -0.61
5.56 2.73 -1.66
6.41 3.15 -1.65
35.51 17.44 2.07
7.52 3.69 -1.63
35.5 17.44 3.46
9.08 4.46 -1.6
11.62 5.71 -1.59
16.11 7.91 -1.57
31.9 15.67 -1.86
33.92 16.66 8.72
31.6 15.52 -0.61
5.57 2.71 -1.66
6.42 3.13 -1.65
7.54 3.67 -1.63
35.62 17.34 3.47
9.1 4.43 -1.6
35.5 17.28 4.85
11.64 5.67 -1.59
35.44 17.25 6.24
16.13 7.85 -1.57
31.5 15.33 6.81
32.16 15.66 -1.87
36.68 17.86 9.42
32.78 15.95 -0.64
5.58 2.69 -1.66
37.08 17.88 0.72
6.43 3.1 -1.65
37.02 17.86 2.15
7.54 3.64 -1.63
37 17.85 3.59
9.11 4.39 -1.6
37.02 17.86 5.05
11.65 5.62 -1.59
36.94 17.82 6.5
16.13 7.78 -1.57
36.76 17.73 7.93
32.83 15.83 -1.91
37.04 17.87 9.5
32.75 15.8 -0.63
5.59 2.67 -1.66
32.94 15.75 0.64
6.45 3.08 -1.65
39.6 18.94 2.3
7.55 3.61 -1.63
39.64 18.95 3.84
9.13 4.36 -1.6
39.67 18.97 5.4
11.66 5.57 -1.59
16.14 7.72 -1.57
32.95 15.76 -1.91
32.93 15.75 -0.64
5.59 2.65 -1.66
32.77 15.53 0.63
6.46 3.06 -1.65
45.33 21.49 2.63
7.57 3.59 -1.63
9.14 4.33 -1.6
11.68 5.54 -1.59
16.15 7.66 -1.56
31.33 14.85 -1.82
33.46 15.86 9.92
5.6 2.63 -1.66
6.47 3.04 -1.65
7.59 3.56 -1.63
9.15 4.3 -1.6
11.71 5.5 -1.59
36.84 17.31 6.45
16.17 7.6 -1.56
31.56 14.83 -1.83
33.08 15.54 8.44
5.62 2.62 -1.66
34.06 15.85 0.66
6.46 3.01 -1.65
49.49 23.04 2.86
7.59 3.54 -1.63
9.17 4.27 -1.6
11.72 5.46 -1.59
34.57 16.09 6.04
16.17 7.53 -1.56
31.7 14.76 -1.83
32.92 15.32 8.38
33.87 15.76 -0.65
5.62 2.59 -1.66
6.48 2.99 -1.65
7.6 3.51 -1.63
34.82 16.07 3.36
9.18 4.24 -1.6
30.81 14.21 4.17
11.73 5.41 -1.59
33.69 15.54 5.88
16.19 7.47 -1.56
31.84 14.69 -1.84
33.96 15.67 -0.65
5.64 2.58 -1.66
35.31 16.14 0.68
6.49 2.97 -1.65
7.61 3.48 -1.63
9.2 4.21 -1.6
33.38 15.26 4.51
11.75 5.37 -1.59
33.78 15.45 5.88
16.21 7.41 -1.56
31.88 14.57 -1.84
5.63 2.55 -1.66
34.67 15.71 0.66
6.51 2.95 -1.65
7.62 3.45 -1.63
9.21 4.17 -1.6
11.76 5.33 -1.59
33.66 15.25 5.85
16.21 7.35 -1.56
31.97 14.48 -1.84
5.64 2.53 -1.66
6.51 2.92 -1.65
7.64 3.43 -1.63
9.22 4.14 -1.6
11.78 5.29 -1.59
33.48 15.03 5.81
16.23 7.28 -1.56
33.84 15.19 7.21
32.06 14.39 -1.84
31.32 14.06 7.93
5.66 2.52 -1.66
39.17 17.42 0.75
6.52 2.9 -1.65
7.66 3.4 -1.63
34.21 15.21 3.28
9.24 4.11 -1.6
11.8 5.25 -1.59
16.24 7.22 -1.56
32.17 14.31 -1.85
31.44 13.98 7.94
5.67 2.5 -1.66
6.53 2.88 -1.65
39.13 17.23 2.24
7.66 3.37 -1.63
9.24 4.07 -1.6
34.13 15.03 4.58
11.81 5.2 -1.58
16.26 7.16 -1.55
32.25 14.2 -1.85
5.67 2.47 -1.66
36.43 15.9 0.69
6.54 2.85 -1.65
36.68 16.01 2.1
7.67 3.35 -1.63
39.17 17.09 3.74
9.27 4.04 -1.6
11.83 5.16 -1.58
31.87 13.91 5.51
16.28 7.1 -1.55
31.61 13.79 6.7
32.22 14.06 -1.84
36.68 16 -0.7
5.67 2.45 -1.65
36.54 15.79 0.69
6.55 2.83 -1.65
7.68 3.32 -1.63
9.28 4.01 -1.6
11.84 5.12 -1.58
39.26 16.97 6.77
16.29 7.04 -1.55
39.2 16.94 8.3
32.26 13.94 -1.84
33.52 14.48 8.43
5.68 2.43 -1.66
6.57 2.81 -1.65
7.69 3.29 -1.63
39.29 16.82 3.74
9.28 3.97 -1.6
11.87 5.08 -1.59
38.9 16.65 6.7
16.31 6.98 -1.55
32.23 13.8 -1.84
33.6 14.38 8.44
5.69 2.41 -1.66
6.56 2.78 -1.65
7.71 3.27 -1.63
9.3 3.95 -1.6
11.88 5.04 -1.58
16.33 6.93 -1.55
32.27 13.69 -1.84
5.71 2.4 -1.66
6.57 2.76 -1.65
39.78 16.72 2.26
7.72 3.24 -1.63
9.31 3.91 -1.6
39.14 16.45 5.21
11.89 5 -1.58
32.17 13.52 5.53
16.35 6.87 -1.55
32.29 13.57 -1.84
5.71 2.38 -1.66
6.59 2.74 -1.65
7.72 3.21 -1.63
9.33 3.88 -1.6
11.91 4.95 -1.58
16.36 6.81 -1.55
34.06 14.17 7.17
32.29 13.43 -1.83
25.96 10.8 -0.49
5.71 2.35 -1.65
38.71 15.95 0.73
6.6 2.72 -1.65
7.73 3.19 -1.63
9.34 3.85 -1.6
11.92 4.91 -1.58
16.37 6.75 -1.55
33.66 13.87 7.08
32.27 13.3 -1.83
5.72 2.33 -1.65
6.61 2.7 -1.65
36.69 14.97 2.08
7.75 3.16 -1.63
9.34 3.81 -1.6
11.94 4.87 -1.58
32.02 13.07 5.48
16.39 6.69 -1.55
32.3 13.18 -1.83
5.73 2.32 -1.66
6.61 2.67 -1.65
7.75 3.13 -1.63
9.36 3.78 -1.6
11.96 4.83 -1.58
16.42 6.64 -1.55
25.99 10.5 -1.47
5.74 2.3 -1.66
43.69 17.47 0.82
6.62 2.65 -1.65
44.39 17.75 2.51
7.78 3.11 -1.63
9.37 3.75 -1.6
38.63 15.45 5.11
11.96 4.79 -1.58
38.52 15.41 6.57
16.44 6.57 -1.55
32.35 12.94 -1.83
25.97 10.39 -0.49
5.75 2.28 -1.66
47.14 18.67 0.89
6.64 2.63 -1.65
7.78 3.08 -1.63
44.25 17.52 4.16
9.39 3.72 -1.6
39.38 15.59 5.2
11.98 4.75 -1.58
44.08 17.46 7.51
16.46 6.52 -1.55
32.4 12.83 -1.83
5.74 2.25 -1.65
45.88 17.98 0.86
6.65 2.61 -1.65
46 18.03 2.59
7.79 3.05 -1.63
9.4 3.68 -1.6
44.05 17.26 5.81
12 4.7 -1.58
16.47 6.46 -1.55
34.05 13.34 7.11
32.44 12.71 -1.83
5.76 2.23 -1.66
6.65 2.58 -1.65
7.8 3.03 -1.63
9.4 3.65 -1.6
12.02 4.66 -1.58
16.48 6.4 -1.55
5.77 2.21 -1.65
47.22 18.13 0.88
6.65 2.55 -1.64
7.82 3 -1.63
9.42 3.62 -1.6
12.03 4.62 -1.58
16.56 6.36 -1.55
29.92 11.49 -1.68
5.76 2.19 -1.65
6.66 2.53 -1.64
7.83 2.97 -1.63
9.43 3.58 -1.6
12.03 4.57 -1.58
16.51 6.27 -1.55
29.48 11.2 -1.65
48.69 18.5 -0.91
5.77 2.17 -1.65
6.67 2.51 -1.65
7.83 2.94 -1.63
9.45 3.55 -1.6
44.94 16.89 5.89
12.05 4.53 -1.58
16.54 6.22 -1.55
29.55 11.11 -1.65
5.78 2.15 -1.65
46.86 17.43 0.87
6.69 2.49 -1.65
53.97 20.07 3.02
7.84 2.92 -1.63
9.46 3.52 -1.6
12.07 4.49 -1.58
16.54 6.15 -1.54
29.7 11.04 -1.66
48.74 18.13 -0.91
5.79 2.13 -1.65
48.66 17.91 0.91
6.69 2.46 -1.65
48.61 17.89 2.71
7.85 2.89 -1.63
48.61 17.89 4.53
9.46 3.48 -1.6
12.08 4.45 -1.58
16.55 6.09 -1.54
26.71 9.83 -1.49
50.19 18.48 -0.93
5.81 2.11 -1.66
6.7 2.44 -1.65
7.88 2.87 -1.63
9.48 3.45 -1.6
12.1 4.41 -1.58
38.61 14.06 6.51
16.56 6.03 -1.54
26.86 9.78 -1.5
5.82 2.1 -1.66
6.7 2.41 -1.64
46.67 16.81 2.6
7.88 2.84 -1.63
9.5 3.42 -1.6
12.1 4.36 -1.58
38.29 13.79 6.45
16.58 5.97 -1.54
16.76 6.04 -0.93
5.82 2.07 -1.65
6.71 2.39 -1.64
7.88 2.81 -1.63
9.51 3.39 -1.6
12.12 4.32 -1.58
16.58 5.91 -1.54
16.72 5.96 -0.93
5.82 2.05 -1.65
6.72 2.37 -1.65
7.89 2.78 -1.63
9.52 3.35 -1.6
12.13 4.28 -1.58
16.59 5.85 -1.54
16.73 5.9 -0.93
5.82 2.03 -1.65
6.73 2.34 -1.64
7.9 2.76 -1.63
49 17.08 4.54
9.52 3.32 -1.6
45.33 15.8 5.89
12.16 4.24 -1.58
16.61 5.79 -1.54
16.71 5.83 -0.93
5.84 2.01 -1.65
6.73 2.32 -1.64
7.92 2.73 -1.63
9.54 3.29 -1.6
12.15 4.19 -1.58
16.63 5.73 -1.54
5.85 1.99 -1.66
6.74 2.3 -1.64
7.92 2.7 -1.63
9.55 3.25 -1.6
12.16 4.14 -1.58
16.64 5.67 -1.54
16.46 5.61 -0.91
5.85 1.97 -1.65
6.74 2.27 -1.64
7.92 2.67 -1.62
9.56 3.22 -1.6
12.17 4.1 -1.58
16.66 5.61 -1.54
16.45 5.54 -0.91
5.85 1.95 -1.65
6.75 2.25 -1.64
7.93 2.64 -1.62
9.57 3.19 -1.6
12.18 4.06 -1.58
16.67 5.55 -1.54
16.45 5.48 -0.91
5.86 1.93 -1.65
6.75 2.22 -1.64
54.38 17.9 3
7.95 2.62 -1.63
9.58 3.15 -1.6
12.2 4.02 -1.58
16.68 5.49 -1.54
16.43 5.41 -0.91
5.86 1.91 -1.65
6.76 2.2 -1.64
7.96 2.59 -1.63
9.59 3.12 -1.6
12.21 3.97 -1.58
16.7 5.43 -1.54
16.41 5.34 -0.9
5.88 1.89 -1.65
6.77 2.18 -1.64
51.97 16.72 2.86
7.96 2.56 -1.63
9.61 3.09 -1.6
12.21 3.93 -1.58
16.72 5.38 -1.54
16.41 5.28 -0.9
5.89 1.87 -1.65
6.78 2.16 -1.64
7.96 2.53 -1.62
52.02 16.54 4.78
9.62 3.06 -1.6
12.23 3.89 -1.58
16.72 5.32 -1.54
16.42 5.22 -0.9
18.41 5.86 -0.34
5.88 1.85 -1.65
6.79 2.13 -1.64
7.97 2.5 -1.62
9.63 3.02 -1.6
12.24 3.84 -1.58
16.73 5.25 -1.53
16.42 5.16 -0.9
5.89 1.83 -1.65
6.8 2.11 -1.64
7.98 2.48 -1.62
9.62 2.98 -1.6
12.26 3.8 -1.58
16.75 5.19 -1.53
16.43 5.09 -0.9
5.91 1.81 -1.66
6.8 2.08 -1.64
8 2.45 -1.63
9.64 2.96 -1.6
12.27 3.76 -1.58
16.75 5.14 -1.53
16.42 5.04 -0.9
5.91 1.79 -1.66
6.81 2.06 -1.64
8 2.42 -1.62
