# .PCD v0.7 - Point Cloud Data file format
VERSION 0.7
FIELDS x y z
SIZE 4 4 4
TYPE F F F
COUNT 1 1 1
WIDTH 2748
HEIGHT 1
VIEWPOINT 0 0 0 1 0 0 0
POINTS 2748
DATA ascii
-0.89 0.57 -0.17
-23.37 15.08 3.42
-12.45 8.04 -1.82
-37.78 24.37 7.12
-26.43 17.05 -2.75
-22 14.19 5.09
-24.44 15.77 -0.51
-23.75 15.32 7.57
-5.64 3.67 -1.8
-23.99 15.59 0.5
-6.6 4.29 -1.82
-25.62 16.65 1.6
-7.92 5.15 -1.84
-25.9 16.83 2.7
-0.89 0.58 -0.17
-12.38 8.04 -1.81
-23.81 15.47 4.5
-34.61 22.49 -3.61
-22.86 14.85 5.3
-26.16 17 7.2
-35.04 22.77 -0.73
-5.63 3.69 -1.81
-37.33 24.46 0.78
-6.59 4.32 -1.82
-24.5 16.06 1.54
-7.9 5.18 -1.84
-23.64 15.5 2.47
-0.88 0.58 -0.17
-24.83 16.27 3.64
-12.33 8.08 -1.81
-20 13.11 3.79
-33.79 22.14 -3.53
-31.54 20.67 -1.98
-25.33 16.6 6.99
-23.69 15.52 -0.49
-20.74 13.59 6.64
-5.61 3.71 -1.8
-26.42 17.44 0.55
-6.57 4.34 -1.82
-7.87 5.2 -1.83
-18.84 12.44 1.97
-0.89 0.59 -0.17
-23.16 15.29 3.41
-12.27 8.1 -1.8
-23.07 15.23 4.38
-25.17 16.62 5.86
-31.63 20.88 -1.99
-24.67 16.29 6.82
-23.6 15.58 -0.49
-27.46 18.12 8.82
-5.59 3.72 -1.8
-6.56 4.36 -1.82
-32.18 21.41 2.03
-7.85 5.22 -1.83
-18.81 12.51 1.98
-0.87 0.58 -0.17
-23.15 15.4 3.41
-12.17 8.1 -1.8
-32.42 21.57 6.17
-28.7 19.09 -3.02
-22.43 14.92 5.24
-30.88 20.54 -1.94
-26.39 17.56 7.32
-31.99 21.28 -0.67
-5.59 3.74 -1.8
-28.95 19.4 0.61
-6.54 4.38 -1.82
-29.04 19.45 1.83
-7.84 5.25 -1.83
-18.9 12.67 1.99
-0.86 0.58 -0.16
-29.14 19.52 4.31
-12.1 8.11 -1.79
-24.05 16.11 4.59
-28.58 19.15 -3.01
-19.21 12.87 4.49
-28.75 19.26 -1.81
-21.2 14.21 5.89
-28.92 19.38 -0.61
-20.7 13.87 6.68
-5.57 3.76 -1.8
-28.88 19.5 0.61
-6.53 4.41 -1.82
-28.97 19.56 1.83
-7.82 5.28 -1.83
-19.21 12.98 2.03
-0.86 0.58 -0.16
-21.9 14.79 3.24
-12.05 8.13 -1.78
-24.01 16.22 4.59
-26.81 18.1 -2.83
-19.26 13 4.52
-26.9 18.17 -1.7
-28.25 19.08 7.87
-28.82 19.46 -0.61
-20.48 13.83 6.62
-5.57 3.79 -1.8
-37.81 25.72 0.8
-6.52 4.44 -1.82
-27.49 18.7 1.74
-7.81 5.31 -1.84
-23.18 15.77 2.45
-0.85 0.58 -0.16
-21.45 14.59 3.19
-11.97 8.14 -1.78
-25.51 17.35 4.89
-36.4 24.76 -3.85
-29.3 19.93 6.89
-24.32 16.54 6.79
-25.29 17.2 8.19
-5.55 3.81 -1.8
-37.81 25.92 0.8
-6.51 4.46 -1.82
-37.9 25.98 2.41
-7.79 5.34 -1.83
-18.89 12.95 2
-0.85 0.59 -0.16
-21.41 14.68 3.19
-11.91 8.16 -1.77
-21.59 14.8 4.15
-37.71 25.85 -2.4
-23.08 15.82 6.46
-20.97 14.37 6.81
-5.53 3.82 -1.8
-37.69 26.02 0.8
-6.5 4.49 -1.82
-22.98 15.86 1.46
-0.82 0.57 -0.19
-21.64 14.94 2.3
-0.84 0.58 -0.16
-21.52 14.86 3.21
-11.82 8.16 -1.76
-21.08 14.56 4.06
-24.41 16.85 5.76
-37.62 25.97 -2.4
-38 26.23 10.66
-24.54 16.94 -0.52
-20.77 14.34 6.76
-5.52 3.84 -1.8
-30.8 21.43 0.65
-6.47 4.5 -1.82
-23.03 16.02 1.47
-0.83 0.58 -0.2
-25.23 17.56 2.69
-0.84 0.58 -0.16
-22.15 15.41 3.31
-11.75 8.17 -1.76
-23.63 16.44 4.56
-26.36 18.34 -2.81
-25.22 17.55 7.09
-23.86 16.6 -0.51
-19.03 13.24 6.21
-5.51 3.86 -1.8
-6.44 4.51 -1.81
-22.88 16.04 1.46
-0.82 0.58 -0.2
-38.85 27.23 4.15
-0.83 0.58 -0.16
-24.69 17.3 3.7
-11.7 8.2 -1.75
-24.57 17.23 4.75
-24.22 16.98 5.75
-23.49 16.47 -1.5
-25.32 17.75 7.14
-24.91 17.46 -0.53
-18.94 13.28 6.2
-5.5 3.88 -1.8
-36.7 25.92 0.78
-6.42 4.54 -1.82
-22.95 16.21 1.47
-0.82 0.58 -0.2
-24.91 17.59 2.67
-0.83 0.59 -0.16
-23.52 16.61 3.54
-11.62 8.21 -1.75
-18.91 13.35 3.67
-30.76 21.72 -3.29
-23.79 16.8 5.66
-23.32 16.47 -1.5
-25.32 17.88 7.16
-23.55 16.63 -0.5
-19.03 13.44 6.24
-5.48 3.9 -1.8
-23.8 16.94 0.51
-6.41 4.56 -1.82
-23.17 16.49 1.49
-0.8 0.57 -0.19
-19.44 13.83 2.09
-0.83 0.59 -0.16
-23.47 16.7 3.54
-11.55 8.22 -1.74
-18.82 13.39 3.66
-22.49 16 -2.42
-25.08 17.84 5.98
-23.28 16.57 -1.5
-19.24 13.69 5.45
-24.99 17.78 -0.54
-17.98 12.79 5.91
-5.46 3.92 -1.8
-23.74 17.02 0.51
-6.4 4.59 -1.82
-23.04 16.52 1.49
-0.8 0.57 -0.19
-23.91 17.14 2.57
-0.82 0.59 -0.16
-24.78 17.77 3.74
-11.51 8.26 -1.74
-18.76 13.45 3.66
-22.3 15.99 -2.4
-20.87 14.96 4.99
-23.16 16.61 -1.49
-20.52 14.71 5.83
-25.02 17.94 -0.54
-22.95 16.46 7.57
-5.45 3.94 -1.8
-22.93 16.56 0.49
-6.38 4.61 -1.82
-24.07 17.39 1.56
-0.8 0.58 -0.19
-39.13 28.26 4.22
-0.81 0.59 -0.16
-24.51 17.7 3.71
-11.48 8.29 -1.74
-18.71 13.51 3.66
-28.8 20.8 -3.11
-20.95 15.13 5.02
-23.15 16.72 -1.5
-23.27 16.81 6.63
-29.09 21.01 -0.63
-17.9 12.93 5.92
-5.44 3.96 -1.8
-22.92 16.68 0.49
-6.35 4.62 -1.81
-29.21 21.25 1.89
-0.8 0.58 -0.19
-24.58 17.88 2.66
-21.37 15.55 3.24
-11.45 8.33 -1.74
-20.96 15.25 4.11
-33.12 24.1 -3.58
-23.32 16.97 5.61
-23.13 16.83 -1.5
-20.51 14.92 5.85
-18.28 13.3 6.06
-5.42 3.98 -1.8
-6.34 4.65 -1.81
-20.51 15.04 1.33
-23.49 17.22 2.55
-0.82 0.6 -0.16
-19.11 14.01 2.91
-11.34 8.31 -1.73
-19.09 13.99 3.75
-20.77 15.23 -2.25
-19.77 14.49 4.76
-23.04 16.89 -1.5
-14.44 10.58 4.13
-18.36 13.46 6.1
-5.41 3.99 -1.8
-30.9 22.82 0.67
-6.32 4.67 -1.81
-24.36 17.98 1.59
-19.48 14.38 2.12
-0.81 0.6 -0.16
-11.29 8.34 -1.72
-18.36 13.56 3.62
-20.73 15.31 -2.25
-25.13 18.56 6.07
-18.92 13.97 -1.23
-29.2 21.56 8.38
-19.35 14.29 -0.42
-22.82 16.85 7.6
-5.39 4.01 -1.8
-6.31 4.69 -1.82
-20.85 15.51 1.36
-21.19 15.76 2.31
-0.8 0.6 -0.16
-37.84 28.15 5.79
-11.21 8.34 -1.71
-23.4 17.41 4.62
-20.3 15.1 4.92
-18.92 14.07 -1.24
-20.39 15.17 5.87
-19.33 14.38 -0.42
-23.87 17.75 7.97
-5.38 4.03 -1.8
-23.44 17.55 0.51
-6.3 4.72 -1.82
-23.49 17.59 1.54
-19.48 14.59 2.13
-0.8 0.6 -0.16
-24.76 18.54 3.8
-11.19 8.38 -1.72
-24.26 18.17 4.8
-19.22 14.39 -2.1
-24.09 18.04 5.85
-18.87 14.13 -1.24
-23.48 17.59 6.77
-19.24 14.41 -0.42
-19.15 14.34 6.41
-5.37 4.05 -1.8
-23.39 17.64 0.51
-6.27 4.73 -1.81
-20.11 15.17 1.32
-24.6 18.56 2.7
-0.8 0.61 -0.16
-20.06 15.13 3.09
-11.13 8.39 -1.71
-18.33 13.83 3.64
-19.6 14.79 -2.15
-24.83 18.73 6.04
-18.7 14.11 -1.23
-13.83 10.43 4
-23.41 17.66 -0.51
-19.48 14.7 6.54
-5.36 4.07 -1.8
-23.32 17.72 0.51
-6.26 4.75 -1.81
-22.7 17.25 1.49
-20.95 15.92 2.3
-0.79 0.6 -0.16
-30.96 23.52 4.77
-11.08 8.42 -1.71
-18.24 13.86 3.63
-18.63 14.16 -2.05
-23.39 17.77 5.71
-18.81 14.29 -1.24
-18.55 14.1 5.38
-23.32 17.72 -0.51
-14.1 10.71 4.74
-5.34 4.09 -1.8
-23.45 17.95 0.52
-6.24 4.78 -1.81
-19.39 14.84 1.28
-22.31 17.08 2.46
-0.8 0.61 -0.16
-20.02 15.32 3.1
-11.08 8.48 -1.71
-17.86 13.67 3.56
-18.53 14.18 -2.04
-21.06 16.12 5.15
-18.66 14.28 -1.23
-14.26 10.91 4.14
-23.39 17.9 -0.51
-19.39 14.84 6.54
-5.32 4.1 -1.8
-22.31 17.2 0.49
-6.23 4.8 -1.82
-22.67 17.48 1.5
-18.86 14.54 2.08
-0.8 0.62 -0.16
-25.79 19.88 4
-11.07 8.54 -1.72
-17.85 13.76 3.57
-18.3 14.11 -2.02
-17.59 13.56 4.32
-18.39 14.18 -1.22
-14.18 10.93 4.13
-23.45 18.08 -0.52
-18.57 14.32 6.28
-5.31 4.12 -1.8
-23.99 18.63 0.53
-6.21 4.83 -1.82
-20.7 16.07 1.37
-18.93 14.7 2.1
-18.88 14.66 2.94
-11.04 8.57 -1.72
-17.82 13.84 3.57
-18.23 14.15 -2.02
-17.54 13.62 4.32
-18.05 14.01 -1.2
-18.07 14.03 5.28
-23.68 18.39 -0.52
-18.64 14.48 6.32
-5.3 4.15 -1.8
-23.8 18.61 0.53
-6.18 4.83 -1.81
-20.8 16.27 1.38
-27.56 21.56 3.06
-0.78 0.61 -0.16
-18.87 14.76 2.94
-11.02 8.62 -1.72
-17.87 13.98 3.59
-18.13 14.18 -2.01
-17.49 13.68 4.32
-18.1 14.15 -1.2
-18.19 14.22 5.33
-23.6 18.46 -0.52
-15.87 12.41 5.4
-5.29 4.17 -1.8
-23.5 18.51 0.52
-6.17 4.86 -1.81
-23.66 18.64 1.58
-19.61 15.44 2.18
-18.77 14.78 2.93
-12.66 9.97 -1.98
-17.97 14.15 3.62
-17.97 14.16 -2
-17.28 13.61 4.28
-17.37 13.69 -1.16
-18.1 14.26 5.32
-18.71 14.74 -0.42
-5.27 4.18 -1.8
-18.38 14.58 0.41
-6.16 4.88 -1.81
-19.16 15.2 1.28
-18.5 14.68 2.07
-18.49 14.67 2.9
-12.62 10.02 -1.98
-17.84 14.15 3.61
-18.19 14.43 -2.03
-19.11 15.16 4.74
-17.67 14.02 -1.18
-13.84 10.98 4.08
-19.19 15.23 6.57
-5.25 4.2 -1.8
-18.23 14.57 0.41
-6.15 4.92 -1.82
-19.2 15.34 1.29
-18.56 14.83 2.08
-19.03 15.21 2.99
-12.54 10.02 -1.97
-17.84 14.26 3.62
-17.36 13.87 -1.94
-19.35 15.47 4.82
-23.97 19.15 7.08
-18.71 14.95 -0.42
-16.99 13.58 5.83
-5.24 4.22 -1.8
-18.33 14.75 0.41
-6.13 4.93 -1.82
-23.96 19.29 1.61
-16.26 13.08 1.83
-0.78 0.63 -0.16
-18.61 14.98 2.93
-12.48 10.05 -1.97
-17.8 14.32 3.62
-17.21 13.85 -1.93
-14.39 11.58 3.59
-17.15 13.81 -1.15
-24.73 19.91 7.33
-18.73 15.08 -0.42
-19.83 15.96 6.82
-5.23 4.24 -1.8
-18.3 14.84 0.41
-6.1 4.95 -1.81
-19.02 15.42 1.28
-18.62 15.1 2.1
-9.19 7.45 -1.87
-20.66 16.75 3.27
-15.24 12.36 -2.41
-19.2 15.56 3.91
-17.17 13.92 -1.93
-19.77 16.03 4.95
-18.58 15.06 -1.25
-24.06 19.5 7.15
-17.85 14.47 -0.4
-19.36 15.69 6.68
-5.22 4.26 -1.81
-18.93 15.45 0.43
-6.08 4.97 -1.81
-18.68 15.25 1.26
-17.18 14.02 1.94
-9.13 7.45 -1.87
-23.2 18.94 3.68
-15.16 12.37 -2.4
-18.04 14.73 3.69
-17.17 14.02 -1.94
-21.71 17.72 5.45
-23.2 18.94 6.91
-18.65 15.22 -0.42
-19.72 16.1 6.82
-5.2 4.27 -1.8
-18.3 15.04 0.41
-6.07 4.99 -1.82
-18.61 15.3 1.26
-18.15 14.92 2.06
-9.06 7.45 -1.86
-18.45 15.17 2.93
-15.12 12.44 -2.4
-18.21 14.97 3.73
-17.18 14.13 -1.95
-17.32 14.24 -1.18
-24.92 20.49 7.45
-18.55 15.25 -0.42
-19.67 16.17 6.82
-5.18 4.29 -1.8
-18.23 15.09 0.41
-6.05 5.01 -1.81
-27.89 23.09 1.9
-18.1 14.99 2.06
-9 7.45 -1.85
-16.89 13.99 2.69
-15.08 12.49 -2.4
-23.1 19.13 4.75
-17.08 14.15 -1.94
-23.12 19.15 5.83
-17.32 14.34 -1.18
-18.8 15.57 5.64
-18.39 15.23 -0.42
-19.38 16.05 6.74
-5.17 4.31 -1.81
-18.55 15.47 0.42
-6.04 5.03 -1.81
-38.38 32.01 2.62
-18.44 15.38 2.1
-8.95 7.46 -1.84
-15.02 12.53 -2.4
-23.04 19.21 4.75
-16.99 14.17 -1.94
-23.11 19.27 5.85
-17.07 14.23 -1.16
-19.5 16.27 5.86
-18.59 15.5 -0.42
-19.51 16.28 6.81
-5.16 4.33 -1.8
-17.34 14.57 0.4
-6.01 5.05 -1.81
-18.2 15.28 1.25
-16.87 14.17 1.93
-8.88 7.46 -1.84
-19.17 16.11 3.07
-14.89 12.51 -2.39
-17.5 14.7 3.62
-17.04 14.31 -1.95
-18.68 15.69 4.74
-16.94 14.23 -1.16
-19.44 16.33 5.86
-17.23 14.47 -0.39
-19.13 16.07 6.7
-5.14 4.35 -1.81
-17.21 14.56 0.39
-5.99 5.07 -1.81
-18.55 15.7 1.27
-19.28 16.31 2.21
-8.84 7.48 -1.83
-19.23 16.27 3.09
-14.81 12.52 -2.38
-19.25 16.28 3.99
-16.94 14.33 -1.94
-24.86 21.03 6.33
-16.79 14.2 -1.15
-19.25 16.29 5.82
-5.13 4.37 -1.81
-18.29 15.59 0.42
-5.98 5.1 -1.81
-18.11 15.43 1.25
-18.11 15.43 2.08
-8.79 7.49 -1.83
-19.19 16.35 3.1
-14.7 12.53 -2.37
-19.21 16.37 4
-16.9 14.4 -1.94
-17.61 15.01 4.5
-16.66 14.2 -1.15
-21.72 18.51 6.59
-18.2 15.51 -0.42
-19.22 16.38 6.77
-5.1 4.38 -1.8
-19.1 16.39 0.44
-5.97 5.12 -1.82
-19.08 16.37 1.32
-24.44 20.98 2.82
-8.75 7.51 -1.83
-24.6 21.11 3.98
-14.57 12.5 -2.36
-16.77 14.39 -1.93
-17.54 15.06 4.49
-16.69 14.33 -1.15
-19.36 16.62 5.89
-17.49 15.01 -0.4
-17.15 14.72 6.05
-5.09 4.4 -1.8
-19.03 16.45 0.44
-5.95 5.14 -1.82
-24.22 20.94 1.68
-22.12 19.12 2.56
-8.75 7.56 -1.83
-21.59 18.66 3.5
-14.46 12.5 -2.35
-17.35 15 3.63
-16.68 14.42 -1.93
-16.78 14.5 4.31
-16.71 14.44 -1.16
-23.14 20 7.06
-19.03 16.45 -0.44
-17.18 14.85 6.08
-5.08 4.42 -1.81
-16.96 14.77 0.39
-5.92 5.16 -1.81
-18.91 16.47 1.31
-16.58 14.43 1.92
-8.71 7.58 -1.83
-17.51 15.24 2.85
-14.38 12.51 -2.34
-15.27 13.3 3.21
-16.82 14.65 -1.95
-16.73 14.57 4.31
-17.73 15.43 -1.23
-18.3 15.93 5.6
-20.14 17.53 -0.47
-21.1 18.37 7.5
-5.07 4.44 -1.81
-16.89 14.8 0.39
-5.91 5.18 -1.81
-25.86 22.66 1.8
-16.6 14.55 1.93
-8.66 7.59 -1.82
-21.22 18.6 3.47
-14.3 12.53 -2.33
-17.13 15.01 3.61
-17.04 14.93 -1.98
-16.68 14.62 4.31
-16.79 14.71 -1.17
-18.24 15.99 5.6
-16.96 14.86 -0.39
-17.57 15.39 6.26
-5.05 4.45 -1.8
-17.19 15.17 0.4
-5.91 5.21 -1.82
-22.05 19.46 2.57
-8.64 7.63 -1.83
-18.76 16.56 3.07
-14.22 12.55 -2.33
-15.12 13.34 3.19
-16.79 14.81 -1.96
-18.91 16.69 4.9
-20.22 17.85 -1.41
-18.18 16.05 5.6
-16.89 14.9 -0.39
-17.5 15.45 6.25
-5.03 4.47 -1.8
-16.79 14.92 0.39
-5.89 5.24 -1.82
-29.56 26.27 2.07
-18.49 16.44 2.16
-8.61 7.65 -1.82
-35.57 31.61 5.84
-14.16 12.58 -2.33
-12.98 11.54 2.75
-16.07 14.28 -1.88
-29.76 26.45 7.74
-16.66 14.81 -1.17
-26.38 23.44 8.15
-16.67 14.82 -0.39
-16.09 14.3 5.77
-5.01 4.49 -1.8
-17.06 15.27 0.4
-5.88 5.26 -1.82
-35.13 31.45 4.13
-8.56 7.66 -1.82
-22.61 20.24 3.73
-14.07 12.59 -2.32
-12.98 11.62 2.76
-15.83 14.17 -1.86
-16.16 14.47 4.22
-17.18 15.37 -1.21
-26.63 23.84 8.25
-29.48 26.39 -0.69
-17.06 15.27 6.14
-5 4.5 -1.8
-25.96 23.4 0.61
-5.84 5.26 -1.82
-19.7 17.76 1.39
-26.07 23.5 3.07
-8.52 7.68 -1.82
-26.02 23.46 4.3
-13.98 12.6 -2.31
-12.97 11.69 2.76
-15.94 14.37 -1.88
-17.96 16.19 4.7
-17.1 15.41 -1.21
-17.42 15.7 5.41
-16.63 14.99 -0.39
-13.49 12.16 4.86
-4.99 4.52 -1.8
-16.67 15.13 0.39
-5.83 5.29 -1.82
-17 15.43 1.2
-38.43 34.88 4.54
-8.47 7.69 -1.81
-22.1 20.06 3.66
-13.89 12.61 -2.3
-12.96 11.76 2.77
-15.57 14.13 -1.84
-17.26 15.67 -1.22
-20.99 19.05 6.55
-20.38 18.5 -0.48
-13.46 12.22 4.87
-4.96 4.54 -1.8
-16.82 15.38 0.4
-16.34 14.94 1.16
-38.36 35.06 4.55
-8.39 7.67 -1.8
-35.46 32.42 5.9
-13.79 12.61 -2.29
-16.26 14.86 3.49
-15.4 14.08 -1.83
-20.82 19.03 5.48
-19.66 17.97 -1.4
-20.2 18.46 -0.48
-20.78 18.99 7.54
-4.95 4.55 -1.8
-16.81 15.48 0.4
-16.82 15.49 1.2
-20.54 18.91 2.44
-8.35 7.68 -1.8
-20.56 18.92 3.43
-13.71 12.62 -2.29
-20.63 18.99 4.44
-15.23 14.02 -1.81
-15.36 14.14 -1.09
-24.91 22.93 -0.59
-15.41 14.19 5.61
-4.93 4.57 -1.8
-16.67 15.46 0.4
-16.74 15.52 1.2
-20.43 18.95 2.44
-8.31 7.71 -1.8
-15.84 14.69 2.65
-13.62 12.63 -2.28
-13.38 12.4 2.89
-15.13 14.03 -1.8
-17.26 16 4.58
-16.82 15.6 -1.2
-26.28 24.37 8.27
-16.02 14.86 -0.38
-4.92 4.59 -1.8
-20.24 18.9 0.48
-16.84 15.73 1.21
-17.24 16.1 2.06
-8.29 7.74 -1.8
-15.75 14.71 2.65
-13.54 12.64 -2.27
-13.38 12.5 2.9
-15.03 14.03 -1.8
-21.9 20.45 5.83
-19.48 18.19 -1.4
-16.38 15.3 5.18
-15.84 14.79 -0.38
-13.54 12.65 4.96
-4.9 4.61 -1.8
-18.97 17.83 0.45
-35.18 33.07 2.53
-15.55 14.62 1.87
-8.27 7.78 -1.8
-33.17 31.18 5.59
-13.44 12.64 -2.27
-13.37 12.57 2.91
-14.95 14.05 -1.79
-14.42 13.56 3.85
-16.17 15.2 -1.16
-15.49 14.56 4.91
-16.05 15.09 -0.38
-15.15 14.25 5.57
-4.88 4.62 -1.8
-16.28 15.41 0.39
-16.08 15.22 1.16
-32.97 31.21 3.97
-8.25 7.81 -1.8
-22.49 21.29 3.8
-13.36 12.64 -2.26
-13.31 12.6 2.9
-14.81 14.02 -1.78
-14.57 13.79 3.9
-16.49 15.61 -1.19
-17.4 16.47 5.53
-15.54 14.71 -0.37
-17.35 16.42 6.4
-4.86 4.63 -1.8
-15.02 14.32 0.36
-16.08 15.33 1.16
-23.42 22.33 2.83
-8.21 7.83 -1.8
-17.17 16.37 2.91
-13.29 12.67 -2.25
-17.17 16.37 3.76
-15 14.3 -1.81
-16.94 16.15 4.55
-15.09 14.39 -1.09
-17.28 16.48 5.51
-15.55 14.83 -0.38
-16.61 15.84 6.15
-4.85 4.65 -1.8
-17.11 16.42 0.41
-15.97 15.33 1.16
-17.1 16.41 2.07
-8.21 7.89 -1.8
-17.12 16.44 2.91
-13.2 12.67 -2.25
-17.15 16.46 3.76
-16.2 15.55 -1.96
-13.33 12.8 3.59
-16.03 15.39 -1.16
-13.79 13.24 4.41
-15.29 14.68 -0.37
-15.3 14.68 5.68
-4.84 4.68 -1.8
-15.54 15.03 0.38
-15.95 15.42 1.16
-17.01 16.44 2.07
-8.18 7.91 -1.8
-14.41 13.93 2.46
-13.11 12.68 -2.24
-35.7 34.51 7.86
-16.11 15.57 -1.96
-13.34 12.89 3.61
-15.46 14.94 -1.13
-21.45 20.73 6.89
-15.02 14.52 -0.36
-15.38 14.87 5.73
-4.82 4.69 -1.8
-14.97 14.57 0.36
-15.94 15.51 1.17
-27.97 27.22 3.41
-8.13 7.92 -1.8
-13.86 13.49 2.37
-13.04 12.69 -2.23
-15.3 14.89 3.38
-14.63 14.24 -1.79
-13.26 12.91 3.6
-16.96 16.51 -1.24
-13.27 12.92 4.28
-14.92 14.52 -0.36
-4.8 4.7 -1.8
-15.07 14.77 0.37
-15.91 15.59 1.17
-21.83 21.4 2.67
-8.06 7.9 -1.79
-35.19 34.5 6.05
-12.98 12.73 -2.23
-35.23 34.54 7.81
-14.5 14.21 -1.78
-13.19 12.93 3.59
-15.19 14.89 -1.11
-13.36 13.09 4.32
-15.38 15.08 -0.38
-12.55 12.3 4.71
-4.78 4.72 -1.8
-15 14.8 0.37
-15.88 15.67 1.17
-7.94 7.84 -1.77
-14.59 14.4 2.52
-12.89 12.72 -2.22
-14.04 13.86 -1.73
-13.18 13.01 3.6
-15.09 14.9 -1.11
-14.77 14.58 -0.36
-13.17 13 4.96
-4.76 4.73 -1.8
-14.91 14.82 0.37
-23.83 23.69 1.76
-23.91 23.77 2.95
-7.88 7.84 -1.76
-23.96 23.82 4.15
-12.8 12.72 -2.22
-24.06 23.91 5.37
-14.37 14.29 -1.77
-14.19 14.11 3.89
-14.28 14.2 -1.06
-24.21 24.06 7.88
-15.88 15.78 -0.39
-13.23 13.15 5
-4.75 4.75 -1.8
-25.74 25.77 0.64
-15.01 15.03 1.11
-25.87 25.9 3.2
-7.82 7.83 -1.75
-25.94 25.97 4.51
-12.73 12.75 -2.21
-25.95 25.97 5.81
-14.2 14.22 -1.76
-25.87 25.9 7.11
-14.59 14.6 -1.08
-23.98 24 7.83
-14.72 14.73 -0.36
-10.93 10.94 4.15
-4.74 4.78 -1.8
-14.74 14.85 0.37
-14.99 15.11 1.12
-35.97 36.26 4.47
-7.77 7.83 -1.75
-12.66 12.77 -2.21
-15.36 15.49 3.46
-14.17 14.29 -1.76
-13.49 13.6 3.72
-14.3 14.42 -1.06
-20.8 20.97 6.82
-14.71 14.82 -0.36
-10.94 11.02 4.16
-4.71 4.78 -1.8
-14.73 14.95 0.37
-14.85 15.07 1.11
-7.72 7.83 -1.74
-20.42 20.73 3.57
-12.61 12.8 -2.21
-15.3 15.53 3.45
-13.94 14.16 -1.74
-14 14.21 3.88
-14.5 14.72 -1.08
-14.55 14.77 4.79
-14.59 14.81 -0.36
-17.84 18.11 6.81
-4.69 4.79 -1.8
-14.69 15.01 0.37
-14.84 15.17 1.11
-20.27 20.72 2.54
-7.66 7.83 -1.74
-20.34 20.8 3.57
-12.57 12.85 -2.21
-20.41 20.87 4.62
-14.06 14.38 -1.76
-20.45 20.91 5.69
-14.16 14.47 -1.06
-20.54 21 6.78
-14.58 14.9 -0.36
-17.78 18.18 6.81
-4.68 4.82 -1.8
-14.48 14.9 0.36
-20.16 20.75 1.52
-35.61 36.65 4.47
-7.6 7.82 -1.73
-21.76 22.4 3.83
-12.57 12.94 -2.22
-20.36 20.96 4.63
-14.05 14.47 -1.76
-14.18 14.6 -1.07
-20.45 21.05 6.78
-14.73 15.16 -0.37
-20.52 21.13 7.89
-4.66 4.83 -1.8
-14.56 15.1 0.37
-14.85 15.4 1.12
-16.2 16.8 2.04
-7.57 7.85 -1.73
-21.7 22.51 3.84
-12.56 13.02 -2.22
-16.06 16.65 3.66
-13.51 14.01 -1.7
-14.15 14.67 -1.07
-14.57 15.11 -0.37
-15.98 16.58 6.17
-4.65 4.85 -1.8
-23.73 24.78 0.6
-27.82 29.05 2.11
-12.92 13.49 1.63
-7.58 7.91 -1.73
-21.57 22.52 3.83
-13.57 14.17 -2.41
-21.76 22.72 4.98
-13.61 14.21 -1.72
-11.97 12.5 3.36
-14.77 15.42 -1.12
-13.01 13.58 4.34
-14.19 14.82 -0.36
-16 16.71 6.2
-4.62 4.86 -1.8
-13.43 14.12 0.34
-33 34.69 2.51
-15.96 16.78 2.03
-7.55 7.94 -1.73
-30.15 31.7 5.37
-13.62 14.32 -2.43
-28.18 29.63 6.48
-13.45 14.14 -1.71
-16 16.82 4.51
-14.61 15.36 -1.11
-12.88 13.54 4.32
-14.12 14.85 -0.36
-20.16 21.19 7.84
-4.6 4.86 -1.79
-13.04 13.8 0.33
-15.87 16.8 2.02
-7.53 7.97 -1.74
-15.87 16.8 2.84
-13.53 14.33 -2.42
-15.9 16.83 3.67
-13.2 13.97 -1.68
-15.92 16.85 4.51
-14.55 15.4 -1.11
-12.87 13.62 4.33
-14.13 14.96 -0.36
-4.59 4.89 -1.8
-15.82 16.86 1.21
-15.83 16.88 2.02
-7.49 7.98 -1.73
-15.84 16.88 2.84
-13.3 14.18 -2.39
-12.93 13.78 2.99
-13.55 14.45 -1.73
-18.34 19.55 5.21
-13.47 14.36 -1.03
-12.62 13.46 4.26
-13.03 13.89 -0.33
-17.84 19.02 6.99
-4.57 4.91 -1.8
-13 13.95 0.33
-12.83 13.77 0.99
-37.08 39.8 4.76
-7.47 8.02 -1.74
-21.83 23.43 3.93
-13.47 14.46 -2.43
-12.83 13.77 2.98
-13.26 14.23 -1.7
-11.24 12.06 3.2
-13.56 14.55 -1.04
-12.62 13.54 4.27
-12.96 13.92 -0.33
-12.91 13.86 5.07
-4.56 4.93 -1.8
-12.88 13.92 0.33
-12.74 13.77 0.98
-12.91 13.96 1.66
-7.44 8.04 -1.74
-37.5 40.54 6.78
-13.18 14.25 -2.38
-12.74 13.77 2.97
-13.4 14.49 -1.73
-12.74 13.77 3.65
-14.23 15.38 -1.1
-12.96 14.02 4.41
-15.74 17.02 -0.4
-4.54 4.94 -1.8
-13.05 14.21 0.34
-12.76 13.89 0.99
-12.84 13.98 1.66
-7.39 8.04 -1.73
-21.24 23.12 3.85
-12.96 14.1 -2.35
-21.39 23.29 5.01
-13.13 14.29 -1.7
-12.7 13.83 3.65
-15.6 16.98 -1.21
-12.99 14.14 4.43
-14.17 15.43 5.61
-4.52 4.95 -1.8
-12.84 14.07 0.33
-12.77 14 0.99
-12.75 13.98 1.66
-7.34 8.05 -1.73
-13.63 14.94 2.48
-13.07 14.33 -2.38
-12.71 13.94 -1.65
-15.81 17.34 4.56
-12.71 13.94 -0.99
-12.87 14.11 4.41
-12.64 13.86 -0.33
-14.09 15.45 5.6
-4.52 4.99 -1.8
-12.67 13.99 0.33
-12.71 14.03 0.99
-12.64 13.95 1.65
-7.26 8.01 -1.71
-26.36 29.1 4.82
-12.98 14.33 -2.37
-17.28 19.08 4.08
-12.64 13.95 -1.65
-12.46 13.75 3.61
-12.81 14.14 -1
-12.39 13.68 4.26
-12.65 13.97 -0.33
-11.4 12.59 4.55
-12.84 14.27 0.34
-12.55 13.95 0.98
-17.64 19.61 2.31
-7.21 8.01 -1.71
-17.41 19.36 3.2
-12.95 14.4 -2.38
-13.72 15.25 3.25
-12.58 13.98 -1.65
-12.58 13.99 3.66
-12.57 13.98 -0.99
-12.35 13.73 4.26
-12.75 14.18 -0.33
-17.97 19.98 7.2
-4.49 5.03 -1.81
-12.54 14.04 0.33
-17.53 19.62 1.38
-17.56 19.66 2.31
-7.17 8.02 -1.7
-17.58 19.68 3.24
-12.87 14.41 -2.37
-13.67 15.3 3.25
-12.35 13.82 -1.62
-12.55 14.05 3.66
-12.57 14.07 -0.99
-12.29 13.76 4.26
-12.54 14.04 -0.33
-17.55 19.65 7.06
-4.45 5.02 -1.8
-12.55 14.15 0.33
-17.47 19.7 1.38
-21.07 23.76 2.78
-7.12 8.03 -1.7
-12.07 13.61 2.23
-12.63 14.24 -2.34
-12.41 13.99 -1.64
-14.02 15.8 4.11
-12.57 14.17 -0.99
-13.02 14.68 4.53
-12.47 14.06 -0.33
-12.35 13.93 4.99
-4.43 5.03 -1.8
-12.49 14.19 0.33
-13.85 15.73 1.83
-7.1 8.06 -1.7
-15.46 17.55 2.87
-12.49 14.18 -2.32
-13.95 15.84 3.34
-12.32 13.99 -1.63
-13.93 15.82 4.1
-12.81 14.54 -1.02
-11.4 12.95 3.98
-12.44 14.13 -0.33
-13.27 15.06 5.38
-4.41 5.05 -1.8
-12.32 14.1 0.33
-12.61 14.42 1
-36.04 41.23 4.79
-7.05 8.07 -1.7
-12.31 14.09 2.3
-12.53 14.33 -2.34
-12.38 14.16 2.98
-12.34 14.12 -1.64
-13.94 15.95 4.12
-12.28 14.05 -0.98
-11.89 13.6 4.17
-12.38 14.16 -0.33
-4.39 5.06 -1.8
-12.13 13.97 0.32
-20.76 23.92 1.66
-29.37 33.83 3.92
-7.01 8.07 -1.69
-13.82 15.92 2.59
-12.48 14.38 -2.34
-12.32 14.2 2.98
-12.44 14.33 -1.66
-13.18 15.18 3.91
-12.22 14.08 -0.98
-12.24 14.1 4.31
-12.27 14.14 -0.33
-4.38 5.09 -1.8
-20.6 23.9 0.55
-23.38 27.12 1.88
-13.75 15.96 1.84
-6.95 8.06 -1.69
-13.79 16 2.59
-12.03 13.95 -2.26
-11.98 13.9 2.91
-12.29 14.26 -1.65
-13.12 15.22 3.9
-12.28 14.25 -0.99
-12.1 14.04 4.28
-12.23 14.18 -0.33
-13.44 15.59 5.51
-4.36 5.1 -1.8
-12.05 14.08 0.32
-13.69 15.99 1.1
-13.71 16.02 1.84
-6.89 8.05 -1.68
-12.11 14.15 2.29
-12.12 14.15 -2.29
-13.46 15.72 3.28
-12.14 14.18 -1.63
-11.49 13.42 3.43
-12.29 14.36 -0.99
-13.36 15.61 4.74
-12.03 14.05 -0.32
-12.58 14.7 5.18
-4.34 5.1 -1.8
-13.62 16.03 0.37
-13.63 16.03 1.1
-12.19 14.34 1.65
-6.85 8.05 -1.67
-12.13 14.27 2.3
-12.1 14.24 -2.29
-11.86 13.95 2.9
-12 14.11 -1.62
-11.54 13.57 3.46
-12.08 14.21 -0.98
-13.36 15.71 4.76
-12.16 14.31 -0.33
-12.5 14.7 5.17
-4.32 5.12 -1.8
-13.55 16.05 0.37
-13.45 15.93 1.09
-13.36 15.83 1.81
-6.79 8.05 -1.67
-13.34 15.8 2.54
-12.06 14.28 -2.3
-12.08 14.31 2.97
-12.24 14.49 -1.66
-12.13 14.37 3.66
-11.98 14.19 -0.97
-10.23 12.12 3.66
-12.14 14.38 -0.33
-11.88 14.08 4.94
-4.3 5.13 -1.79
-13.36 15.94 0.36
-13.34 15.91 1.09
-13.32 15.89 1.81
-6.74 8.04 -1.66
-13.45 16.05 2.57
-11.95 14.26 -2.28
-12.1 14.43 2.98
-11.83 14.11 -1.61
-11.91 14.2 -0.97
-12.02 14.34 4.32
-13.42 16.01 -0.36
-11.86 14.15 4.95
-4.3 5.16 -1.8
-11.64 13.98 0.32
-13.28 15.96 1.09
-12.01 14.42 1.64
-6.65 7.99 -1.65
-13.15 15.8 2.52
-12.98 15.59 -2.49
-13 15.62 3.22
-12 14.42 -1.64
-12.78 15.35 3.88
-11.77 14.14 -0.96
-11.29 13.57 4.08
-11.66 14.01 -0.32
-10.89 13.09 4.56
-4.27 5.16 -1.8
-13.26 16.04 0.36
-6.6 7.99 -1.64
-11.95 14.46 2.3
-11.83 14.31 -2.28
-12.15 14.7 3.02
-12.16 14.72 -1.67
-11.78 14.26 3.6
-11.78 14.25 -0.97
-11.19 13.54 4.05
-11.57 14 -0.32
-10.85 13.13 4.57
-4.25 5.18 -1.8
-16.05 19.56 0.44
-11.7 14.25 1.61
-6.56 7.99 -1.64
-11.6 14.13 2.24
-11.63 14.17 -2.25
-12.08 14.72 -1.67
-11.62 14.16 3.56
-11.69 14.25 -0.97
-10.26 12.5 3.73
-11.62 14.16 -0.32
-4.23 5.19 -1.79
-11.63 14.29 0.32
-11.75 14.42 1.63
-6.51 7.99 -1.63
-11.56 14.19 -2.25
-11.73 14.4 2.94
-11.75 14.43 -1.63
-11.53 14.16 3.55
-11.64 14.29 -0.97
-10.2 12.52 3.73
-11.45 14.06 -0.32
-4.21 5.21 -1.8
-11.8 14.59 0.98
-11.74 14.52 1.63
-6.47 7.99 -1.63
-11.46 14.17 2.24
-13.11 16.21 -2.56
-11.66 14.41 2.94
-11.64 14.39 -1.62
-11.65 14.4 -0.97
-10.17 12.57 3.73
-11.36 14.04 -0.32
-20.93 25.88 8.92
-4.2 5.23 -1.8
-11.61 14.46 0.32
-11.76 14.64 0.98
-11.5 14.32 1.61
-6.44 8.02 -1.63
-11.52 14.34 2.26
-11.37 14.16 -2.23
-11.62 14.47 2.94
-11.66 14.52 -1.63
-19.34 24.08 6
-11.52 14.35 -0.96
-10.26 12.78 3.78
-11.48 14.3 -0.32
-11.53 14.35 4.93
-4.17 5.23 -1.79
-17.8 22.32 0.5
-11.67 14.64 0.98
-11.62 14.57 1.63
-6.41 8.04 -1.63
-11.59 14.53 2.28
-10.68 13.39 -2.1
-19.19 24.06 4.87
-11.53 14.46 -1.62
-17.95 22.51 5.6
-11.5 14.42 -0.97
-10.21 12.81 3.78
-11.4 14.29 -0.32
-21.07 26.42 9.06
-4.15 5.24 -1.79
-11.14 14.07 0.31
-11.62 14.68 0.98
-11.56 14.6 1.63
-6.38 8.05 -1.63
-11.42 14.42 -2.26
-11.49 14.51 -1.62
-11.91 15.04 3.73
-11.44 14.44 -0.97
-10.22 12.91 3.8
-11.27 14.23 -0.32
-19.1 24.13 8.25
-4.13 5.25 -1.79
-11.52 14.65 0.33
-11.56 14.71 0.98
-11.37 14.46 1.61
-6.37 8.1 -1.63
-11.39 14.48 2.26
-11.37 14.46 -2.26
-11.39 14.49 2.92
-11.53 14.67 -1.63
-11.41 14.52 -0.97
-10.2 12.97 3.81
-11.38 14.47 -0.32
-13.48 17.15 5.85
-4.11 5.26 -1.79
-11.04 14.14 0.31
-11.09 14.21 0.94
-6.31 8.09 -1.63
-11.62 14.89 -2.32
-11.99 15.36 3.09
-11.58 14.83 -1.65
-11.08 14.2 -0.94
-10.27 13.15 3.85
-11.29 14.47 -0.32
-13.62 17.45 5.93
-4.1 5.28 -1.79
-11.09 14.31 0.32
-11.13 14.36 0.95
-12.2 15.74 1.74
-6.51 8.4 -1.68
-11.07 14.29 2.22
-10.73 13.85 -2.15
-9.74 12.57 2.52
-11.38 14.68 -1.63
-17.75 22.9 -1.52
-10.47 13.51 3.95
-11.35 14.64 -0.32
-4.08 5.3 -1.79
-11.19 14.54 0.32
-11.2 14.55 0.96
-12.09 15.72 1.74
-6.54 8.5 -1.7
-10.76 13.99 2.17
-11.07 14.38 -2.23
-10.06 13.08 2.61
-11.27 14.64 -1.62
-10.95 14.24 3.49
-19.4 25.22 -1.67
-10.49 13.64 3.97
-11.42 14.85 -0.33
-15.28 19.86 6.71
-4.06 5.31 -1.79
-10.86 14.22 0.31
-10.99 14.38 0.95
-10.15 13.28 1.46
-6.54 8.56 -1.71
-10.74 14.06 2.17
-10.92 14.3 -2.21
-9.9 12.96 2.58
-11.19 14.64 -1.61
-15.21 19.91 4.87
-11.27 14.76 -0.97
-11.1 14.53 -0.32
-4.04 5.33 -1.79
-11.07 14.61 0.32
-10.89 14.37 0.94
-5.63 7.43 -1.81
-10.11 13.34 1.46
-6.5 8.57 -1.7
-11.93 15.74 2.42
-11.16 14.73 -2.27
-11.09 14.64 2.91
-10.6 13.98 -1.54
-15.09 19.91 4.86
-11.3 14.9 -0.98
-9.82 12.96 3.75
-10.44 13.78 -0.3
-9.35 12.33 4.15
-4.02 5.35 -1.79
-10.64 14.14 0.31
-23.8 31.62 2.07
-5.59 7.43 -1.81
-10.78 14.33 1.57
-6.46 8.59 -1.7
-14.96 19.88 3.06
-10.5 13.95 -2.14
-9.96 13.23 2.62
-10.61 14.09 -1.54
-10.98 14.59 -0.96
-10.41 13.83 4
-10.66 14.16 -0.31
-4.01 5.36 -1.79
-10.98 14.69 0.32
-10.71 14.34 0.94
-5.56 7.45 -1.81
-14.87 19.9 2.17
-6.42 8.59 -1.7
-9.95 13.32 2.04
-10.4 13.92 -2.13
-9.77 13.08 2.59
-11.04 14.78 -1.61
-10.56 14.14 3.43
-10.83 14.49 -0.95
-9.86 13.2 3.81
-10.87 14.56 -0.32
-14.84 19.86 6.64
-3.98 5.37 -1.79
-10.87 14.65 0.32
-10.81 14.57 0.95
-5.52 7.44 -1.8
-10.73 14.47 1.58
-6.4 8.62 -1.7
-9.67 13.03 1.99
-11.15 15.04 -2.3
-10.02 13.51 2.66
-11.1 14.96 -1.63
-15.91 21.45 5.19
-10.19 13.74 -0.9
-10.01 13.5 3.88
-10.56 14.23 -0.31
-3.96 5.38 -1.79
-14.64 19.89 0.43
-10.55 14.34 0.93
-5.49 7.45 -1.8
-10.63 14.45 1.57
-6.35 8.63 -1.7
-9.62 13.07 1.99
-10.3 13.99 -2.13
-9.83 13.35 2.62
-10.53 14.31 -1.55
-10.55 14.33 3.46
-10.51 14.27 -0.93
-11.62 15.79 4.53
-10.54 14.31 -0.31
-12.13 16.48 5.48
-10.34 14.15 0.31
-12.16 16.64 1.08
-5.46 7.47 -1.8
-9.73 13.31 1.44
-6.28 8.59 -1.69
-11.96 16.36 2.49
-10.38 14.21 -2.16
-9.82 13.44 2.64
-10.44 14.28 -1.55
-10.65 14.58 3.51
-10.45 14.3 -0.93
-20.06 27.44 7.85
-10.46 14.31 -0.31
-10.48 14.44 0.31
-10.55 14.54 0.94
-5.42 7.47 -1.79
-11.91 16.41 1.77
-6.24 8.59 -1.68
-9.66 13.32 2.02
-10.97 15.11 -2.29
-9.84 13.56 2.65
-10.52 14.49 -1.57
-9.75 13.43 3.23
-10.43 14.38 -0.93
-10.82 14.91 4.25
-10.51 14.48 -0.31
-10.23 14.21 0.31
-10.33 14.34 0.93
-5.4 7.49 -1.79
-10.4 14.44 1.56
-6.21 8.62 -1.68
-10.95 15.2 2.3
-10.93 15.17 -2.3
-9.86 13.69 2.67
-10.49 14.56 -1.57
-9.99 13.88 3.32
-10.19 14.15 -0.91
-11.88 16.49 4.69
-10.57 14.67 -0.32
-18.68 25.94 8.57
-10.13 14.17 0.3
-10.21 14.28 0.92
-5.35 7.48 -1.79
-10.19 14.26 1.53
-6.17 8.63 -1.68
-9.72 13.6 2.05
-12.41 17.36 -2.62
-9.86 13.79 2.68
-10.37 14.51 -1.56
-9.67 13.53 3.23
-10.08 14.1 -0.91
-10.07 14.09 -0.3
-10.27 14.47 0.31
-10.13 14.28 0.92
-18.2 25.66 2.75
-6.13 8.65 -1.68
-18.23 25.7 3.87
-10.53 14.84 -2.23
-9.48 13.36 2.59
-10.5 14.8 -1.59
-9.76 13.75 3.28
-9.98 14.06 -0.9
-18.27 25.75 7.29
-10.25 14.45 -0.31
-11.19 15.78 5.18
-9.33 13.25 0.28
-18.07 25.67 1.65
-18.13 25.74 2.75
-6.1 8.67 -1.68
-9.81 13.93 2.09
-10.51 14.92 -2.24
-24.63 34.98 6.78
-9.62 13.67 -1.46
-9.77 13.87 3.3
-9.95 14.13 -0.91
-10.08 14.31 -0.31
-11.86 16.84 5.52
-9.82 14.06 0.3
-9.75 13.96 0.89
-24.32 34.8 3.71
-6.4 9.16 -1.77
-9.65 13.82 2.07
-10.43 14.93 -2.24
-9.66 13.82 2.67
-9.61 13.76 -1.47
-11.2 16.02 3.8
-10.01 14.32 -0.92
-9.97 14.26 -0.3
-15.58 22.3 7.29
-9.93 14.32 0.3
-9.77 14.08 0.9
-9.76 14.07 1.5
-6.39 9.21 -1.78
-9.62 13.87 2.07
-10.57 15.24 -2.28
-9.55 13.77 2.65
-9.58 13.81 -1.47
-10.31 14.86 3.51
-9.81 14.14 -0.9
-9.98 14.38 -0.31
-14.43 20.8 6.78
-9.9 14.38 0.3
-9.97 14.49 0.92
-6.35 9.23 -1.77
-9.51 13.81 2.06
-10.48 15.22 -2.27
-9.43 13.69 2.63
-9.55 13.87 -1.47
-10.22 14.84 3.5
-9.75 14.17 -0.9
-9.99 14.51 4.07
-9.79 14.22 -0.3
-11.75 17.07 5.55
-9.79 14.32 0.3
-9.95 14.56 0.92
-6.31 9.23 -1.77
-9.52 13.93 2.07
-9.9 14.48 -2.15
-9.44 13.81 2.65
-9.48 13.87 -1.47
-9.1 13.32 3.14
-9.78 14.3 -0.91
-9.26 13.55 3.79
-9.82 14.37 -0.3
-14.68 21.49 6.97
-9.91 14.61 0.31
-9.91 14.62 0.93
-9.98 14.71 1.56
-6.27 9.24 -1.77
-14.31 21.1 3.13
-10.03 14.79 -2.19
-14.35 21.16 4.05
-9.68 14.27 -1.51
-14.34 21.15 4.97
-9.59 14.14 -0.9
-14.34 21.14 5.9
-9.2 13.57 -0.29
-10.88 16.05 5.2
-14.16 21.02 0.44
-9.87 14.66 0.93
-9.92 14.74 1.55
-6.23 9.25 -1.77
-9.11 13.53 2
-10.12 15.03 -2.22
-14.28 21.2 4.05
-9.69 14.38 -1.52
-14.28 21.21 4.97
-9.53 14.16 -0.89
-9.42 13.98 3.89
-9.73 14.45 -0.3
-8.84 13.13 4.24
-9.6 14.36 0.3
-9.41 14.08 1.48
-6.2 9.28 -1.77
-8.56 12.82 1.89
-10.17 15.22 -2.25
-9.43 14.11 2.69
-9.08 13.58 -1.43
-9 13.47 3.15
-9.43 14.1 -0.89
-10.84 16.22 4.5
-9.54 14.28 -0.3
-9.1 13.62 4.39
-9.81 14.78 0.31
-9.99 15.05 0.95
-9.63 14.51 1.52
-6.18 9.31 -1.77
-8.82 13.29 1.96
-10.02 15.1 -2.23
-13.49 20.33 3.86
-9.13 13.76 -1.44
-9.05 13.64 3.18
-9.58 14.44 -0.91
-9.13 13.76 3.81
-9.54 14.37 -0.3
-9.03 13.6 4.37
-9.1 13.82 0.29
-9.64 14.64 0.92
-8.7 13.21 1.38
-6.17 9.38 -1.78
-8.49 12.89 1.9
-10.18 15.47 -2.27
-9.28 14.09 2.67
-11.44 17.37 -1.82
-16.62 25.24 5.88
-9 13.67 -0.86
-9.07 13.78 3.81
-9.66 14.68 -0.31
-8.91 13.53 4.34
-9.65 14.78 0.31
-9.57 14.65 0.92
-9.29 14.23 1.49
-6.25 9.58 -1.81
-16.45 25.18 3.69
-9.13 13.97 -2.05
-9.35 14.32 2.71
-9.1 13.94 -1.46
-8.47 12.96 3.01
-9.1 13.93 -0.87
-9.02 13.81 3.81
-9.19 14.07 -0.29
-8.82 13.51 4.32
-15.76 24.32 0.51
-9.13 14.09 0.88
-9.47 14.61 1.52
-6.21 9.58 -1.81
-8.48 13.08 1.91
-10.79 16.65 -2.44
-9.18 14.16 2.67
-9.08 14.01 -1.46
-8.41 12.97 3
-9.02 13.91 -0.87
-9.06 13.98 3.85
-9.15 14.11 -0.29
-8.81 13.6 4.34
-9.03 14.03 0.29
-9.08 14.12 0.88
-9.09 14.12 1.47
-6.19 9.61 -1.81
-9.03 14.03 2.05
-9.32 14.49 -2.12
-8.6 13.36 2.52
-9.55 14.84 -1.54
-8.37 13 3.01
-9.05 14.07 -0.88
-8.84 13.73 3.77
-9.06 14.08 -0.29
-8.71 13.54 4.31
-15.66 24.53 0.51
-9.42 14.76 0.92
-9.08 14.23 1.48
-6.18 9.68 -1.82
-8.48 13.28 1.94
-8.94 14 -2.04
-9.14 14.31 2.69
-8.95 14.02 -1.46
-8.42 13.19 3.04
-9 14.1 -0.88
-8.81 13.8 3.78
-8.86 13.87 -0.29
-8.81 13.81 4.39
-8.79 13.87 0.29
-9.32 14.71 0.91
-9.04 14.27 1.48
-6.16 9.72 -1.82
-9.02 14.23 2.07
-9.28 14.65 -2.13
-8.5 13.42 2.52
-9.04 14.28 -1.48
-8.44 13.32 3.07
-8.94 14.11 -0.88
-8.78 13.86 3.79
-15.12 23.88 -0.49
-8.62 13.6 4.31
-8.86 14.1 0.29
-9.08 14.45 0.89
-8.97 14.27 1.47
-6.11 9.73 -1.82
-13.05 20.76 3.01
-9.22 14.67 -2.13
-8.47 13.48 2.52
-8.88 14.13 -1.46
-8.21 13.07 3
-8.97 14.28 -0.88
-13.2 21.01 5.73
-15.02 23.9 -0.49
-10.27 16.35 5.17
-8.82 14.14 0.29
-8.9 14.27 0.88
-8.96 14.36 1.48
-6.07 9.74 -1.82
-8.72 13.99 2.02
-8.89 14.26 -2.06
-8.62 13.83 2.58
-8.8 14.1 -1.45
-8.31 13.33 3.05
-8.83 14.16 -0.87
-8.57 13.74 3.74
-8.72 13.98 -0.29
-8.3 13.3 4.2
-8.74 14.13 0.29
-8.96 14.49 0.89
-8.85 14.31 1.47
-6.04 9.76 -1.82
-9.05 14.62 2.11
-8.92 14.41 -2.08
-8.9 14.39 2.68
-8.77 14.18 -1.46
-8.73 14.11 3.22
-8.7 14.06 -0.87
-8.53 13.79 3.74
-8.81 14.24 -0.29
-7.98 12.9 4.06
-8.92 14.52 0.3
-8.89 14.47 0.89
-8.92 14.52 1.49
-6.03 9.82 -1.83
-8.72 14.2 2.05
-8.88 14.46 -2.08
-8.49 13.82 2.57
-8.72 14.2 -1.46
-8.87 14.45 -0.89
-8.91 14.52 -0.3
-10.23 16.66 5.24
-8.6 14.12 0.29
-9.98 16.39 1.01
-4.71 7.74 -1.76
-6.01 9.86 -1.83
-8.79 14.43 2.07
-8.79 14.43 -2.08
-8.43 13.85 2.57
-8.69 14.26 -1.46
-8.24 13.53 3.08
-8.68 14.26 -0.87
-10.11 16.6 4.49
-10.04 16.48 5.17
-8.43 13.94 0.28
-8.78 14.53 0.89
-4.67 7.72 -1.75
-8.73 14.44 1.48
-5.97 9.87 -1.83
-9.99 16.52 2.37
-8.77 14.51 -2.08
-10.02 16.57 3.07
-8.62 14.25 -1.46
-8.49 14.04 3.19
-8.65 14.31 -0.88
-10.02 16.57 4.47
-14.99 24.78 -0.51
-7.97 13.19 4.13
-8.29 13.83 0.28
-8.5 14.18 0.87
-4.64 7.74 -1.76
-8.73 14.54 1.48
-7.31 12.19 -2.25
-9.91 16.52 2.37
-9.96 16.6 3.07
-8.77 14.62 -1.49
-9.96 16.61 3.77
-8.55 14.25 -0.87
-8.37 13.95 3.75
-14.91 24.86 -0.51
-7.81 13.02 4.07
-9.83 16.52 0.34
-9.84 16.54 1.01
-4.61 7.75 -1.75
-9.87 16.59 1.69
-7.27 12.22 -2.25
-8.58 14.41 2.06
-12.34 20.74 -2.96
-8.47 14.22 2.62
-8.63 14.51 -1.48
-8.21 13.79 3.12
-8.46 14.21 -0.87
-7.96 13.37 3.59
-9.15 15.38 -0.31
-7.71 12.95 4.04
-8.47 14.35 0.29
-9.8 16.6 1.01
-4.57 7.74 -1.75
-8.43 14.28 1.45
-7.23 12.25 -2.25
-8.41 14.25 2.03
-9.01 15.26 -2.18
-8.44 14.3 2.63
-8.71 14.75 -1.5
-14.16 23.98 5.41
-8.45 14.31 -0.87
-14.22 24.09 6.46
-9.77 16.54 -0.34
-7.73 13.08 4.07
-8.3 14.17 0.29
-8.4 14.34 0.87
-4.54 7.76 -1.75
-8.4 14.34 1.45
-7.18 12.26 -2.25
-14.09 24.05 3.42
-9.68 16.52 -2.35
-8.46 14.45 2.65
-9.69 16.54 -1.68
-12.02 20.52 4.62
-8.37 14.29 -0.87
-8.23 14.05 3.76
-8.22 14.03 -0.28
-7.73 13.2 4.1
-8.06 13.87 0.28
-8.33 14.34 0.87
-4.5 7.75 -1.74
-13.85 23.83 2.41
-7.13 12.27 -2.25
-8.54 14.69 2.09
-9.63 16.58 -2.35
-8.42 14.49 2.66
-8.04 13.83 -1.4
-8.35 14.38 -0.87
-8.23 14.16 3.78
-8.08 13.9 -0.28
-7.62 13.11 4.06
-8.45 14.67 0.3
-13.76 23.88 1.44
-4.48 7.76 -1.74
-14.65 25.42 2.57
-7.09 12.3 -2.25
-13.55 23.5 3.33
-14.18 24.6 -3.49
-8.2 14.22 2.6
-8.1 14.06 -1.42
-8.24 14.3 3.21
-8.15 14.14 -0.86
-8.07 14 3.73
-8.06 13.98 -0.28
-7.72 13.39 4.14
-8.15 14.26 0.29
-8.2 14.34 0.87
-4.44 7.76 -1.74
-8.18 14.3 1.44
-7.04 12.32 -2.25
-13.77 24.08 3.41
-7.97 13.94 -1.97
-8.29 14.5 2.65
-8.13 14.22 -1.43
-8.21 14.36 3.21
-8.14 14.24 -0.86
-7.91 13.83 3.68
-8.28 14.47 -0.29
-7.52 13.15 4.06
-8.27 14.59 0.29
-7.97 14.07 0.85
-4.4 7.75 -1.73
-20.33 35.86 3.61
-6.98 12.31 -2.24
-7.87 13.88 1.96
-8.08 14.26 -2.01
-8.23 14.51 2.64
-8.07 14.24 -1.43
-8.19 14.44 3.23
-8.03 14.17 -0.85
-7.94 14.01 3.72
-8.01 14.12 -0.28
-7.78 13.72 4.23
-7.85 13.96 0.28
-10.24 18.21 1.09
-4.36 7.76 -1.73
-7.93 14.11 1.42
-6.92 12.31 -2.24
-20.26 36.04 5.08
-7.92 14.09 -1.99
-8.11 14.43 2.62
-13.07 23.24 -2.33
-8.16 14.5 3.23
-7.94 14.13 -0.85
-7.87 14 3.71
-7.93 14.1 -0.28
-7.67 13.65 4.2
-10.09 18.09 0.36
-8.14 14.59 0.88
-4.34 7.78 -1.73
-7.92 14.21 1.42
-6.85 12.29 -2.23
-8.19 14.68 2.06
-7.93 14.21 -2
-8.12 14.57 2.64
-13 23.31 -2.34
-7.67 13.75 3.06
-7.87 14.11 -0.85
-7.72 13.83 3.66
-7.89 14.15 -0.28
-7.42 13.3 4.08
-7.95 14.37 0.29
-8.74 15.8 0.95
-4.3 7.78 -1.73
-7.83 14.15 1.41
-6.81 12.31 -2.23
-7.66 13.84 1.94
-7.84 14.17 -1.99
-8.12 14.68 2.66
-7.72 13.95 -1.4
-7.58 13.7 3.04
-7.82 14.14 -0.85
-7.66 13.85 3.65
-7.85 14.19 -0.28
-7.81 14.11 4.32
-18.93 34.5 0.69
-8.64 15.74 0.94
-4.27 7.79 -1.73
-7.86 14.33 1.43
-6.77 12.33 -2.23
-11.42 20.81 2.91
-12.09 22.04 -3.09
-8.04 14.66 2.65
-7.92 14.43 -1.44
-7.59 13.84 3.07
-7.75 14.12 -0.84
-7.79 14.2 3.74
-7.84 14.3 -0.28
-8.88 16.18 4.94
-7.78 14.3 0.28
-8.57 15.74 0.94
-4.21 7.74 -1.71
-7.72 14.2 1.41
-6.71 12.34 -2.22
-9.77 17.95 2.51
-9.58 17.6 -2.46
-7.95 14.62 2.64
-7.88 14.49 -1.44
-7.55 13.87 3.07
-7.66 14.07 -0.84
-7.73 14.21 3.74
-7.67 14.09 -0.28
-7.65 14.06 4.29
-7.85 14.54 0.29
-8 14.81 0.88
-4.18 7.74 -1.71
-7.64 14.15 1.41
-6.65 12.32 -2.22
-7.62 14.12 1.97
-7.73 14.32 -2
-11.28 20.9 3.76
-7.8 14.45 -1.44
-8.81 16.32 3.6
-7.61 14.1 -0.84
-8.76 16.22 4.26
-7.7 14.26 -0.28
-7.23 13.4 4.08
-7.75 14.48 0.29
-7.44 13.89 0.83
-4.14 7.74 -1.71
-7.6 14.19 1.41
-6.59 12.3 -2.21
-11.17 20.87 2.91
-7.74 14.45 -2.01
-11.23 20.98 3.77
-7.72 14.42 -1.43
-8.69 16.24 3.58
-7.76 14.5 -0.86
-16.49 30.8 8.07
-7.54 14.08 -0.28
-7.72 14.42 4.38
-7.61 14.33 0.28
-11.04 20.8 1.23
-4.11 7.74 -1.7
-7.72 14.55 1.44
-6.53 12.31 -2.21
-7.65 14.4 2
-9.67 18.22 -2.53
-11.17 21.05 3.77
-7.67 14.46 -1.43
-8.62 16.24 3.57
-7.57 14.27 -0.85
-7.51 14.14 3.7
-7.68 14.47 -0.29
-7.12 13.42 4.07
-10.94 20.78 0.41
-7.39 14.03 0.83
-4.07 7.72 -1.7
-7.62 14.49 1.43
-6.49 12.33 -2.21
-7.39 14.04 1.95
-9.28 17.64 -2.45
-8.6 16.35 2.93
-13.7 26.02 -2.57
-11.14 21.17 4.65
-7.51 14.26 -0.84
-7.54 14.33 3.74
-10.93 20.77 -0.41
-7.47 14.19 4.3
-7.46 14.29 0.28
-7.48 14.33 0.85
-4.04 7.74 -1.7
-7.5 14.36 1.42
-6.44 12.34 -2.2
-8.54 16.37 2.27
-7.43 14.23 -1.97
-7.79 14.93 2.67
-10.83 20.74 -2.05
-7.48 14.33 -0.85
-7.6 14.56 3.79
-7.4 14.18 -0.28
-7.39 14.17 4.28
-7.4 14.3 0.28
-7.6 14.69 0.87
-4.01 7.74 -1.69
-8.49 16.41 1.62
-6.4 12.36 -2.2
-7.53 14.55 2.01
-7.36 14.23 -1.97
-7.7 14.87 2.65
-7.36 14.22 -1.4
-10.09 19.5 4.27
-7.35 14.2 -0.84
-10.16 19.64 5.1
-7.3 14.1 -0.28
-7.25 14.01 4.23
-7.23 14.09 0.28
-7.46 14.55 0.86
-3.98 7.76 -1.7
-7.38 14.4 1.42
-6.34 12.37 -2.2
-9 17.56 2.42
-7.7 15.01 -2.07
-10.06 19.62 3.49
-10.67 20.8 -2.05
-10.07 19.63 4.29
-7.55 14.72 -0.87
-13.82 26.96 6.99
-7.35 14.32 -0.28
-6.75 13.16 3.96
-8.41 16.54 0.32
-7.46 14.68 0.86
-3.95 7.77 -1.69
-7.45 14.65 1.44
-6.3 12.39 -2.2
-7.25 14.25 1.96
-10.55 20.76 -2.86
-9.99 19.66 3.49
-7.58 14.9 -1.46
-13.73 27.01 5.89
-7.5 14.76 -0.87
-13.63 26.81 6.94
-7.24 14.25 -0.28
-6.77 13.33 4.01
-9.81 19.47 0.38
-9.83 19.5 1.14
-3.92 7.77 -1.69
-7.38 14.65 1.44
-6.25 12.4 -2.2
-7.22 14.32 1.97
-9.04 17.94 -2.47
-8.96 17.77 -1.74
-12.19 24.18 5.26
-9.02 17.9 -1.05
-7.2 14.29 -0.28
-6.88 13.65 4.1
-6.89 13.79 0.27
-7.36 14.72 0.86
-3.88 7.76 -1.69
-7.3 14.61 1.43
-6.2 12.42 -2.2
-12.06 24.14 3.31
-7.4 14.81 -2.03
-12.09 24.2 4.29
-7.48 14.97 -1.46
-12.36 24.73 5.37
-7.45 14.91 -0.87
-11.01 22.03 5.69
-7.32 14.64 -0.29
-13.2 26.41 7.91
-6.88 13.88 0.27
-7.21 14.56 0.85
-3.85 7.77 -1.69
-7.26 14.65 1.43
-6.14 12.39 -2.19
-7.27 14.67 2.01
-7.22 14.59 -2
-13.75 27.75 4.91
-7.24 14.61 -1.43
-16.77 33.87 7.35
-7.32 14.78 -0.86
-7.2 14.54 -0.28
-7.09 14.44 0.28
-7.21 14.68 0.86
-3.83 7.8 -1.69
-7.21 14.68 1.43
-6.08 12.38 -2.18
-7.23 14.73 2.01
-7.16 14.57 -1.99
-7.25 14.77 2.61
-7.15 14.56 -1.42
-7.25 14.76 3.2
-7.18 14.61 -0.85
-7.27 14.81 3.81
-7.19 14.63 -0.28
-6.73 13.7 4.09
-7.1 14.59 0.28
-7.15 14.68 0.86
-3.81 7.82 -1.69
-7.16 14.7 1.43
-6.03 12.39 -2.18
-7.16 14.71 2.01
-7.1 14.57 -1.99
-7.19 14.76 2.6
-7.1 14.57 -1.42
-7.18 14.75 3.19
-7.11 14.61 -0.85
-7.21 14.81 3.8
-7.12 14.63 -0.28
-6.69 13.75 4.1
-6.76 14.01 0.27
-7.09 14.7 0.86
-3.78 7.83 -1.69
-7.11 14.73 1.43
-5.98 12.38 -2.18
-7.12 14.75 2.01
-7.02 14.55 -1.98
-7.13 14.78 2.6
-7.03 14.57 -1.42
-7.14 14.79 3.19
-7.04 14.58 -0.85
-7.15 14.82 3.8
-7.02 14.54 -0.28
-6.68 13.84 4.12
-6.72 14.05 0.27
-7.05 14.75 0.86
-3.74 7.82 -1.68
-7.09 14.82 1.44
-5.93 12.4 -2.18
-8.64 18.06 2.46
-7.1 14.85 -2.02
-7.1 14.84 2.61
-7.06 14.77 -1.43
-7.82 16.35 3.52
-6.6 13.79 -0.8
-7.12 14.9 3.81
-8.6 17.98 -0.35
-6.63 13.98 0.27
-3.71 7.82 -1.68
-7.49 15.8 1.53
-5.88 12.41 -2.17
-8.74 18.44 2.51
-7 14.77 -2.01
-7.61 16.05 2.81
-8.56 18.06 -1.75
-8.3 17.52 3.77
-6.56 13.85 -0.8
-8.39 17.69 4.52
-8.53 18 -0.35
-7.84 16.53 4.9
-11.27 24.01 0.46
-11.15 23.75 1.37
-3.68 7.84 -1.68
-6.64 14.15 1.37
-5.83 12.41 -2.17
-7.82 16.66 2.26
-10.79 22.97 -3.12
-7.81 16.64 2.91
-6.84 14.57 -1.41
-6.17 13.15 2.82
-8.69 18.51 -1.07
-7.61 16.2 4.13
-8.48 18.06 -0.35
-5.82 12.39 3.67
-13.37 28.73 0.55
-8.5 18.27 1.06
-3.66 7.86 -1.69
-6.62 14.23 1.37
-5.78 12.42 -2.17
-13.94 29.96 4.06
-8.41 18.06 -2.45
-12.99 27.92 -2.69
-6.11 13.14 2.82
-8.55 18.37 -1.06
-13.16 28.28 -0.54
-6.35 13.76 0.26
-7.39 16.02 0.92
-3.63 7.87 -1.68
-7.21 15.64 1.51
-5.73 12.42 -2.17
-6.44 13.97 1.89
-8.27 17.92 -2.42
-7.67 16.63 2.9
-6.34 13.75 -1.32
-6.12 13.26 2.84
-6.38 13.83 -0.8
-10.76 23.33 5.93
-13.11 28.42 -0.55
-13.1 28.66 0.55
-13.1 28.67 1.65
-3.6 7.89 -1.69
-6.48 14.19 1.36
-5.68 12.43 -2.17
-10.3 22.53 3.04
-8.19 17.93 -2.42
-7.87 17.21 3
-12.86 28.14 -2.71
-10.46 22.87 4.89
-8.39 18.35 -1.06
-7.49 16.39 4.16
-6.46 14.12 -0.27
-5.68 12.43 3.66
-6.27 13.85 0.27
-6.28 13.86 0.8
-3.58 7.9 -1.69
-10.19 22.51 2.16
-5.62 12.42 -2.16
-8.04 17.76 2.39
-11.65 25.72 -3.47
-6.24 13.78 2.4
-12.7 28.04 -2.69
-6.31 13.94 -0.8
-10.46 23.1 5.85
-6.52 14.39 -0.28
-10.48 23.15 6.81
-6.24 13.91 0.27
-6.27 13.98 0.8
-3.55 7.92 -1.69
-15.33 34.16 3.28
-5.58 12.43 -2.16
-7.83 17.45 2.35
-9.4 20.95 -2.82
-6.18 13.78 2.39
-7.17 15.98 -1.53
-6.34 14.13 3.01
-9.93 22.13 -1.27
-6.84 15.24 3.86
-6.46 14.4 -0.28
-5.64 12.56 3.69
-6.19 13.93 0.27
-6.2 13.95 0.8
-3.52 7.92 -1.68
-10.76 24.21 2.32
-5.51 12.39 -2.15
-6.3 14.17 1.9
-10.92 24.56 -3.3
-6.15 13.83 2.4
-9.81 22.07 -2.11
-6.08 13.68 2.91
-10.9 24.54 -1.41
-8.14 18.32 4.63
-6.41 14.43 -0.28
-6.69 15.06 4.42
-6.12 13.9 0.27
-10.67 24.23 1.39
-3.5 7.94 -1.69
-6.36 14.44 1.38
-5.46 12.41 -2.15
-8.02 18.21 2.44
-9.74 22.13 -2.97
-6.08 13.81 2.39
-10.8 24.53 -2.34
-13.85 31.45 6.68
-13.48 30.62 -1.75
-10.04 22.8 5.75
-6.29 14.29 -0.27
-6.72 15.27 4.47
-6.1 13.99 0.27
-6.07 13.92 0.8
-3.47 7.96 -1.69
-6.18 14.17 1.35
-5.41 12.42 -2.15
-11.9 27.31 3.66
-9.63 22.1 -2.96
-6.03 13.83 2.39
-6.37 14.63 -1.4
-6 13.77 2.92
-6.25 14.35 -0.82
-11.97 27.47 6.92
-6.26 14.36 -0.27
-6.53 14.98 4.38
-6.16 14.27 0.27
-15.42 35.71 2.04
-3.44 7.97 -1.69
-6.2 14.36 1.37
-5.37 12.43 -2.14
-13.5 31.27 4.18
-11.19 25.9 -3.46
-6.07 14.06 2.43
-7.2 16.67 -1.59
-12.1 28.03 5.93
-6.14 14.22 -0.81
-6.06 14.03 3.53
-6.17 14.28 -0.27
-7.04 16.3 4.76
-6.07 14.2 0.27
-9.92 23.19 1.32
-3.41 7.97 -1.68
-6.16 14.39 1.37
-5.32 12.43 -2.14
-6.16 14.39 1.92
-11.14 26.03 -3.48
-6.25 14.61 2.52
-15.12 35.36 -3.36
-6.22 14.54 3.07
-8.75 20.47 -1.17
-6.06 14.17 3.56
-7.02 16.42 -0.31
-6.96 16.26 4.74
-6.18 14.59 0.83
-3.38 7.97 -1.68
-6.1 14.4 1.37
-5.28 12.45 -2.14
-6.07 14.32 1.91
-11.06 26.09 -3.48
-5.96 14.07 2.42
-11.01 25.99 -2.47
-6.88 16.25 3.43
-6.02 14.2 -0.81
-5.99 14.14 3.55
-6.17 14.57 -0.28
-6.59 15.56 4.53
-6.86 16.35 0.31
-6 14.31 0.81
-3.34 7.97 -1.68
-6.09 14.53 1.38
-5.23 12.47 -2.14
-6.04 14.41 1.92
-6.98 16.64 -2.22
-6.81 16.24 2.79
-7.33 17.48 -1.66
-6.82 16.25 3.43
-6.07 14.46 -0.82
-6.75 16.09 4.03
-6.11 14.56 -0.28
-8.43 20.1 5.84
-5.84 14.06 0.27
-5.95 14.31 0.81
-3.3 7.95 -1.67
-6.76 16.26 1.54
-5.18 12.47 -2.14
-6.76 16.26 2.16
-10.92 26.27 -3.49
-6.76 16.27 2.79
-5.71 13.74 -1.3
-6.77 16.3 3.43
-5.88 14.15 -0.8
-6.55 15.77 3.94
-6.03 14.51 -0.27
-6.68 16.08 4.67
-6.69 16.27 0.92
-3.27 7.94 -1.67
-6.29 15.29 1.45
-5.13 12.47 -2.14
-6.71 16.32 2.17
-10.78 26.2 -3.48
-5.87 14.27 2.44
-5.67 13.78 -1.3
-5.98 14.54 -0.82
-6.05 14.71 -0.28
-5.4 13.12 3.8
-6.46 15.85 0.3
-5.81 14.26 0.81
-3.23 7.93 -1.67
-8.1 19.89 1.88
-5.08 12.46 -2.13
-5.84 14.35 1.9
-10.74 26.36 -3.49
-5.87 14.4 2.46
-5.63 13.81 -1.3
-5.71 14.02 2.94
-5.98 14.68 -0.83
-5.73 14.05 3.5
-6.63 16.27 -0.31
-5.1 12.51 3.62
-5.68 14.08 0.27
-5.81 14.41 0.81
-3.2 7.94 -1.66
-5.76 14.28 1.35
-5.02 12.46 -2.13
-7.44 18.46 2.44
-5.96 14.77 -1.96
-5.86 14.54 2.48
-5.6 13.88 -1.31
-6.54 16.23 3.4
-5.86 14.53 -0.82
-5.84 14.47 3.6
-6.6 16.37 -0.31
-5.14 12.74 3.68
-5.64 14.13 0.27
-5.69 14.26 0.8
-3.17 7.94 -1.66
-5.76 14.42 1.36
-4.97 12.45 -2.12
-5.74 14.38 1.9
-5.88 14.72 -1.95
-7.51 18.81 3.21
-6.53 16.36 -1.54
-5.72 14.34 3
-5.73 14.36 -0.81
-5.66 14.17 3.52
-5.73 14.36 -0.27
-6.09 15.24 4.4
-5.54 14.04 0.26
-5.63 14.27 0.8
-3.14 7.95 -1.66
-5.65 14.32 1.35
-4.92 12.46 -2.12
-6 15.19 2
-5.82 14.74 -1.95
-7.35 18.61 3.17
-5.57 14.12 -1.33
-6.36 16.11 3.37
-5.6 14.19 -0.8
-5.66 14.34 3.56
-5.66 14.35 -0.27
-5.43 13.76 3.96
-5.48 14.01 0.26
-5.68 14.53 0.82
-3.11 7.96 -1.66
-5.56 14.23 1.34
-4.87 12.46 -2.12
-10.02 25.62 3.38
-5.66 14.49 2.46
-5.51 14.1 -1.32
-10.06 25.73 5.37
-5.53 14.15 -0.8
-5.52 14.13 3.5
-5.47 14 -0.26
-5.38 13.76 3.96
-5.44 14.05 0.26
-5.62 14.51 0.82
-3.08 7.96 -1.66
-5.52 14.27 1.34
-4.83 12.47 -2.12
-5.36 13.86 1.82
-6.51 16.83 -2.22
-5.64 14.58 -1.37
-8.37 21.63 4.51
-5.51 14.24 -0.8
-5.53 14.28 3.53
-5.46 14.12 -0.26
-5.9 15.25 4.38
-5.55 14.49 0.27
-5.53 14.43 0.81
-3.05 7.95 -1.66
-4.78 12.47 -2.12
-7.01 18.28 2.4
-6.44 16.8 -2.21
-6.29 16.42 2.79
-5.61 14.63 -1.37
-8.34 21.76 4.53
-6.24 16.29 4.03
-5.55 14.47 -0.27
-5.85 15.27 4.38
-5.34 14.08 0.26
-5.34 14.08 0.79
-3.01 7.95 -1.65
-5.47 14.43 1.35
-4.74 12.5 -2.12
-5.16 13.62 1.79
-8.04 21.21 -2.78
-8.22 21.67 3.67
-5.23 13.8 -1.29
-11.5 30.35 6.31
-5.34 14.08 -0.79
-5.42 14.29 3.53
-5.49 14.48 -0.27
-9.17 24.19 6.93
-5.35 14.26 0.27
-5.45 14.53 0.81
-2.98 7.95 -1.65
-5.38 14.33 1.34
-4.7 12.51 -2.12
-5.16 13.76 1.8
-5.34 14.23 -1.87
-6.14 16.37 2.77
-5.41 14.42 -1.35
-6.12 16.31 3.39
-5.18 13.79 -0.77
-8.36 22.27 5.49
-5.47 14.58 -0.27
-5.04 13.43 3.85
-5.29 14.27 0.27
-5.39 14.53 0.81
-2.96 7.96 -1.65
-5.36 14.44 1.35
-4.64 12.52 -2.11
-5.04 13.58 1.78
-5.18 13.96 -1.83
-8.9 23.97 4.05
-5.16 13.91 -1.3
-6.07 16.35 3.39
-5.28 14.24 -0.8
-5.3 14.27 -0.27
-5.69 15.35 4.39
-5.29 14.4 0.27
-5.62 15.3 0.85
-2.93 7.98 -1.65
-5.32 14.48 1.35
-4.6 12.51 -2.11
-5.28 14.36 1.88
-6.13 16.69 -2.18
-6.9 18.78 3.17
-6.29 17.13 -1.6
-5.97 16.25 3.37
-5.19 14.12 -0.79
-9.33 25.4 6.25
-6.08 16.56 -0.31
-5.1 13.88 3.96
-5.11 14.08 0.26
-5.29 14.58 0.81
-2.9 7.99 -1.65
-5.98 16.47 1.53
-4.54 12.52 -2.11
-6 16.54 2.16
-5.08 13.98 -1.83
-5.99 16.51 2.78
-6.01 16.54 -1.54
-5.01 13.8 -0.77
-5.3 14.61 -0.27
-5.09 14.16 0.26
-2.87 7.99 -1.65
-6 16.7 1.55
-4.49 12.51 -2.1
-5.22 14.52 1.89
-5.03 14 -1.83
-8.87 24.7 4.16
-4.93 13.73 -1.28
-5.02 13.97 -0.78
-5.76 16.03 3.93
-5.09 14.17 -0.26
-4.95 13.77 3.92
-5.06 14.24 0.26
-7.73 21.77 1.21
-2.83 7.98 -1.65
-5.07 14.28 1.33
-4.44 12.52 -2.1
-5.03 14.17 1.85
-5.04 14.2 -1.85
-5.89 16.59 2.79
-4.98 14.03 -1.3
-5.69 16.04 3.31
-4.94 13.91 -0.77
-8.93 25.15 6.16
-5.08 14.3 -0.26
-5.66 15.93 4.53
-4.96 14.11 0.26
-4.93 14.04 0.78
-2.8 7.96 -1.64
-4.67 13.3 1.23
-4.4 12.51 -2.1
-5.48 15.6 2.03
-4.85 13.81 -1.8
-5.91 16.81 2.82
-8.29 23.59 -2.19
-5.72 16.29 3.36
-4.93 14.03 -0.78
-5.65 16.07 3.93
-4.83 13.75 -0.25
-5.55 15.79 4.48
-4.89 14.08 0.26
-5.21 15 0.83
-2.77 7.98 -1.64
-4.97 14.31 1.33
-4.34 12.5 -2.1
-4.83 13.91 1.81
-4.87 14.01 -1.82
-8.66 24.94 4.18
-4.82 13.86 -1.28
-5.73 16.5 3.4
-4.82 13.86 -0.77
-4.93 14.2 -0.26
-5.46 15.73 4.46
-4.84 14.07 0.26
-4.82 14.03 0.78
-2.74 7.97 -1.64
-4.97 14.46 1.34
-4.3 12.51 -2.09
-4.84 14.09 1.83
-8.13 23.65 -3.07
-5.6 16.3 2.73
-4.8 13.95 -1.29
-5.68 16.54 3.4
-4.73 13.75 -0.76
-5.66 16.46 4.02
-4.74 13.78 -0.25
-5.45 15.84 4.49
-4.8 14.14 0.26
-4.76 14 0.77
-2.71 7.97 -1.64
-4.87 14.33 1.32
-4.26 12.53 -2.1
-5.74 16.9 2.19
-4.77 14.03 -1.82
-5.57 16.41 2.74
-4.79 14.09 -1.3
-6.85 20.17 4.14
-4.77 14.03 -0.78
-6.88 20.26 4.94
-4.73 13.92 -0.26
-5.52 16.24 4.6
-9.31 27.71 0.51
-4.75 14.13 0.78
-2.67 7.96 -1.63
-4.78 14.23 1.31
-4.22 12.58 -2.1
-5.6 16.68 2.16
-4.73 14.08 -1.82
-5.49 16.34 2.73
-4.69 13.95 -1.29
-5.44 16.2 3.32
-4.65 13.83 -0.76
-5.54 16.49 4.02
-4.62 13.75 -0.25
-5.57 16.59 4.69
-4.75 14.33 0.26
-4.61 13.9 0.77
-2.65 7.98 -1.63
-6.66 20.09 1.85
-4.17 12.58 -2.1
-6.67 20.1 2.6
-4.69 14.14 -1.83
-5.32 16.04 2.68
-4.64 14 -1.29
-4.58 13.81 -0.76
-5.48 16.51 4.02
-4.76 14.35 -0.26
-5.36 16.17 4.56
-4.66 14.22 0.26
-4.56 13.9 0.77
-2.62 7.98 -1.63
-6.59 20.09 1.85
-4.13 12.58 -2.1
-5.43 16.55 2.14
-4.97 15.14 -1.96
-4.7 14.32 -1.32
-5.38 16.39 3.35
-4.59 13.99 -0.77
-5.29 16.11 3.92
-4.62 14.09 -0.26
-5.3 16.14 4.55
-4.54 14 0.26
-4.52 13.97 0.77
-2.58 7.98 -1.63
-4.57 14.11 1.3
-4.07 12.57 -2.09
-4.47 13.8 1.78
-4.99 15.41 -1.99
-5.3 16.37 2.73
-4.54 14.02 -1.29
-5.26 16.23 3.32
-4.53 13.99 -0.77
-5.24 16.18 3.93
-6.49 20.02 -0.37
-4.6 14.37 0.26
-5.24 16.37 0.9
-2.55 7.97 -1.63
-5.21 16.27 1.49
-4.03 12.57 -2.09
-4.44 13.85 1.79
-6.37 19.9 -2.57
-5.21 16.27 2.71
-4.47 13.95 -1.28
-5.2 16.24 3.31
-4.46 13.93 -0.77
-5.2 16.24 3.94
-4.52 14.12 -0.26
-6.61 20.63 5.8
-4.44 14.03 0.26
-4.39 13.87 0.76
-2.52 7.96 -1.62
-5.14 16.24 1.49
-3.98 12.59 -2.09
-5.16 16.32 2.1
-4.94 15.63 -2.01
-5.14 16.27 2.7
-4.43 13.99 -1.28
-4.45 14.07 -0.77
-4.51 14.25 -0.26
-4.34 13.89 0.25
-4.33 13.86 0.76
-2.49 7.95 -1.62
-3.95 12.64 -2.1
-4.41 14.12 -1.82
-4.45 14.23 -1.3
-4.36 13.95 -0.77
-4.37 13.97 -0.26
-7.57 24.22 6.8
-4.3 13.95 0.25
-4.3 13.96 0.77
-2.45 7.95 -1.62
-3.91 12.68 -2.1
-4.31 13.98 1.8
-4.37 14.18 -1.82
-4.83 15.65 2.59
-4.3 13.95 -1.28
-7.5 24.31 4.94
-4.27 13.83 -0.76
-7.52 24.39 5.89
-4.28 13.89 -0.25
-6.48 21.01 5.89
-4.24 13.92 0.25
-4.19 13.74 0.75
-2.43 7.98 -1.62
-3.88 12.73 -2.11
-4.76 15.62 2.01
-4.31 14.13 -1.81
-4.23 13.89 2.3
-4.28 14.04 -1.28
-5.03 16.51 3.35
-4.29 14.08 -0.77
-6.39 20.95 5.06
-4.77 15.66 -0.29
-5.64 18.5 5.18
-7.47 24.82 0.45
-4.86 16.12 0.88
-2.4 7.98 -1.62
-5.36 17.79 1.63
-3.84 12.75 -2.11
-4.62 15.35 1.97
-4.25 14.12 -1.81
-4.73 15.69 2.6
-4.25 14.12 -1.29
-7.28 24.17 4.91
-4.28 14.21 -0.78
-6.34 21.05 5.08
-7.27 24.14 -0.44
-7.32 24.64 0.45
-4.14 13.93 0.76
-2.37 7.98 -1.62
-4.09 13.77 1.26
-3.8 12.79 -2.11
-5.15 17.31 2.22
-4.27 14.37 -1.84
-4.66 15.68 2.59
-4.23 14.23 -1.3
-6.24 20.99 4.26
