# .PCD v0.7 - Point Cloud Data file format
VERSION 0.7
FIELDS x y z
SIZE 4 4 4
TYPE F F F
COUNT 1 1 1
WIDTH 2564
HEIGHT 1
VIEWPOINT 0 0 0 1 0 0 0
POINTS 2564
DATA ascii
-15.49 -28.96 0.57
-14.57 -27.25 1.62
-14.79 -27.65 2.74
-5.53 -10.34 -1.86
-15.04 -28.12 3.92
-7.33 -13.71 -1.91
-15.48 -28.94 5.2
-13.6 -25.43 -2.52
-15.89 -29.7 6.55
-14.84 -27.74 -1.65
-14.77 -27.61 7.23
-15.16 -28.35 -0.56
-16.03 -29.97 9.11
-15.65 -29.02 0.58
-14.69 -27.25 1.62
-14.91 -27.66 2.75
-5.57 -10.32 -1.86
-15.18 -28.16 3.93
-7.38 -13.69 -1.91
-15.47 -28.69 5.16
-13.91 -25.8 -2.56
-16.06 -29.79 6.58
-14.78 -27.41 -1.63
-15.96 -29.61 7.77
-15.24 -28.26 -0.56
-16.19 -30.04 9.14
-15.8 -29.07 0.58
-14.84 -27.29 1.63
-15.12 -27.81 2.77
-5.6 -10.31 -1.86
-14.18 -26.08 3.64
-7.43 -13.67 -1.91
-15.44 -28.4 5.12
-13.99 -25.73 -2.56
-15.75 -28.97 6.41
-14.95 -27.5 -1.64
-16.08 -29.59 7.77
-15.34 -28.22 -0.56
-16.61 -30.56 9.32
-15.87 -28.96 0.58
-14.98 -27.33 1.63
-15.26 -27.85 2.78
-5.63 -10.28 -1.86
-15.57 -28.42 3.98
-7.5 -13.7 -1.92
-15.52 -28.32 5.12
-14.09 -25.72 -2.57
-15.71 -28.67 6.36
-15.07 -27.51 -1.64
-15.15 -27.65 7.28
-15.38 -28.06 -0.56
-16.52 -30.15 9.21
-16.09 -29.11 0.58
-15.01 -27.17 1.63
-15.61 -28.26 2.82
-5.67 -10.26 -1.86
-15.62 -28.27 3.97
-7.53 -13.64 -1.91
-16.28 -29.47 5.33
-14.3 -25.89 -2.59
-15.82 -28.64 6.36
-15.18 -27.47 -1.65
-15.87 -28.72 7.58
-15.28 -27.66 -0.55
-16.47 -29.81 9.13
-16.12 -28.93 0.58
-15.18 -27.24 1.63
-15.44 -27.71 2.78
-5.71 -10.25 -1.86
-15.68 -28.13 3.95
-7.64 -13.71 -1.93
-16.39 -29.42 5.33
-14.41 -25.85 -2.59
-15.99 -28.69 6.39
-15.29 -27.43 -1.65
-16.45 -29.52 7.8
-15.49 -27.79 -0.56
-16.49 -29.59 9.08
-16.08 -28.62 0.57
-15.97 -28.43 1.71
-15.48 -27.55 2.76
-5.75 -10.23 -1.86
-14.41 -25.65 3.61
-7.69 -13.69 -1.93
-16.56 -29.48 5.36
-14.45 -25.73 -2.58
-16.08 -28.61 6.38
-15.28 -27.19 -1.63
-15.75 -28.04 7.43
-15.39 -27.39 -0.55
-16.66 -29.66 9.12
-16.17 -28.56 0.57
-16.33 -28.86 1.74
-15.54 -27.45 2.76
-5.78 -10.21 -1.86
-17.54 -30.99 4.37
-7.74 -13.67 -1.93
-15.68 -27.7 5.04
-14.77 -26.09 -2.62
-15.82 -27.95 6.24
-15.33 -27.09 -1.63
-15.89 -28.07 7.45
-15.46 -27.31 -0.55
-16.66 -29.44 9.06
-16.27 -28.51 0.57
-16.52 -28.95 1.75
-15.63 -27.4 2.76
-5.82 -10.19 -1.86
-16.26 -28.49 4.03
-7.77 -13.62 -1.93
-15.73 -27.57 5.03
-14.79 -25.92 -2.61
-15.92 -27.91 6.25
-15.39 -26.98 -1.63
-16.01 -28.06 7.46
-15.72 -27.55 -0.55
-16.71 -29.28 9.03
-16.4 -28.5 0.57
-16.8 -29.19 1.77
-15.65 -27.2 2.75
-5.85 -10.16 -1.86
-16.37 -28.45 4.03
-7.81 -13.58 -1.92
-15.92 -27.67 5.06
-14.88 -25.86 -2.61
-16.05 -27.89 6.26
-15.49 -26.92 -1.63
-16.19 -28.14 7.5
-15.81 -27.48 -0.55
-16.3 -28.33 8.76
-16.46 -28.37 0.57
-16.33 -28.15 1.71
-15.74 -27.14 2.75
-5.89 -10.15 -1.86
-15.78 -27.21 3.86
-7.81 -13.46 -1.91
-16.77 -28.9 5.29
-14.83 -25.57 -2.59
-16.27 -28.04 6.3
-15.57 -26.84 -1.63
-16.15 -27.84 7.43
-15.92 -27.45 -0.55
-16.45 -28.35 8.78
-3.35 -5.73 -1.78
-16.62 -28.42 0.57
-16.46 -28.15 1.71
-15.85 -27.11 2.75
-5.93 -10.13 -1.86
-16.64 -28.45 4.05
-7.87 -13.46 -1.92
-16.58 -28.34 5.2
-14.84 -25.38 -2.57
-16.79 -28.71 6.47
-15.74 -26.92 -1.63
-16.25 -27.78 7.43
-16 -27.35 -0.55
-17.16 -29.33 9.11
-3.36 -5.7 -1.77
-16.92 -28.7 0.58
-16.62 -28.19 1.71
-16.29 -27.63 2.81
-5.96 -10.11 -1.86
-16.8 -28.5 4.06
-7.96 -13.51 -1.93
-16.69 -28.32 5.21
-14.96 -25.37 -2.58
-16.83 -28.55 6.44
-15.84 -26.86 -1.63
-16.33 -27.7 7.42
-16.11 -27.33 -0.55
-16.92 -28.7 8.93
-3.37 -5.68 -1.77
-17.01 -28.64 0.58
-16.7 -28.11 1.71
-16.77 -28.24 2.87
-5.99 -10.08 -1.86
-16.93 -28.51 4.07
-8.03 -13.52 -1.93
-16.91 -28.46 5.24
-15 -25.25 -2.57
-16.9 -28.46 6.43
-16.17 -27.23 -1.66
-14.41 -24.26 6.51
-16.2 -27.27 -0.55
-16.95 -28.54 8.89
-3.4 -5.68 -1.77
-17.19 -28.71 0.58
-16.86 -28.15 1.72
-16.6 -27.72 2.83
-6.03 -10.07 -1.86
-16.96 -28.32 4.05
-8.09 -13.51 -1.93
-17.12 -28.59 5.28
-15.23 -25.44 -2.59
-16.88 -28.19 6.39
-16.4 -27.39 -1.67
-17.07 -28.52 7.67
-16.27 -27.18 -0.55
-17.08 -28.52 8.91
-3.42 -5.67 -1.77
-17.17 -28.44 0.58
-16.98 -28.13 1.72
-16.69 -27.66 2.83
-6.06 -10.05 -1.86
-17.07 -28.29 4.06
-8.16 -13.52 -1.94
-17.22 -28.54 5.28
-15.12 -25.06 -2.56
-16.99 -28.15 6.39
-16.62 -27.54 -1.69
-17.23 -28.55 7.7
-16.32 -27.05 -0.55
-17.22 -28.53 8.93
-3.44 -5.65 -1.77
-17.27 -28.39 0.58
-17.11 -28.14 1.73
-17.35 -28.52 2.92
-6.11 -10.04 -1.86
-17.28 -28.41 4.08
-8.21 -13.49 -1.94
-17.34 -28.51 5.28
-15.23 -25.03 -2.56
-17.06 -28.05 6.38
-16.76 -27.55 -1.69
-17.4 -28.61 7.73
-16.39 -26.94 -0.55
-17.61 -28.96 9.08
-3.46 -5.64 -1.77
-17.38 -28.35 0.58
-17.1 -27.89 1.71
-17.13 -27.94 2.87
-6.14 -10.01 -1.86
-17.48 -28.51 4.11
-8.27 -13.49 -1.94
-17.56 -28.64 5.32
-15.29 -24.93 -2.56
-17.97 -29.31 6.68
-17.2 -28.05 -1.72
-15.15 -24.71 6.69
-16.44 -26.81 -0.55
-17.81 -29.06 9.13
-3.48 -5.63 -1.77
-17.49 -28.3 0.58
-17.15 -27.75 1.71
-17.54 -28.38 2.92
-6.17 -9.98 -1.86
-18.82 -30.47 4.4
-8.32 -13.47 -1.94
-17.6 -28.49 5.3
-15.35 -24.85 -2.56
-18.01 -29.14 6.66
-17.26 -27.94 -1.72
-17.85 -28.89 7.84
-17.7 -28.65 -0.59
-18.05 -29.21 9.2
-3.5 -5.63 -1.78
-17.58 -28.25 0.58
-17.22 -27.66 1.71
-17.53 -28.16 2.9
-6.2 -9.96 -1.86
-17.62 -28.3 4.09
-8.38 -13.47 -1.95
-19.11 -30.7 5.73
-15.46 -24.83 -2.56
-17.74 -28.49 6.52
-17.26 -27.73 -1.71
-17.94 -28.83 7.84
-16.87 -27.11 -0.56
-17.08 -27.45 8.66
-3.52 -5.62 -1.78
-16.55 -26.39 0.54
-17.02 -27.14 1.68
-17.7 -28.21 2.91
-6.24 -9.95 -1.86
-17.68 -28.19 4.09
-8.46 -13.48 -1.95
-19.08 -30.42 5.69
-15.51 -24.73 -2.55
-18.05 -28.78 6.6
-17.37 -27.69 -1.71
-17.84 -28.44 7.75
-17 -27.11 -0.56
-17.95 -28.61 9.05
-3.54 -5.6 -1.78
-16.65 -26.34 0.54
-17.04 -26.97 1.67
-17.73 -28.06 2.9
-6.28 -9.93 -1.86
-18.42 -29.15 4.23
-8.54 -13.51 -1.96
-23.1 -36.56 6.85
-15.63 -24.74 -2.56
-18.11 -28.66 6.59
-17.54 -27.75 -1.72
-17.82 -28.2 7.7
-17.13 -27.11 -0.56
-18.14 -28.71 9.1
-3.56 -5.59 -1.77
-19.3 -30.31 0.63
-17.22 -27.04 1.68
-17.77 -27.91 2.89
-6.31 -9.91 -1.86
-18.48 -29.02 4.22
-8.54 -13.41 -1.95
-18.53 -29.09 5.46
-15.7 -24.66 -2.56
-18.12 -28.46 6.56
-17.66 -27.73 -1.72
-18.04 -28.33 7.75
-17.94 -28.17 -0.58
-18.5 -29.06 9.23
-3.58 -5.57 -1.77
-19.41 -30.25 0.63
-17.36 -27.05 1.68
-18.16 -28.3 2.94
-6.34 -9.88 -1.86
-18.33 -28.57 4.17
-8.59 -13.39 -1.95
-18.38 -28.63 5.39
-15.8 -24.61 -2.56
-17.95 -27.98 6.46
-17.77 -27.68 -1.72
-18.08 -28.18 7.73
-18.14 -28.27 -0.59
-18.46 -28.77 9.16
-3.6 -5.57 -1.78
-19.54 -30.22 0.63
-16.55 -25.59 1.6
-18.56 -28.7 2.99
-6.38 -9.86 -1.86
-18.41 -28.47 4.16
-8.66 -13.39 -1.96
-18.36 -28.39 5.35
-15.71 -24.29 -2.53
-18.06 -27.93 6.47
-17.87 -27.63 -1.72
-18.12 -28.02 7.7
-18.14 -28.06 -0.58
-18.62 -28.8 9.19
-3.62 -5.56 -1.78
-19.68 -30.21 0.63
-16.65 -25.57 1.6
-18.63 -28.6 2.99
-6.41 -9.85 -1.86
-18.54 -28.46 4.17
-8.68 -13.32 -1.95
-18.42 -28.28 5.34
-15.92 -24.44 -2.55
-18.17 -27.89 6.47
-18.05 -27.71 -1.73
-18.24 -28 7.72
-18.23 -27.98 -0.58
-18.64 -28.61 9.15
-3.64 -5.55 -1.78
-20.23 -30.82 0.64
-16.79 -25.57 1.6
-20.18 -30.75 3.22
-6.45 -9.83 -1.86
-18.65 -28.41 4.17
-8.64 -13.16 -1.93
-18.07 -27.54 5.22
-16 -24.38 -2.55
-18.27 -27.84 6.47
-17.7 -26.97 -1.69
-18.33 -27.93 7.71
-18.29 -27.86 -0.58
-18.72 -28.51 9.14
-3.66 -5.53 -1.78
-18.17 -27.47 0.57
-17.72 -26.8 1.68
-20.4 -30.84 3.24
-6.49 -9.81 -1.86
-18.76 -28.36 4.18
-8.69 -13.14 -1.93
-18.17 -27.47 5.22
-16.14 -24.4 -2.56
-18.46 -27.91 6.5
-18.32 -27.7 -1.74
-26.64 -40.27 11.15
-18.4 -27.82 -0.58
-18.65 -28.2 9.06
-3.68 -5.52 -1.78
-18.64 -27.97 0.59
-17.89 -26.85 1.69
-19.04 -28.57 3
-6.52 -9.78 -1.86
-19 -28.52 4.21
-8.74 -13.12 -1.94
-18.25 -27.38 5.21
-16.07 -24.11 -2.54
-18.67 -28.01 6.54
-18.4 -27.61 -1.74
-18.69 -28.05 7.78
-18.56 -27.85 -0.58
-18.69 -28.04 9.03
-3.7 -5.51 -1.78
-18.71 -27.87 0.59
-19.14 -28.51 1.8
-18.98 -28.27 2.98
-6.55 -9.76 -1.86
-18.92 -28.17 4.17
-8.81 -13.12 -1.94
-18.28 -27.22 5.19
-16.22 -24.16 -2.55
-18.84 -28.06 6.57
-20.14 -30 -1.89
-18.81 -28.02 7.79
-18.71 -27.87 -0.59
-21.58 -32.14 10.37
-3.72 -5.5 -1.78
-17.92 -26.49 0.56
-19.1 -28.23 1.79
-19.08 -28.2 2.98
-6.59 -9.74 -1.86
-19.03 -28.13 4.17
-8.85 -13.08 -1.94
-18.28 -27.03 5.17
-16.33 -24.14 -2.55
-21.02 -31.07 7.29
-18.86 -27.88 -1.76
-18.51 -27.36 7.63
-18.79 -27.77 -0.59
-21.93 -32.42 10.49
-3.74 -5.49 -1.78
-17.46 -25.61 0.54
-17.3 -25.37 1.61
-17.58 -25.8 2.73
-6.62 -9.72 -1.86
-19.2 -28.17 4.19
-8.9 -13.05 -1.94
-17.97 -26.36 5.05
-16.1 -23.62 -2.5
-21.7 -31.84 7.49
-17.7 -25.96 -1.65
-27.5 -40.34 11.27
-18.25 -26.77 -0.57
-21.55 -31.62 10.25
-3.76 -5.47 -1.78
-18.24 -26.57 0.56
-19.55 -28.47 1.81
-19.49 -28.37 3.01
-6.66 -9.69 -1.86
-19.32 -28.13 4.19
-8.96 -13.05 -1.94
-18.64 -27.15 5.22
-16.63 -24.21 -2.57
-21.84 -31.79 7.5
-17.79 -25.9 -1.65
-18.25 -26.58 -0.56
-21.74 -31.66 10.29
-3.8 -5.49 -1.79
-21.08 -30.49 0.65
-19.63 -28.39 1.81
-17.68 -25.57 2.72
-6.68 -9.66 -1.86
-17.65 -25.52 3.81
-9.03 -13.06 -1.95
-17.54 -25.36 4.88
-16.68 -24.13 -2.57
-21.54 -31.16 7.36
-17.94 -25.94 -1.65
-22.03 -31.87 8.94
-18.25 -26.4 -0.56
-22.13 -32.01 10.43
-3.83 -5.5 -1.8
-18.56 -26.64 0.57
-20.02 -28.75 1.84
-21.25 -30.51 3.25
-6.72 -9.65 -1.86
-19.59 -28.12 4.21
-9.09 -13.04 -1.95
-18.98 -27.25 5.26
-16.8 -24.12 -2.57
-21.65 -31.08 7.36
-18.46 -26.5 -1.69
-22.16 -31.82 8.95
-18.36 -26.36 -0.56
-22.03 -31.62 10.33
-3.83 -5.46 -1.79
-18.89 -26.92 0.57
-20.18 -28.77 1.84
-18.11 -25.82 2.76
-6.75 -9.63 -1.86
-21.61 -30.81 4.62
-9.12 -13 -1.95
-19.65 -28.01 5.42
-16.89 -24.07 -2.57
-21.77 -31.04 7.37
-17.97 -25.62 -1.64
-22.32 -31.82 8.97
-18.21 -25.96 -0.55
-21.98 -31.33 10.26
-3.84 -5.44 -1.78
-19.35 -27.38 0.59
-18.81 -26.62 1.71
-18.24 -25.82 2.77
-6.79 -9.61 -1.86
-20.84 -29.49 4.43
-9.19 -13.01 -1.96
-20.31 -28.73 5.57
-16.98 -24.02 -2.57
-22.23 -31.46 7.49
-19.46 -27.54 -1.77
-19.22 -27.2 7.69
-19.72 -27.91 -0.6
-19.3 -27.31 8.96
-3.86 -5.42 -1.78
-19.81 -27.8 0.6
-19.75 -27.73 1.78
-20.34 -28.55 3.07
-6.82 -9.58 -1.86
-19.57 -27.46 4.14
-9.21 -12.93 -1.95
-22.84 -32.06 6.23
-17.1 -23.99 -2.58
-22.61 -31.74 7.57
-21.92 -30.76 8.72
-19.92 -27.96 -0.6
-19.42 -27.25 8.97
-21.47 -29.92 0.64
-20.71 -28.85 1.86
-18.49 -25.76 2.77
-6.85 -9.55 -1.86
-21.66 -30.17 4.56
-9.3 -12.96 -1.96
-22.81 -31.78 6.2
-17.21 -23.97 -2.58
-18.67 -26.01 6.22
-18.39 -25.63 -1.65
-21.92 -30.54 8.68
-21.51 -29.97 -0.64
-22.74 -31.68 10.45
-21.51 -29.75 0.64
-21.37 -29.55 1.91
-18.57 -25.68 2.77
-6.89 -9.52 -1.86
-22.1 -30.56 4.63
-9.32 -12.89 -1.95
-22.86 -31.61 6.18
-17.28 -23.9 -2.58
-22.67 -31.36 7.52
-19.95 -27.6 -1.78
-19.67 -27.2 7.75
-19.12 -26.45 -0.57
-23.75 -32.85 10.86
-19.06 -26.17 0.57
-18.99 -26.07 1.69
-21.9 -30.07 3.25
-6.92 -9.5 -1.86
-17.78 -24.41 3.71
-9.37 -12.86 -1.95
-22.96 -31.52 6.18
-17 -23.33 -2.53
-22.6 -31.03 7.46
-19.86 -27.26 -1.77
-19.8 -27.19 7.77
-21.85 -29.99 -0.65
-23.96 -32.9 10.91
-21.86 -29.8 0.65
-19.14 -26.09 1.7
-19 -25.9 2.81
-6.96 -9.49 -1.86
-21.15 -28.83 4.39
-9.41 -12.83 -1.95
-23.74 -32.36 6.36
-17.49 -23.84 -2.59
-19.92 -27.16 6.55
-19.9 -27.13 -1.76
-23.49 -32.02 9.17
-19.5 -26.59 -0.58
-20.42 -27.84 9.25
-20.11 -27.21 0.59
-18.98 -25.69 1.67
-18.54 -25.09 2.73
-6.99 -9.46 -1.86
-19.01 -25.73 3.93
-9.44 -12.78 -1.95
-23.84 -32.26 6.35
-17.56 -23.77 -2.59
-20.03 -27.11 6.55
-19.76 -26.74 -1.74
-23.95 -32.41 9.3
-19.63 -26.56 -0.58
-19.98 -27.05 9.01
-22.94 -30.84 0.67
-22.99 -30.91 2.02
-22.19 -29.83 3.25
-7.02 -9.43 -1.86
-18.86 -25.35 3.88
-9.5 -12.77 -1.95
-20.23 -27.19 5.37
-17.65 -23.73 -2.59
-22.9 -30.78 7.46
-20.4 -27.41 -1.79
-22.8 -30.64 8.82
-22.24 -29.89 -0.65
-20.3 -27.29 9.11
-4.03 -5.37 -1.8
-23.28 -31.07 0.68
-23.1 -30.82 2.02
-22.37 -29.84 3.26
-7.04 -9.4 -1.86
-18.09 -24.13 3.7
-9.51 -12.69 -1.95
-20.31 -27.09 5.36
-17.27 -23.05 -2.52
-23.46 -31.3 7.6
-22.69 -30.27 -1.98
-22.9 -30.55 8.81
-22.42 -29.92 -0.65
-20.26 -27.03 9.05
-4.04 -5.35 -1.8
-29.87 -39.58 0.87
-23.36 -30.96 2.03
-18.07 -23.95 2.63
-7.08 -9.38 -1.86
-20.58 -27.27 4.2
-9.51 -12.6 -1.94
-18.47 -24.47 4.86
-17.37 -23.02 -2.52
-23.05 -30.55 7.44
-24.68 -32.7 -2.15
-20.35 -26.97 7.8
-22.45 -29.75 -0.65
-20.36 -26.98 9.06
-4.05 -5.33 -1.79
-20.43 -26.88 0.59
-26.88 -35.36 2.33
-22.77 -29.96 3.29
-7.11 -9.35 -1.86
-20.61 -27.11 4.18
-9.57 -12.6 -1.94
-23.22 -30.55 6.08
-17.45 -22.96 -2.52
-20.43 -26.88 6.56
-22.99 -30.25 -1.99
-19.34 -25.45 7.38
-22.53 -29.63 -0.65
-25.2 -33.16 11.16
-4.06 -5.3 -1.79
-19.61 -25.61 0.56
-25.1 -32.77 2.16
-22.94 -29.95 3.3
-7.15 -9.33 -1.86
-20.57 -26.86 4.15
-9.63 -12.57 -1.94
-18.99 -24.79 4.95
-17.46 -22.79 -2.51
-23.91 -31.22 7.64
-20.85 -27.22 -1.8
-25.19 -32.89 9.57
-24.99 -32.63 -0.72
-25.18 -32.87 11.09
-4.08 -5.29 -1.79
-20.48 -26.55 0.59
-25.15 -32.6 2.16
-20.72 -26.86 2.97
-7.17 -9.29 -1.86
-23.45 -30.39 4.71
-9.68 -12.54 -1.95
-24.44 -31.68 6.34
-17.53 -22.72 -2.51
-23.97 -31.07 7.63
-19.17 -24.85 -1.64
-21.01 -27.23 7.94
-4.1 -5.28 -1.79
-20.07 -25.84 0.57
-20.83 -26.81 1.78
-21.02 -27.06 3
-7.2 -9.27 -1.86
-23.57 -30.34 4.72
-9.7 -12.49 -1.94
-25.39 -32.69 6.56
-17.9 -23.04 -2.55
-24.08 -31 7.63
-21.45 -27.61 -1.83
-21.31 -27.43 8.02
-21.18 -27.27 -0.6
-24.91 -32.07 10.88
-4.12 -5.26 -1.79
-20.18 -25.8 0.57
-21.22 -27.12 1.8
-22.12 -28.27 3.14
-7.23 -9.24 -1.86
-18.66 -23.85 3.72
-9.75 -12.46 -1.94
-24.72 -31.59 6.35
-17.77 -22.71 -2.52
-24.21 -30.94 7.64
-20.99 -26.83 -1.79
-20.89 -26.7 7.83
-20.97 -26.81 -0.59
-27.6 -35.28 12
-4.14 -5.25 -1.79
-20.27 -25.72 0.57
-21.29 -27.02 1.8
-20.59 -26.12 2.91
-7.27 -9.23 -1.86
-18.67 -23.69 3.7
-9.79 -12.42 -1.94
-24.58 -31.19 6.29
-17.98 -22.81 -2.54
-24.36 -30.92 7.65
-23.39 -29.68 -1.98
-17.73 -22.49 6.61
-22.84 -28.99 -0.64
-20.61 -26.15 8.92
-4.15 -5.22 -1.79
-21.48 -27.06 0.6
-23.51 -29.62 1.98
-20.63 -26 2.9
-7.3 -9.2 -1.86
-18.86 -23.76 3.72
-9.82 -12.38 -1.94
-24.66 -31.06 6.28
-17.98 -22.65 -2.53
-24.53 -30.91 7.67
-23.61 -29.74 -1.99
-21.33 -26.87 7.92
-24 -30.24 -0.67
-24.98 -31.47 10.76
-4.17 -5.21 -1.79
-21.56 -26.98 0.6
-23.53 -29.44 1.98
-23.76 -29.73 3.33
-7.32 -9.16 -1.86
-9.86 -12.34 -1.94
-25.25 -31.6 6.41
-18.13 -22.68 -2.54
-24.8 -31.04 7.72
-24.25 -30.35 -2.04
-27.83 -34.82 10.29
-24.6 -30.78 -0.69
-25.07 -31.37 10.76
-4.19 -5.2 -1.79
-24.69 -30.68 0.69
-23.6 -29.32 1.97
-23.85 -29.63 3.33
-7.35 -9.14 -1.86
-25.02 -31.09 4.9
-9.9 -12.3 -1.94
-25.33 -31.47 6.4
-18.25 -22.67 -2.55
-25 -31.07 7.75
-24.74 -30.73 -2.07
-25.07 -31.15 9.23
-21.78 -27.06 -0.61
-4.21 -5.19 -1.79
-24.79 -30.58 0.69
-19.46 -24 2.7
-7.39 -9.12 -1.86
-25.09 -30.95 4.89
-9.93 -12.25 -1.94
-25.39 -31.32 6.39
-18.24 -22.51 -2.53
-21.92 -27.04 6.77
-22.01 -27.15 -1.83
-21.93 -27.05 8.04
-21.89 -27 -0.61
-21.95 -27.07 9.34
-4.22 -5.17 -1.79
-24.81 -30.39 0.68
-33.72 -41.31 2.79
-19.47 -23.85 2.69
-7.43 -9.1 -1.86
-25.22 -30.89 4.9
-9.98 -12.22 -1.94
-22.16 -27.14 5.55
-18.42 -22.57 -2.55
-22.03 -26.98 6.77
-22.06 -27.02 -1.83
-25.3 -30.98 9.23
-27.11 -33.2 11.48
-4.24 -5.15 -1.79
-24.62 -29.94 0.68
-22.82 -27.76 1.88
-19.6 -23.83 2.7
-7.45 -9.06 -1.86
-20.43 -24.85 3.95
-10.02 -12.18 -1.94
-22.27 -27.08 5.55
-18.48 -22.48 -2.55
-25.09 -30.52 7.68
-22.18 -26.97 -1.83
-26.37 -32.07 9.59
-21.88 -26.61 -0.6
-26.67 -32.43 11.25
-4.26 -5.15 -1.79
-24.72 -29.84 0.68
-22.95 -27.71 1.89
-20.6 -24.88 2.83
-7.48 -9.03 -1.86
-20.48 -24.73 3.94
-10.07 -12.16 -1.94
-20.41 -24.65 5.07
-18.25 -22.04 -2.5
-25.22 -30.46 7.69
-32.34 -39.05 -2.66
-22.01 -26.58 -0.6
-4.27 -5.13 -1.79
-21.1 -25.32 0.58
-20.85 -25.02 1.71
-20.68 -24.81 2.83
-7.51 -9.01 -1.86
-20.53 -24.63 3.94
-10.09 -12.11 -1.94
-20.48 -24.58 5.07
-18.45 -22.14 -2.52
-20.13 -24.15 6.11
-21.53 -25.83 -1.76
-20.41 -24.48 7.36
-26.33 -31.59 11.02
-4.3 -5.12 -1.79
-21.15 -25.2 0.57
-20.93 -24.94 1.71
-20.84 -24.83 2.84
-7.54 -8.99 -1.86
-26.07 -31.06 4.98
-10.1 -12.03 -1.93
-20.6 -24.54 5.07
-18.45 -21.99 -2.51
-20.49 -24.41 6.19
-21.65 -25.79 -1.76
-20.51 -24.44 7.37
-20.44 -24.35 8.52
-4.32 -5.11 -1.79
-21.26 -25.15 0.57
-25.49 -30.15 2.07
-19.9 -23.54 2.7
-7.58 -8.96 -1.86
-20.7 -24.49 3.94
-10.06 -11.89 -1.91
-22.67 -26.81 5.56
-18.37 -21.73 -2.49
-26.33 -31.14 7.93
-21.42 -25.33 -1.74
-29.04 -34.35 10.38
-21.55 -25.49 -0.58
-20.53 -24.28 8.52
-4.33 -5.09 -1.79
-24.41 -28.68 0.66
-7.61 -8.94 -1.86
-25.78 -30.28 4.88
-10.1 -11.86 -1.91
-22.74 -26.71 5.56
-18.64 -21.9 -2.52
-26.38 -30.99 7.91
-21.81 -25.62 -1.76
-19.4 -22.79 6.91
-21.62 -25.4 -0.58
-26.22 -30.8 10.84
-4.35 -5.08 -1.79
-25.61 -29.87 0.69
-25.95 -30.27 2.09
-29.58 -34.5 3.98
-7.63 -8.9 -1.86
-25.98 -30.3 4.9
-10.09 -11.77 -1.9
-22.84 -26.63 5.56
-18.69 -21.8 -2.51
-27.54 -32.12 8.23
-21.98 -25.64 -1.77
-20.59 -24.01 7.3
-21.76 -25.37 -0.58
-26.29 -30.66 10.82
-4.37 -5.06 -1.79
-25.73 -29.8 0.69
-25.94 -30.04 2.08
-29.54 -34.21 3.95
-7.67 -8.88 -1.86
-29.49 -34.15 5.54
-10.09 -11.68 -1.9
-26.85 -31.1 6.51
-18.56 -21.5 -2.48
-20.27 -23.47 6.03
-22.05 -25.54 -1.77
-25.67 -29.72 -0.69
-21.2 -24.55 8.69
-4.39 -5.05 -1.79
-29.63 -34.07 0.79
-25.92 -29.8 2.07
-29.67 -34.12 3.96
-7.7 -8.85 -1.86
-26.29 -30.23 4.92
-10.13 -11.65 -1.9
-20.75 -23.87 5.01
-18.78 -21.6 -2.5
-22.97 -26.41 6.8
-22.19 -25.51 -1.77
-29.61 -34.05 10.42
-29.63 -34.07 -0.79
-4.41 -5.03 -1.79
-23.83 -27.21 0.63
-27.5 -31.41 3.65
-7.73 -8.83 -1.86
-26.58 -30.35 4.95
-10.17 -11.61 -1.9
-26.81 -30.61 6.44
-18.9 -21.58 -2.51
-22.39 -25.56 -1.78
-30.01 -34.27 10.52
-25.17 -28.74 -0.67
-29.11 -33.24 11.84
-4.42 -5.01 -1.79
-23.93 -27.14 0.63
-7.76 -8.81 -1.86
-23.38 -26.52 4.34
-10.25 -11.63 -1.9
-26.92 -30.54 6.45
-18.62 -21.12 -2.46
-19.58 -22.2 5.75
-24.47 -27.76 -1.94
-28.14 -31.92 9.82
-29.18 -33.09 11.82
-4.44 -5 -1.79
-26.32 -29.64 0.69
-26.79 -30.18 3.53
-7.79 -8.78 -1.86
-23.46 -26.42 4.34
-10.32 -11.63 -1.91
-27.15 -30.59 6.48
-18.71 -21.08 -2.47
-19.85 -22.36 5.81
-24.41 -27.5 -1.93
-22.13 -24.93 7.7
-25.01 -28.17 -0.66
-20.66 -23.27 8.34
-4.46 -4.99 -1.79
-26.98 -30.17 3.54
-7.83 -8.75 -1.86
-23.56 -26.36 4.34
-10.35 -11.57 -1.91
-18.88 -21.11 -2.48
-28.55 -31.93 9.89
-25.1 -28.07 -0.66
-18.72 -20.94 7.53
-4.48 -4.97 -1.79
-25.11 -27.89 0.66
-5.22 -5.8 -1.8
-31.57 -35.06 2.47
-27.18 -30.19 3.55
-7.86 -8.73 -1.86
-27.02 -30.01 4.96
-10.36 -11.51 -1.9
-27.39 -30.42 6.48
-19.13 -21.25 -2.5
-30.39 -33.75 10.48
-18.19 -20.2 7.28
-4.5 -4.96 -1.79
-5.24 -5.77 -1.8
-31.63 -34.88 2.47
-27.2 -30 3.54
-7.9 -8.71 -1.86
-29.45 -32.48 5.38
-10.41 -11.48 -1.9
-24.11 -26.59 5.69
-19.13 -21.1 -2.49
-31.11 -34.31 9
-22.92 -25.27 -1.79
-19.63 -21.65 6.75
-18.52 -20.42 7.39
-4.51 -4.94 -1.79
-5.26 -5.76 -1.8
-31.7 -34.71 2.46
-27.33 -29.93 3.55
-7.94 -8.69 -1.86
-21.94 -24.03 4
-10.46 -11.46 -1.91
-32.01 -35.05 7.52
-19.09 -20.91 -2.48
-31.13 -34.09 8.97
-24.73 -27.09 -1.92
-19.45 -21.3 6.66
-18.49 -20.25 7.35
-4.53 -4.92 -1.79
-5.28 -5.74 -1.8
-31.78 -34.56 2.46
-27.54 -29.95 3.56
-7.96 -8.66 -1.86
-31.79 -34.57 5.77
-10.52 -11.45 -1.91
-32.12 -34.93 7.52
-19.13 -20.8 -2.47
-24.73 -26.9 -1.92
-30.81 -33.5 10.51
-26.07 -28.35 -0.67
-4.55 -4.91 -1.79
-5.29 -5.72 -1.8
-26.92 -29.08 2.08
-24.25 -26.19 3.12
-8 -8.64 -1.87
-31.88 -34.42 5.76
-10.56 -11.4 -1.91
-27.79 -30.01 6.48
-17.29 -18.68 -2.23
-23.76 -25.66 -1.83
-24.73 -26.71 -0.64
-20.47 -22.1 8.07
-4.57 -4.9 -1.79
-32.7 -35.06 0.84
-5.32 -5.7 -1.8
-32.06 -34.38 2.46
-24.33 -26.09 3.12
-8.03 -8.61 -1.87
-24.62 -26.4 4.43
-10.59 -11.36 -1.91
-27.87 -29.89 6.47
-17.34 -18.6 -2.22
-31.37 -33.64 8.94
-23.79 -25.51 -1.83
-24.82 -26.62 -0.64
-4.58 -4.88 -1.79
-34.79 -37.04 0.89
-5.34 -5.69 -1.8
-33.34 -35.51 2.55
-24.47 -26.06 3.13
-8.07 -8.59 -1.87
-27.85 -29.65 4.99
-10.62 -11.31 -1.9
-27.91 -29.72 6.46
-24.87 -26.49 -1.9
-20.21 -21.52 6.82
-31.01 -33.02 12.14
-4.6 -4.86 -1.79
-32.91 -34.82 0.84
-5.37 -5.68 -1.8
-34.21 -36.19 2.61
-27.99 -29.61 3.56
-8.1 -8.57 -1.87
-27.97 -29.59 5
-10.61 -11.22 -1.9
-28.05 -29.67 6.47
-25.16 -26.61 -1.92
-25.65 -27.13 8.62
-25.1 -26.55 9.79
-4.61 -4.85 -1.79
-32.15 -33.77 0.81
-5.4 -5.67 -1.81
-27.84 -29.25 2.12
-28.27 -29.69 3.59
-8.12 -8.53 -1.87
-28.09 -29.51 5
-10.61 -11.15 -1.89
-28.42 -29.85 6.53
-25.27 -26.54 -1.92
-26.41 -27.75 -0.67
-19.73 -20.72 7.67
-4.63 -4.83 -1.79
-32.52 -33.92 0.82
-5.42 -5.65 -1.81
-27.74 -28.94 2.1
-28.29 -29.51 3.58
-8.15 -8.5 -1.87
-28.16 -29.38 5
-10.72 -11.18 -1.9
-29.57 -30.85 6.77
-16.62 -17.33 -2.1
-25.26 -26.35 -1.91
-28.2 -29.42 9.41
-30.71 -32.03 -0.77
-30.5 -31.81 11.81
-4.65 -4.82 -1.79
-30.73 -31.84 0.77
-5.46 -5.65 -1.81
-27.91 -28.91 2.11
-28.32 -29.33 3.57
-8.19 -8.48 -1.87
-28.34 -29.36 5.01
-10.72 -11.11 -1.9
-29.54 -30.6 6.74
-16.5 -17.09 -2.08
-30.64 -31.74 8.57
-25.33 -26.24 -1.91
-30.67 -31.77 10.2
-30.79 -31.9 -0.77
-20.65 -21.39 7.97
-4.66 -4.8 -1.79
-27.36 -28.15 0.69
-5.46 -5.62 -1.81
-25.15 -25.88 1.89
-28.21 -29.03 3.54
-8.23 -8.47 -1.87
-28.55 -29.37 5.03
-10.84 -11.15 -1.91
-31.54 -32.46 7.17
-16.52 -17 -2.07
-22.32 -22.97 -1.68
-27.99 -28.8 9.27
-30.94 -31.84 -0.77
-28.23 -29.05 10.85
-4.67 -4.77 -1.79
-27.42 -28.02 0.68
-5.48 -5.6 -1.81
-25.24 -25.8 1.89
-28.29 -28.91 3.54
-8.26 -8.44 -1.87
-28.76 -29.39 5.05
-10.87 -11.11 -1.91
-30.03 -30.69 6.8
-16.55 -16.91 -2.07
-25.72 -26.28 -1.93
-28.19 -28.8 9.3
-20.86 -21.31 7.99
-4.69 -4.76 -1.79
-27.56 -27.96 0.69
-5.5 -5.58 -1.81
-25.39 -25.76 1.9
-28.24 -28.65 3.52
-0.74 -0.75 -0.17
-28.79 -29.22 5.04
-10.9 -11.06 -1.91
-30.15 -30.6 6.8
-16.56 -16.8 -2.06
-29.48 -29.91 8.16
-25.72 -26.1 -1.92
-28.39 -28.81 9.34
-4.72 -4.75 -1.79
-27.84 -28.06 0.69
-5.51 -5.55 -1.8
-28.48 -28.7 2.12
-28.36 -28.58 3.52
-0.7 -0.71 -0.16
-29.23 -29.45 5.09
-10.73 -10.81 -1.87
-30.25 -30.48 6.8
-16.61 -16.74 -2.06
-29.44 -29.67 8.13
-25.83 -26.03 -1.92
-21.68 -21.84 7.1
-21.28 -21.44 8.09
-4.73 -4.73 -1.79
-28.08 -28.1 0.69
-5.53 -5.54 -1.81
-28.41 -28.43 2.11
-28.45 -28.47 3.52
-29.34 -29.36 5.1
-10.71 -10.72 -1.86
-30.32 -30.34 6.79
-16.61 -16.63 -2.06
-22.49 -22.5 -1.67
-29.9 -29.92 9.76
-26.26 -26.28 -0.65
-26.19 -26.21 9.93
-4.75 -4.72 -1.79
-28.28 -28.1 0.7
-5.57 -5.53 -1.81
-28.64 -28.46 2.12
-28.54 -28.36 3.52
-29.43 -29.24 5.09
-10.78 -10.71 -1.87
-30.45 -30.26 6.8
-16.65 -16.55 -2.05
-25.73 -25.57 -1.9
-21.51 -21.37 7
-26.23 -26.07 9.91
-4.76 -4.7 -1.79
-25.98 -25.64 0.64
-5.58 -5.51 -1.81
-28.47 -28.09 2.1
-28.6 -28.22 3.51
-28.6 -28.22 4.93
-10.83 -10.69 -1.87
-28.59 -28.21 6.36
-16.62 -16.4 -2.04
-28.66 -28.29 7.83
-31.07 -30.66 -2.29
-28.58 -28.21 9.27
-25.66 -25.33 -0.63
-28.31 -27.94 10.66
-4.77 -4.68 -1.79
-26.05 -25.53 0.64
-5.6 -5.49 -1.81
-28.69 -28.11 2.1
-29.23 -28.65 3.58
-28.76 -28.19 4.94
-11.07 -10.85 -1.9
-31.62 -30.99 7.01
-16.68 -16.34 -2.04
-29.44 -28.85 8.01
-31.05 -30.43 -2.28
-26.73 -26.2 8.64
-25.83 -25.31 -0.63
-29.37 -28.79 11.02
-4.79 -4.67 -1.79
-25.8 -25.11 0.63
-5.62 -5.47 -1.81
-25.93 -25.23 1.9
-29.24 -28.45 3.57
-31.02 -30.18 5.31
-11.09 -10.8 -1.9
-31.06 -30.22 6.86
-16.71 -16.26 -2.04
-29.42 -28.63 7.98
-28.23 -27.47 -2.06
-26.61 -25.9 8.57
-31.09 -30.25 -0.76
-4.81 -4.65 -1.79
-29.17 -28.19 0.71
-5.64 -5.45 -1.81
-25.71 -24.85 1.87
-29.02 -28.04 3.53
-31.08 -30.04 5.31
-11.15 -10.77 -1.9
-31.08 -30.04 6.85
-16.78 -16.21 -2.04
-28.34 -27.39 7.66
-28.09 -27.14 -2.05
-26.79 -25.88 8.6
-31.17 -30.13 -0.76
-22.22 -21.47 8.28
-4.83 -4.63 -1.79
-29.25 -28.08 0.71
-5.67 -5.44 -1.81
-31.29 -30.04 2.27
-31.31 -30.06 3.8
-31.24 -29.99 5.32
-11.18 -10.74 -1.9
-28.31 -27.17 6.21
-16.85 -16.17 -2.04
-29.38 -28.2 7.92
-31.21 -29.97 9.99
-31.33 -30.08 -0.76
-4.84 -4.61 -1.79
-5.69 -5.43 -1.82
-25.64 -24.45 3.1
-29.26 -27.89 4.96
-11.17 -10.65 -1.89
-27.39 -26.11 5.99
-16.92 -16.13 -2.05
-27.06 -25.8 7.27
-27.65 -26.36 -2
-26.57 -25.33 -0.64
-4.85 -4.59 -1.79
-29.61 -28.04 0.71
-5.71 -5.41 -1.82
-31.13 -29.48 2.25
-29.82 -28.23 3.59
-28.44 -26.93 4.81
-11.21 -10.62 -1.9
-17.01 -16.11 -2.05
-27.22 -25.78 7.29
-27.57 -26.11 -1.99
-30.15 -28.55 9.59
-26.82 -25.4 -0.64
-4.87 -4.58 -1.79
-29.78 -28 0.71
-5.72 -5.38 -1.81
-31.06 -29.21 2.23
-28.41 -26.72 3.41
-23.03 -21.66 3.88
-11.28 -10.61 -1.9
-29.28 -27.53 6.37
-17.05 -16.03 -2.05
-26.81 -25.21 -1.93
-30.32 -28.51 9.61
-26.9 -25.3 -0.64
-31.22 -29.36 11.48
-4.9 -4.57 -1.8
-29.86 -27.88 0.71
-5.75 -5.36 -1.81
-28.47 -26.57 2.04
-0.72 -0.68 -0.19
-30.08 -28.08 3.6
-0.74 -0.69 -0.16
-27.79 -25.95 4.67
-11.33 -10.58 -1.9
-27.51 -25.68 5.96
-17.13 -16 -2.05
-33.21 -31 8.83
-26.94 -25.15 -1.93
-30.9 -28.84 9.76
-27.02 -25.22 -0.65
-4.91 -4.55 -1.79
-28.56 -26.47 0.68
-5.76 -5.34 -1.81
-0.73 -0.67 -0.19
-24.95 -23.12 2.98
-0.75 -0.69 -0.16
-29.88 -27.7 5
-11.34 -10.51 -1.9
-27.62 -25.61 5.97
-17.16 -15.9 -2.05
-27.45 -25.44 -1.96
-30.06 -27.87 9.46
-27.21 -25.23 -0.65
-4.92 -4.53 -1.79
-30.06 -27.69 0.71
-5.79 -5.33 -1.82
-31.56 -29.07 2.25
-0.74 -0.68 -0.19
-30.22 -27.84 3.6
-0.75 -0.69 -0.16
-11.41 -10.51 -1.91
-27.88 -25.68 6
-17.23 -15.87 -2.05
-27.68 -25.5 -1.97
-28.66 -26.4 -0.68
-22.72 -20.93 8.28
-4.94 -4.52 -1.79
-30.13 -27.56 0.71
-5.81 -5.31 -1.82
-23.87 -21.83 1.7
-0.74 -0.68 -0.19
-30.28 -27.69 3.59
-0.74 -0.67 -0.16
-27.93 -25.55 4.65
-11.43 -10.45 -1.9
-29.34 -26.84 6.3
-17.26 -15.79 -2.05
-26.72 -24.44 -1.9
-31.93 -29.2 9.99
-26.49 -24.23 -0.63
-22.71 -20.77 8.25
-4.95 -4.5 -1.79
-30.25 -27.46 0.71
-5.83 -5.29 -1.82
-31.26 -28.38 2.21
-0.75 -0.68 -0.2
-30.36 -27.56 3.59
-0.75 -0.68 -0.16
-28.07 -25.48 4.65
-11.48 -10.42 -1.9
-29.44 -26.72 6.3
-17.33 -15.73 -2.05
-26.79 -24.32 -1.9
-31.06 -28.2 9.69
-27.11 -24.6 -0.64
-33.24 -30.17 12.03
-4.98 -4.48 -1.79
-30.45 -27.45 0.72
-5.85 -5.27 -1.82
-31.35 -28.25 2.21
-0.75 -0.68 -0.2
-30.74 -27.71 3.62
-0.77 -0.7 -0.16
-30.76 -27.72 5.08
-11.54 -10.4 -1.91
-29.61 -26.69 6.31
-17.37 -15.66 -2.05
-33.27 -29.99 8.71
-25.91 -23.35 -1.83
-31.19 -28.12 9.7
-26.57 -23.95 -0.62
-32.12 -28.96 11.59
-4.99 -4.47 -1.8
-30.78 -27.56 0.72
-5.87 -5.26 -1.82
-31.45 -28.16 2.21
-0.75 -0.67 -0.2
-28.4 -25.43 3.34
-0.77 -0.69 -0.16
-30.87 -27.64 5.09
-11.59 -10.38 -1.91
-29.63 -26.53 6.3
-17.44 -15.62 -2.05
-31.92 -28.58 8.33
-25.95 -23.23 -1.83
-31.58 -28.28 9.79
-26.56 -23.78 -0.62
-23.02 -20.61 8.28
-5 -4.44 -1.79
-27.11 -24.1 0.63
-5.89 -5.24 -1.82
-0.76 -0.68 -0.2
-28.49 -25.33 3.34
-0.77 -0.68 -0.16
-30.94 -27.51 5.08
-11.65 -10.35 -1.91
-23.8 -21.16 5.04
-17.49 -15.55 -2.05
-31.9 -28.36 8.3
-26.14 -23.24 -1.83
-26.61 -23.66 -0.62
-5.01 -4.43 -1.79
-30.82 -27.21 0.72
-5.91 -5.22 -1.82
-43.62 -38.51 3.05
-0.77 -0.68 -0.2
-30.77 -27.16 3.59
-0.77 -0.68 -0.16
-30.9 -27.28 5.06
-11.72 -10.34 -1.92
-31.58 -27.88 6.67
-17.47 -15.42 -2.04
-31.95 -28.21 8.28
-26.18 -23.11 -1.83
-30.46 -26.89 9.38
-26.99 -23.83 -0.63
-5.03 -4.41 -1.79
-5.93 -5.2 -1.82
-28.89 -25.33 2.01
-0.77 -0.68 -0.2
-31.07 -27.24 3.61
-0.78 -0.68 -0.16
-30.93 -27.12 5.05
-11.76 -10.31 -1.92
-31.66 -27.76 6.67
-17.6 -15.43 -2.05
-26.35 -23.1 -1.84
-30.53 -26.77 9.37
-26.85 -23.54 -0.62
-24.18 -21.19 8.62
-5.06 -4.4 -1.8
-30.88 -26.89 0.71
-5.94 -5.17 -1.82
-28.94 -25.2 2.01
-7.09 -6.18 -1.83
-30.94 -26.94 3.59
-0.78 -0.68 -0.16
-30.85 -26.87 5.02
-11.81 -10.28 -1.92
-31.46 -27.39 6.61
-17.64 -15.36 -2.05
-22.65 -19.72 5.84
-27.28 -23.76 -1.9
-30.74 -26.77 9.41
-26.98 -23.5 -0.62
-31.49 -27.42 11.19
-5.07 -4.38 -1.79
-31.04 -26.84 0.72
-5.96 -5.16 -1.82
-29.06 -25.13 2.01
-7.12 -6.16 -1.83
-31.4 -27.16 3.63
-0.79 -0.68 -0.16
-30.78 -26.61 5
-11.88 -10.27 -1.93
-31.66 -27.37 6.63
-17.67 -15.28 -2.04
-31.88 -27.56 8.19
-26.46 -22.88 -1.83
-30.99 -26.8 9.46
-26.73 -23.11 -0.62
-31.6 -27.33 11.19
-5.07 -4.36 -1.79
-26.46 -22.72 0.61
-5.99 -5.14 -1.82
-26.2 -22.5 1.81
-7.14 -6.13 -1.83
-30.94 -26.56 3.57
-0.79 -0.68 -0.17
-30.91 -26.54 5
-11.95 -10.26 -1.93
-31.72 -27.24 6.62
-17.73 -15.23 -2.04
-27.08 -23.25 -1.87
-31.24 -26.83 9.51
-26.78 -23 -0.62
-5.09 -4.34 -1.79
-26.51 -22.6 0.61
-6 -5.12 -1.82
-7.17 -6.11 -1.83
-25.96 -22.13 2.98
-0.79 -0.67 -0.16
-25.74 -21.94 4.15
-11.99 -10.23 -1.94
-34.37 -29.31 7.15
-17.8 -15.18 -2.05
-32.22 -27.47 8.23
-27 -23.02 -1.86
-24.11 -20.56 7.32
-26.89 -22.93 -0.62
-23.81 -20.3 8.38
-5.11 -4.33 -1.8
-29.53 -25.01 0.68
-6.01 -5.09 -1.82
-26.34 -22.31 1.81
-7.19 -6.09 -1.83
-26.04 -22.05 2.98
-0.8 -0.68 -0.17
-25.78 -21.83 4.15
-12.04 -10.19 -1.94
-25.57 -21.65 5.31
-17.86 -15.13 -2.05
-25.37 -21.48 6.46
-27.05 -22.91 -1.86
-31.31 -26.52 9.47
-27.48 -23.27 -0.63
-5.13 -4.31 -1.79
-26.29 -22.11 0.6
-6.02 -5.07 -1.82
-24.77 -20.83 1.7
-7.2 -6.06 -1.83
-30.76 -25.87 3.52
-0.82 -0.69 -0.17
-25.89 -21.77 4.15
-12.08 -10.16 -1.94
-25.62 -21.55 5.3
-17.9 -15.05 -2.05
-25.39 -21.35 6.45
-27.2 -22.88 -1.86
-25.22 -21.21 7.61
-27.93 -23.49 -0.64
-25 -21.02 8.75
-5.14 -4.3 -1.8
-26.53 -22.16 0.6
-6.04 -5.05 -1.82
-32.02 -26.75 2.19
-7.22 -6.03 -1.83
-30.84 -25.76 3.52
-0.83 -0.69 -0.17
-31.06 -25.94 4.97
-12.12 -10.13 -1.94
-17.99 -15.03 -2.05
-25.5 -21.3 6.46
-27.29 -22.79 -1.86
-25.32 -21.14 7.62
-28.02 -23.4 -0.64
-25.09 -20.96 8.76
-5.16 -4.28 -1.8
-26.6 -22.06 0.6
-6.07 -5.03 -1.82
-32.09 -26.62 2.19
-7.25 -6.02 -1.83
-30.89 -25.63 3.51
-0.83 -0.69 -0.17
-30.97 -25.69 4.94
-12.15 -10.08 -1.94
-32.39 -26.87 6.67
-18.04 -14.96 -2.05
-32.19 -26.71 8.13
-27.2 -22.56 -1.85
-33.49 -27.78 10.05
-28 -23.23 -0.63
-33.36 -27.67 11.61
-5.18 -4.26 -1.8
-32.94 -27.12 0.74
-6.08 -5 -1.82
-32.78 -26.99 2.23
-7.29 -6 -1.84
-30.88 -25.43 3.5
-0.82 -0.67 -0.17
-30.99 -25.52 4.93
-12.19 -10.04 -1.94
-32.72 -26.94 6.71
-18.1 -14.91 -2.05
-32.31 -26.6 8.14
-27.5 -22.64 -1.87
-33.74 -27.78 10.09
-28.03 -23.08 -0.63
-33.68 -27.74 11.69
-5.18 -4.24 -1.79
-25.76 -21.06 0.58
-6.09 -4.98 -1.82
-0.86 -0.7 -0.22
-30.92 -25.29 3.49
-0.84 -0.69 -0.17
-31.06 -25.4 4.93
-12.24 -10.01 -1.94
-32.49 -26.57 6.65
-18.22 -14.9 -2.06
-32.57 -26.63 8.18
-28.02 -22.92 -1.9
-33.78 -27.62 10.07
-27.29 -22.32 -0.62
-38.18 -31.23 13.22
-5.21 -4.23 -1.8
-32.99 -26.78 0.74
-6.11 -4.96 -1.82
-0.87 -0.71 -0.22
-25.77 -20.92 2.9
-0.84 -0.68 -0.17
-12.27 -9.96 -1.94
-24.04 -19.52 4.9
-18.29 -14.85 -2.06
-32.65 -26.5 8.17
-28.14 -22.84 -1.9
-33.9 -27.52 10.08
-38.17 -30.98 13.17
-5.22 -4.21 -1.8
-32 -25.79 0.72
-6.12 -4.94 -1.82
-0.89 -0.72 -0.22
-25.76 -20.77 2.9
-0.86 -0.69 -0.17
-23.72 -19.12 3.74
-12.31 -9.93 -1.94
-26.49 -21.36 5.39
-18.32 -14.77 -2.06
-32.73 -26.38 8.17
-27.88 -22.47 -1.88
-34.03 -27.43 10.09
-28.29 -22.81 -0.63
-5.24 -4.19 -1.8
-33.78 -27.03 0.76
-6.15 -4.92 -1.82
-32.2 -25.77 2.16
-0.91 -0.73 -0.23
-26.31 -21.05 2.95
-0.86 -0.69 -0.17
-33.31 -26.66 5.24
-12.35 -9.88 -1.94
-26.58 -21.28 5.39
-18.37 -14.7 -2.06
-32.74 -26.2 8.15
-27.97 -22.38 -1.88
-27.24 -21.8 -0.61
-5.25 -4.17 -1.8
-33.89 -26.93 0.76
-6.17 -4.9 -1.82
-33.5 -26.62 2.24
-0.91 -0.72 -0.23
-25.83 -20.53 2.89
-0.87 -0.69 -0.18
-32.56 -25.87 5.11
-12.39 -9.85 -1.94
-26.71 -21.22 5.4
-18.44 -14.65 -2.06
-23.57 -18.74 5.85
-28.07 -22.31 -1.88
-39.07 -31.05 13.37
-5.27 -4.16 -1.8
-34 -26.83 0.76
-6.17 -4.87 -1.81
-33.61 -26.53 2.24
-0.92 -0.73 -0.23
-25.9 -20.44 2.89
-0.87 -0.68 -0.17
-12.43 -9.81 -1.94
-34.78 -27.45 7.02
-18.55 -14.64 -2.07
-28.26 -22.3 -1.89
-39.15 -30.89 11.51
-39.31 -31.02 -0.87
-5.28 -4.14 -1.8
-42.23 -33.09 0.94
-6.19 -4.85 -1.82
-0.91 -0.71 -0.23
-24.87 -19.49 2.76
-0.88 -0.69 -0.18
-12.46 -9.77 -1.94
-35.08 -27.49 7.06
-18.62 -14.59 -2.07
-36.54 -28.64 9.02
-31.75 -24.88 -2.11
-38.12 -29.87 11.18
-5.3 -4.12 -1.8
-6.2 -4.82 -1.81
-25.8 -20.07 1.71
-0.91 -0.71 -0.22
-23.68 -18.42 2.63
-0.89 -0.69 -0.18
-23.91 -18.6 3.72
-12.51 -9.73 -1.95
-33.88 -26.35 6.8
-18.64 -14.5 -2.07
-24.32 -18.92 5.99
-31.66 -24.63 -2.1
-37.96 -29.53 11.1
-24.81 -19.3 8.42
-5.31 -4.1 -1.8
-6.22 -4.8 -1.81
-0.9 -0.7 -0.22
-0.9 -0.69 -0.18
-24.02 -18.56 3.73
-12.55 -9.69 -1.95
-36.73 -28.37 7.35
-13.93 -10.76 -1.54
-37.58 -29.03 9.23
-13.93 -10.76 -0.92
-37.76 -29.17 11.02
-36.48 -28.18 -0.8
-34.99 -27.03 11.85
-5.32 -4.08 -1.8
-26.93 -20.66 0.59
-6.24 -4.79 -1.82
-26.22 -20.12 1.73
-0.94 -0.72 -0.23
-23.7 -18.19 2.61
-0.9 -0.69 -0.18
-12.59 -9.66 -1.95
-36.93 -28.34 7.37
-13.95 -10.7 -1.54
-13.95 -10.71 -0.92
-25.22 -19.35 7.34
-5.34 -4.07 -1.8
-33.51 -25.53 0.74
-6.24 -4.76 -1.81
-26.07 -19.86 1.72
-0.95 -0.72 -0.23
-0.91 -0.7 -0.18
-12.63 -9.62 -1.95
-14 -10.67 -1.54
-23.45 -17.87 5.73
-25.39 -19.35 7.37
-5.36 -4.05 -1.8
-36.46 -27.57 0.8
-6.26 -4.73 -1.81
-24.17 -18.27 1.59
-0.96 -0.72 -0.23
-0.92 -0.69 -0.18
-43.67 -33.02 6.72
-12.67 -9.58 -1.95
-37.35 -28.23 7.42
-18.24 -13.79 -2
-40.71 -30.78 -2.67
-25.06 -18.95 7.25
-25 -18.9 8.4
-5.37 -4.03 -1.8
-6.28 -4.72 -1.81
-0.96 -0.72 -0.23
-41.06 -30.82 4.49
-0.94 -0.7 -0.19
-41.09 -30.84 6.31
-12.69 -9.53 -1.95
-37.49 -28.15 7.43
-19.06 -14.31 -2.09
-30.11 -22.6 -1.97
-25.11 -18.85 7.25
-37.44 -28.11 12.54
-5.38 -4.01 -1.8
-27.64 -20.6 0.6
-6.3 -4.7 -1.81
-24.23 -18.06 1.58
-0.97 -0.72 -0.24
-25.66 -19.12 2.8
-0.94 -0.7 -0.19
-43.9 -32.71 6.72
-12.74 -9.5 -1.95
-35.94 -26.78 7.1
-19.27 -14.36 -2.1
-41.18 -30.68 -2.69
-37.27 -27.77 10.73
-33.7 -25.11 -0.73
-37.54 -27.97 12.54
-5.39 -3.99 -1.8
-6.32 -4.68 -1.82
-0.97 -0.72 -0.24
-23.65 -17.5 2.57
-0.94 -0.7 -0.19
-12.79 -9.46 -1.95
-35.97 -26.61 7.09
-19.37 -14.33 -2.11
-37.25 -27.56 10.7
-5.41 -3.98 -1.8
-39.7 -29.16 0.86
-6.32 -4.65 -1.81
-0.99 -0.73 -0.24
-24.43 -17.95 2.65
-0.96 -0.7 -0.19
-39.65 -29.13 6.04
-12.82 -9.42 -1.95
-25.33 -18.6 4.98
-18.67 -13.71 -2.03
-39.68 -29.15 -2.58
-37.7 -27.69 10.8
-39.73 -29.18 -0.86
-5.43 -3.96 -1.8
-39.76 -29 0.86
-6.34 -4.62 -1.81
-26.61 -19.41 1.73
-0.99 -0.72 -0.24
-39.73 -28.98 4.3
-0.96 -0.7 -0.19
-12.84 -9.37 -1.95
-36.29 -26.47 7.11
-19.33 -14.1 -2.09
-31.3 -22.83 -2.03
-23.76 -17.33 6.79
-35.43 -25.84 11.75
-5.44 -3.94 -1.8
-35.97 -26.05 0.78
-6.37 -4.61 -1.81
-0.98 -0.71 -0.24
-41.17 -29.81 4.45
-0.97 -0.7 -0.19
-12.88 -9.33 -1.95
-26.25 -19.01 5.13
-19.36 -14.02 -2.09
-36.62 -26.52 10.44
-42.19 -30.55 -0.91
-35.5 -25.71 11.74
-5.45 -3.92 -1.8
-43.76 -31.46 0.94
-6.39 -4.59 -1.82
-1 -0.72 -0.24
-0.97 -0.7 -0.19
-12.92 -9.29 -1.95
-35.1 -25.23 6.85
-19.42 -13.96 -2.09
-34.43 -24.76 -2.22
-35.67 -25.65 11.77
-5.47 -3.9 -1.8
-43.93 -31.35 0.94
-6.4 -4.57 -1.82
-43.84 -31.28 2.82
-1.01 -0.72 -0.24
-0.97 -0.69 -0.19
-12.98 -9.26 -1.96
-35.22 -25.13 6.85
-19.57 -13.96 -2.1
-33.08 -23.61 -2.13
-26.39 -18.83 7.48
-36.15 -25.79 11.9
-5.49 -3.89 -1.8
-6.41 -4.54 -1.81
-36.08 -25.56 2.32
-1.02 -0.72 -0.24
-0.97 -0.69 -0.19
-13.04 -9.23 -1.96
-35.37 -25.05 6.87
-19.66 -13.92 -2.11
-40.29 -28.54 9.6
-30.01 -21.26 -1.93
-37.45 -26.53 10.6
-5.51 -3.87 -1.8
-6.42 -4.52 -1.81
-1.02 -0.71 -0.24
-0.98 -0.69 -0.19
-43.98 -30.92 6.6
-1.03 -0.73 -0.16
-37.29 -26.22 7.22
-18.88 -13.27 -2.02
-24.01 -16.88 5.7
-36.8 -25.87 12.05
-5.52 -3.85 -1.8
-36.05 -25.16 0.77
-6.44 -4.5 -1.81
-1.01 -0.71 -0.24
-44.44 -31.01 4.74
-1 -0.7 -0.19
-25.3 -17.66 3.79
-1.05 -0.73 -0.16
-37.46 -26.14 7.23
-18.94 -13.22 -2.02
-32.63 -22.77 -2.09
-35.91 -25.06 10.11
-32.63 -22.77 -0.69
-36.85 -25.71 12.04
-5.53 -3.83 -1.8
-32.63 -22.61 0.69
-6.46 -4.48 -1.81
-41.54 -28.78 2.65
-1.03 -0.71 -0.24
-1.01 -0.7 -0.19
-24.3 -16.84 3.63
-1.07 -0.74 -0.16
-26.58 -18.42 5.12
-19.18 -13.29 -2.04
-32.79 -22.72 -2.09
-26.04 -18.05 7.32
-32.57 -22.57 -0.69
-37.08 -25.7 12.09
-5.55 -3.82 -1.81
-32.67 -22.47 0.69
-6.48 -4.46 -1.82
-32.68 -22.48 2.08
-1.03 -0.71 -0.24
-32.7 -22.49 3.47
-1.01 -0.7 -0.19
-1.06 -0.73 -0.16
-36.9 -25.38 7.09
-19.68 -13.54 -2.09
-35.97 -24.74 10.08
-32.33 -22.24 -0.69
-5.57 -3.8 -1.81
-32.06 -21.89 0.68
-6.49 -4.43 -1.81
-1.04 -0.71 -0.24
-38.98 -26.61 4.13
-1.03 -0.7 -0.2
-25.36 -17.31 3.77
-1.06 -0.73 -0.16
-36.77 -25.1 7.05
-19.78 -13.5 -2.1
-31.85 -21.74 -2.02
-26.95 -18.39 7.53
-32.13 -21.93 -0.68
-38.42 -26.22 12.46
-5.59 -3.79 -1.81
-32.08 -21.74 0.68
-6.51 -4.41 -1.81
-39.32 -26.64 2.49
-1.05 -0.71 -0.25
-39.34 -26.65 4.16
-1.04 -0.7 -0.2
-39.11 -26.5 5.8
-1.06 -0.72 -0.16
-25.91 -17.56 4.96
-18.88 -12.8 -2
-32.05 -21.71 -2.03
-27.14 -18.39 7.57
-32.29 -21.88 -0.68
-38.52 -26.1 12.47
-5.6 -3.77 -1.81
-32.95 -22.16 0.69
-6.53 -4.39 -1.82
-39.38 -26.48 2.49
-7.86 -5.29 -1.84
-39.31 -26.43 4.14
-1.05 -0.7 -0.2
-39.22 -26.38 5.8
-1.07 -0.72 -0.16
-33.04 -22.22 6.31
-19.8 -13.32 -2.09
-32.37 -21.77 -2.04
-38.93 -26.18 10.83
-32.02 -21.53 -0.67
-5.61 -3.74 -1.81
-32.45 -21.66 0.68
-6.55 -4.37 -1.82
-33 -22.03 2.08
-7.88 -5.26 -1.84
-32.81 -21.9 3.45
-1.05 -0.7 -0.2
-24.98 -16.68 3.69
-1.11 -0.74 -0.16
-19.79 -13.21 -2.08
-32.39 -21.62 -2.04
-32.04 -21.38 -0.67
-5.63 -3.73 -1.81
-32.53 -21.56 0.68
-6.56 -4.35 -1.82
-32.84 -21.77 2.06
-7.92 -5.25 -1.85
-33.05 -21.91 3.47
-1.05 -0.7 -0.2
-33.07 -21.92 4.87
-1.13 -0.75 -0.17
-19.78 -13.11 -2.08
-36.47 -24.18 8.51
-27.15 -18 7.52
-32.05 -21.25 -0.67
-5.65 -3.72 -1.81
-32.56 -21.42 0.68
-6.57 -4.32 -1.82
-32.93 -21.67 2.07
-1.04 -0.68 -0.24
-32.88 -21.63 3.44
-1.06 -0.7 -0.2
-33.12 -21.79 4.87
-1.13 -0.74 -0.17
-19.85 -13.06 -2.08
-36.31 -23.89 8.45
-32.68 -21.5 -2.05
-38.02 -25.01 10.51
-32.29 -21.25 -0.67
-37.9 -24.94 12.16
-5.68 -3.7 -1.82
-32.17 -20.99 0.67
-6.58 -4.3 -1.81
-32.89 -21.47 2.06
-1.06 -0.69 -0.25
-1.07 -0.7 -0.2
-36.12 -23.57 5.3
-1.12 -0.73 -0.16
-33.24 -21.69 6.29
-19.89 -12.98 -2.08
-36.32 -23.7 8.43
-33.13 -21.62 -2.07
-27.41 -17.89 7.56
-32.89 -21.47 -0.69
-34.16 -22.29 10.93
-5.69 -3.69 -1.82
-32.36 -20.96 0.67
-6.6 -4.27 -1.82
-32.94 -21.33 2.06
-1.06 -0.69 -0.25
-33.32 -21.58 3.47
-1.07 -0.69 -0.2
-36.37 -23.56 5.32
-1.14 -0.74 -0.17
-19.94 -12.92 -2.08
-33.36 -21.61 7.73
-32.47 -21.03 -2.03
-33.02 -21.39 -0.69
-33.42 -21.64 10.67
-5.73 -3.68 -1.83
-32.47 -20.88 0.67
-6.62 -4.26 -1.82
-33.23 -21.36 2.07
-1.07 -0.69 -0.25
-1.08 -0.69 -0.2
-1.14 -0.73 -0.17
-26.62 -17.11 5.01
-19.95 -12.83 -2.07
-33.51 -21.55 7.74
-32.61 -20.97 -2.03
-33.61 -21.61 9.23
-33.07 -21.27 -0.69
-33.62 -21.62 10.71
-0.94 -0.6 -0.3
-32.72 -20.88 0.68
-6.64 -4.23 -1.82
-33.34 -21.27 2.07
-1.08 -0.69 -0.25
-1.07 -0.68 -0.2
-1.15 -0.73 -0.17
-26.71 -17.04 5.02
-20.01 -12.77 -2.08
-39.51 -25.21 9.11
-32.53 -20.76 -2.02
-38.61 -24.63 10.57
-33.18 -21.17 -0.69
-33.69 -21.5 10.71
-0.95 -0.6 -0.3
-33.28 -21.07 0.69
-6.64 -4.21 -1.82
-33.17 -21 2.06
-1.08 -0.69 -0.25
-33.51 -21.21 3.47
-1.08 -0.68 -0.2
-36.76 -23.28 5.34
-1.14 -0.72 -0.17
-26.55 -16.81 4.98
-20.02 -12.68 -2.07
-32.42 -20.53 -2.01
-33.08 -20.94 -0.68
-37.13 -23.51 11.77
-0.96 -0.6 -0.3
-33.33 -20.94 0.69
-6.66 -4.18 -1.82
-32.83 -20.63 2.03
-1.09 -0.68 -0.25
-33.47 -21.03 3.46
-1.07 -0.67 -0.2
-37.36 -23.47 5.42
-1.14 -0.72 -0.17
-37.85 -23.78 7.08
-20.11 -12.64 -2.08
-36.51 -22.94 8.38
-32.64 -20.5 -2.02
-36.62 -23 9.98
-33 -20.73 -0.68
-0.97 -0.61 -0.31
-33.4 -20.83 0.69
-6.68 -4.17 -1.82
-33.01 -20.59 2.04
-8.05 -5.02 -1.84
-1.1 -0.69 -0.21
-37.34 -23.29 5.4
-1.16 -0.72 -0.17
-26.78 -16.7 5
-20.11 -12.54 -2.07
-34.64 -21.6 7.93
-32.82 -20.47 -2.03
-39.71 -24.77 10.8
-33.01 -20.59 -0.68
-0.96 -0.59 -0.3
-33.37 -20.65 0.68
-6.7 -4.15 -1.82
-36.01 -22.29 2.22
-8.05 -4.98 -1.84
-1.13 -0.7 -0.21
-35.39 -21.9 5.11
-1.16 -0.72 -0.17
-26.33 -16.29 4.9
-20.18 -12.49 -2.08
-36.46 -22.56 8.33
-32.63 -20.19 -2.01
-32.83 -20.32 -0.67
-33.25 -20.57 10.48
-0.96 -0.59 -0.3
-33.46 -20.55 0.69
-34.11 -20.94 2.1
-8.07 -4.96 -1.84
-1.11 -0.68 -0.21
-35.53 -21.82 5.12
-1.17 -0.72 -0.17
-38.2 -23.46 7.1
-20.32 -12.48 -2.09
-33.57 -20.61 7.66
-33.61 -20.64 -2.07
-32.86 -20.17 -0.67
-0.96 -0.59 -0.3
-34.22 -20.84 0.7
-35.99 -21.93 2.21
-8.09 -4.93 -1.84
-35.48 -21.62 3.64
-1.13 -0.69 -0.21
-35.92 -21.88 5.16
-1.18 -0.72 -0.17
-38.2 -23.27 7.08
-20.42 -12.44 -2.09
-33.66 -20.51 7.66
-33.54 -20.43 -2.06
-32.99 -20.1 -0.67
-42.83 -26.09 13.44
-0.97 -0.58 -0.3
-33.36 -20.16 0.68
-1.04 -0.63 -0.28
-35.89 -21.68 2.2
-8.11 -4.9 -1.84
-35.48 -21.43 3.63
-1.12 -0.68 -0.21
-35.4 -21.39 5.08
-1.18 -0.71 -0.17
-40.75 -24.62 7.54
-33.61 -20.31 -2.06
-34.51 -20.85 -0.7
-0.97 -0.58 -0.3
-33.49 -20.08 0.68
-1 -0.6 -0.27
-36.56 -21.91 2.23
-8.12 -4.87 -1.84
-35.58 -21.33 3.63
-1.15 -0.69 -0.21
-33.69 -20.2 4.82
-1.17 -0.7 -0.17
-40.81 -24.46 7.54
-20.76 -12.44 -2.12
-33.8 -20.26 -2.07
-35.71 -21.41 9.61
-34.59 -20.74 -0.7
-0.97 -0.58 -0.3
-36.06 -21.45 0.73
-1.03 -0.61 -0.28
-8.13 -4.84 -1.84
-1.14 -0.68 -0.21
-1.17 -0.7 -0.17
-20.85 -12.4 -2.12
-37.24 -22.16 8.42
-33.8 -20.11 -2.06
-35.49 -21.11 -0.72
-41.4 -24.63 12.91
-0.98 -0.58 -0.31
-33.53 -19.79 0.68
-1.02 -0.6 -0.27
-35.99 -21.25 2.19
-8.17 -4.82 -1.84
-35.68 -21.06 3.62
-1.13 -0.67 -0.21
-36.05 -21.28 5.14
-1.21 -0.71 -0.17
-26.93 -15.9 4.95
-33.83 -19.97 -2.06
-38.52 -22.74 10.33
-36.01 -21.26 -0.73
-1 -0.59 -0.31
-32.33 -18.94 0.65
-1.01 -0.59 -0.27
-36.01 -21.1 2.19
-36.09 -21.14 3.66
-10.18 -5.96 -1.87
-36.16 -21.18 5.15
-1.23 -0.72 -0.17
-26.92 -15.77 4.94
-20.34 -11.91 -2.06
-36.24 -21.23 8.16
-33.95 -19.89 -2.06
-38.47 -22.53 10.29
-36.1 -21.14 -0.73
-1 -0.58 -0.31
-32.57 -18.93 0.66
-1.01 -0.59 -0.27
-35.88 -20.85 2.17
-35.87 -20.85 3.63
-10.2 -5.93 -1.87
-36.33 -21.11 5.16
-1.24 -0.72 -0.18
-36.26 -21.08 6.64
-20.55 -11.94 -2.08
-34.59 -20.11 -2.1
-38.53 -22.39 10.29
-36.38 -21.14 -0.73
-35.03 -20.36 10.86
-1 -0.58 -0.31
-36.18 -20.86 0.73
-1.02 -0.59 -0.27
-34.05 -19.63 2.06
-1.07 -0.62 -0.24
-36.06 -20.78 3.64
-10.23 -5.9 -1.87
-36.75 -21.19 5.21
-1.24 -0.72 -0.18
-36.29 -20.92 8.14
-34.67 -19.99 -2.1
-36.36 -20.96 9.69
-36.3 -20.92 11.23
-1 -0.57 -0.31
-34.65 -19.82 0.7
-1.03 -0.59 -0.27
-34.23 -19.57 2.07
-1.04 -0.59 -0.23
-38.34 -21.93 3.86
-10.26 -5.87 -1.87
-39.14 -22.38 5.54
-1.25 -0.72 -0.18
-38.97 -22.29 7.11
-20.38 -11.65 -2.05
-40.86 -23.37 9.15
-34.6 -19.79 -2.09
-36.46 -20.85 9.7
-36.39 -20.81 11.23
-1.02 -0.58 -0.31
-1.03 -0.58 -0.27
-34.86 -19.77 2.1
-1.05 -0.59 -0.23
-33.26 -18.86 3.35
-10.28 -5.83 -1.87
-39.24 -22.25 5.54
-1.27 -0.72 -0.18
-38.98 -22.11 7.1
-20.46 -11.6 -2.06
-40.94 -23.22 9.15
-35.24 -19.99 -2.12
-36.74 -20.84 9.75
-1.04 -0.58 -0.32
-1.02 -0.57 -0.27
-1.04 -0.59 -0.23
-10.3 -5.8 -1.87
-39.19 -22.05 5.52
-1.27 -0.72 -0.18
-32.95 -18.54 5.99
-20.43 -11.49 -2.05
-41.17 -23.17 9.18
-35.64 -20.06 -2.14
-1.04 -0.58 -0.32
-1.03 -0.57 -0.27
-35.02 -19.55 2.1
-1.04 -0.58 -0.23
-10.33 -5.77 -1.87
-38.76 -21.63 5.45
-1.29 -0.72 -0.18
-21.03 -11.74 -2.11
-35.92 -20.05 -2.16
-44.5 -24.84 13.66
-1.05 -0.58 -0.32
-42.22 -23.38 0.84
-1.05 -0.58 -0.28
-1.04 -0.58 -0.23
-10.35 -5.73 -1.87
-37.71 -20.88 5.29
-1.32 -0.73 -0.18
-33.46 -18.53 6.06
-36.1 -19.99 -2.16
-44.48 -24.63 13.62
-1.04 -0.57 -0.32
-1.05 -0.58 -0.28
-1.04 -0.57 -0.23
-33.11 -18.18 3.3
-10.38 -5.7 -1.88
-37.81 -20.76 5.3
-1.31 -0.72 -0.18
-42.15 -23.14 7.62
-20.76 -11.4 -2.07
-40.76 -22.38 9.04
-36.17 -19.86 -2.16
-34.34 -18.86 9.05
-35.99 -19.76 -0.72
-1.06 -0.57 -0.32
-1.06 -0.58 -0.28
-1.04 -0.57 -0.23
-40.37 -21.99 4.02
-10.39 -5.66 -1.87
-1.33 -0.73 -0.19
-42.16 -22.96 7.6
-20.53 -11.18 -2.05
-37.71 -20.54 -2.25
-34.32 -18.69 9.02
-1.06 -0.57 -0.32
-1.06 -0.58 -0.28
-1.05 -0.57 -0.23
-10.41 -5.62 -1.87
-35.35 -19.09 4.93
-1.37 -0.74 -0.19
-42.33 -22.86 7.62
-20.54 -11.09 -2.04
-36.34 -19.63 8.03
-37.85 -20.44 -2.25
-34.34 -18.54 9.01
-1.07 -0.57 -0.33
-1.07 -0.57 -0.28
-1.04 -0.56 -0.23
-46.63 -24.97 4.63
-10.44 -5.59 -1.88
-1.38 -0.74 -0.19
-42.18 -22.59 7.58
-20.39 -10.92 -2.02
-40.71 -21.81 8.98
-37.92 -20.31 -2.25
-36.37 -19.48 9.52
-37.4 -20.03 11.37
-1.08 -0.57 -0.33
-1.09 -0.58 -0.29
-1.04 -0.55 -0.23
-10.46 -5.55 -1.88
-47.48 -25.21 6.6
-1.39 -0.74 -0.19
-42.63 -22.64 7.64
-20.45 -10.86 -2.03
-1.07 -0.56 -0.32
-43.12 -22.71 0.85
-1.1 -0.58 -0.29
-1.05 -0.55 -0.23
-45.21 -23.81 4.47
-10.47 -5.52 -1.87
-47.39 -24.96 6.58
-1.4 -0.74 -0.19
-37.19 -19.59 6.66
-20.16 -10.62 -1.99
-35.07 -18.47 7.71
-44.26 -23.31 11.55
-1.08 -0.56 -0.33
-1.12 -0.58 -0.29
-34.24 -17.89 2.02
-1.04 -0.55 -0.23
-10.48 -5.47 -1.87
-1.41 -0.74 -0.2
-50.9 -26.6 9.1
-20.42 -10.67 -2.02
-50.86 -26.58 13.25
-44.58 -23.29 -0.88
-1.08 -0.56 -0.33
-7.07 -3.66 -1.84
-1.05 -0.55 -0.23
-10.5 -5.44 -1.87
-44.21 -22.91 6.11
-1.41 -0.73 -0.2
-20.46 -10.6 -2.02
-1.09 -0.56 -0.33
-7.06 -3.63 -1.83
-1.04 -0.54 -0.23
-10.54 -5.41 -1.88
-44.2 -22.71 6.1
-1.42 -0.73 -0.2
-20.52 -10.54 -2.02
-1.08 -0.55 -0.33
-7.08 -3.61 -1.83
-1.04 -0.53 -0.23
-36.38 -18.53 3.57
-1.34 -0.69 -0.24
-47.99 -24.45 6.61
-1.41 -0.72 -0.19
-20.62 -10.51 -2.02
-48.18 -24.54 12.48
-1.08 -0.55 -0.32
-1.24 -0.62 -0.32
-1.04 -0.53 -0.23
-10.57 -5.34 -1.88
-48.06 -24.26 6.61
-1.42 -0.71 -0.19
-37.12 -18.74 6.59
-20.65 -10.43 -2.02
-42.86 -21.64 -2.52
-1.09 -0.54 -0.33
-1.24 -0.62 -0.32
-1.04 -0.52 -0.23
-48.99 -24.53 4.79
-10.57 -5.29 -1.87
-48.25 -24.16 6.63
-1.45 -0.72 -0.2
-20.72 -10.37 -2.03
-42.65 -21.35 -2.5
-1.08 -0.54 -0.32
-1.23 -0.61 -0.32
-1.05 -0.52 -0.23
-49.1 -24.37 4.8
-10.6 -5.26 -1.87
-47.87 -23.76 6.56
-1.47 -0.73 -0.2
-48.66 -24.15 8.6
-20.77 -10.31 -2.03
-42.86 -21.27 -2.51
-1.09 -0.54 -0.33
-1.24 -0.61 -0.32
-1.05 -0.52 -0.23
-49.13 -24.18 4.79
-10.63 -5.23 -1.88
-36.01 -17.72 4.93
-1.46 -0.72 -0.2
-48.67 -23.96 8.59
-20.88 -10.28 -2.04
-43.05 -21.19 -2.51
-1.09 -0.53 -0.33
-1.26 -0.61 -0.32
-1.04 -0.51 -0.22
-10.64 -5.19 -1.88
-1.47 -0.72 -0.2
-20.98 -10.23 -2.04
-43.45 -21.19 -2.53
-1.07 -0.52 -0.32
-1.24 -0.6 -0.32
-1.04 -0.5 -0.23
-49.24 -23.8 4.78
-10.66 -5.15 -1.88
-1.48 -0.72 -0.2
-48.37 -23.38 8.51
-21.12 -10.21 -2.05
-43.71 -21.13 -2.54
-43 -20.79 -0.83
-1.09 -0.52 -0.32
-1.26 -0.6 -0.32
-1.04 -0.5 -0.23
-49.21 -23.58 4.77
-10.67 -5.11 -1.87
-1.51 -0.72 -0.21
-37.95 -18.18 6.67
-43.06 -20.63 -2.5
-1.09 -0.52 -0.32
-43.23 -20.53 0.84
-1.26 -0.6 -0.32
-1.05 -0.5 -0.23
-10.69 -5.07 -1.87
-1.5 -0.71 -0.2
-1.09 -0.51 -0.32
-1.27 -0.6 -0.33
-1.04 -0.49 -0.22
-10.7 -5.04 -1.87
-1.52 -0.71 -0.21
-1.09 -0.51 -0.32
-1.29 -0.6 -0.33
-1.04 -0.48 -0.22
-10.72 -5 -1.87
-53.04 -24.73 7.19
-1.51 -0.7 -0.2
-36.97 -17.24 9.42
-1.07 -0.49 -0.32
-42.9 -19.83 0.82
-1.31 -0.61 -0.33
-1.03 -0.48 -0.22
-10.74 -4.96 -1.87
-1.51 -0.7 -0.2
-1.08 -0.5 -0.32
-42.97 -19.68 0.82
-1.31 -0.6 -0.33
-1.04 -0.48 -0.22
-10.75 -4.92 -1.87
-53.15 -24.35 7.18
-1.54 -0.71 -0.21
-53.15 -24.35 9.26
-51.43 -23.56 15.16
-1.1 -0.5 -0.32
-1.32 -0.6 -0.33
-42.72 -19.39 2.46
-1.05 -0.48 -0.22
-10.76 -4.89 -1.87
-1.56 -0.71 -0.21
-53.02 -24.06 9.22
-21.54 -9.78 -2.07
-51.51 -23.38 15.16
-1.07 -0.48 -0.32
-1.33 -0.6 -0.34
-1.05 -0.47 -0.22
-10.78 -4.85 -1.87
-1.54 -0.69 -0.21
-52.93 -23.8 9.19
-21.58 -9.7 -2.07
-53.29 -23.96 13.49
-1.09 -0.48 -0.32
-1.34 -0.6 -0.34
-1.05 -0.47 -0.22
-10.81 -4.81 -1.87
-51.73 -23.04 6.95
-1.54 -0.68 -0.21
-53.05 -23.63 9.2
-21.63 -9.64 -2.07
-37.94 -16.9 8.07
-1.08 -0.48 -0.32
-1.36 -0.6 -0.34
-49.03 -21.64 2.81
-1.05 -0.46 -0.22
-52.67 -23.24 5.04
-10.81 -4.77 -1.87
-1.6 -0.71 -0.21
-53.05 -23.41 9.18
-21.7 -9.57 -2.07
-37.88 -16.72 8.05
-1.09 -0.48 -0.32
-43.3 -18.94 0.82
-1.37 -0.6 -0.35
-1.05 -0.46 -0.22
-53.21 -23.27 5.08
-10.81 -4.73 -1.87
-1.59 -0.69 -0.21
-21.73 -9.5 -2.07
-37.94 -16.59 8.05
-52.8 -23.09 13.31
-1.07 -0.47 -0.31
-1.37 -0.59 -0.35
-1.06 -0.46 -0.23
-51.73 -22.41 4.93
-10.83 -4.69 -1.87
-51.08 -22.13 6.84
-1.55 -0.67 -0.21
-53.1 -23 9.17
-21.77 -9.43 -2.08
-38 -16.46 8.05
-52.92 -22.92 13.32
-1.09 -0.47 -0.32
-1.38 -0.59 -0.35
-1.06 -0.46 -0.22
-51.72 -22.19 4.92
-10.85 -4.66 -1.87
-51.28 -22 6.85
-1.55 -0.66 -0.21
-51.69 -22.18 8.91
-21.82 -9.36 -2.08
-38.05 -16.33 8.05
-1.08 -0.46 -0.32
-42.95 -18.25 0.81
-1.39 -0.59 -0.35
-1.05 -0.45 -0.22
-51.11 -21.72 4.86
-1.76 -0.75 -0.3
-51.39 -21.84 6.86
-1.56 -0.66 -0.21
-51.63 -21.94 8.88
-21.84 -9.28 -2.08
-59.45 -25.26 14.91
-1.09 -0.46 -0.32
-1.41 -0.59 -0.35
-1.05 -0.44 -0.22
-10.89 -4.58 -1.87
-51.33 -21.6 6.84
-1.55 -0.65 -0.21
-51.57 -21.7 8.86
-21.88 -9.21 -2.08
-59.65 -25.1 14.94
-1.08 -0.45 -0.31
-1.4 -0.58 -0.35
-1.06 -0.44 -0.22
-1.75 -0.73 -0.3
-51.27 -21.36 6.82
-1.56 -0.65 -0.21
-51.76 -21.57 8.88
-21.92 -9.13 -2.08
-1.1 -0.45 -0.32
-1.4 -0.58 -0.35
-1.07 -0.44 -0.22
-1.76 -0.73 -0.3
-1.56 -0.64 -0.21
-21.97 -9.08 -2.08
-1.09 -0.45 -0.32
-1.39 -0.57 -0.35
-1.06 -0.43 -0.22
-55.04 -22.51 5.2
-10.93 -4.47 -1.87
-53.06 -21.7 7.04
-1.55 -0.63 -0.21
-54.39 -22.24 9.31
-21.99 -8.99 -2.08
-55.37 -22.64 -3.13
-1.1 -0.44 -0.32
-1.39 -0.56 -0.35
-1.05 -0.43 -0.22
-10.94 -4.43 -1.87
-1.56 -0.63 -0.21
-22.02 -8.92 -2.08
-1.09 -0.44 -0.31
-1.39 -0.56 -0.35
-51.41 -20.61 2.9
-1.05 -0.42 -0.22
-54.41 -21.8 5.13
-1.79 -0.72 -0.3
-54.18 -21.72 7.17
-1.56 -0.62 -0.21
-56.47 -22.63 9.63
-22.02 -8.83 -2.08
-1.1 -0.44 -0.32
-1.39 -0.55 -0.35
-51.18 -20.31 2.89
-1.06 -0.42 -0.22
-11.02 -4.37 -1.88
-1.57 -0.62 -0.21
-56.58 -22.45 9.64
-22.06 -8.75 -2.08
-1.1 -0.43 -0.32
-58.31 -22.9 1.09
-1.38 -0.54 -0.34
-51.24 -20.12 2.89
-1.07 -0.42 -0.22
-56.39 -22.15 5.3
-10.99 -4.31 -1.87
