# .PCD v0.7 - Point Cloud Data file format
VERSION 0.7
FIELDS x y z
SIZE 4 4 4
TYPE F F F
COUNT 1 1 1
WIDTH 2842
HEIGHT 1
VIEWPOINT 0 0 0 1 0 0 0
POINTS 2842
DATA ascii
9.98 -12.24 -0.83
9.9 -12.14 3.62
10.09 -12.38 -0.28
2.65 -3.28 -1.13
10.01 -12.37 0.28
3.83 -4.73 -1.4
10 -12.35 0.83
4.38 -5.41 -1.35
9.99 -12.33 1.39
5.08 -6.28 -1.28
9.94 -12.27 1.94
5.29 -6.53 -1.03
9.94 -12.28 2.5
5.56 -6.87 -0.77
9.91 -12.23 3.06
9.93 -12.27 -0.83
9.83 -12.14 3.61
10.02 -12.37 -0.28
2.64 -3.29 -1.13
9.86 -12.26 0.27
3.81 -4.74 -1.4
9.85 -12.25 0.82
4.37 -5.43 -1.35
9.84 -12.24 1.37
5.05 -6.27 -1.28
9.83 -12.22 1.93
5.28 -6.56 -1.03
9.82 -12.21 2.48
5.55 -6.91 -0.78
9.8 -12.19 3.04
9.87 -12.27 -0.83
9.77 -12.15 3.6
9.86 -12.26 -0.27
2.63 -3.3 -1.13
9.8 -12.28 0.27
3.79 -4.75 -1.4
9.8 -12.28 0.82
4.34 -5.44 -1.35
9.79 -12.27 1.37
5.02 -6.28 -1.27
9.79 -12.26 1.93
5.26 -6.58 -1.03
9.78 -12.25 2.48
5.54 -6.94 -0.78
9.76 -12.22 3.04
8.08 -10.13 -0.68
9.71 -12.16 3.59
9.82 -12.3 -0.27
2.62 -3.31 -1.13
9.78 -12.34 0.27
3.77 -4.76 -1.4
9.78 -12.34 0.83
4.33 -5.47 -1.36
9.82 -12.39 1.38
5 -6.3 -1.27
9.82 -12.39 1.94
5.23 -6.6 -1.03
9.82 -12.4 2.51
5.51 -6.95 -0.78
9.8 -12.36 3.07
8 -10.09 -0.67
9.65 -12.17 3.59
9.82 -12.39 -0.28
2.61 -3.32 -1.13
9.8 -12.45 0.28
3.76 -4.78 -1.4
9.78 -12.43 0.83
4.31 -5.47 -1.35
9.76 -12.4 1.38
4.96 -6.3 -1.27
9.72 -12.35 1.93
5.2 -6.61 -1.03
9.73 -12.36 2.49
5.49 -6.97 -0.78
9.69 -12.32 3.05
7.93 -10.07 -0.67
9.58 -12.17 3.58
9.8 -12.45 -0.28
2.61 -3.34 -1.14
9.69 -12.4 0.27
3.74 -4.78 -1.4
9.68 -12.38 0.82
4.28 -5.48 -1.35
9.67 -12.37 1.37
4.93 -6.31 -1.27
9.67 -12.37 1.93
5.17 -6.62 -1.03
9.66 -12.35 2.48
5.46 -6.98 -0.78
9.64 -12.34 3.04
7.87 -10.07 -0.67
9.52 -12.18 3.57
9.68 -12.39 -0.27
2.59 -3.34 -1.13
9.68 -12.47 0.28
3.73 -4.8 -1.4
9.66 -12.45 0.83
4.27 -5.5 -1.35
9.65 -12.44 1.38
4.9 -6.32 -1.27
9.64 -12.43 1.93
5.15 -6.64 -1.03
9.64 -12.42 2.49
5.43 -7 -0.77
9.62 -12.39 3.05
7.83 -10.09 -0.67
9.46 -12.19 3.56
9.67 -12.45 -0.28
2.58 -3.35 -1.13
9.61 -12.47 0.27
3.71 -4.81 -1.4
4.25 -5.51 -1.35
4.88 -6.33 -1.27
5.13 -6.66 -1.03
7.42 -9.63 -1.06
7.84 -10.18 -0.67
9.39 -12.19 3.55
9.62 -12.48 -0.28
2.57 -3.36 -1.13
9.55 -12.49 0.27
3.69 -4.82 -1.4
4.23 -5.53 -1.35
4.85 -6.33 -1.26
5.11 -6.68 -1.03
7.38 -9.65 -1.06
11.03 -14.42 3.53
7.76 -10.15 -0.67
9.33 -12.2 3.55
9.57 -12.51 -0.27
2.57 -3.38 -1.14
9.49 -12.5 0.27
3.67 -4.83 -1.4
4.21 -5.54 -1.35
4.82 -6.35 -1.26
16.87 -22.22 3.43
5.08 -6.69 -1.03
7.36 -9.7 -1.07
10.9 -14.36 3.51
7.66 -10.08 -0.66
9.27 -12.2 3.54
2.56 -3.39 -1.14
9.43 -12.51 0.27
3.66 -4.85 -1.4
4.18 -5.55 -1.35
11.39 -15.1 1.65
4.81 -6.38 -1.26
16.77 -22.25 3.42
5.05 -6.7 -1.03
7.31 -9.69 -1.06
10.85 -14.39 3.5
7.62 -10.11 -0.66
9.21 -12.22 3.53
7.7 -10.21 -0.22
2.55 -3.41 -1.14
9.36 -12.51 0.27
3.64 -4.86 -1.4
4.16 -5.56 -1.35
4.79 -6.4 -1.27
16.65 -22.25 3.41
5 -6.68 -1.02
7.28 -9.73 -1.06
10.87 -14.52 3.53
7.58 -10.12 -0.66
9.15 -12.22 3.52
7.6 -10.16 -0.22
2.55 -3.43 -1.15
9.29 -12.51 0.27
3.62 -4.88 -1.4
4.15 -5.58 -1.35
4.75 -6.39 -1.26
16.54 -22.27 3.41
4.98 -6.7 -1.02
9.96 -13.41 2.65
7.25 -9.75 -1.06
10.84 -14.59 3.53
7.54 -10.15 -0.66
9.09 -12.23 3.52
7.54 -10.15 -0.22
2.54 -3.45 -1.15
9.23 -12.52 0.27
3.6 -4.88 -1.4
4.13 -5.6 -1.35
4.71 -6.38 -1.26
14.4 -19.52 2.98
4.94 -6.7 -1.02
9.95 -13.49 2.65
7.21 -9.77 -1.06
9.93 -13.46 3.25
7.47 -10.13 -0.66
9.02 -12.23 3.51
7.49 -10.15 -0.22
2.54 -3.46 -1.15
9.17 -12.52 0.27
3.58 -4.89 -1.4
4.11 -5.61 -1.35
4.67 -6.38 -1.25
16.32 -22.29 3.39
4.91 -6.71 -1.02
7.18 -9.81 -1.06
9.99 -13.64 3.29
7.43 -10.15 -0.66
8.96 -12.24 3.5
7.44 -10.15 -0.22
2.52 -3.47 -1.15
9.11 -12.54 0.27
3.57 -4.91 -1.4
4.08 -5.62 -1.35
4.66 -6.41 -1.25
4.89 -6.72 -1.02
7.14 -9.82 -1.06
10.64 -14.64 3.52
7.38 -10.16 -0.66
8.9 -12.25 3.5
7.38 -10.15 -0.22
2.51 -3.48 -1.15
9.05 -12.54 0.27
3.55 -4.92 -1.4
4.07 -5.63 -1.35
4.65 -6.45 -1.26
16.12 -22.34 3.38
4.87 -6.74 -1.02
7.06 -9.78 -1.06
10.66 -14.78 3.54
7.34 -10.17 -0.66
8.85 -12.26 3.49
7.32 -10.15 -0.22
2.5 -3.49 -1.15
8.98 -12.54 0.27
3.53 -4.93 -1.4
4.05 -5.65 -1.35
12.61 -17.61 1.89
4.63 -6.46 -1.26
4.87 -6.8 -1.03
6.96 -9.72 -1.05
10.66 -14.89 3.56
7.33 -10.23 -0.66
8.79 -12.27 3.48
7.28 -10.16 -0.22
2.48 -3.49 -1.15
8.89 -12.51 0.27
3.51 -4.94 -1.4
8.87 -12.47 0.8
4.03 -5.67 -1.35
8.85 -12.45 1.34
4.6 -6.47 -1.26
8.83 -12.42 1.87
4.86 -6.83 -1.03
8.83 -12.42 2.41
6.92 -9.73 -1.04
8.83 -12.41 2.96
7.24 -10.19 -0.66
8.72 -12.27 3.48
7.23 -10.17 -0.22
2.46 -3.49 -1.14
8.82 -12.49 0.27
3.5 -4.95 -1.4
8.8 -12.47 0.8
4.01 -5.67 -1.35
8.81 -12.48 1.34
4.57 -6.48 -1.26
8.82 -12.49 1.88
4.83 -6.84 -1.03
8.81 -12.47 2.42
6.87 -9.74 -1.04
8.79 -12.46 2.96
7.18 -10.17 -0.65
8.67 -12.28 3.47
7.18 -10.17 -0.22
2.44 -3.48 -1.14
8.81 -12.56 0.27
3.48 -4.97 -1.4
8.79 -12.55 0.8
3.98 -5.68 -1.35
8.8 -12.55 1.34
4.54 -6.48 -1.25
8.77 -12.52 1.88
4.82 -6.88 -1.03
8.76 -12.5 2.42
6.83 -9.75 -1.04
8.76 -12.5 2.97
7.14 -10.18 -0.65
8.61 -12.28 3.46
7.14 -10.18 -0.22
2.42 -3.48 -1.13
8.75 -12.58 0.27
3.47 -4.98 -1.4
3.97 -5.7 -1.35
4.52 -6.5 -1.25
4.82 -6.92 -1.04
6.85 -9.85 -1.05
7.15 -10.28 -0.66
8.55 -12.29 3.46
7.09 -10.2 -0.22
2.41 -3.48 -1.13
8.69 -12.58 0.27
3.45 -4.99 -1.4
3.95 -5.72 -1.35
4.49 -6.5 -1.25
4.81 -6.97 -1.04
10.04 -14.54 2.8
6.85 -9.93 -1.06
9.97 -14.44 3.41
7.03 -10.18 -0.65
8.49 -12.3 3.45
7.05 -10.2 -0.22
2.39 -3.49 -1.13
8.62 -12.58 0.27
3.42 -4.99 -1.4
3.93 -5.74 -1.35
10.16 -14.83 1.57
4.48 -6.54 -1.26
10.13 -14.78 2.2
4.88 -7.12 -1.06
6.83 -9.97 -1.06
9.96 -14.54 3.43
6.98 -10.19 -0.65
8.43 -12.31 3.44
7 -10.22 -0.22
2.38 -3.5 -1.14
8.57 -12.6 0.27
3.41 -5.01 -1.4
3.91 -5.74 -1.35
4.48 -6.58 -1.26
5.46 -8.02 -1.19
6.81 -10.01 -1.06
10.01 -14.71 3.46
6.94 -10.2 -0.65
8.37 -12.3 3.44
6.95 -10.22 -0.22
2.37 -3.51 -1.13
8.51 -12.6 0.27
3.39 -5.02 -1.4
3.88 -5.75 -1.35
4.46 -6.6 -1.26
5.42 -8.02 -1.19
6.77 -10.02 -1.06
10.13 -15 3.52
6.89 -10.21 -0.65
8.31 -12.31 3.43
6.9 -10.22 -0.22
2.35 -3.51 -1.13
8.44 -12.6 0.26
3.37 -5.03 -1.4
3.86 -5.77 -1.35
4.41 -6.58 -1.25
15.04 -22.45 3.32
5.36 -8 -1.18
6.72 -10.03 -1.06
10.18 -15.19 3.55
6.85 -10.22 -0.64
8.26 -12.32 3.42
6.85 -10.23 -0.21
2.34 -3.51 -1.13
8.38 -12.6 0.26
3.36 -5.05 -1.4
10.7 -16.09 1.01
3.85 -5.78 -1.35
10.66 -16.03 1.68
4.39 -6.6 -1.26
14.91 -22.43 3.31
5.34 -8.03 -1.18
10.13 -15.23 2.9
6.69 -10.06 -1.06
10.11 -15.21 3.55
6.8 -10.23 -0.64
8.2 -12.33 3.42
6.81 -10.25 -0.21
2.33 -3.52 -1.13
8.32 -12.61 0.26
3.33 -5.05 -1.4
10.54 -15.97 1
3.83 -5.8 -1.35
10.53 -15.96 1.67
4.37 -6.63 -1.26
14.81 -22.45 3.3
5.23 -7.92 -1.17
6.67 -10.1 -1.06
10.04 -15.21 3.54
6.76 -10.24 -0.64
8.14 -12.34 3.41
6.76 -10.25 -0.21
2.31 -3.53 -1.13
8.26 -12.62 0.26
3.32 -5.06 -1.4
10.43 -15.93 1
3.8 -5.81 -1.35
4.34 -6.63 -1.26
14.71 -22.47 3.3
5.26 -8.04 -1.18
10.2 -15.58 2.95
6.6 -10.07 -1.05
9.98 -15.24 3.54
6.72 -10.26 -0.64
8.08 -12.34 3.41
6.71 -10.25 -0.21
2.3 -3.54 -1.13
8.21 -12.63 0.26
3.3 -5.08 -1.4
10.38 -15.98 1
3.78 -5.82 -1.35
4.32 -6.64 -1.25
10.33 -15.9 2.33
5.22 -8.03 -1.18
10.16 -15.63 2.95
6.56 -10.09 -1.05
9.92 -15.26 3.54
6.67 -10.27 -0.64
8.03 -12.35 3.4
6.66 -10.25 -0.21
2.26 -3.51 -1.12
8.16 -12.64 0.26
3.28 -5.09 -1.4
10.35 -16.04 1
3.76 -5.83 -1.35
10.36 -16.05 1.67
4.33 -6.7 -1.26
14.55 -22.55 3.29
5.19 -8.04 -1.18
12.43 -19.25 3.63
6.49 -10.06 -1.05
9.86 -15.27 3.53
6.64 -10.28 -0.64
7.97 -12.35 3.39
6.62 -10.26 -0.21
2.24 -3.5 -1.11
8.09 -12.63 0.26
3.27 -5.1 -1.4
3.74 -5.84 -1.35
8.03 -12.54 1.3
4.32 -6.74 -1.27
8.02 -12.53 1.83
5.18 -8.09 -1.18
8.05 -12.57 2.36
6.45 -10.06 -1.05
8.02 -12.52 2.89
6.58 -10.28 -0.64
7.92 -12.37 3.39
6.57 -10.26 -0.21
2.22 -3.5 -1.11
7.99 -12.57 0.26
3.24 -5.11 -1.4
7.98 -12.56 0.78
3.72 -5.86 -1.35
7.97 -12.55 1.3
4.29 -6.75 -1.27
7.94 -12.5 1.82
5.21 -8.2 -1.19
7.96 -12.53 2.35
6.43 -10.12 -1.05
7.94 -12.5 2.88
6.53 -10.27 -0.64
7.86 -12.37 3.38
6.53 -10.27 -0.21
2.21 -3.51 -1.11
3.23 -5.12 -1.4
7.95 -12.62 0.78
3.7 -5.87 -1.35
7.96 -12.63 1.31
4.26 -6.76 -1.27
7.95 -12.61 1.83
5.19 -8.22 -1.19
7.94 -12.6 2.36
6.41 -10.17 -1.05
7.93 -12.58 2.89
6.48 -10.28 -0.64
7.8 -12.37 3.38
6.48 -10.28 -0.21
2.21 -3.52 -1.11
6.53 -10.44 0.21
3.21 -5.14 -1.4
7.94 -12.68 0.78
3.68 -5.87 -1.35
4.23 -6.76 -1.26
5.16 -8.24 -1.19
7.89 -12.61 2.36
6.4 -10.22 -1.06
7.87 -12.58 2.89
6.44 -10.29 -0.64
7.75 -12.38 3.37
6.43 -10.28 -0.21
2.19 -3.53 -1.11
6.49 -10.44 0.21
3.2 -5.15 -1.4
14.55 -23.43 1.45
3.66 -5.89 -1.35
14.6 -23.51 2.42
4.23 -6.81 -1.27
5.13 -8.27 -1.19
6.34 -10.22 -1.05
6.4 -10.31 -0.64
7.69 -12.39 3.37
6.38 -10.28 -0.21
2.18 -3.54 -1.11
6.47 -10.51 0.22
3.18 -5.16 -1.4
3.64 -5.91 -1.35
14.61 -23.72 2.44
4.21 -6.83 -1.27
5.11 -8.29 -1.2
12.04 -19.55 3.64
6.32 -10.25 -1.05
9.57 -15.54 3.55
6.35 -10.3 -0.63
7.65 -12.41 3.37
6.34 -10.3 -0.21
2.17 -3.55 -1.11
3.15 -5.16 -1.4
3.62 -5.93 -1.35
14.64 -23.96 2.46
4.19 -6.86 -1.27
13.78 -22.56 3.25
5.07 -8.3 -1.19
11.96 -19.57 3.63
6.29 -10.3 -1.06
9.5 -15.55 3.54
6.3 -10.3 -0.63
7.63 -12.48 3.38
6.3 -10.31 -0.21
7.59 -12.43 3.9
2.16 -3.56 -1.12
3.14 -5.18 -1.4
14.64 -24.14 1.48
3.6 -5.93 -1.35
14.65 -24.16 2.47
4.17 -6.87 -1.27
13.73 -22.64 3.25
5.04 -8.31 -1.19
10.33 -17.04 3.16
6.26 -10.31 -1.06
9.44 -15.57 3.54
6.26 -10.31 -0.63
7.63 -12.58 3.4
6.26 -10.31 -0.21
7.51 -12.37 3.88
2.15 -3.57 -1.12
3.12 -5.19 -1.4
14.64 -24.33 1.49
3.57 -5.94 -1.35
14.68 -24.39 2.49
4.14 -6.89 -1.27
13.6 -22.6 3.24
5.01 -8.33 -1.19
6.23 -10.35 -1.06
9.38 -15.58 3.53
6.22 -10.33 -0.63
7.59 -12.62 3.4
6.2 -10.31 -0.21
7.45 -12.38 3.87
2.14 -3.58 -1.12
3.11 -5.21 -1.4
14.64 -24.51 1.5
3.55 -5.95 -1.35
14.71 -24.64 2.51
4.12 -6.9 -1.27
4.99 -8.35 -1.19
10.94 -18.32 3.38
6.18 -10.35 -1.06
9.31 -15.59 3.53
6.17 -10.34 -0.63
7.54 -12.63 3.4
6.16 -10.31 -0.21
7.39 -12.38 3.86
2.12 -3.58 -1.12
3.09 -5.21 -1.4
14.73 -24.86 1.51
3.53 -5.97 -1.35
14.73 -24.87 2.53
4.09 -6.91 -1.27
13.4 -22.62 3.23
4.96 -8.37 -1.19
6.15 -10.38 -1.06
9.24 -15.59 3.52
6.13 -10.34 -0.63
7.48 -12.64 3.39
6.11 -10.31 -0.21
7.33 -12.38 3.86
2.11 -3.59 -1.12
3.07 -5.22 -1.4
14.74 -25.09 1.52
3.51 -5.98 -1.35
14.75 -25.12 2.55
4.06 -6.92 -1.27
13.28 -22.61 3.22
4.92 -8.38 -1.19
10.38 -17.67 3.25
6.11 -10.4 -1.05
9.17 -15.6 3.52
6.08 -10.35 -0.63
7.43 -12.64 3.38
6.08 -10.35 -0.21
7.28 -12.39 3.85
2.09 -3.59 -1.11
3.05 -5.23 -1.4
3.49 -5.98 -1.35
14.78 -25.36 2.57
4.04 -6.93 -1.27
13.18 -22.62 3.21
4.89 -8.39 -1.19
10.64 -18.26 3.35
6.07 -10.42 -1.05
9.1 -15.62 3.51
6.03 -10.35 -0.63
7.37 -12.64 3.38
6.03 -10.34 -0.21
7.23 -12.4 3.85
2.08 -3.6 -1.11
6.76 -11.69 0.24
3.03 -5.25 -1.4
3.46 -5.99 -1.35
14.81 -25.61 2.59
4.02 -6.96 -1.27
13.09 -22.64 3.21
4.86 -8.41 -1.19
10.55 -18.25 3.34
6.03 -10.44 -1.05
9.03 -15.62 3.51
5.99 -10.36 -0.63
7.31 -12.65 3.37
5.97 -10.33 -0.21
7.17 -12.41 3.84
2.06 -3.59 -1.11
6.71 -11.71 0.24
3.02 -5.26 -1.4
3.44 -6.01 -1.35
14.83 -25.87 2.61
3.99 -6.96 -1.27
4.83 -8.43 -1.19
5.99 -10.45 -1.05
8.97 -15.65 3.51
5.95 -10.37 -0.63
7.26 -12.66 3.37
5.93 -10.34 -0.21
7.12 -12.41 3.83
2.05 -3.61 -1.11
6.66 -11.71 0.24
3 -5.27 -1.4
3.43 -6.02 -1.35
14.86 -26.12 2.63
3.96 -6.97 -1.27
7.19 -12.64 1.78
4.81 -8.45 -1.19
7.21 -12.67 2.31
5.96 -10.47 -1.05
7.21 -12.67 2.83
5.9 -10.36 -0.62
7.21 -12.67 3.37
5.89 -10.36 -0.21
7.07 -12.43 3.83
2.04 -3.61 -1.11
6.6 -11.7 0.23
2.97 -5.27 -1.4
7.14 -12.66 0.76
3.41 -6.04 -1.35
7.13 -12.64 1.27
3.94 -6.99 -1.27
7.11 -12.6 1.78
4.78 -8.47 -1.19
7.12 -12.62 2.29
5.92 -10.49 -1.05
7.11 -12.6 2.81
5.85 -10.36 -0.62
7.15 -12.68 3.36
5.85 -10.37 -0.21
7.02 -12.44 3.83
2.03 -3.63 -1.11
2.96 -5.28 -1.4
7.09 -12.67 0.76
3.38 -6.04 -1.35
7.11 -12.7 1.27
3.92 -7.01 -1.27
7.1 -12.69 1.78
4.74 -8.47 -1.19
7.1 -12.68 2.3
5.89 -10.52 -1.05
7.09 -12.67 2.82
5.8 -10.37 -0.62
7.1 -12.68 3.35
5.81 -10.37 -0.21
6.96 -12.45 3.82
2.02 -3.64 -1.11
2.94 -5.29 -1.4
7.07 -12.74 0.76
3.36 -6.05 -1.35
7.09 -12.77 1.28
3.9 -7.02 -1.27
7.13 -12.84 1.8
4.71 -8.49 -1.19
5.85 -10.53 -1.05
5.76 -10.38 -0.62
7.04 -12.69 3.35
5.76 -10.37 -0.21
6.91 -12.44 3.81
2 -3.64 -1.11
2.92 -5.31 -1.4
7.14 -12.96 0.78
3.34 -6.06 -1.35
7.14 -12.97 1.3
3.87 -7.04 -1.27
7.12 -12.94 1.81
4.68 -8.51 -1.19
10.05 -18.26 3.3
5.81 -10.55 -1.05
8.77 -15.93 3.53
5.72 -10.4 -0.62
6.99 -12.69 3.35
5.72 -10.38 -0.21
6.85 -12.44 3.8
1.99 -3.64 -1.11
2.9 -5.31 -1.4
7.08 -12.97 0.77
3.32 -6.08 -1.35
7.12 -13.03 1.3
3.84 -7.04 -1.27
7.07 -12.94 1.81
4.66 -8.53 -1.19
9.99 -18.29 3.3
5.78 -10.58 -1.05
8.7 -15.93 3.53
5.68 -10.41 -0.62
6.94 -12.7 3.34
5.67 -10.39 -0.21
6.8 -12.45 3.8
1.97 -3.63 -1.11
2.88 -5.32 -1.4
7.03 -12.97 0.77
3.3 -6.09 -1.35
7.03 -12.98 1.29
3.82 -7.05 -1.27
7.01 -12.95 1.81
4.63 -8.54 -1.19
9.54 -17.61 3.17
5.74 -10.6 -1.06
8.63 -15.94 3.52
5.63 -10.4 -0.62
6.88 -12.7 3.33
5.63 -10.39 -0.21
6.75 -12.46 3.8
1.95 -3.63 -1.1
2.86 -5.33 -1.4
6.97 -12.98 0.77
3.28 -6.1 -1.35
6.98 -12.99 1.29
3.8 -7.07 -1.27
6.96 -12.95 1.81
4.59 -8.55 -1.19
9.83 -18.31 3.29
5.71 -10.63 -1.06
8.57 -15.96 3.52
5.6 -10.42 -0.62
6.82 -12.7 3.33
5.59 -10.4 -0.21
6.7 -12.47 3.79
1.92 -3.61 -1.1
2.85 -5.35 -1.4
6.91 -12.97 0.77
3.25 -6.1 -1.34
6.94 -13.03 1.29
3.64 -6.83 -1.23
6.91 -12.97 1.8
4.56 -8.57 -1.19
9.6 -18.02 3.23
5.67 -10.64 -1.05
8.51 -15.96 3.52
5.55 -10.42 -0.62
6.77 -12.71 3.32
5.54 -10.4 -0.21
6.65 -12.48 3.79
1.9 -3.6 -1.09
2.83 -5.36 -1.4
6.86 -12.99 0.77
3.23 -6.11 -1.34
6.86 -12.99 1.29
3.53 -6.69 -1.2
6.86 -12.98 1.8
4.54 -8.58 -1.19
9.64 -18.25 3.27
5.63 -10.66 -1.06
8.43 -15.96 3.51
5.51 -10.43 -0.62
6.72 -12.72 3.32
5.5 -10.4 -0.21
6.6 -12.48 3.78
1.89 -3.61 -1.09
2.81 -5.37 -1.4
6.81 -13 0.77
3.21 -6.13 -1.35
6.81 -13 1.28
3.5 -6.68 -1.19
6.8 -12.98 1.8
4.5 -8.6 -1.19
9.61 -18.35 3.28
5.59 -10.68 -1.06
8.36 -15.97 3.5
5.46 -10.44 -0.62
6.67 -12.73 3.32
5.46 -10.42 -0.21
6.54 -12.5 3.78
1.88 -3.61 -1.09
2.79 -5.37 -1.4
6.75 -13 0.77
3.19 -6.15 -1.35
6.76 -13.01 1.28
3.48 -6.69 -1.19
6.74 -12.98 1.8
4.47 -8.61 -1.19
9.54 -18.37 3.28
5.56 -10.71 -1.06
8.32 -16.02 3.51
5.41 -10.42 -0.62
6.62 -12.74 3.31
5.42 -10.43 -0.21
6.49 -12.5 3.77
1.86 -3.62 -1.09
2.77 -5.38 -1.4
6.69 -13 0.77
3.17 -6.15 -1.34
6.7 -13.02 1.28
3.45 -6.71 -1.19
6.69 -12.99 1.79
4.44 -8.62 -1.19
9.46 -18.38 3.27
5.53 -10.74 -1.06
8.3 -16.13 3.53
5.37 -10.43 -0.61
6.56 -12.74 3.31
5.38 -10.44 -0.21
6.44 -12.5 3.77
1.85 -3.62 -1.09
2.75 -5.39 -1.4
6.67 -13.06 0.77
3.14 -6.15 -1.34
6.67 -13.07 1.28
3.42 -6.71 -1.19
6.66 -13.06 1.8
4.41 -8.64 -1.19
9.38 -18.38 3.27
5.49 -10.75 -1.06
8.28 -16.21 3.54
5.33 -10.44 -0.61
6.5 -12.74 3.3
5.33 -10.45 -0.2
6.39 -12.51 3.76
1.82 -3.6 -1.08
2.73 -5.4 -1.4
15.26 -30.16 1.77
3.12 -6.17 -1.34
6.69 -13.21 1.3
3.4 -6.72 -1.19
6.69 -13.22 1.82
4.37 -8.65 -1.19
9.3 -18.38 3.26
5.45 -10.76 -1.06
8.22 -16.25 3.54
5.29 -10.46 -0.61
6.45 -12.75 3.3
5.29 -10.45 -0.2
6.33 -12.51 3.76
1.81 -3.6 -1.08
2.72 -5.41 -1.4
15.3 -30.49 1.79
3.1 -6.18 -1.34
6.7 -13.36 1.31
3.37 -6.72 -1.19
6.69 -13.34 1.83
4.35 -8.67 -1.19
9.23 -18.4 3.26
5.4 -10.77 -1.05
8.16 -16.26 3.54
5.25 -10.46 -0.61
6.4 -12.76 3.3
5.25 -10.46 -0.2
6.28 -12.52 3.75
1.8 -3.61 -1.08
2.69 -5.41 -1.4
15.21 -30.58 1.79
3.08 -6.19 -1.34
6.71 -13.48 1.32
3.38 -6.79 -1.2
6.32 -12.7 1.74
4.32 -8.68 -1.19
9.17 -18.44 3.26
5.37 -10.79 -1.05
6.3 -12.66 2.75
5.2 -10.45 -0.61
6.35 -12.77 3.29
5.21 -10.47 -0.2
6.23 -12.53 3.75
1.79 -3.62 -1.08
2.67 -5.42 -1.4
6.28 -12.73 0.74
3.06 -6.2 -1.34
6.28 -12.73 1.24
3.33 -6.76 -1.19
6.27 -12.72 1.74
4.28 -8.68 -1.19
6.27 -12.71 2.25
5.33 -10.81 -1.05
6.26 -12.7 2.75
5.17 -10.48 -0.61
6.29 -12.75 3.28
5.16 -10.46 -0.2
6.18 -12.54 3.75
1.77 -3.63 -1.08
2.66 -5.43 -1.4
6.24 -12.77 0.74
3.03 -6.2 -1.34
6.25 -12.79 1.25
3.31 -6.76 -1.19
6.25 -12.78 1.75
4.25 -8.7 -1.19
6.24 -12.77 2.25
5.3 -10.83 -1.05
6.23 -12.75 2.76
5.22 -10.67 -0.62
6.24 -12.77 3.28
5.12 -10.46 -0.2
6.13 -12.54 3.74
1.76 -3.63 -1.08
5.19 -10.7 0.21
2.64 -5.45 -1.4
6.19 -12.76 0.74
3.01 -6.22 -1.34
6.14 -12.67 1.23
3.28 -6.76 -1.19
6.13 -12.65 1.73
4.22 -8.71 -1.19
6.13 -12.65 2.23
5.25 -10.83 -1.05
6.11 -12.61 2.72
5.16 -10.64 -0.62
6.19 -12.77 3.28
5.07 -10.47 -0.2
6.08 -12.54 3.73
1.74 -3.63 -1.08
5.12 -10.66 0.21
2.62 -5.45 -1.4
6.08 -12.66 0.74
2.99 -6.22 -1.34
6.08 -12.66 1.23
3.31 -6.89 -1.21
6.07 -12.64 1.72
4.19 -8.73 -1.19
6.07 -12.64 2.22
5.21 -10.85 -1.05
6.05 -12.6 2.72
5.05 -10.51 -0.61
6.08 -12.67 3.24
5.03 -10.47 -0.2
6.02 -12.54 3.73
1.73 -3.64 -1.08
5.08 -10.67 0.21
2.59 -5.45 -1.39
6.04 -12.68 0.74
2.97 -6.25 -1.35
6.04 -12.68 1.23
3.29 -6.92 -1.21
6.03 -12.66 1.72
6.03 -12.66 2.22
3.65 -7.67 -0.74
6.01 -12.63 2.72
6.08 -12.77 3.27
4.99 -10.48 -0.2
5.98 -12.55 3.73
1.72 -3.65 -1.08
5.04 -10.68 0.21
2.58 -5.47 -1.4
6.04 -12.79 0.74
2.95 -6.25 -1.34
6.05 -12.82 1.24
3.24 -6.87 -1.2
6.04 -12.81 1.74
3.33 -7.06 -0.96
6.04 -12.8 2.24
3.6 -7.62 -0.74
6.03 -12.77 2.75
3.59 -7.61 -0.44
6.03 -12.79 3.26
4.95 -10.49 -0.2
5.93 -12.57 3.72
1.71 -3.66 -1.08
5 -10.7 0.21
2.56 -5.48 -1.4
6.01 -12.85 0.74
2.92 -6.25 -1.34
6.01 -12.85 1.24
3.2 -6.83 -1.19
5.99 -12.8 1.74
3.3 -7.06 -0.96
5.99 -12.8 2.24
3.57 -7.63 -0.74
5.97 -12.77 2.74
3.56 -7.61 -0.44
5.98 -12.8 3.26
4.9 -10.48 -0.2
5.88 -12.57 3.72
1.69 -3.65 -1.08
4.96 -10.71 0.21
2.54 -5.49 -1.4
5.92 -12.79 0.74
2.9 -6.27 -1.34
5.91 -12.77 1.23
3.15 -6.81 -1.19
5.91 -12.77 1.73
3.28 -7.08 -0.96
5.91 -12.76 2.23
5.89 -12.72 2.72
5.93 -12.81 3.26
4.86 -10.49 -0.2
5.82 -12.57 3.71
1.68 -3.66 -1.08
4.92 -10.71 0.21
2.52 -5.5 -1.4
5.89 -12.84 0.74
2.88 -6.28 -1.34
5.9 -12.85 1.24
3.12 -6.8 -1.18
5.89 -12.84 1.73
3.26 -7.1 -0.96
5.89 -12.83 2.24
4.84 -10.54 -1.02
5.87 -12.78 2.73
4.87 -10.62 -0.61
5.88 -12.82 3.26
4.82 -10.5 -0.2
5.77 -12.57 3.71
1.67 -3.67 -1.08
4.88 -10.73 0.21
2.5 -5.5 -1.39
5.86 -12.87 0.74
2.86 -6.29 -1.34
3.1 -6.81 -1.19
3.23 -7.11 -0.96
4.8 -10.56 -1.02
4.82 -10.59 -0.61
5.83 -12.82 3.25
4.78 -10.51 -0.2
5.72 -12.58 3.7
1.66 -3.68 -1.08
4.85 -10.76 0.21
2.48 -5.5 -1.39
2.84 -6.3 -1.34
13.85 -30.72 2.95
3.08 -6.83 -1.19
10.17 -22.57 3.04
3.2 -7.1 -0.96
9.43 -20.91 3.63
4.76 -10.57 -1.01
7.48 -16.6 3.54
4.76 -10.56 -0.61
5.78 -12.81 3.24
4.74 -10.51 -0.2
5.67 -12.59 3.7
1.64 -3.68 -1.08
2.47 -5.52 -1.4
2.82 -6.3 -1.34
13.73 -30.73 2.94
3.05 -6.83 -1.19
10.09 -22.59 3.04
3.17 -7.09 -0.95
9.35 -20.93 3.63
4.72 -10.57 -1.01
6.2 -13.88 2.95
4.84 -10.83 -0.62
5.73 -12.83 3.24
4.7 -10.52 -0.2
5.62 -12.59 3.69
1.62 -3.67 -1.08
2.45 -5.54 -1.4
2.8 -6.32 -1.34
13.6 -30.74 2.94
3.03 -6.84 -1.19
10.02 -22.64 3.04
3.14 -7.09 -0.95
4.68 -10.57 -1.01
7.36 -16.65 3.54
4.68 -10.58 -0.61
5.68 -12.83 3.24
4.66 -10.54 -0.2
5.57 -12.59 3.69
1.61 -3.67 -1.07
2.43 -5.54 -1.4
10.18 -23.24 1.33
2.77 -6.33 -1.34
10.14 -23.15 2.21
3 -6.84 -1.18
9.92 -22.64 3.04
3.1 -7.08 -0.95
6.3 -14.38 2.49
4.65 -10.61 -1.01
6.26 -14.29 3.03
4.63 -10.58 -0.61
5.63 -12.84 3.24
4.62 -10.55 -0.2
5.52 -12.61 3.69
1.59 -3.68 -1.07
2.41 -5.55 -1.4
5.69 -13.12 0.75
2.75 -6.35 -1.34
10.03 -23.12 2.2
2.97 -6.85 -1.18
9.83 -22.65 3.03
3.06 -7.06 -0.94
6.31 -14.55 2.51
4.64 -10.7 -1.02
7.24 -16.69 3.54
4.58 -10.57 -0.6
5.57 -12.84 3.23
4.58 -10.56 -0.2
5.47 -12.61 3.68
1.58 -3.68 -1.07
2.38 -5.54 -1.39
5.63 -13.1 0.75
2.73 -6.35 -1.34
5.64 -13.11 1.25
2.95 -6.86 -1.18
5.62 -13.08 1.75
3.03 -7.05 -0.94
6.2 -14.41 2.48
4.74 -11.01 -1.05
7.17 -16.67 3.53
4.56 -10.61 -0.61
5.52 -12.85 3.23
4.54 -10.57 -0.2
5.43 -12.62 3.68
1.57 -3.68 -1.07
4.67 -10.97 0.21
2.36 -5.55 -1.39
5.58 -13.11 0.75
2.7 -6.35 -1.34
5.58 -13.11 1.25
2.92 -6.86 -1.18
5.58 -13.1 1.75
3.01 -7.06 -0.94
6.16 -14.47 2.49
4.7 -11.04 -1.05
7.11 -16.7 3.53
4.57 -10.74 -0.61
5.47 -12.85 3.23
4.5 -10.58 -0.2
5.38 -12.62 3.68
1.55 -3.68 -1.07
4.62 -10.95 0.21
2.35 -5.56 -1.39
5.53 -13.12 0.75
2.68 -6.36 -1.34
5.53 -13.11 1.24
2.89 -6.85 -1.18
5.52 -13.1 1.75
2.98 -7.08 -0.94
6.17 -14.64 2.52
4.65 -11.03 -1.05
6.29 -14.93 3.15
4.47 -10.59 -0.6
5.42 -12.87 3.22
4.47 -10.59 -0.2
5.32 -12.62 3.67
1.56 -3.74 -1.09
4.58 -10.98 0.21
2.32 -5.57 -1.39
5.48 -13.13 0.75
2.66 -6.38 -1.34
5.48 -13.13 1.24
2.86 -6.86 -1.18
5.47 -13.11 1.74
2.96 -7.1 -0.94
8.8 -21.09 3.62
4.62 -11.07 -1.05
6.33 -15.16 3.19
4.42 -10.6 -0.6
5.38 -12.88 3.22
4.43 -10.62 -0.2
5.27 -12.63 3.67
1.58 -3.83 -1.11
4.6 -11.12 0.21
2.3 -5.57 -1.39
5.43 -13.12 0.74
2.65 -6.4 -1.35
5.43 -13.13 1.24
2.84 -6.87 -1.18
5.42 -13.1 1.74
2.93 -7.09 -0.94
8.73 -21.11 3.62
4.58 -11.07 -1.05
6.91 -16.7 3.51
4.38 -10.59 -0.6
5.33 -12.88 3.22
4.4 -10.65 -0.2
5.23 -12.64 3.66
1.58 -3.85 -1.12
4.53 -11.06 0.21
2.28 -5.58 -1.39
5.37 -13.12 0.74
2.62 -6.4 -1.35
5.38 -13.14 1.24
2.82 -6.88 -1.18
5.37 -13.11 1.74
2.9 -7.09 -0.94
8.68 -21.2 3.63
4.54 -11.1 -1.05
6.84 -16.7 3.51
4.35 -10.62 -0.6
5.27 -12.88 3.21
4.37 -10.67 -0.2
5.18 -12.64 3.66
1.57 -3.87 -1.12
5.25 -12.94 0.24
2.27 -5.59 -1.39
5.32 -13.13 0.74
2.6 -6.41 -1.34
5.32 -13.13 1.24
2.8 -6.9 -1.18
5.32 -13.12 1.74
2.88 -7.1 -0.94
6.42 -15.83 2.71
4.5 -11.1 -1.05
4.32 -10.64 -0.6
5.22 -12.88 3.21
4.34 -10.69 -0.2
5.13 -12.65 3.66
1.62 -4.03 -1.16
5.18 -12.91 0.24
2.25 -5.6 -1.39
5.27 -13.14 0.74
2.58 -6.42 -1.34
5.27 -13.13 1.24
2.77 -6.9 -1.18
5.27 -13.14 1.74
2.86 -7.12 -0.94
6.41 -15.98 2.73
4.46 -11.12 -1.05
6.41 -15.97 3.34
4.28 -10.67 -0.6
5.17 -12.89 3.21
4.31 -10.74 -0.2
5.07 -12.64 3.65
1.62 -4.06 -1.17
4.61 -11.6 0.22
2.23 -5.61 -1.39
5.22 -13.13 0.74
2.55 -6.43 -1.34
5.12 -12.89 1.21
2.74 -6.89 -1.17
5.12 -12.88 1.7
2.83 -7.12 -0.94
5.11 -12.87 2.19
4.42 -11.13 -1.05
5.09 -12.81 2.68
4.25 -10.69 -0.6
5.13 -12.91 3.21
4.29 -10.79 -0.2
5.03 -12.65 3.65
5.07 -12.88 0.24
2.21 -5.61 -1.39
5.06 -12.87 0.72
2.53 -6.44 -1.35
5.05 -12.85 1.21
2.71 -6.88 -1.17
5.05 -12.85 1.69
2.8 -7.12 -0.94
5.05 -12.84 2.19
4.38 -11.15 -1.05
5.05 -12.84 2.68
4.22 -10.72 -0.6
5.08 -12.91 3.2
4.26 -10.82 -0.2
4.98 -12.66 3.65
1.95 -5 -1.44
5.05 -12.97 0.24
2.19 -5.63 -1.39
5.04 -12.93 0.73
2.51 -6.44 -1.34
5.04 -12.95 1.22
2.68 -6.89 -1.17
5.04 -12.93 1.7
2.77 -7.12 -0.94
5.03 -12.91 2.19
4.35 -11.18 -1.05
5.02 -12.89 2.69
4.19 -10.76 -0.61
5.03 -12.9 3.2
4.24 -10.9 -0.2
4.93 -12.67 3.64
1.93 -5.01 -1.44
5.01 -13 0.24
2.17 -5.63 -1.39
5.04 -13.08 0.73
2.48 -6.45 -1.34
5.07 -13.15 1.23
2.66 -6.9 -1.17
5.05 -13.12 1.73
2.75 -7.12 -0.94
4.98 -12.93 2.2
4.31 -11.19 -1.05
4.97 -12.91 2.69
4.16 -10.8 -0.61
4.98 -12.91 3.19
4.22 -10.94 -0.2
4.88 -12.67 3.64
1.91 -5.01 -1.44
4.96 -12.99 0.24
2.15 -5.64 -1.39
5.02 -13.16 0.74
2.46 -6.45 -1.34
5.02 -13.16 1.23
2.63 -6.91 -1.17
5.02 -13.15 1.73
2.72 -7.14 -0.94
4.27 -11.18 -1.05
4.14 -10.85 -0.61
4.93 -12.92 3.19
4.2 -11 -0.21
4.83 -12.67 3.63
1.89 -5.02 -1.44
4.9 -12.99 0.24
2.13 -5.65 -1.39
4.98 -13.19 0.74
2.44 -6.47 -1.34
4.98 -13.2 1.23
2.61 -6.92 -1.17
4.97 -13.18 1.73
2.7 -7.15 -0.94
8.07 -21.38 3.62
4.22 -11.19 -1.05
6.42 -17.01 3.53
4.12 -10.92 -0.61
4.88 -12.93 3.19
4.18 -11.07 -0.21
4.79 -12.68 3.63
1.88 -5.03 -1.44
4.85 -12.99 0.24
2.11 -5.65 -1.39
4.98 -13.33 0.75
2.42 -6.48 -1.35
5 -13.39 1.25
2.59 -6.93 -1.17
4.99 -13.36 1.75
2.67 -7.14 -0.94
4.19 -11.22 -1.05
6.35 -17.01 3.53
4.11 -11 -0.62
4.83 -12.93 3.19
4.2 -11.23 -0.21
4.74 -12.69 3.63
1.86 -5.04 -1.44
4.8 -13 0.24
2.09 -5.66 -1.39
5.01 -13.56 0.76
2.4 -6.49 -1.34
5.02 -13.59 1.27
2.56 -6.93 -1.17
5.01 -13.56 1.78
2.64 -7.14 -0.93
6.68 -18.08 3.05
4.15 -11.24 -1.05
6.29 -17.03 3.53
4.1 -11.1 -0.62
4.78 -12.93 3.18
4.2 -11.38 -0.21
4.69 -12.7 3.63
1.84 -5.04 -1.44
4.76 -13.01 0.24
2.07 -5.68 -1.4
6.01 -16.43 0.92
2.37 -6.49 -1.34
6.01 -16.45 1.53
2.53 -6.92 -1.17
8.47 -23.16 3.03
2.62 -7.16 -0.94
6.61 -18.09 3.05
4.11 -11.24 -1.05
6.23 -17.05 3.53
4.12 -11.27 -0.63
4.73 -12.94 3.18
4.22 -11.55 -0.21
4.64 -12.7 3.62
1.82 -5.04 -1.44
4.7 -13.01 0.24
2.06 -5.69 -1.4
5.96 -16.49 0.92
2.35 -6.5 -1.34
5.96 -16.48 1.53
2.5 -6.93 -1.17
8.37 -23.16 3.02
2.59 -7.18 -0.94
7.74 -21.42 3.61
4.05 -11.19 -1.04
6.17 -17.05 3.53
4.15 -11.47 -0.64
4.68 -12.95 3.18
4.24 -11.73 -0.22
4.59 -12.7 3.62
1.81 -5.05 -1.44
4.65 -13.01 0.24
2.04 -5.7 -1.4
5.93 -16.57 0.92
2.33 -6.51 -1.34
5.92 -16.56 1.54
2.48 -6.93 -1.17
8.29 -23.17 3.02
2.57 -7.2 -0.94
6.73 -18.82 3.17
4 -11.18 -1.04
6.1 -17.05 3.52
4.2 -11.75 -0.65
4.63 -12.96 3.18
4.66 -13.02 -0.24
4.54 -12.71 3.62
1.79 -5.06 -1.44
4.6 -13.02 0.24
2.01 -5.69 -1.39
2.3 -6.51 -1.34
2.45 -6.94 -1.17
8.19 -23.17 3.02
2.55 -7.21 -0.94
6.76 -19.12 3.21
3.96 -11.2 -1.04
6.03 -17.06 3.52
4.54 -12.85 -0.71
4.58 -12.96 3.17
4.61 -13.04 -0.24
4.5 -12.72 3.61
1.78 -5.08 -1.44
4.56 -13.03 0.24
2 -5.7 -1.4
10.63 -30.35 1.69
2.29 -6.53 -1.34
2.43 -6.94 -1.16
8.11 -23.17 3.01
2.53 -7.22 -0.94
7.55 -21.57 3.62
3.93 -11.22 -1.04
5.98 -17.07 3.52
4.5 -12.86 -0.71
4.54 -12.96 3.17
4.57 -13.04 -0.24
4.46 -12.73 3.61
1.76 -5.08 -1.44
4.51 -13.03 0.24
1.98 -5.72 -1.4
10.63 -30.7 1.7
2.26 -6.53 -1.34
2.41 -6.95 -1.17
2.5 -7.23 -0.94
7.47 -21.6 3.62
3.9 -11.28 -1.04
5.91 -17.07 3.51
4.45 -12.86 -0.71
4.49 -12.97 3.17
4.51 -13.03 -0.24
4.4 -12.72 3.61
1.74 -5.08 -1.44
4.46 -13.04 0.24
1.96 -5.72 -1.4
10.63 -31.08 1.72
2.24 -6.54 -1.34
10.62 -31.06 2.87
2.38 -6.95 -1.16
6.89 -20.14 2.61
2.47 -7.24 -0.94
6.86 -20.06 3.36
3.86 -11.28 -1.04
5.84 -17.09 3.51
4.4 -12.87 -0.71
4.44 -12.98 3.17
4.45 -13.02 -0.24
4.35 -12.72 3.6
1.72 -5.09 -1.44
4.4 -13.03 0.24
1.94 -5.73 -1.4
10.51 -31.09 1.72
2.21 -6.54 -1.34
10.49 -31.05 2.87
2.35 -6.96 -1.16
2.45 -7.24 -0.94
6.82 -20.19 3.38
3.82 -11.31 -1.04
5.77 -17.08 3.51
4.35 -12.88 -0.71
4.39 -12.99 3.17
4.41 -13.05 -0.24
4.3 -12.73 3.6
1.7 -5.09 -1.44
4.36 -13.04 0.24
1.92 -5.73 -1.39
8.36 -25.01 1.38
2.2 -6.57 -1.35
4.13 -12.34 1.14
2.33 -6.97 -1.16
4.13 -12.34 1.6
2.42 -7.24 -0.94
4.37 -13.06 2.18
3.78 -11.31 -1.04
5.72 -17.1 3.5
4.3 -12.87 -0.71
4.34 -12.98 3.16
4.37 -13.06 -0.24
4.26 -12.74 3.6
1.69 -5.1 -1.44
4.31 -13.06 0.24
1.89 -5.74 -1.39
4.34 -13.12 0.72
2.17 -6.58 -1.35
4.13 -12.5 1.15
2.31 -6.99 -1.17
4.14 -12.54 1.62
2.39 -7.23 -0.94
4.3 -13.03 2.17
3.74 -11.33 -1.04
4.25 -12.88 -0.71
4.29 -12.99 3.16
4.31 -13.06 -0.24
4.21 -12.76 3.6
1.67 -5.11 -1.44
4.24 -13 0.24
1.88 -5.74 -1.4
4.24 -12.98 0.72
2.15 -6.58 -1.35
4.14 -12.69 1.17
2.29 -7.01 -1.17
4.16 -12.74 1.65
2.36 -7.24 -0.94
4.22 -12.93 2.15
3.71 -11.38 -1.05
4.22 -12.94 2.65
4.21 -12.89 -0.71
4.24 -12.99 3.16
4.24 -12.99 -0.24
4.16 -12.75 3.59
1.65 -5.1 -1.44
4.19 -13 0.24
1.86 -5.76 -1.4
4.18 -12.97 0.71
2.12 -6.59 -1.35
4.17 -12.94 1.19
2.26 -7.01 -1.17
4.17 -12.95 1.67
2.34 -7.25 -0.94
4.18 -12.96 2.16
3.67 -11.39 -1.05
4.17 -12.93 2.64
4.16 -12.89 -0.71
4.19 -12.99 3.15
4.2 -13.02 -0.24
4.11 -12.75 3.59
1.63 -5.11 -1.44
4.17 -13.07 0.24
1.84 -5.76 -1.4
4.17 -13.06 0.72
2.1 -6.6 -1.35
4.16 -13.05 1.2
2.23 -7 -1.16
4.16 -13.03 1.68
2.31 -7.25 -0.93
4.16 -13.03 2.17
3.63 -11.39 -1.05
4.14 -12.98 2.65
4.11 -12.89 -0.71
4.15 -13.01 3.15
4.17 -13.08 -0.24
4.07 -12.76 3.59
1.61 -5.12 -1.44
4.12 -13.08 0.24
1.82 -5.76 -1.4
2.08 -6.6 -1.35
2.2 -7 -1.16
7.32 -23.26 2.99
2.28 -7.23 -0.93
4.1 -13.03 2.16
3.59 -11.4 -1.05
4.09 -12.99 2.65
4.06 -12.89 -0.71
4.09 -13 3.15
4.12 -13.09 -0.24
4.02 -12.77 3.59
1.6 -5.13 -1.44
4.07 -13.08 0.24
1.8 -5.77 -1.4
2.06 -6.61 -1.35
9.7 -31.15 2.85
2.18 -7 -1.16
7.25 -23.28 2.99
2.25 -7.23 -0.93
5.62 -18.05 2.99
3.56 -11.43 -1.05
4.01 -12.9 -0.71
4.05 -13 3.14
4.07 -13.09 -0.24
3.98 -12.78 3.59
1.58 -5.14 -1.44
4.02 -13.09 0.24
1.78 -5.78 -1.4
2.03 -6.61 -1.34
9.58 -31.16 2.85
2.16 -7.03 -1.16
7.16 -23.29 2.99
2.22 -7.22 -0.93
6.66 -21.69 3.59
3.51 -11.43 -1.05
5.29 -17.23 3.5
3.97 -12.91 -0.71
4 -13.01 3.14
4.02 -13.09 -0.24
3.93 -12.78 3.58
1.56 -5.13 -1.44
3.98 -13.1 0.24
1.76 -5.79 -1.4
2.01 -6.61 -1.34
9.46 -31.15 2.85
2.14 -7.04 -1.16
7.07 -23.3 2.99
2.19 -7.21 -0.93
6.59 -21.7 3.59
3.47 -11.43 -1.05
5.24 -17.25 3.51
3.92 -12.92 -0.71
3.95 -13.02 3.14
3.98 -13.1 -0.24
3.88 -12.78 3.58
1.54 -5.14 -1.44
3.92 -13.09 0.24
1.74 -5.8 -1.4
1.98 -6.62 -1.34
9.34 -31.18 2.85
2.11 -7.04 -1.16
6.99 -23.33 2.99
2.17 -7.23 -0.93
6.51 -21.72 3.59
3.43 -11.45 -1.05
5.19 -17.32 3.51
3.87 -12.92 -0.71
3.91 -13.03 3.14
3.93 -13.11 -0.24
3.83 -12.79 3.58
1.53 -5.15 -1.44
3.88 -13.11 0.24
1.71 -5.79 -1.39
1.96 -6.63 -1.34
9.24 -31.2 2.85
2.09 -7.05 -1.16
6.91 -23.32 2.99
2.15 -7.25 -0.93
6.44 -21.74 3.59
3.39 -11.45 -1.04
5.14 -17.37 3.52
3.83 -12.92 -0.71
3.86 -13.03 3.14
3.88 -13.11 -0.24
3.79 -12.8 3.58
1.51 -5.16 -1.44
3.83 -13.11 0.24
1.7 -5.81 -1.4
1.94 -6.64 -1.34
9.12 -31.22 2.85
2.06 -7.06 -1.17
6.82 -23.34 2.99
2.13 -7.3 -0.93
6.36 -21.77 3.59
5.08 -17.39 3.52
3.78 -12.93 -0.71
3.81 -13.04 3.14
3.83 -13.12 -0.24
3.74 -12.81 3.58
1.49 -5.16 -1.44
3.79 -13.12 0.24
1.68 -5.82 -1.4
1.92 -6.63 -1.34
9.02 -31.23 2.84
2.04 -7.07 -1.17
6.75 -23.36 2.99
2.11 -7.32 -0.94
6.29 -21.79 3.59
5.02 -17.39 3.52
3.74 -12.95 -0.71
3.77 -13.05 3.14
3.79 -13.11 -0.24
3.7 -12.81 3.57
1.47 -5.16 -1.44
3.74 -13.12 0.24
1.66 -5.82 -1.4
4.42 -15.51 0.85
1.89 -6.65 -1.34
8.9 -31.25 2.84
2.01 -7.07 -1.16
6.65 -23.36 2.98
2.08 -7.31 -0.93
6.21 -21.8 3.59
4.96 -17.41 3.52
3.69 -12.95 -0.71
3.72 -13.06 3.13
3.74 -13.12 -0.24
3.65 -12.81 3.57
1.45 -5.17 -1.44
3.69 -13.12 0.24
1.64 -5.83 -1.4
4.36 -15.52 0.85
1.87 -6.65 -1.34
8.78 -31.24 2.84
1.98 -7.05 -1.16
6.57 -23.37 2.98
2.05 -7.29 -0.93
6.14 -21.83 3.59
4.9 -17.43 3.52
3.67 -13.07 3.13
3.69 -13.13 -0.24
3.6 -12.82 3.57
1.44 -5.18 -1.44
3.64 -13.12 0.24
1.61 -5.83 -1.4
4.31 -15.54 0.85
1.85 -6.67 -1.35
8.66 -31.26 2.84
1.95 -7.04 -1.16
6.49 -23.41 2.98
2.02 -7.29 -0.93
6.06 -21.85 3.59
4.82 -17.41 3.51
3.62 -13.07 3.13
3.64 -13.14 -0.24
3.55 -12.82 3.56
1.42 -5.19 -1.44
3.59 -13.14 0.24
1.6 -5.84 -1.4
4.26 -15.55 0.85
1.82 -6.66 -1.34
8.56 -31.28 2.84
1.93 -7.06 -1.16
6.31 -23.06 2.94
1.99 -7.28 -0.93
5.95 -21.74 3.57
4.77 -17.45 3.52
3.58 -13.07 3.13
3.59 -13.14 -0.24
3.51 -12.84 3.57
1.4 -5.19 -1.44
3.55 -13.15 0.24
1.58 -5.85 -1.4
4.2 -15.57 0.85
1.79 -6.66 -1.34
8.44 -31.28 2.83
1.9 -7.06 -1.16
1.96 -7.28 -0.93
5.81 -21.54 3.53
3.54 -13.13 2.64
3.52 -13.07 3.13
3.54 -13.14 -0.24
3.46 -12.84 3.56
1.38 -5.19 -1.44
3.5 -13.15 0.24
1.56 -5.86 -1.4
4.15 -15.58 0.85
1.78 -6.67 -1.34
8.33 -31.29 2.83
1.88 -7.06 -1.16
6.18 -23.21 2.95
1.94 -7.29 -0.93
5.74 -21.57 3.53
3.49 -13.11 2.64
3.48 -13.08 3.12
3.5 -13.15 -0.24
3.42 -12.83 3.56
1.36 -5.2 -1.44
3.45 -13.14 0.24
1.54 -5.86 -1.4
4.09 -15.6 0.85
1.75 -6.67 -1.34
8.22 -31.31 2.83
1.85 -7.05 -1.15
3.44 -13.13 1.67
1.91 -7.3 -0.93
3.44 -13.11 2.15
3.43 -13.09 3.12
3.45 -13.15 -0.24
3.37 -12.84 3.56
1.35 -5.2 -1.44
3.39 -13.08 0.24
1.52 -5.86 -1.4
3.38 -13.06 0.71
1.73 -6.69 -1.34
3.38 -13.05 1.18
1.82 -7.05 -1.15
3.37 -13.02 1.65
1.89 -7.3 -0.93
3.38 -13.07 2.14
3.37 -13.03 2.62
3.39 -13.09 3.12
3.39 -13.09 -0.24
3.33 -12.85 3.56
1.33 -5.21 -1.44
3.34 -13.1 0.24
1.5 -5.87 -1.4
3.33 -13.07 0.71
1.7 -6.68 -1.34
3.34 -13.09 1.18
1.8 -7.04 -1.15
3.33 -13.06 1.65
1.86 -7.3 -0.93
3.33 -13.05 2.13
3.32 -13.02 2.61
3.34 -13.08 3.12
3.35 -13.13 -0.24
3.28 -12.85 3.55
1.31 -5.22 -1.44
3.31 -13.17 0.24
1.48 -5.88 -1.4
3.31 -13.15 0.71
1.68 -6.68 -1.34
3.3 -13.15 1.19
1.77 -7.05 -1.15
3.3 -13.12 1.66
1.84 -7.3 -0.92
3.3 -13.11 2.14
3.29 -13.08 2.62
3.29 -13.1 3.12
3.31 -13.16 -0.24
3.23 -12.85 3.55
1.29 -5.21 -1.44
3.26 -13.17 0.24
1.46 -5.89 -1.4
1.66 -6.69 -1.34
1.74 -7.04 -1.15
5.81 -23.46 2.97
1.81 -7.31 -0.92
2.02 -8.14 -0.73
3.25 -13.11 3.12
3.26 -13.16 -0.24
3.18 -12.85 3.55
1.28 -5.23 -1.44
3.21 -13.17 0.24
1.44 -5.89 -1.4
3.24 -13.26 0.72
1.64 -6.7 -1.34
7.66 -31.37 2.83
1.72 -7.06 -1.15
5.73 -23.47 2.97
1.78 -7.3 -0.92
5.28 -21.62 3.53
1.99 -8.15 -0.73
4.08 -16.71 3.34
3.2 -13.11 3.12
3.22 -13.18 -0.24
3.14 -12.85 3.55
1.26 -5.23 -1.44
3.17 -13.18 0.24
1.42 -5.89 -1.4
3.74 -15.54 0.84
1.61 -6.71 -1.34
7.55 -31.4 2.83
1.7 -7.06 -1.15
5.64 -23.44 2.96
1.76 -7.31 -0.92
5.2 -21.63 3.52
2.01 -8.37 -0.75
4.02 -16.72 3.34
3.15 -13.12 3.11
3.09 -12.86 3.55
1.24 -5.24 -1.44
3.12 -13.19 0.24
1.39 -5.9 -1.4
1.59 -6.71 -1.34
1.67 -7.06 -1.15
5.56 -23.49 2.96
1.73 -7.31 -0.92
5.12 -21.63 3.52
2.01 -8.49 -0.76
3.97 -16.78 3.35
3.1 -13.12 3.11
3.04 -12.87 3.54
1.22 -5.24 -1.44
3.07 -13.19 0.24
1.38 -5.91 -1.4
5.51 -23.65 1.27
1.56 -6.7 -1.34
5.49 -23.58 2.12
1.65 -7.07 -1.15
5.47 -23.47 2.96
1.71 -7.34 -0.92
5.04 -21.63 3.52
1.98 -8.51 -0.76
3.9 -16.75 3.34
3.06 -13.12 3.11
2.09 -8.96 -0.16
3 -12.88 3.54
1.2 -5.23 -1.44
3.03 -13.19 0.24
1.36 -5.93 -1.4
5.41 -23.56 1.27
1.54 -6.72 -1.34
5.41 -23.59 2.12
1.62 -7.07 -1.15
5.39 -23.49 2.96
1.69 -7.35 -0.93
4.96 -21.63 3.52
1.88 -8.2 -0.74
3.85 -16.76 3.34
3.01 -13.13 3.11
2.04 -8.9 -0.16
2.95 -12.87 3.54
1.18 -5.25 -1.44
2.98 -13.19 0.24
1.34 -5.92 -1.4
5.33 -23.63 1.27
1.52 -6.72 -1.34
5.34 -23.65 2.12
1.59 -7.05 -1.15
5.3 -23.5 2.96
1.67 -7.38 -0.93
4.89 -21.66 3.52
1.85 -8.17 -0.73
3.78 -16.75 3.34
2.97 -13.14 3.11
2 -8.84 -0.16
2.91 -12.88 3.54
1.17 -5.26 -1.44
2.93 -13.2 0.24
1.31 -5.92 -1.4
5.34 -24.06 1.29
1.49 -6.73 -1.34
5.34 -24.06 2.16
1.56 -7.05 -1.14
5.21 -23.5 2.96
1.64 -7.37 -0.93
4.81 -21.69 3.52
1.81 -8.16 -0.73
3.72 -16.77 3.34
2.92 -13.14 3.11
1.96 -8.82 -0.16
2.86 -12.89 3.54
1.15 -5.27 -1.45
2.88 -13.21 0.24
1.29 -5.93 -1.4
5.26 -24.09 1.29
1.47 -6.74 -1.34
5.26 -24.1 2.16
1.54 -7.06 -1.14
5.13 -23.51 2.96
1.61 -7.37 -0.93
4.73 -21.67 3.51
1.78 -8.17 -0.73
3.66 -16.78 3.34
2.87 -13.14 3.11
1.92 -8.79 -0.16
2.82 -12.9 3.54
1.13 -5.27 -1.44
2.84 -13.21 0.24
1.28 -5.94 -1.4
1.45 -6.74 -1.34
6.75 -31.45 2.81
1.52 -7.06 -1.14
5.05 -23.52 2.95
1.58 -7.38 -0.93
4.66 -21.68 3.51
1.76 -8.18 -0.73
3.6 -16.77 3.33
2.82 -13.15 3.1
1.87 -8.72 -0.16
2.77 -12.9 3.54
1.11 -5.26 -1.44
2.79 -13.22 0.24
1.26 -5.95 -1.4
6.67 -31.58 1.69
1.43 -6.76 -1.34
6.64 -31.45 2.81
1.49 -7.06 -1.14
4.97 -23.54 2.95
1.56 -7.4 -0.93
4.58 -21.69 3.51
1.73 -8.19 -0.73
3.54 -16.76 3.33
1.73 -8.21 -0.44
2.78 -13.15 3.1
1.84 -8.71 -0.16
2.72 -12.9 3.53
1.09 -5.27 -1.44
2.74 -13.22 0.24
1.23 -5.95 -1.4
6.53 -31.5 1.69
1.4 -6.77 -1.34
6.08 -29.3 2.62
1.46 -7.06 -1.14
4.88 -23.54 2.95
1.54 -7.41 -0.93
4.5 -21.7 3.51
1.71 -8.25 -0.74
3.48 -16.77 3.33
1.69 -8.17 -0.44
2.73 -13.17 3.1
1.8 -8.65 -0.15
2.68 -12.91 3.53
1.08 -5.28 -1.44
2.7 -13.23 0.24
1.21 -5.95 -1.4
6.42 -31.51 1.69
1.38 -6.76 -1.34
2.71 -13.28 1.19
1.44 -7.08 -1.15
4.8 -23.54 2.95
1.51 -7.41 -0.93
3.74 -18.35 2.97
1.68 -8.26 -0.74
3.42 -16.78 3.33
1.66 -8.15 -0.44
2.68 -13.17 3.1
1.76 -8.64 -0.15
2.63 -12.92 3.53
1.06 -5.29 -1.44
2.65 -13.24 0.24
1.19 -5.95 -1.4
6.23 -31.14 1.66
1.35 -6.76 -1.34
2.66 -13.29 1.19
1.42 -7.08 -1.14
4.71 -23.55 2.95
1.48 -7.41 -0.93
4.35 -21.74 3.51
1.65 -8.25 -0.74
3.37 -16.82 3.33
1.63 -8.16 -0.44
2.64 -13.17 3.1
1.7 -8.48 -0.15
2.59 -12.92 3.53
1.04 -5.29 -1.45
2.6 -13.25 0.24
1.17 -5.96 -1.4
6.13 -31.16 1.66
1.33 -6.76 -1.34
2.61 -13.3 1.19
1.39 -7.07 -1.14
4.63 -23.56 2.95
1.46 -7.41 -0.93
4.38 -22.29 3.6
1.69 -8.6 -0.77
3.3 -16.8 3.33
1.61 -8.17 -0.44
2.59 -13.18 3.1
1.66 -8.43 -0.15
2.54 -12.93 3.53
1.02 -5.29 -1.44
2.55 -13.2 0.23
1.16 -5.98 -1.41
2.55 -13.19 0.7
1.31 -6.77 -1.34
2.54 -13.15 1.17
1.38 -7.13 -1.15
2.55 -13.17 1.65
1.44 -7.43 -0.93
1.64 -8.49 -0.76
2.54 -13.13 2.6
1.58 -8.17 -0.44
2.54 -13.14 3.09
1.62 -8.37 -0.15
2.5 -12.93 3.53
1 -5.3 -1.44
2.5 -13.17 0.23
1.13 -5.98 -1.4
1.28 -6.77 -1.34
2.49 -13.14 1.17
1.35 -7.12 -1.15
2.49 -13.15 1.64
1.41 -7.44 -0.93
2.5 -13.15 2.12
1.55 -8.19 -0.73
1.55 -8.17 -0.44
2.49 -13.1 3.08
1.6 -8.42 -0.15
2.45 -12.93 3.53
0.99 -5.3 -1.44
2.47 -13.25 0.24
1.11 -5.97 -1.4
2.46 -13.24 0.71
1.26 -6.78 -1.34
2.46 -13.23 1.18
1.33 -7.12 -1.15
2.46 -13.21 1.65
1.38 -7.44 -0.93
2.46 -13.22 2.13
1.53 -8.22 -0.73
2.45 -13.18 2.6
1.52 -8.16 -0.44
2.45 -13.19 3.1
2.41 -12.95 3.53
0.97 -5.32 -1.45
2.41 -13.19 0.23
1.09 -5.97 -1.4
2.41 -13.21 0.7
1.24 -6.79 -1.34
2.4 -13.17 1.17
1.3 -7.13 -1.15
2.39 -13.12 1.64
1.36 -7.46 -0.93
2.4 -13.18 2.12
2.4 -13.14 2.6
1.49 -8.17 -0.44
2.4 -13.13 3.08
2.36 -12.96 3.53
0.64 -3.58 -0.97
2.34 -13.08 0.23
1.07 -5.99 -1.4
2.33 -13.06 0.7
1.21 -6.79 -1.34
2.33 -13.06 1.16
1.27 -7.12 -1.15
2.33 -13.05 1.63
1.34 -7.47 -0.93
2.33 -13.03 2.1
1.5 -8.39 -0.75
2.33 -13.02 2.57
1.46 -8.18 -0.44
2.33 -13.03 3.06
1.51 -8.44 -0.15
2.32 -12.96 3.53
0.62 -3.56 -0.97
2.29 -13.08 0.23
1.05 -6 -1.41
2.29 -13.07 0.7
1.19 -6.79 -1.34
2.29 -13.06 1.16
1.25 -7.13 -1.15
2.29 -13.06 1.63
1.31 -7.48 -0.93
2.28 -13.04 2.1
1.44 -8.25 -0.73
2.28 -13.02 2.57
1.44 -8.2 -0.44
2.28 -13.03 3.05
2.27 -12.96 3.53
0.61 -3.57 -0.97
2.25 -13.13 0.23
1.03 -6 -1.41
2.25 -13.11 0.7
1.17 -6.79 -1.34
2.25 -13.13 1.17
1.22 -7.13 -1.15
2.25 -13.1 1.63
2.24 -13.07 2.1
1.41 -8.21 -0.73
2.24 -13.05 2.57
1.41 -8.2 -0.44
2.25 -13.09 3.07
2.23 -12.96 3.52
0.6 -3.57 -0.97
2.23 -13.27 0.23
1.01 -6 -1.4
2.23 -13.27 0.71
1.14 -6.8 -1.34
2.23 -13.26 1.18
1.2 -7.14 -1.15
2.22 -13.23 1.65
1.39 -8.27 -1.03
2.22 -13.24 2.13
1.38 -8.21 -0.73
2.22 -13.23 2.61
1.39 -8.25 -0.44
2.22 -13.21 3.09
2.18 -12.97 3.52
0.59 -3.57 -0.97
2.18 -13.23 0.23
0.99 -6 -1.4
2.17 -13.21 0.7
1.12 -6.81 -1.34
2.17 -13.2 1.17
1.18 -7.16 -1.15
2.17 -13.17 1.64
1.36 -8.27 -1.03
2.17 -13.19 2.12
1.35 -8.22 -0.73
2.16 -13.15 2.59
2.16 -13.14 3.07
1.39 -8.46 -0.15
2.14 -12.98 3.53
0.57 -3.56 -0.97
2.13 -13.26 0.23
0.97 -6.01 -1.41
2.13 -13.22 0.7
1.1 -6.81 -1.34
2.13 -13.23 1.17
1.15 -7.17 -1.15
2.13 -13.22 1.64
1.33 -8.26 -1.03
2.12 -13.19 2.12
1.32 -8.23 -0.73
2.12 -13.17 2.59
2.12 -13.17 3.08
2.09 -12.98 3.52
0.56 -3.56 -0.96
2.09 -13.31 0.24
0.95 -6.02 -1.41
2.09 -13.29 0.7
1.07 -6.82 -1.34
1.13 -7.17 -1.15
1.3 -8.25 -1.03
2.08 -13.25 2.12
1.29 -8.23 -0.73
2.08 -13.22 2.6
2.08 -13.23 3.09
2.04 -12.98 3.52
0.55 -3.56 -0.97
2.04 -13.3 0.23
0.93 -6.03 -1.41
2.05 -13.33 0.71
1.05 -6.82 -1.34
1.1 -7.18 -1.15
2.05 -13.34 1.66
1.27 -8.26 -1.03
1.27 -8.26 -0.73
1.29 -8.39 -0.44
2.04 -13.24 3.09
2 -12.98 3.52
0.54 -3.57 -0.97
2 -13.3 0.23
0.9 -6.02 -1.41
2 -13.33 0.71
1.02 -6.83 -1.34
4.75 -31.68 2.8
1.08 -7.2 -1.15
3.24 -21.57 2.68
1.24 -8.27 -1.03
3.08 -20.51 3.28
1.25 -8.35 -0.74
2.54 -16.94 3.33
1.24 -8.27 -0.44
1.99 -13.24 3.09
1.95 -13 3.52
0.52 -3.57 -0.97
1.95 -13.31 0.23
0.88 -6.02 -1.41
1.95 -13.34 0.71
1 -6.82 -1.34
4.64 -31.7 2.8
1.06 -7.21 -1.15
1.96 -13.37 1.66
1.22 -8.31 -1.03
1.96 -13.37 2.14
1.26 -8.62 -0.76
2.48 -16.94 3.33
1.21 -8.27 -0.44
1.94 -13.25 3.09
1.9 -13.01 3.52
0.51 -3.58 -0.97
1.91 -13.32 0.23
0.86 -6.03 -1.41
1.91 -13.35 0.71
0.98 -6.82 -1.34
4.54 -31.7 2.8
1.04 -7.24 -1.16
3.39 -23.7 2.94
1.13 -7.92 -0.98
3.22 -22.48 3.6
1.23 -8.59 -0.76
2.43 -16.95 3.33
1.9 -13.25 3.09
1.86 -13.01 3.52
0.5 -3.57 -0.97
1.86 -13.33 0.23
0.84 -6.04 -1.41
1.87 -13.36 0.71
0.95 -6.82 -1.34
4.43 -31.7 2.8
1.01 -7.23 -1.16
3.31 -23.73 2.94
1.1 -7.89 -0.98
3.14 -22.45 3.59
1.1 -7.86 -0.69
2.37 -16.96 3.33
1.1 -7.88 -0.42
1.85 -13.26 3.09
1.82 -13 3.52
0.49 -3.58 -0.97
1.81 -13.32 0.23
0.82 -6.05 -1.41
1.81 -13.36 0.71
0.93 -6.82 -1.34
4.31 -31.72 2.8
0.98 -7.22 -1.15
3.22 -23.73 2.94
3.05 -22.46 3.59
2.3 -16.95 3.32
1.8 -13.27 3.09
1.77 -13.02 3.52
0.47 -3.58 -0.97
1.76 -13.33 0.23
0.8 -6.04 -1.41
4.22 -31.93 1.69
0.9 -6.82 -1.34
4.19 -31.73 2.8
0.96 -7.23 -1.16
3.14 -23.74 2.94
1.04 -7.9 -0.98
2.97 -22.48 3.59
2.24 -16.95 3.32
1.75 -13.27 3.09
1.11 -8.37 -0.15
1.72 -13.02 3.52
0.46 -3.58 -0.97
1.72 -13.34 0.23
0.78 -6.04 -1.41
4.12 -31.94 1.69
0.88 -6.83 -1.34
4.09 -31.74 2.8
0.93 -7.24 -1.16
3.06 -23.74 2.94
1.24 -9.65 -1.19
2.9 -22.49 3.59
1.06 -8.22 -0.72
2.19 -16.96 3.32
1.06 -8.22 -0.43
1.71 -13.27 3.09
1.08 -8.35 -0.15
1.68 -13.02 3.52
0.45 -3.58 -0.97
1.67 -13.35 0.23
0.76 -6.05 -1.41
1.68 -13.35 0.71
0.86 -6.82 -1.34
3.98 -31.75 2.8
0.91 -7.26 -1.16
2.98 -23.77 2.94
1.21 -9.66 -1.2
2.82 -22.49 3.59
2.13 -16.97 3.32
1.03 -8.24 -0.44
1.67 -13.28 3.09
1.05 -8.37 -0.15
1.63 -13.03 3.52
0.43 -3.56 -0.96
1.63 -13.35 0.23
0.74 -6.06 -1.41
1.63 -13.36 0.71
0.83 -6.84 -1.34
3.87 -31.76 2.8
0.89 -7.28 -1.16
2.9 -23.76 2.94
1.18 -9.68 -1.2
2.74 -22.5 3.59
2.07 -16.98 3.33
1.01 -8.29 -0.44
1.62 -13.28 3.09
1.02 -8.36 -0.15
1.59 -13.03 3.52
0.42 -3.56 -0.96
1.58 -13.35 0.23
0.72 -6.07 -1.41
1.58 -13.37 0.71
0.81 -6.83 -1.34
3.76 -31.77 2.8
0.86 -7.27 -1.16
2.81 -23.77 2.94
1.14 -9.67 -1.2
2.66 -22.5 3.59
2.01 -16.99 3.33
0.98 -8.27 -0.44
1.57 -13.3 3.09
0.98 -8.32 -0.15
1.54 -13.03 3.52
0.41 -3.57 -0.96
1.53 -13.35 0.23
0.69 -6.06 -1.41
1.53 -13.37 0.71
0.79 -6.86 -1.34
1.53 -13.38 1.18
0.83 -7.27 -1.16
2.73 -23.78 2.94
1.11 -9.67 -1.19
2.58 -22.52 3.59
1.95 -16.99 3.33
0.95 -8.31 -0.44
1.52 -13.3 3.09
1.5 -13.05 3.52
0.4 -3.58 -0.96
0.67 -6.06 -1.41
1.49 -13.37 0.7
0.76 -6.86 -1.34
3.53 -31.81 2.8
0.81 -7.26 -1.16
2.64 -23.79 2.94
1.07 -9.67 -1.19
2.5 -22.52 3.59
1.89 -16.99 3.32
0.92 -8.29 -0.44
1.48 -13.3 3.09
1.45 -13.05 3.52
0.38 -3.57 -0.96
0.66 -6.07 -1.41
1.44 -13.38 0.71
0.74 -6.85 -1.34
1.44 -13.38 1.18
0.78 -7.25 -1.16
2.57 -23.79 2.94
1.04 -9.66 -1.19
2.43 -22.51 3.59
1.84 -17.03 3.33
0.9 -8.31 -0.44
1.44 -13.3 3.09
1.41 -13.05 3.52
0.37 -3.52 -0.95
0.64 -6.08 -1.41
1.4 -13.39 0.71
0.71 -6.84 -1.34
1.4 -13.38 1.18
0.76 -7.25 -1.15
1.4 -13.38 1.65
1.01 -9.67 -1.19
2.35 -22.52 3.59
0.87 -8.35 -0.73
1.78 -17.03 3.33
0.86 -8.28 -0.44
1.39 -13.31 3.09
1.36 -13.05 3.52
0.35 -3.51 -0.95
0.61 -6.08 -1.41
0.69 -6.83 -1.34
0.73 -7.23 -1.15
1.34 -13.31 1.64
0.97 -9.68 -1.2
1.34 -13.34 2.12
0.84 -8.32 -0.73
1.34 -13.29 2.6
0.83 -8.3 -0.44
1.34 -13.31 3.09
1.31 -13.06 3.52
0.34 -3.48 -0.94
0.95 -9.8 0.17
0.59 -6.08 -1.41
1.29 -13.29 0.7
0.66 -6.85 -1.34
1.29 -13.28 1.17
0.7 -7.2 -1.15
1.29 -13.26 1.64
0.94 -9.69 -1.19
1.29 -13.28 2.11
0.81 -8.33 -0.73
0.81 -8.33 -0.44
1.28 -13.24 3.07
1.27 -13.07 3.52
0.32 -3.47 -0.93
0.92 -9.8 0.17
0.57 -6.1 -1.41
1.25 -13.35 0.7
0.64 -6.86 -1.34
1.25 -13.37 1.17
0.67 -7.2 -1.15
1.25 -13.33 1.64
0.9 -9.67 -1.19
1.25 -13.33 2.12
0.78 -8.38 -0.74
1.24 -13.29 2.59
0.78 -8.32 -0.44
1.24 -13.31 3.09
0.77 -8.24 -0.14
1.22 -13.08 3.52
0.31 -3.46 -0.93
0.89 -9.9 0.17
0.55 -6.11 -1.42
0.62 -6.85 -1.34
0.65 -7.2 -1.15
0.87 -9.69 -1.19
0.75 -8.3 -0.44
1.2 -13.33 3.09
0.74 -8.24 -0.14
1.18 -13.08 3.52
0.3 -3.43 -0.92
0.53 -6.12 -1.42
1.16 -13.42 0.71
0.6 -6.87 -1.34
1.16 -13.41 1.18
0.62 -7.2 -1.14
2.07 -23.88 2.94
0.84 -9.7 -1.2
1.94 -22.45 3.57
1.47 -17.03 3.32
0.72 -8.29 -0.44
1.16 -13.34 3.09
1.13 -13.07 3.52
0.28 -3.41 -0.92
0.51 -6.12 -1.42
1.12 -13.42 0.71
0.57 -6.87 -1.34
1.12 -13.42 1.18
0.6 -7.19 -1.14
1.98 -23.86 2.94
0.81 -9.71 -1.2
1.86 -22.4 3.56
1.42 -17.04 3.32
0.69 -8.31 -0.44
1.11 -13.34 3.09
1.09 -13.08 3.52
0.27 -3.39 -0.91
1.07 -13.43 0.71
0.55 -6.89 -1.34
1.07 -13.44 1.18
0.57 -7.19 -1.14
1.9 -23.86 2.94
0.78 -9.73 -1.2
1.79 -22.4 3.56
1.36 -17.05 3.32
0.66 -8.3 -0.44
1.06 -13.35 3.09
1.04 -13.09 3.52
0.26 -3.4 -0.91
1.02 -13.43 0.71
1.03 -13.44 1.18
0.55 -7.19 -1.14
1.82 -23.87 2.94
0.74 -9.72 -1.2
1.71 -22.37 3.55
1.3 -17.06 3.33
0.63 -8.3 -0.44
1.02 -13.34 3.09
1 -13.1 3.52
0.25 -3.39 -0.91
0.62 -8.48 0.15
0.98 -13.43 0.71
0.98 -13.45 1.18
0.52 -7.19 -1.14
1.74 -23.89 2.94
0.71 -9.73 -1.2
1.63 -22.37 3.55
1.24 -17.08 3.33
0.61 -8.34 -0.44
0.97 -13.35 3.09
0.95 -13.1 3.52
0.24 -3.4 -0.91
0.59 -8.55 0.15
0.93 -13.45 0.71
0.48 -6.88 -1.34
0.93 -13.42 1.18
0.5 -7.18 -1.14
1.66 -23.9 2.94
0.68 -9.74 -1.2
1.55 -22.36 3.55
1.18 -17.06 3.33
0.59 -8.47 -0.44
0.93 -13.36 3.09
0.91 -13.09 3.52
0.22 -3.42 -0.92
0.56 -8.49 0.15
0.88 -13.46 0.71
0.45 -6.9 -1.34
0.88 -13.45 1.18
0.47 -7.17 -1.14
1.57 -23.91 2.94
0.64 -9.74 -1.2
1.47 -22.38 3.55
1.12 -17.09 3.33
0.55 -8.34 -0.44
0.88 -13.36 3.09
0.86 -13.11 3.52
0.84 -13.46 0.71
0.43 -6.91 -1.35
0.84 -13.47 1.18
0.45 -7.19 -1.14
1.49 -23.9 2.94
0.61 -9.75 -1.2
1.39 -22.38 3.55
1.06 -17.09 3.33
0.83 -13.36 3.09
0.53 -8.52 -0.15
0.82 -13.11 3.52
0.79 -13.45 0.71
0.79 -13.5 1.18
0.42 -7.21 -1.14
1.4 -23.91 2.94
0.57 -9.76 -1.2
1.31 -22.4 3.55
1 -17.1 3.33
0.78 -13.37 3.09
0.5 -8.52 -0.15
0.77 -13.12 3.52
0.74 -13.47 0.71
0.75 -13.49 1.18
0.4 -7.23 -1.15
1.32 -23.92 2.94
0.54 -9.76 -1.2
1.24 -22.39 3.55
0.95 -17.1 3.33
0.74 -13.38 3.09
0.47 -8.44 -0.15
0.73 -13.12 3.52
0.7 -13.5 0.71
0.7 -13.48 1.18
0.38 -7.26 -1.15
1.24 -23.94 2.94
0.51 -9.77 -1.2
1.16 -22.45 3.56
0.89 -17.1 3.33
0.69 -13.38 3.09
0.44 -8.46 -0.15
0.68 -13.12 3.52
0.66 -13.53 0.71
0.65 -13.49 1.18
0.35 -7.25 -1.15
1.16 -23.93 2.94
0.47 -9.77 -1.2
0.83 -17.11 3.33
0.41 -8.48 -0.44
0.65 -13.39 3.09
0.41 -8.45 -0.15
0.64 -13.13 3.52
0.6 -13.5 0.71
1.09 -24.28 2.13
0.32 -7.25 -1.15
1.07 -23.95 2.94
0.44 -9.77 -1.2
0.76 -17.11 3.33
0.38 -8.41 -0.44
0.6 -13.4 3.1
0.38 -8.46 -0.15
0.59 -13.14 3.52
0.56 -13.51 0.71
1 -24.27 2.13
0.3 -7.26 -1.15
0.99 -23.94 2.94
0.4 -9.77 -1.2
0.78 -18.83 2.98
0.71 -17.11 3.33
0.55 -13.39 3.09
0.35 -8.46 -0.15
0.54 -13.15 3.53
0.51 -13.45 0.71
0.51 -13.44 1.18
0.27 -7.26 -1.15
0.51 -13.42 1.65
0.37 -9.79 -1.2
0.51 -13.43 2.13
0.51 -13.4 2.61
0.51 -13.4 3.1
0.32 -8.44 -0.15
0.5 -13.15 3.53
0.24 -6.92 -1.35
0.46 -13.36 1.17
0.25 -7.25 -1.15
0.46 -13.38 1.64
0.34 -9.79 -1.2
0.46 -13.34 2.59
0.46 -13.41 3.1
0.29 -8.44 -0.15
0.45 -13.15 3.53
0.19 -6.15 -1.42
0.41 -13.4 0.7
0.41 -13.39 1.17
0.22 -7.24 -1.15
0.41 -13.33 1.64
0.3 -9.79 -1.2
0.41 -13.39 2.12
0.26 -8.48 -0.44
0.41 -13.42 3.1
0.26 -8.46 -0.15
0.41 -13.15 3.53
0.17 -6.15 -1.42
0.37 -13.47 0.71
0.19 -6.93 -1.35
0.36 -13.23 1.16
0.2 -7.22 -1.14
0.36 -12.95 1.59
0.27 -9.78 -1.2
0.37 -13.44 2.13
0.37 -13.4 2.61
0.37 -13.42 3.1
0.23 -8.47 -0.15
0.36 -13.16 3.53
0.31 -12.77 1.12
0.17 -7.2 -1.14
0.3 -12.71 1.56
0.23 -9.78 -1.2
0.45 -18.82 2.98
0.43 -17.8 3.46
0.32 -13.41 3.1
0.2 -8.45 -0.15
0.31 -13.17 3.53
0.5 -24.31 1.27
0.14 -6.93 -1.35
0.5 -24.31 2.13
0.15 -7.19 -1.14
0.49 -24.01 2.95
0.2 -9.78 -1.2
0.39 -18.82 2.98
0.36 -17.79 3.46
0.28 -13.42 3.1
0.17 -8.45 -0.15
0.27 -13.17 3.53
0.41 -24.3 1.27
0.12 -6.94 -1.35
0.41 -24.3 2.13
0.12 -7.2 -1.14
0.41 -24.02 2.95
0.17 -9.81 -1.2
0.32 -18.83 2.98
0.3 -17.8 3.46
0.23 -13.43 3.1
0.14 -8.45 -0.15
0.22 -13.16 3.53
0.33 -24.25 1.27
0.09 -6.95 -1.35
0.33 -24.31 2.13
0.1 -7.19 -1.14
0.32 -24.03 2.95
0.13 -9.81 -1.2
0.25 -18.84 2.98
0.24 -17.76 3.45
0.11 -8.49 -0.44
0.18 -13.44 3.1
0.11 -8.46 -0.15
0.18 -13.17 3.53
0.25 -24.04 1.26
0.07 -6.96 -1.35
0.25 -24.31 2.13
0.07 -7.2 -1.14
0.25 -24.03 2.95
0.1 -9.8 -1.2
0.19 -18.86 2.99
0.18 -17.73 3.45
0.14 -13.45 3.1
0.09 -8.46 -0.15
0.14 -13.18 3.53
0.17 -24.05 1.26
0.05 -6.95 -1.35
0.17 -24.33 2.13
0.05 -7.2 -1.14
0.17 -24.03 2.95
0.07 -9.8 -1.2
0.13 -18.87 2.99
0.12 -17.73 3.45
0.09 -13.44 3.1
0.06 -8.47 -0.15
0.09 -13.19 3.53
0.08 -24.28 1.27
0.02 -6.95 -1.35
0.08 -24.33 2.13
0.02 -7.21 -1.14
0.08 -24.06 2.95
0.03 -9.81 -1.2
0.06 -18.86 2.99
0.06 -17.73 3.45
0.04 -13.45 3.11
0.03 -8.47 -0.15
0.04 -13.19 3.53
-0 -8.64 0.15
-0 -6.16 -1.42
-0 -24.34 1.28
-0 -6.96 -1.35
-0 -24.33 2.13
-0 -7.21 -1.14
-0 -24.06 2.95
-0 -9.8 -1.2
-0 -18.87 2.99
-0 -17.73 3.45
-0 -13.46 3.11
-0 -8.48 -0.15
-0 -13.19 3.53
-0.03 -8.56 0.15
-0.02 -6.16 -1.42
-0.09 -24.35 1.28
-0.03 -6.97 -1.35
-0.09 -24.34 2.13
-0.03 -7.22 -1.14
-0.09 -24.08 2.96
-0.04 -9.82 -1.21
-0.07 -18.89 2.99
-0.06 -17.73 3.45
-0.05 -13.47 3.11
-0.03 -8.48 -0.15
-0.05 -13.19 3.54
-0.06 -8.57 0.15
-0.04 -6.15 -1.42
-0.17 -24.07 1.26
-0.05 -6.98 -1.36
-0.17 -24.37 2.13
-0.05 -7.23 -1.14
-0.17 -24.05 2.95
-0.07 -9.82 -1.21
-0.14 -18.89 2.99
-0.13 -17.73 3.45
-0.1 -13.47 3.11
-0.06 -8.5 -0.15
-0.09 -13.2 3.54
-0.09 -8.57 0.15
-0.07 -6.17 -1.42
-0.24 -22.68 1.19
-0.07 -6.97 -1.36
-0.24 -22.67 1.98
-0.08 -7.23 -1.15
-0.24 -22.66 2.78
-0.1 -9.82 -1.21
-0.2 -18.89 2.99
-0.19 -17.74 3.45
-0.14 -13.47 3.11
-0.09 -8.51 -0.15
-0.14 -13.21 3.54
-0.12 -8.58 0.15
-0.05 -3.66 -0.85
-0.32 -22.62 1.19
-0.1 -6.96 -1.35
-0.32 -22.62 1.98
-0.1 -7.24 -1.15
-0.32 -22.63 2.78
-0.14 -9.82 -1.21
-0.27 -18.9 2.99
-0.25 -17.74 3.45
-0.19 -13.47 3.11
-0.12 -8.57 -0.15
-0.19 -13.21 3.54
-0.15 -8.58 0.15
-0.06 -3.67 -0.85
-0.24 -13.61 0.71
-0.12 -6.95 -1.35
-0.43 -24.47 2.14
-0.13 -7.24 -1.15
-0.38 -21.48 2.64
-0.17 -9.83 -1.21
-0.33 -18.9 2.99
-0.31 -17.76 3.45
-0.24 -13.48 3.11
-0.15 -8.57 -0.15
-0.23 -13.21 3.54
-0.08 -3.67 -0.85
-0.29 -13.57 0.71
-0.15 -6.97 -1.35
-0.29 -13.54 1.18
-0.15 -7.23 -1.14
-0.51 -24.18 2.97
-0.21 -9.84 -1.21
-0.4 -18.92 3
-0.37 -17.55 3.41
-0.29 -13.5 3.12
-0.28 -13.22 3.54
-0.09 -3.6 -0.83
-0.17 -6.96 -1.35
-0.33 -13.47 1.18
-0.18 -7.22 -1.14
-0.33 -13.43 1.65
-0.24 -9.85 -1.21
-0.33 -13.46 2.13
-0.33 -13.44 2.61
-0.33 -13.5 3.12
-0.33 -13.23 3.55
-0.1 -3.5 -0.81
-0.38 -13.51 0.71
-0.2 -6.96 -1.35
-0.38 -13.43 1.18
-0.2 -7.23 -1.14
-0.38 -13.44 1.65
-0.28 -9.83 -1.21
-0.38 -13.5 3.12
