# .PCD v0.7 - Point Cloud Data file format
VERSION 0.7
FIELDS x y z
SIZE 4 4 4
TYPE F F F
COUNT 1 1 1
WIDTH 2738
HEIGHT 1
VIEWPOINT 0 0 0 1 0 0 0
POINTS 2738
DATA ascii
-11.01 0.39 -1.74
-1.59 0.06 -0.2
-20.23 0.72 -1.77
-34.27 1.23 -1.8
-1.14 0.04 -0.3
-1.4 0.06 -0.32
-1.07 0.04 -0.21
-11 0.43 -1.74
-1.6 0.06 -0.2
-20.23 0.79 -1.77
-1.16 0.05 -0.31
-1.39 0.06 -0.32
-1.07 0.05 -0.21
-11 0.47 -1.74
-1.6 0.07 -0.2
-20.23 0.87 -1.77
-34.48 1.48 -1.81
-1.14 0.05 -0.3
-1.39 0.06 -0.32
-1.07 0.05 -0.21
-11.01 0.51 -1.75
-1.59 0.07 -0.2
-20.24 0.94 -1.77
-34.45 1.6 -1.81
-1.13 0.06 -0.3
-1.4 0.07 -0.32
-1.06 0.05 -0.21
-11.01 0.55 -1.75
-1.59 0.08 -0.2
-20.23 1.01 -1.77
-34.57 1.73 -1.81
-1.14 0.06 -0.3
-1.4 0.07 -0.32
-1.07 0.06 -0.21
-11 0.59 -1.75
-1.6 0.09 -0.2
-20.23 1.08 -1.77
-1.13 0.06 -0.3
-1.4 0.08 -0.32
-1.07 0.06 -0.21
-11 0.63 -1.74
-1.61 0.09 -0.2
-20.22 1.15 -1.77
-34.55 1.97 -1.81
-1.16 0.07 -0.31
-1.39 0.08 -0.32
-1.08 0.06 -0.21
-10.99 0.66 -1.74
-1.6 0.1 -0.2
-20.22 1.22 -1.77
-34.55 2.08 -1.81
-1.14 0.07 -0.31
-1.4 0.09 -0.32
-1.08 0.07 -0.21
-11 0.7 -1.75
-1.59 0.1 -0.2
-20.24 1.29 -1.77
-34.44 2.19 -1.81
-1.14 0.08 -0.31
-1.4 0.09 -0.32
-1.07 0.07 -0.21
-11 0.74 -1.75
-1.59 0.11 -0.2
-20.23 1.36 -1.77
-34.46 2.31 -1.81
-1.14 0.08 -0.31
-1.41 0.1 -0.33
-1.07 0.08 -0.21
-11 0.78 -1.75
-1.6 0.11 -0.2
-20.2 1.43 -1.77
-34.4 2.43 -1.81
-1.13 0.08 -0.3
-1.4 0.1 -0.32
-1.07 0.08 -0.21
-11 0.82 -1.75
-1.61 0.12 -0.2
-20.2 1.5 -1.77
-34.39 2.55 -1.81
-1.13 0.09 -0.3
-1.41 0.11 -0.33
-1.08 0.08 -0.21
-11 0.85 -1.75
-1.61 0.12 -0.2
-20.19 1.57 -1.77
-1.14 0.09 -0.31
-1.39 0.11 -0.32
-1.07 0.09 -0.21
-11.01 0.89 -1.75
-1.59 0.13 -0.2
-20.19 1.64 -1.77
-34.4 2.79 -1.81
-1.13 0.1 -0.3
-1.4 0.12 -0.32
-1.06 0.09 -0.21
-11.01 0.93 -1.75
-1.6 0.14 -0.2
-20.17 1.71 -1.77
-34.36 2.91 -1.81
-1.13 0.1 -0.3
-1.42 0.13 -0.33
-1.07 0.09 -0.21
-11.01 0.97 -1.75
-1.6 0.14 -0.2
-20.15 1.78 -1.77
-34.4 3.04 -1.81
-1.14 0.1 -0.31
-47.68 4.38 0.84
-1.07 0.1 -0.21
-11 1.01 -1.75
-1.61 0.15 -0.2
-20.14 1.85 -1.77
-34.27 3.15 -1.8
-1.15 0.11 -0.31
-1.4 0.13 -0.33
-1.08 0.1 -0.21
-11 1.05 -1.75
-1.6 0.15 -0.2
-20.14 1.92 -1.77
-34.38 3.27 -1.81
-1.15 0.11 -0.31
-1.41 0.14 -0.33
-1.08 0.11 -0.21
-11 1.09 -1.75
-1.59 0.16 -0.2
-20.14 1.99 -1.77
-1.15 0.12 -0.31
-1.4 0.14 -0.32
-1.06 0.11 -0.21
-11.01 1.13 -1.75
-1.6 0.16 -0.2
-20.13 2.06 -1.77
-34.36 3.51 -1.81
-1.15 0.12 -0.31
-1.42 0.15 -0.33
-1.07 0.11 -0.21
-11 1.16 -1.75
-1.6 0.17 -0.2
-20.11 2.13 -1.77
-34.32 3.63 -1.81
-1.12 0.12 -0.3
-1.41 0.15 -0.33
-1.07 0.12 -0.21
-10.98 1.2 -1.75
-1.61 0.18 -0.2
-20.13 2.2 -1.77
-34.41 3.76 -1.81
-1.12 0.13 -0.3
-1.4 0.16 -0.33
-1.08 0.12 -0.21
-10.97 1.24 -1.75
-1.61 0.18 -0.2
-20.11 2.27 -1.77
-34.39 3.88 -1.81
-1.15 0.13 -0.31
-1.4 0.16 -0.32
-1.07 0.12 -0.21
-10.98 1.28 -1.75
-1.6 0.19 -0.2
-20.13 2.34 -1.77
-34.28 3.98 -1.81
-1.15 0.14 -0.31
-1.06 0.13 -0.21
-10.99 1.32 -1.75
-1.59 0.19 -0.2
-20.12 2.41 -1.77
-34.27 4.1 -1.81
-1.14 0.14 -0.31
-1.42 0.17 -0.33
-1.07 0.13 -0.21
-10.98 1.35 -1.75
-1.6 0.2 -0.2
-20.1 2.48 -1.77
-34.25 4.22 -1.81
-1.12 0.14 -0.3
-1.41 0.18 -0.33
-1.07 0.14 -0.21
-10.96 1.39 -1.75
-1.6 0.2 -0.2
-20.13 2.55 -1.77
-34.14 4.33 -1.8
-1.14 0.15 -0.31
-41.87 5.46 0.74
-1.38 0.18 -0.32
-1.08 0.14 -0.21
-78.92 10.29 6.96
-10.95 1.43 -1.75
-1.61 0.21 -0.2
-20.1 2.62 -1.77
-34.07 4.44 -1.8
-1.15 0.15 -0.31
-42.32 5.67 0.75
-1.41 0.19 -0.33
-1.07 0.14 -0.21
-10.94 1.47 -1.75
-1.6 0.21 -0.2
-20.1 2.69 -1.77
-33.99 4.55 -1.8
-42.35 5.67 -0.75
-1.15 0.16 -0.31
-1.41 0.19 -0.33
-1.07 0.15 -0.21
-10.93 1.5 -1.75
-1.6 0.22 -0.2
-20.11 2.76 -1.78
-33.93 4.67 -1.79
-1.12 0.16 -0.3
-40.29 5.68 0.71
-1.42 0.2 -0.33
-47.37 6.68 2.51
-1.07 0.15 -0.21
-10.92 1.54 -1.75
-1.61 0.23 -0.2
-20.08 2.83 -1.77
-33.88 4.78 -1.79
-1.14 0.16 -0.31
-40.28 5.81 0.71
-1.42 0.2 -0.33
-1.07 0.16 -0.21
-10.89 1.57 -1.74
-1.61 0.23 -0.2
-20.07 2.9 -1.77
-33.79 4.87 -1.79
-1.15 0.17 -0.31
-1.41 0.21 -0.33
-1.08 0.16 -0.21
-10.89 1.61 -1.74
-1.61 0.24 -0.2
-20.07 2.97 -1.78
-33.74 4.99 -1.79
-1.15 0.17 -0.31
-1.41 0.21 -0.33
-1.08 0.16 -0.21
-10.88 1.65 -1.74
-1.6 0.24 -0.2
-20.06 3.05 -1.78
-33.49 5.08 -1.78
-1.14 0.18 -0.31
-1.42 0.22 -0.33
-1.07 0.17 -0.21
-10.88 1.69 -1.74
-1.6 0.25 -0.2
-20.05 3.11 -1.78
-33.13 5.15 -1.76
-1.13 0.18 -0.31
-1.4 0.22 -0.33
-1.07 0.17 -0.21
-10.86 1.73 -1.74
-1.6 0.25 -0.2
-20.04 3.19 -1.78
-32.9 5.23 -1.75
-1.13 0.18 -0.31
-1.41 0.23 -0.33
-1.08 0.18 -0.21
-10.86 1.76 -1.74
-1.61 0.26 -0.2
-20.03 3.26 -1.78
-32.77 5.33 -1.74
-1.14 0.19 -0.31
-1.42 0.24 -0.33
-1.08 0.18 -0.21
-10.85 1.8 -1.74
-1.61 0.27 -0.2
-20.02 3.32 -1.78
-32.53 5.39 -1.73
-1.15 0.2 -0.31
-1.4 0.24 -0.33
-1.08 0.18 -0.21
-10.85 1.84 -1.74
-1.6 0.27 -0.2
-20.01 3.39 -1.78
-32.42 5.49 -1.72
-1.16 0.2 -0.32
-1.41 0.24 -0.33
-46.28 8 2.46
-1.07 0.18 -0.21
-10.85 1.88 -1.74
-1.6 0.28 -0.2
-20.01 3.46 -1.78
-32.33 5.59 -1.72
-1.12 0.2 -0.31
-1.42 0.25 -0.33
-41.02 7.24 2.18
-1.07 0.19 -0.21
-10.84 1.91 -1.74
-1.6 0.28 -0.2
-20.01 3.53 -1.78
-32.3 5.7 -1.72
-1.17 0.21 -0.32
-37.49 6.75 0.67
-1.42 0.26 -0.33
-1.08 0.19 -0.21
-10.83 1.95 -1.74
-1.62 0.29 -0.2
-19.95 3.59 -1.77
-32.24 5.81 -1.72
-38.02 6.85 -0.67
-1.13 0.21 -0.31
-38.02 6.99 0.67
-1.42 0.26 -0.33
-1.08 0.2 -0.21
-10.83 1.99 -1.74
-1.61 0.3 -0.2
-19.93 3.66 -1.77
-32.13 5.9 -1.71
-1.15 0.21 -0.31
-1.42 0.27 -0.33
-1.08 0.2 -0.21
-10.83 2.03 -1.75
-1.6 0.3 -0.2
-19.93 3.73 -1.77
-32.07 6 -1.71
-1.15 0.22 -0.31
-1.41 0.27 -0.33
-1.07 0.2 -0.21
-10.82 2.06 -1.74
-1.6 0.31 -0.2
-19.92 3.8 -1.77
-32.14 6.13 -1.71
-1.14 0.22 -0.31
-1.44 0.28 -0.34
-1.08 0.21 -0.21
-10.81 2.1 -1.74
-1.61 0.31 -0.2
-19.91 3.87 -1.77
-32.31 6.29 -1.73
-1.13 0.22 -0.31
-1.42 0.28 -0.33
-38.95 7.72 2.08
-1.08 0.21 -0.21
-10.79 2.14 -1.74
-1.61 0.32 -0.2
-19.96 3.96 -1.78
-34.38 6.81 -1.84
-36.72 7.28 -0.65
-1.13 0.23 -0.31
-36.83 7.43 0.66
-1.42 0.29 -0.33
-1.09 0.22 -0.22
-10.79 2.18 -1.74
-1.62 0.33 -0.2
-19.96 4.02 -1.78
-34.3 6.92 -1.83
-36.94 7.45 -0.66
-1.15 0.24 -0.32
-1.42 0.29 -0.34
-39.38 8.08 2.11
-1.08 0.22 -0.22
-10.79 2.21 -1.74
-1.6 0.33 -0.2
-19.95 4.09 -1.78
-34.5 7.08 -1.85
-1.15 0.24 -0.31
-1.42 0.3 -0.34
-39.33 8.22 2.11
-1.08 0.23 -0.21
-10.79 2.25 -1.75
-1.61 0.34 -0.2
-19.94 4.17 -1.78
-34.32 7.17 -1.84
-1.14 0.24 -0.31
-1.43 0.3 -0.34
-38.91 8.27 2.08
-1.08 0.23 -0.22
-10.79 2.29 -1.75
-1.6 0.34 -0.2
-19.91 4.23 -1.78
-34.24 7.28 -1.83
-1.12 0.24 -0.31
-36.55 7.9 0.65
-1.42 0.31 -0.34
-1.08 0.23 -0.22
-10.77 2.33 -1.74
-1.61 0.35 -0.2
-19.89 4.3 -1.78
-33.76 7.3 -1.81
-36.68 7.93 -0.66
-1.14 0.25 -0.31
-36.5 8.02 0.65
-1.42 0.31 -0.33
-1.09 0.24 -0.22
-10.76 2.37 -1.74
-1.61 0.35 -0.2
-19.88 4.37 -1.78
-34.39 7.56 -1.85
-36.56 8.04 -0.65
-1.12 0.25 -0.31
-36.3 8.11 0.65
-1.42 0.32 -0.34
-1.08 0.24 -0.22
-10.76 2.4 -1.75
-1.6 0.36 -0.2
-19.88 4.44 -1.78
-1.14 0.26 -0.31
-36.18 8.22 0.65
-1.42 0.32 -0.34
-1.08 0.25 -0.22
-10.76 2.44 -1.75
-1.61 0.37 -0.2
-19.88 4.52 -1.78
-33.07 7.51 -1.78
-34.65 7.87 -0.62
-1.12 0.26 -0.31
-1.42 0.33 -0.34
-1.08 0.25 -0.22
-10.75 2.48 -1.75
-1.61 0.37 -0.2
-19.84 4.58 -1.78
-32.85 7.58 -1.77
-36.31 8.38 -0.65
-1.13 0.27 -0.31
-37.8 8.87 0.68
-1.42 0.33 -0.34
-1.09 0.26 -0.22
-10.74 2.52 -1.75
-1.62 0.38 -0.2
-19.82 4.65 -1.78
-32.64 7.66 -1.76
-35.76 8.39 -0.64
-1.14 0.27 -0.31
-35.18 8.38 0.63
-1.42 0.34 -0.34
-1.09 0.26 -0.22
-10.73 2.56 -1.75
-1.61 0.38 -0.2
-19.82 4.72 -1.78
-32.55 7.75 -1.75
-1.13 0.27 -0.31
-1.41 0.34 -0.33
-1.09 0.26 -0.22
-10.73 2.6 -1.75
-1.6 0.39 -0.2
-19.78 4.79 -1.78
-28.13 6.81 -1.52
-35.05 8.48 -0.63
-1.14 0.28 -0.31
-1.43 0.35 -0.34
-1.08 0.27 -0.22
-10.72 2.63 -1.75
-1.61 0.39 -0.2
-19.77 4.86 -1.78
-32.28 7.93 -1.74
-1.12 0.28 -0.31
-34.96 8.72 0.63
-1.43 0.36 -0.34
-1.08 0.27 -0.22
-10.72 2.67 -1.75
-1.61 0.4 -0.2
-19.75 4.92 -1.78
-32.12 8.01 -1.74
-1.13 0.29 -0.31
-38.1 9.63 0.69
-1.44 0.36 -0.34
-39.22 9.92 2.12
-1.08 0.27 -0.22
-10.7 2.7 -1.75
-1.62 0.41 -0.2
-19.73 4.99 -1.78
-1.14 0.29 -0.32
-34.66 8.89 0.62
-1.42 0.37 -0.34
-39.09 10.03 2.11
-1.1 0.28 -0.22
-10.69 2.74 -1.75
-1.61 0.41 -0.2
-19.73 5.06 -1.78
-32.08 8.23 -1.74
-1.13 0.3 -0.31
-34.28 8.92 0.62
-1.43 0.37 -0.34
-1.09 0.28 -0.22
-10.68 2.78 -1.75
-1.62 0.42 -0.21
-19.71 5.13 -1.78
-32.26 8.4 -1.75
-1.13 0.3 -0.31
-34.52 9.11 0.62
-1.44 0.38 -0.34
-1.08 0.29 -0.22
-10.68 2.82 -1.75
-1.61 0.43 -0.2
-19.69 5.2 -1.78
-31.53 8.33 -1.71
-34.94 9.22 -0.63
-1.13 0.3 -0.31
-34.45 9.22 0.62
-1.44 0.39 -0.34
-1.08 0.29 -0.22
-10.66 2.85 -1.75
-1.61 0.43 -0.21
-19.67 5.27 -1.78
-31.62 8.47 -1.72
-1.12 0.31 -0.31
-34.47 9.36 0.62
-1.44 0.39 -0.35
-1.09 0.3 -0.22
-10.64 2.89 -1.75
-1.63 0.44 -0.21
-19.65 5.33 -1.78
-31.57 8.57 -1.71
-1.15 0.32 -0.32
-35.09 9.66 0.64
-1.43 0.39 -0.34
-1.09 0.3 -0.22
-10.64 2.93 -1.75
-1.63 0.45 -0.21
-19.64 5.4 -1.78
-31.87 8.77 -1.73
-32.6 8.97 -0.59
-1.14 0.32 -0.32
-1.44 0.4 -0.34
-1.09 0.3 -0.22
-10.63 2.97 -1.75
-13.9 3.88 -1.77
-19.62 5.48 -1.78
-25.84 7.21 -1.41
-1.12 0.32 -0.31
-1.44 0.41 -0.34
-1.09 0.31 -0.22
-10.63 3 -1.75
-13.88 3.93 -1.77
-19.61 5.54 -1.78
-25.65 7.25 -1.4
-1.12 0.32 -0.31
-36.64 10.5 0.67
-1.44 0.41 -0.35
-1.09 0.31 -0.22
-10.61 3.04 -1.75
-13.88 3.98 -1.77
-19.59 5.61 -1.78
-25.49 7.3 -1.39
-1.12 0.33 -0.31
-33.61 9.76 0.61
-1.43 0.42 -0.34
-1.09 0.32 -0.22
-10.58 3.07 -1.74
-13.87 4.03 -1.77
-19.59 5.69 -1.78
-25.3 7.34 -1.38
-31.63 9.18 -0.57
-1.15 0.34 -0.32
-33.67 9.9 0.61
-1.41 0.41 -0.34
-1.09 0.32 -0.22
-10.58 3.11 -1.75
-13.85 4.07 -1.77
-19.57 5.75 -1.78
-25.13 7.39 -1.37
-31.42 9.24 -0.57
-1.13 0.34 -0.32
-35.65 10.61 0.65
-1.42 0.42 -0.34
-1.09 0.33 -0.22
-10.57 3.15 -1.75
-13.81 4.11 -1.77
-19.56 5.82 -1.79
-24.98 7.44 -1.37
-1.13 0.34 -0.32
-32.72 9.87 0.6
-1.4 0.42 -0.34
-1.08 0.33 -0.22
-10.56 3.19 -1.75
-13.81 4.16 -1.77
-19.53 5.89 -1.78
-24.82 7.48 -1.36
-32.68 9.86 -0.6
-1.13 0.34 -0.32
-1.4 0.43 -0.34
-35.26 10.77 1.93
-1.09 0.33 -0.22
-10.56 3.22 -1.75
-13.78 4.21 -1.77
-19.51 5.96 -1.78
-24.66 7.53 -1.35
-31.21 9.53 -0.57
-1.15 0.36 -0.32
-1.39 0.43 -0.34
-34.84 10.77 1.91
-1.09 0.34 -0.22
-10.53 3.26 -1.75
-13.78 4.26 -1.77
-19.51 6.03 -1.79
-24.51 7.58 -1.34
-31.3 9.68 -0.57
-1.13 0.35 -0.32
-31.97 10.01 0.58
-1.37 0.43 -0.33
-8.62 2.7 -1.76
-10.53 3.29 -1.75
-13.76 4.31 -1.77
-19.49 6.1 -1.79
-24.36 7.63 -1.34
-1.13 0.36 -0.32
-31.63 10.02 0.58
-1.36 0.43 -0.33
-8.59 2.72 -1.75
-10.51 3.33 -1.75
-13.73 4.35 -1.77
-19.49 6.17 -1.79
-24.2 7.67 -1.33
-31.63 10.02 -0.58
-1.15 0.37 -0.32
-31.45 10.09 0.58
-1.34 0.43 -0.32
-1.09 0.35 -0.22
-10.5 3.37 -1.75
-13.71 4.4 -1.77
-19.48 6.25 -1.79
-24.09 7.72 -1.33
-1.13 0.37 -0.32
-31.19 10.12 0.57
-1.33 0.43 -0.32
-39.5 12.82 2.18
-1.1 0.36 -0.22
-10.48 3.4 -1.75
-13.7 4.45 -1.77
-19.45 6.31 -1.79
-23.95 7.77 -1.32
-31.56 10.24 -0.58
-1.15 0.38 -0.32
-31.48 10.34 0.58
-1.34 0.44 -0.32
-1.11 0.37 -0.23
-10.46 3.44 -1.74
-13.68 4.49 -1.77
-19.43 6.38 -1.79
-23.83 7.82 -1.31
-1.14 0.38 -0.32
-1.31 0.44 -0.32
-39.62 13.17 2.19
-1.1 0.37 -0.23
-10.46 3.48 -1.75
-13.68 4.54 -1.77
-19.43 6.46 -1.79
-23.68 7.87 -1.31
-1.13 0.38 -0.32
-1.3 0.44 -0.32
-1.1 0.37 -0.23
-10.45 3.51 -1.75
-13.64 4.58 -1.77
-19.4 6.52 -1.79
-23.56 7.92 -1.3
-32.38 10.88 -0.6
-1.15 0.39 -0.32
-31.32 10.65 0.58
-1.3 0.44 -0.32
-1.1 0.37 -0.23
-10.44 3.55 -1.75
-1.56 0.53 -0.2
-19.39 6.59 -1.79
-23.45 7.97 -1.3
-30.29 10.3 -0.56
-1.12 0.39 -0.32
-32.4 11.14 0.6
-1.3 0.45 -0.32
-1.1 0.38 -0.23
-10.43 3.59 -1.75
-1.58 0.54 -0.2
-19.35 6.65 -1.79
-23.32 8.02 -1.29
-1.14 0.4 -0.32
-1.3 0.45 -0.32
-38.4 13.36 2.13
-1.12 0.39 -0.23
-10.41 3.62 -1.75
-1.56 0.54 -0.2
-19.34 6.73 -1.79
-23.21 8.07 -1.29
-1.12 0.39 -0.32
-31.42 11.04 0.58
-1.28 0.45 -0.31
-1.09 0.38 -0.22
-10.4 3.65 -1.75
-1.54 0.54 -0.2
-19.32 6.79 -1.79
-23.1 8.12 -1.28
-1.13 0.4 -0.32
-1.28 0.46 -0.31
-1.12 0.4 -0.23
-10.39 3.69 -1.75
-1.53 0.54 -0.2
-19.3 6.86 -1.79
-23 8.17 -1.28
-1.13 0.41 -0.32
-32.84 11.8 0.61
-1.28 0.46 -0.31
-1.1 0.39 -0.23
-10.38 3.73 -1.75
-1.52 0.55 -0.2
-19.28 6.93 -1.79
-22.91 8.23 -1.28
-27.16 9.76 -0.5
-1.13 0.41 -0.32
-1.27 0.46 -0.31
-1.11 0.4 -0.23
-10.37 3.77 -1.75
-1.5 0.55 -0.2
-19.24 6.99 -1.79
-22.83 8.29 -1.27
-26.95 9.79 -0.5
-1.12 0.41 -0.32
-1.24 0.46 -0.31
-1.1 0.41 -0.23
-10.35 3.8 -1.75
-1.5 0.55 -0.2
-19.22 7.06 -1.79
-22.72 8.34 -1.27
-26.89 9.87 -0.5
-1.13 0.42 -0.32
-30.47 11.31 0.57
-1.21 0.45 -0.3
-1.1 0.41 -0.23
-10.34 3.84 -1.75
-1.48 0.55 -0.19
-19.19 7.12 -1.79
-22.63 8.4 -1.27
-1.14 0.43 -0.33
-31.09 11.67 0.58
-1.19 0.45 -0.29
-1.09 0.41 -0.23
-10.32 3.87 -1.75
-1.46 0.55 -0.19
-19.17 7.19 -1.79
-22.53 8.46 -1.26
-25.69 9.64 -0.48
-1.14 0.43 -0.33
-31.06 11.78 0.58
-1.18 0.45 -0.29
-1.1 0.42 -0.23
-10.32 3.91 -1.75
-1.46 0.55 -0.19
-19.14 7.26 -1.79
-22.46 8.52 -1.26
-25.66 9.73 -0.48
-1.12 0.43 -0.32
-32.72 12.54 0.61
-1.09 0.42 -0.23
-10.31 3.95 -1.75
-1.45 0.56 -0.19
-19.1 7.32 -1.79
-22.36 8.57 -1.25
-25.16 9.64 -0.47
-1.13 0.44 -0.32
-25.74 9.97 0.48
-1.15 0.45 -0.29
-1.09 0.42 -0.23
-10.29 3.98 -1.75
-1.44 0.56 -0.19
-19.07 7.38 -1.79
-22.27 8.62 -1.25
-1.13 0.44 -0.32
-27.2 10.64 0.51
-1.13 0.44 -0.28
-1.1 0.43 -0.23
-10.28 4.02 -1.75
-1.42 0.56 -0.19
-19.08 7.47 -1.79
-22.16 8.67 -1.25
-24.96 9.77 -0.47
-1.13 0.45 -0.33
-29.72 11.75 0.56
-1.12 0.44 -0.28
-1.09 0.43 -0.23
-10.27 4.06 -1.75
-1.41 0.56 -0.19
-19.14 7.57 -1.8
-22.08 8.73 -1.24
-1.12 0.45 -0.32
-25.82 10.31 0.49
-1.11 0.45 -0.28
-1.1 0.44 -0.23
-10.27 4.1 -1.75
-1.39 0.56 -0.18
-19.12 7.64 -1.8
-21.99 8.78 -1.24
-25.36 10.13 -0.48
-1.11 0.45 -0.32
-25.67 10.35 0.48
-1.11 0.45 -0.28
-1.1 0.44 -0.23
-10.25 4.13 -1.75
-1.39 0.56 -0.18
-19.05 7.68 -1.8
-21.91 8.84 -1.24
-25.1 10.13 -0.47
-1.11 0.45 -0.32
-28.35 11.54 0.53
-1.09 0.44 -0.27
-1.09 0.45 -0.23
-10.23 4.17 -1.75
-1.38 0.56 -0.18
-19 7.74 -1.8
-21.81 8.88 -1.23
-24.95 10.16 -0.47
-1.11 0.45 -0.32
-25.63 10.54 0.48
-1.08 0.45 -0.27
-1.1 0.45 -0.23
-10.22 4.2 -1.75
-1.37 0.56 -0.18
-18.94 7.79 -1.79
-21.72 8.93 -1.23
-24.79 10.2 -0.47
-1.09 0.45 -0.32
-25.47 10.58 0.48
-1.09 0.45 -0.27
-31.1 12.92 1.77
-1.09 0.45 -0.23
-10.21 4.24 -1.75
-1.35 0.56 -0.18
-18.9 7.85 -1.79
-21.63 8.98 -1.23
-24.65 10.24 -0.47
-1.1 0.46 -0.32
-1.08 0.45 -0.27
-31.05 13.02 1.76
-1.1 0.46 -0.23
-10.2 4.28 -1.75
-1.33 0.56 -0.18
-18.88 7.91 -1.79
-21.55 9.03 -1.22
-25.35 10.63 -0.48
-1.08 0.46 -0.31
-25.62 10.85 0.49
-1.09 0.46 -0.27
-30.51 12.92 1.74
-1.11 0.47 -0.23
-10.18 4.31 -1.75
-1.32 0.56 -0.18
-18.85 7.99 -1.79
-21.47 9.1 -1.22
-23.57 9.99 -0.45
-1.08 0.46 -0.31
-1.09 0.46 -0.27
-8.31 3.56 -1.76
-10.17 4.35 -1.75
-1.32 0.56 -0.18
-18.83 8.05 -1.79
-21.39 9.15 -1.22
-23.57 10.08 -0.45
-1.06 0.46 -0.31
-24.74 10.68 0.47
-1.07 0.46 -0.27
-8.3 3.58 -1.76
-10.16 4.39 -1.75
-1.31 0.57 -0.18
-18.82 8.13 -1.79
-21.31 9.2 -1.22
-23.62 10.2 -0.45
-1.06 0.46 -0.31
-24.85 10.83 0.47
-1.08 0.47 -0.27
-8.28 3.61 -1.76
-10.15 4.43 -1.75
-1.28 0.56 -0.17
-18.8 8.19 -1.79
-21.2 9.24 -1.21
-23.49 10.24 -0.45
-1.04 0.46 -0.3
-24.85 10.93 0.47
-1.08 0.48 -0.27
-8.26 3.63 -1.75
-10.13 4.46 -1.75
-1.28 0.56 -0.17
-18.77 8.26 -1.79
-21.15 9.31 -1.21
-1.03 0.46 -0.3
-23.86 10.6 0.46
-1.09 0.48 -0.27
-8.25 3.66 -1.76
-10.12 4.5 -1.75
-1.27 0.56 -0.17
-18.76 8.33 -1.8
-21.06 9.35 -1.21
-27.73 12.31 -0.53
-1.03 0.46 -0.3
-25.56 11.46 0.49
-6.97 3.13 -1.76
-8.24 3.69 -1.76
-1.13 0.51 -0.2
-1.26 0.57 -0.17
-18.73 8.4 -1.8
-20.97 9.4 -1.2
-25.39 11.38 -0.49
-1.03 0.47 -0.3
-23.86 10.79 0.46
-6.94 3.14 -1.76
-31.77 14.37 1.83
-8.23 3.73 -1.76
-1.12 0.51 -0.2
-1.25 0.56 -0.17
-18.71 8.47 -1.8
-20.86 9.44 -1.2
-23.55 10.65 -0.45
-1.04 0.47 -0.31
-23.69 10.82 0.45
-6.92 3.16 -1.76
-8.22 3.75 -1.76
-61.35 28.02 5.9
-1.13 0.51 -0.2
-1.23 0.56 -0.17
-18.72 8.55 -1.8
-20.79 9.5 -1.2
-23.44 10.71 -0.45
-1.04 0.48 -0.31
-23.6 10.88 0.45
-6.92 3.19 -1.76
-8.2 3.78 -1.75
-1.14 0.53 -0.2
-1.22 0.56 -0.16
-18.69 8.61 -1.8
-20.7 9.54 -1.19
-23.09 10.64 -0.44
-1.01 0.47 -0.3
-24.26 11.29 0.47
-6.91 3.22 -1.76
-8.19 3.81 -1.76
-1.14 0.53 -0.2
-1.22 0.57 -0.17
-18.7 8.7 -1.8
-20.63 9.6 -1.19
-23.06 10.73 -0.44
-1.02 0.48 -0.3
-24 11.27 0.46
-6.9 3.24 -1.76
-8.17 3.84 -1.76
-1.14 0.53 -0.2
-1.22 0.57 -0.17
-18.67 8.76 -1.8
-20.56 9.65 -1.19
-22.83 10.72 -0.44
-1 0.47 -0.3
-6.88 3.26 -1.76
-8.17 3.87 -1.76
-1.14 0.54 -0.2
-1.21 0.57 -0.16
-18.67 8.84 -1.81
-20.46 9.69 -1.19
-1.01 0.48 -0.3
-24.14 11.53 0.47
-6.87 3.28 -1.76
-8.15 3.89 -1.75
-1.14 0.55 -0.2
-1.19 0.57 -0.16
-18.64 8.91 -1.81
-20.4 9.75 -1.18
-23.34 11.15 -0.45
-5.95 2.87 -1.77
-23.86 11.51 0.46
-6.87 3.31 -1.76
-41.06 19.79 2.39
-8.13 3.92 -1.75
-1.14 0.55 -0.2
-1.18 0.57 -0.16
-18.62 8.98 -1.81
-20.33 9.8 -1.18
-23.07 11.12 -0.45
-5.9 2.87 -1.76
-23.88 11.61 0.46
-6.86 3.33 -1.76
-43.74 21.27 2.55
-8.12 3.95 -1.75
-1.14 0.56 -0.2
-1.19 0.58 -0.16
-18.63 9.06 -1.81
-20.27 9.86 -1.18
-5.88 2.88 -1.75
-6.84 3.36 -1.76
-8.11 3.98 -1.76
-1.14 0.56 -0.2
-1.18 0.58 -0.16
-18.62 9.13 -1.81
-20.21 9.91 -1.18
-23.56 11.56 -0.46
-5.87 2.91 -1.76
-23.57 11.66 0.46
-6.83 3.38 -1.76
-8.1 4.01 -1.76
-1.13 0.56 -0.2
-1.17 0.58 -0.16
-18.62 9.21 -1.82
-20.14 9.96 -1.18
-23.34 11.55 -0.45
-5.86 2.93 -1.76
-28.07 14.02 0.55
-6.81 3.4 -1.76
-38.9 19.43 2.28
-8.08 4.04 -1.76
-1.14 0.57 -0.2
-1.16 0.58 -0.16
-18.61 9.29 -1.82
-20.06 10.02 -1.18
-23.23 11.6 -0.45
-5.85 2.95 -1.76
-23.51 11.84 0.46
-6.81 3.43 -1.76
-8.06 4.06 -1.76
-1.14 0.57 -0.2
-1.14 0.58 -0.16
-18.59 9.37 -1.82
-20 10.08 -1.17
-22.68 11.43 -0.44
-5.83 2.96 -1.75
-23.41 11.9 0.46
-6.8 3.45 -1.76
-8.05 4.09 -1.75
-1.12 0.57 -0.2
-1.16 0.59 -0.16
-18.55 9.43 -1.82
-19.94 10.14 -1.17
-22.92 11.65 -0.45
-5.83 2.99 -1.76
-23.5 12.05 0.46
-6.79 3.48 -1.76
-8.03 4.12 -1.76
-1.1 0.56 -0.2
-1.13 0.58 -0.16
-18.54 9.5 -1.82
-19.89 10.19 -1.17
-23.09 11.84 -0.45
-5.82 3.01 -1.75
-23.49 12.14 0.46
-6.77 3.5 -1.76
-8.02 4.15 -1.76
-1.11 0.57 -0.2
-1.13 0.58 -0.16
-18.53 9.58 -1.83
-19.82 10.25 -1.17
-22.84 11.81 -0.45
-5.81 3.03 -1.76
-26.81 13.98 0.53
-6.74 3.52 -1.76
-8.01 4.18 -1.76
-1.1 0.57 -0.2
-1.13 0.59 -0.16
-18.52 9.66 -1.83
-19.76 10.3 -1.17
-22.47 11.72 -0.44
-5.8 3.05 -1.76
-24.37 12.81 0.48
-6.75 3.55 -1.76
-25.96 13.65 1.54
-7.98 4.2 -1.75
-1.09 0.57 -0.19
-1.14 0.6 -0.16
-18.51 9.73 -1.83
-19.7 10.36 -1.17
-22.45 11.8 -0.44
-5.77 3.06 -1.75
-23.49 12.45 0.46
-6.74 3.57 -1.76
-7.98 4.23 -1.75
-1.07 0.57 -0.19
-12.83 6.8 -1.78
-18.47 9.79 -1.83
-19.66 10.42 -1.17
-22.89 12.13 -0.45
-5.77 3.08 -1.75
-23.45 12.54 0.46
-6.72 3.6 -1.76
-25.93 13.86 1.54
-7.97 4.26 -1.76
-1.06 0.57 -0.19
-12.8 6.84 -1.78
-18.45 9.87 -1.83
-19.58 10.47 -1.16
-23.32 12.47 -0.46
-5.76 3.11 -1.75
-23.51 12.67 0.47
-6.7 3.61 -1.76
-7.96 4.29 -1.76
-1.06 0.57 -0.19
-12.78 6.89 -1.78
-18.42 9.93 -1.83
-19.52 10.53 -1.16
-5.76 3.13 -1.76
-23.23 12.63 0.46
-6.69 3.64 -1.76
-7.94 4.32 -1.76
-1.05 0.57 -0.19
-12.75 6.93 -1.78
-18.41 10.01 -1.83
-19.47 10.58 -1.16
-22.44 12.2 -0.45
-5.74 3.15 -1.76
-23.04 12.63 0.46
-6.68 3.66 -1.76
-7.92 4.34 -1.75
-1.04 0.57 -0.19
-12.72 6.97 -1.78
-18.39 10.08 -1.84
-19.42 10.64 -1.16
-22.44 12.3 -0.45
-5.73 3.17 -1.75
-22.93 12.67 0.46
-6.67 3.69 -1.76
-7.9 4.37 -1.76
-1.04 0.57 -0.19
-12.7 7.02 -1.78
-18.37 10.15 -1.84
-19.37 10.71 -1.16
-5.72 3.19 -1.75
-23.73 13.22 0.47
-6.66 3.71 -1.76
-7.89 4.4 -1.76
-1.03 0.57 -0.19
-12.69 7.07 -1.78
-18.35 10.22 -1.84
-19.31 10.76 -1.16
-24.26 13.52 -0.48
-5.71 3.21 -1.76
-23.67 13.3 0.47
-6.64 3.73 -1.76
-7.89 4.43 -1.76
-1.02 0.57 -0.19
-12.66 7.11 -1.78
-18.32 10.29 -1.84
-19.25 10.82 -1.16
-24.19 13.59 -0.48
-5.7 3.23 -1.76
-23.6 13.37 0.47
-6.62 3.75 -1.76
-25.78 14.6 1.55
-7.86 4.45 -1.76
-1.02 0.58 -0.19
-12.63 7.16 -1.78
-18.3 10.36 -1.84
-19.2 10.87 -1.16
-23.55 13.34 -0.47
-5.69 3.25 -1.76
-6.61 3.77 -1.76
-25.66 14.65 1.55
-7.84 4.48 -1.76
-1.01 0.58 -0.18
-12.61 7.2 -1.78
-18.26 10.43 -1.84
-19.15 10.94 -1.16
-22.68 12.95 -0.46
-5.67 3.26 -1.75
-6.6 3.8 -1.76
-26.23 15.1 1.59
-7.84 4.51 -1.76
-1.01 0.58 -0.18
-12.59 7.25 -1.78
-18.22 10.49 -1.84
-19.1 11 -1.16
-22.72 13.08 -0.46
-5.66 3.28 -1.75
-24.25 14.06 0.49
-6.59 3.82 -1.76
-7.82 4.54 -1.76
-1 0.58 -0.18
-12.58 7.29 -1.79
-18.2 10.56 -1.84
-19.05 11.04 -1.15
-22.96 13.32 -0.46
-5.66 3.31 -1.76
-24.7 14.44 0.5
-6.57 3.84 -1.76
-24.31 14.21 1.48
-7.81 4.57 -1.76
-0.99 0.58 -0.18
-12.54 7.33 -1.78
-18.17 10.62 -1.84
-18.98 11.1 -1.15
-23.28 13.61 -0.47
-5.65 3.33 -1.76
-25.69 15.15 0.52
-6.55 3.86 -1.76
-25.04 14.76 1.52
-7.8 4.6 -1.76
-0.99 0.58 -0.18
-12.51 7.38 -1.78
-18.15 10.7 -1.84
-18.94 11.16 -1.15
-23.23 13.69 -0.47
-5.64 3.35 -1.76
-24.16 14.36 0.49
-6.54 3.89 -1.76
-25.05 14.88 1.53
-7.77 4.62 -1.76
-0.99 0.59 -0.18
-12.49 7.42 -1.78
-18.13 10.77 -1.84
-18.89 11.23 -1.15
-5.62 3.37 -1.76
-22.74 13.62 0.46
-6.53 3.91 -1.76
-25.01 14.98 1.53
-7.76 4.65 -1.76
-38.74 23.2 3.95
-0.98 0.59 -0.18
-12.47 7.47 -1.78
-18.1 10.84 -1.85
-18.85 11.29 -1.15
-26.83 16.07 -0.55
-5.62 3.39 -1.76
-22.18 13.39 0.45
-6.52 3.94 -1.76
-26.02 15.71 1.59
-7.75 4.68 -1.76
-39.93 24.11 4.08
-0.96 0.58 -0.18
-12.44 7.51 -1.78
-18.09 10.92 -1.85
-18.8 11.35 -1.15
-22.89 13.82 -0.47
-5.61 3.41 -1.76
-25.83 15.72 0.53
-6.5 3.95 -1.76
-22.23 13.53 1.36
-7.74 4.71 -1.76
-0.96 0.58 -0.18
-12.43 7.56 -1.79
-18.06 10.99 -1.85
-18.75 11.41 -1.15
-22.17 13.49 -0.45
-5.59 3.43 -1.76
-24.24 14.87 0.5
-6.48 3.98 -1.76
-25.9 15.88 1.59
-7.72 4.73 -1.76
-0.95 0.58 -0.18
-12.38 7.59 -1.78
-18.05 11.07 -1.85
-18.71 11.47 -1.15
-24.31 14.91 -0.5
-5.58 3.45 -1.76
-21.93 13.56 0.45
-6.47 4 -1.76
-22.28 13.77 1.37
-7.7 4.76 -1.76
-0.95 0.59 -0.18
-12.35 7.64 -1.78
-18.04 11.15 -1.86
-18.66 11.53 -1.15
-24.15 14.93 -0.5
-5.56 3.46 -1.76
-22.67 14.12 0.47
-6.46 4.03 -1.76
-22.65 14.11 1.4
-7.68 4.79 -1.76
-0.93 0.58 -0.17
-12.33 7.68 -1.78
-18.01 11.22 -1.86
-18.62 11.6 -1.15
-23.15 14.42 -0.48
-5.56 3.49 -1.76
-21.47 13.48 0.44
-6.45 4.05 -1.76
-21.76 13.66 1.35
-7.67 4.81 -1.76
-0.92 0.58 -0.17
-12.3 7.72 -1.78
-17.98 11.29 -1.86
-18.56 11.65 -1.15
-5.55 3.51 -1.76
-21.28 13.46 0.44
-6.43 4.07 -1.76
-22.05 13.95 1.37
-7.66 4.85 -1.76
-0.92 0.58 -0.17
-12.26 7.76 -1.78
-17.94 11.35 -1.86
-18.52 11.72 -1.15
-22.5 14.24 -0.46
-5.54 3.53 -1.76
-21.43 13.67 0.44
-6.41 4.09 -1.76
-21.87 13.94 1.36
-7.64 4.87 -1.76
-0.91 0.58 -0.17
-12.23 7.8 -1.78
-17.91 11.42 -1.86
-18.48 11.78 -1.15
-23 14.66 -0.48
-5.53 3.55 -1.76
-25.59 16.44 0.53
-6.4 4.11 -1.76
-23.91 15.36 1.49
-7.62 4.89 -1.76
-0.91 0.58 -0.17
-12.21 7.84 -1.78
-17.86 11.48 -1.86
-18.44 11.85 -1.15
-22.59 14.51 -0.47
-5.5 3.56 -1.76
-21.29 13.78 0.44
-6.4 4.14 -1.76
-7.6 4.92 -1.76
-0.89 0.58 -0.17
-12.17 7.88 -1.78
-17.81 11.53 -1.86
-18.4 11.91 -1.15
-22 14.25 -0.46
-5.5 3.59 -1.76
-6.38 4.16 -1.76
-23.05 15.03 1.44
-7.59 4.95 -1.76
-0.88 0.57 -0.17
-12.15 7.92 -1.78
-17.78 11.6 -1.86
-18.37 11.99 -1.15
-21.82 14.24 -0.45
-5.49 3.61 -1.76
-23.39 15.36 0.49
-6.36 4.18 -1.76
-21.78 14.31 1.37
-7.57 4.98 -1.76
-0.88 0.58 -0.17
-12.11 7.96 -1.78
-17.75 11.66 -1.86
-18.31 12.03 -1.15
-20.56 13.51 -0.43
-5.48 3.63 -1.76
-20.4 13.5 0.43
-6.34 4.2 -1.76
-21.54 14.26 1.35
-7.55 5 -1.76
-0.88 0.58 -0.17
-12.07 7.99 -1.78
-17.72 11.73 -1.86
-18.28 12.1 -1.15
-20.59 13.63 -0.43
-5.46 3.65 -1.76
-20.95 13.97 0.44
-6.33 4.23 -1.76
-21.51 14.35 1.36
-7.52 5.02 -1.76
-0.87 0.58 -0.17
-12.04 8.03 -1.78
-17.67 11.79 -1.86
-18.24 12.17 -1.15
-20.59 13.73 -0.43
-5.45 3.66 -1.76
-21.2 14.25 0.45
-6.32 4.25 -1.76
-20.85 14.02 1.32
-7.51 5.05 -1.76
-0.87 0.58 -0.17
-12 8.07 -1.78
-17.63 11.85 -1.86
-18.19 12.23 -1.15
-5.43 3.68 -1.76
-21.48 14.55 0.45
-6.31 4.27 -1.76
-22.74 15.4 1.44
-7.5 5.08 -1.76
-0.85 0.57 -0.16
-11.97 8.11 -1.78
-17.61 11.92 -1.86
-18.16 12.3 -1.15
-20.49 13.88 -0.43
-5.42 3.7 -1.76
-23.88 16.29 0.5
-6.28 4.29 -1.76
-21.07 14.38 1.34
-7.48 5.11 -1.76
-0.84 0.58 -0.16
-11.93 8.14 -1.77
-17.56 11.98 -1.86
-18.1 12.35 -1.15
-22.25 15.19 -0.47
-5.41 3.72 -1.76
-20.42 14.03 0.43
-6.27 4.31 -1.76
-20.89 14.35 1.33
-0.84 0.58 -0.2
-0.84 0.58 -0.16
-11.89 8.17 -1.77
-17.52 12.04 -1.86
-18.07 12.42 -1.15
-21.39 14.7 -0.45
-5.4 3.74 -1.76
-20.12 13.93 0.43
-6.26 4.33 -1.76
-21.67 15 1.38
-0.83 0.57 -0.2
-22.14 15.33 2.36
-0.85 0.59 -0.16
-11.86 8.22 -1.77
-17.5 12.11 -1.86
-18.03 12.49 -1.15
-21.41 14.83 -0.45
-5.38 3.75 -1.76
-20.17 14.07 0.43
-6.24 4.36 -1.76
-20.82 14.53 1.33
-0.83 0.58 -0.2
-22.27 15.54 2.38
-0.83 0.58 -0.16
-11.84 8.26 -1.77
-17.45 12.17 -1.86
-17.99 12.55 -1.15
-21.67 15.12 -0.46
-5.36 3.77 -1.76
-20.2 14.2 0.43
-6.23 4.38 -1.76
-20.12 14.14 1.29
-0.83 0.59 -0.2
-21.86 15.36 2.34
-0.82 0.58 -0.16
-11.81 8.3 -1.77
-17.42 12.24 -1.86
-17.95 12.62 -1.15
-22.29 15.66 -0.48
-5.36 3.8 -1.76
-18.61 13.17 0.4
-6.21 4.4 -1.76
-18.59 13.16 1.19
-0.82 0.58 -0.2
-21.77 15.41 2.33
-0.82 0.58 -0.16
-11.79 8.35 -1.77
-17.39 12.31 -1.86
-17.9 12.67 -1.15
-18.64 13.2 -0.4
-5.35 3.81 -1.76
-18.51 13.2 0.4
-6.2 4.42 -1.76
-18.49 13.19 1.19
-0.81 0.58 -0.19
-21.6 15.41 2.32
-0.82 0.59 -0.16
-31.66 22.58 4.78
-11.74 8.37 -1.77
-17.35 12.38 -1.86
-17.86 12.74 -1.15
-18.59 13.26 -0.4
-5.34 3.84 -1.76
-18.43 13.24 0.4
-6.18 4.44 -1.76
-18.42 13.24 1.19
-0.8 0.58 -0.19
-0.83 0.6 -0.16
-11.7 8.41 -1.77
-31.31 22.5 6.11
-17.32 12.45 -1.87
-17.84 12.82 -1.15
-20.29 14.58 -0.44
-5.31 3.84 -1.76
-18.39 13.31 0.4
-6.17 4.47 -1.76
-18.37 13.3 1.19
-0.8 0.58 -0.19
-22.96 16.62 2.48
-0.82 0.59 -0.16
-31.6 22.88 4.79
-11.67 8.45 -1.77
-17.28 12.51 -1.87
-22.79 16.5 -1.47
-20.46 14.81 -0.44
-5.3 3.86 -1.76
-19.88 14.5 0.43
-6.15 4.49 -1.76
-0.81 0.59 -0.19
-21.29 15.52 2.31
-0.8 0.58 -0.16
-11.64 8.49 -1.77
-17.25 12.58 -1.87
-19.93 14.53 -1.29
-21.23 15.48 -0.46
-5.29 3.88 -1.76
-19.85 14.58 0.43
-6.13 4.5 -1.76
-23.12 16.98 1.5
-0.8 0.59 -0.19
-21.14 15.52 2.29
-0.81 0.59 -0.16
-11.6 8.52 -1.77
-17.21 12.64 -1.87
-17.74 13.03 -1.15
-19.94 14.65 -0.43
-5.28 3.91 -1.76
-20.11 14.87 0.44
-6.11 4.52 -1.76
-20.38 15.08 1.33
-21.09 15.6 2.29
-0.81 0.6 -0.16
-11.57 8.56 -1.77
-17.18 12.71 -1.87
-22.22 16.44 -1.45
-5.26 3.92 -1.76
-19.99 14.89 0.44
-6.11 4.55 -1.76
-20.28 15.1 1.33
-0.81 0.61 -0.16
-11.53 8.59 -1.77
-17.14 12.77 -1.87
-22.59 16.83 -1.48
-22.46 16.73 -0.49
-5.24 3.93 -1.75
-19.92 14.95 0.43
-6.09 4.57 -1.76
-20.31 15.24 1.33
-22.97 17.24 2.51
-0.81 0.61 -0.16
-11.51 8.64 -1.77
-17.09 12.83 -1.87
-23.63 17.73 -1.55
-19.88 14.92 -0.43
-5.23 3.95 -1.76
-20.07 15.17 0.44
-6.08 4.59 -1.76
-20.6 15.57 1.35
-20.31 15.35 2.23
-0.8 0.6 -0.16
-11.51 8.7 -1.77
-17.06 12.9 -1.87
-19.72 14.9 -1.3
-19.92 15.06 -0.44
-5.22 3.97 -1.76
-19.82 15.08 0.43
-6.06 4.61 -1.76
-20.4 15.53 1.34
-20.34 15.48 2.24
-0.8 0.61 -0.16
-11.47 8.73 -1.77
-17.02 12.96 -1.87
-17.59 13.39 -1.16
-20.79 15.83 -0.46
-5.21 3.99 -1.76
-19.62 15.04 0.43
-6.04 4.63 -1.76
-20.15 15.45 1.33
-22.14 16.97 2.44
-0.79 0.6 -0.16
-11.43 8.76 -1.77
-16.98 13.02 -1.87
-17.54 13.45 -1.16
-20.23 15.51 -0.44
-5.19 4.01 -1.76
-6.02 4.65 -1.76
-19.87 15.34 1.32
-20.62 15.92 2.28
-0.79 0.61 -0.16
-11.4 8.8 -1.77
-16.94 13.09 -1.87
-17.49 13.51 -1.16
-21.03 16.24 -0.46
-5.16 4.02 -1.75
-19.5 15.17 0.43
-6.01 4.68 -1.76
-20.5 15.94 1.36
-20.21 15.72 2.24
-0.79 0.62 -0.16
-11.37 8.85 -1.77
-16.91 13.15 -1.87
-17.48 13.6 -1.16
-19.53 15.19 -0.43
-5.15 4.04 -1.75
-19.41 15.21 0.43
-5.99 4.69 -1.76
-20.54 16.09 1.37
-20.09 15.74 2.23
-0.78 0.61 -0.16
-11.35 8.89 -1.77
-16.87 13.21 -1.87
-17.44 13.66 -1.16
-19.87 15.57 -0.44
-5.14 4.06 -1.76
-19.57 15.44 0.44
-5.97 4.71 -1.76
-21.12 16.67 1.41
-19.83 15.64 2.21
-8.73 6.89 -1.76
-11.32 8.93 -1.77
-16.84 13.29 -1.88
-17.41 13.74 -1.16
-22.41 17.68 -0.5
-5.13 4.08 -1.76
-19.21 15.27 0.43
-5.96 4.73 -1.76
-20.78 16.52 1.39
-21.64 17.2 2.42
-8.7 6.92 -1.76
-11.29 8.97 -1.77
-16.82 13.37 -1.88
-17.4 13.83 -1.16
-20.58 16.36 -0.46
-5.11 4.09 -1.75
-19.24 15.4 0.43
-5.95 4.76 -1.76
-21.11 16.9 1.42
-19.56 15.66 2.19
-8.67 6.94 -1.76
-11.26 9.01 -1.77
-16.76 13.42 -1.88
-17.37 13.9 -1.17
-19.19 15.36 -0.43
-5.09 4.1 -1.75
-19.05 15.35 0.43
-5.93 4.78 -1.76
-21.38 17.22 1.44
-19.73 15.9 2.22
-8.64 6.96 -1.76
-11.23 9.05 -1.77
-16.71 13.46 -1.88
-17.35 13.98 -1.17
-19.15 15.43 -0.43
-5.08 4.12 -1.75
-5.91 4.8 -1.76
-21.62 17.54 1.46
-8.62 6.99 -1.76
-11.22 9.1 -1.77
-16.66 13.51 -1.88
-17.33 14.06 -1.17
-5.07 4.15 -1.76
-19.56 15.99 0.44
-5.9 4.82 -1.76
-19.3 15.78 1.31
-30.73 25.11 3.47
-8.6 7.03 -1.76
-11.19 9.15 -1.77
-16.61 13.58 -1.88
-17.29 14.13 -1.17
-19.23 15.72 -0.43
-5.06 4.16 -1.76
-19.11 15.73 0.43
-5.88 4.84 -1.76
-22.95 18.89 1.56
-8.57 7.05 -1.76
-11.16 9.18 -1.77
-16.57 13.64 -1.88
-17.26 14.21 -1.17
-19.09 15.71 -0.43
-5.04 4.18 -1.76
-19.32 16.02 0.44
-5.87 4.87 -1.76
-19.54 16.2 1.33
-27.87 23.11 3.17
-8.56 7.1 -1.76
-11.13 9.23 -1.78
-16.52 13.7 -1.88
-17.24 14.3 -1.17
-18.43 15.28 -0.42
-5.02 4.19 -1.75
-21.23 17.72 0.48
-5.85 4.89 -1.76
-19.45 16.24 1.33
-8.53 7.12 -1.76
-11.11 9.27 -1.78
-16.46 13.74 -1.88
-17.23 14.39 -1.18
-19.47 16.25 -0.44
-5.01 4.21 -1.75
-19.47 16.37 0.44
-5.84 4.91 -1.76
-19.43 16.33 1.33
-8.5 7.14 -1.76
-11.09 9.32 -1.78
-16.42 13.8 -1.88
-17.21 14.47 -1.18
-20.8 17.49 -0.47
-5 4.23 -1.75
-5.82 4.92 -1.76
-20.69 17.51 1.42
-8.48 7.17 -1.76
-11.06 9.36 -1.78
-16.36 13.85 -1.88
-17.18 14.54 -1.18
-20.07 16.99 -0.46
-4.98 4.25 -1.75
-19.49 16.62 0.45
-5.8 4.95 -1.76
-22.86 19.49 1.57
-8.46 7.21 -1.76
-11.02 9.39 -1.78
-16.32 13.92 -1.88
-17.15 14.63 -1.18
-22.41 19.1 -0.51
-4.97 4.27 -1.75
-19.01 16.32 0.44
-5.79 4.97 -1.76
-20.27 17.4 1.4
-8.43 7.24 -1.76
-11 9.44 -1.78
-16.26 13.96 -1.87
-17.14 14.71 -1.18
-21.53 18.48 -0.5
-4.95 4.28 -1.75
-19.14 16.56 0.44
-5.77 4.99 -1.76
-20.56 17.79 1.42
-8.4 7.27 -1.76
-10.98 9.5 -1.78
-16.21 14.03 -1.88
-17.11 14.8 -1.19
-19.42 16.8 -0.45
-4.93 4.29 -1.75
-18.99 16.55 0.44
-5.75 5.01 -1.76
-20.52 17.88 1.43
-27.45 23.91 3.18
-8.37 7.29 -1.76
-10.96 9.55 -1.78
-16.17 14.09 -1.88
-17.1 14.9 -1.19
-19.56 17.04 -0.45
-4.92 4.31 -1.75
-19.14 16.79 0.44
-5.72 5.02 -1.76
-19.22 16.86 1.34
-27.96 24.53 3.25
-8.35 7.33 -1.76
-10.93 9.59 -1.79
-16.12 14.15 -1.88
-17.06 14.97 -1.19
-19.11 16.77 -0.44
-4.91 4.34 -1.76
-20.23 17.87 0.47
-5.71 5.04 -1.76
-19.1 16.87 1.34
-27.77 24.53 3.24
-8.33 7.36 -1.76
-10.89 9.62 -1.78
-16.08 14.21 -1.88
-17.05 15.06 -1.19
-18.81 16.61 -0.44
-4.89 4.35 -1.76
-20.29 18.05 0.47
-5.69 5.07 -1.76
-20.59 18.32 1.44
-8.31 7.39 -1.76
-10.87 9.67 -1.79
-16.04 14.27 -1.88
-17.03 15.15 -1.19
-18.66 16.61 -0.44
-4.87 4.36 -1.75
-19.19 17.19 0.45
-5.69 5.1 -1.76
-20.12 18.03 1.42
-8.28 7.42 -1.76
-28.03 25.11 4.62
-10.84 9.71 -1.79
-15.98 14.32 -1.88
-17.02 15.25 -1.2
-18.72 16.77 -0.44
-4.85 4.37 -1.75
-18.43 16.63 0.43
-5.67 5.12 -1.76
-18.88 17.04 1.33
-28.14 25.39 3.32
-8.25 7.44 -1.76
-27.72 25.01 4.58
-10.82 9.76 -1.79
-27.1 24.45 5.78
-15.93 14.38 -1.88
-17.01 15.34 -1.2
-19.99 18.03 -0.47
-4.84 4.4 -1.75
-18.3 16.62 0.43
-5.65 5.13 -1.76
-20.44 18.57 1.45
-8.22 7.47 -1.76
-10.79 9.8 -1.79
-15.89 14.43 -1.88
-16.98 15.42 -1.2
-18.7 16.99 -0.44
-4.84 4.43 -1.76
-18.33 16.77 0.43
-5.64 5.16 -1.76
-20.02 18.32 1.42
-8.2 7.5 -1.76
-10.75 9.84 -1.79
-28.26 25.86 6.07
-15.84 14.5 -1.88
-16.96 15.52 -1.2
-18.47 16.9 -0.44
-4.82 4.44 -1.75
-18.33 16.89 0.44
-5.63 5.18 -1.77
-18.74 17.26 1.34
-8.17 7.53 -1.76
-27.89 25.7 4.66
-10.73 9.88 -1.79
-15.79 14.55 -1.88
-16.95 15.62 -1.21
-18.23 16.8 -0.43
-4.79 4.44 -1.75
-18.24 16.92 0.43
-20.59 19.1 1.47
-27.14 25.18 3.24
-8.15 7.56 -1.76
-27.9 25.88 4.67
-10.7 9.93 -1.79
-15.74 14.6 -1.88
-16.95 15.73 -1.21
-18.43 17.1 -0.44
-4.78 4.47 -1.75
-18.55 17.33 0.44
-20.1 18.77 1.44
-8.12 7.58 -1.76
-26.53 24.78 4.46
-10.68 9.97 -1.79
-15.69 14.65 -1.88
-16.93 15.82 -1.21
-18.29 17.08 -0.44
-4.77 4.49 -1.75
-19.41 18.25 0.47
-18.56 17.46 1.34
-8.09 7.61 -1.76
-27.83 26.17 4.69
-10.65 10.01 -1.79
-27.76 26.11 6.04
-15.64 14.71 -1.88
-16.94 15.93 -1.22
-18.31 17.22 -0.44
-4.76 4.5 -1.76
-18.4 17.42 0.44
-19.61 18.57 1.42
-8.07 7.64 -1.76
-27.24 25.79 4.61
-10.62 10.05 -1.8
-27.69 26.22 6.04
-15.59 14.76 -1.88
-16.93 16.03 -1.22
-18.28 17.31 -0.44
-4.74 4.52 -1.75
-18.32 17.47 0.44
-25.29 24.12 1.83
-8.04 7.67 -1.76
-27.3 26.04 4.63
-10.59 10.1 -1.8
-15.54 14.82 -1.88
-16.92 16.14 -1.23
-18.33 17.49 -0.44
-4.72 4.53 -1.75
-18.61 17.87 0.45
-26.04 25.01 3.16
-8.02 7.7 -1.76
-10.56 10.14 -1.8
-15.48 14.87 -1.88
-16.93 16.26 -1.23
-18.43 17.7 -0.45
-4.7 4.55 -1.75
-18.29 17.69 0.44
-27.79 26.87 2.03
-7.99 7.72 -1.76
-25.94 25.09 4.43
-10.53 10.19 -1.8
-15.43 14.93 -1.88
-16.92 16.36 -1.23
-18.25 17.65 -0.44
-4.69 4.56 -1.75
-18.14 17.66 0.44
-25.9 25.22 3.16
-7.96 7.75 -1.76
-10.5 10.23 -1.8
-15.39 14.99 -1.88
-16.91 16.46 -1.24
-18.09 17.61 -0.44
-4.67 4.58 -1.75
-19.04 18.67 0.47
-18.23 17.87 1.34
-25.2 24.71 3.09
-7.93 7.78 -1.76
-10.46 10.26 -1.8
-25.43 24.94 5.64
-15.34 15.04 -1.88
-16.91 16.59 -1.24
-17.9 17.55 -0.44
-4.65 4.59 -1.75
-18.23 17.99 0.45
-18.55 18.32 1.37
-24.63 24.32 3.03
-7.91 7.81 -1.76
-10.43 10.3 -1.8
-15.29 15.1 -1.88
-16.91 16.7 -1.25
-18.38 18.15 -0.45
-4.63 4.6 -1.75
-18.14 18.03 0.45
-18.46 18.35 1.36
-7.89 7.84 -1.76
-24.93 24.78 4.32
-10.4 10.33 -1.8
-15.23 15.14 -1.88
-16.92 16.82 -1.25
-17.86 17.76 -0.44
-4.62 4.62 -1.75
-18.54 18.55 0.46
-18.5 18.51 1.37
-23.23 23.25 2.88
-7.85 7.86 -1.76
-10.36 10.37 -1.8
-25.44 25.46 5.7
-15.17 15.18 -1.88
-16.92 16.93 -1.25
-4.6 4.64 -1.75
-18.25 18.4 0.45
-18.35 18.5 1.37
-24.7 24.91 3.07
-7.82 7.89 -1.76
-25.57 25.78 4.46
-10.32 10.41 -1.8
-15.12 15.24 -1.88
-16.91 17.05 -1.26
-17.8 17.95 -0.44
-4.59 4.66 -1.75
-18.44 18.72 0.46
-18.24 18.52 1.36
-7.8 7.92 -1.76
-24.94 25.32 4.36
-10.28 10.44 -1.8
-15.05 15.28 -1.88
-16.92 17.18 -1.26
-17.98 18.26 -0.45
-4.57 4.67 -1.75
-18.4 18.81 0.46
-18.33 18.74 1.37
-22.81 23.32 2.85
-7.78 7.95 -1.76
-10.24 10.47 -1.8
-15.01 15.34 -1.88
-16.94 17.31 -1.27
-17.72 18.12 -0.44
-4.55 4.69 -1.75
-18.02 18.55 0.45
-18.23 18.76 1.37
-23.35 24.04 2.93
-7.75 7.98 -1.76
-25.65 26.41 4.52
-10.22 10.52 -1.8
-24.94 25.68 5.67
-14.93 15.37 -1.87
-16.96 17.46 -1.28
-17.59 18.11 -0.44
-4.54 4.7 -1.75
-18.29 18.96 1.38
-7.72 8 -1.76
-25.65 26.59 4.54
-10.18 10.56 -1.8
-14.89 15.43 -1.88
-16.97 17.59 -1.28
-19.7 20.42 -0.5
-4.53 4.72 -1.75
-18.48 19.29 0.47
-18.29 19.09 1.39
-25.55 26.67 3.23
-7.69 8.03 -1.76
-24.26 25.32 4.31
-10.15 10.6 -1.8
-14.83 15.48 -1.88
-16.97 17.71 -1.29
-18.1 18.89 -0.46
-4.51 4.74 -1.75
-18.41 19.35 0.47
-25.62 26.93 1.95
-22.48 23.63 2.85
-7.67 8.06 -1.76
-24.19 25.43 4.31
-10.11 10.63 -1.8
-14.77 15.53 -1.87
-16.97 17.83 -1.29
-18.19 19.12 -0.46
-4.49 4.75 -1.75
-18.41 19.49 0.47
-25.32 26.8 1.93
-7.64 8.09 -1.76
-10.07 10.66 -1.8
-24.85 26.31 5.73
-14.72 15.58 -1.88
-16.98 17.97 -1.3
-18.09 19.15 -0.46
-4.47 4.76 -1.75
-18.18 19.37 0.46
-22.03 23.47 1.69
-24.5 26.1 3.13
-7.61 8.11 -1.76
-10.04 10.69 -1.8
-14.65 15.6 -1.87
-16.98 18.09 -1.3
-18.05 19.23 -0.46
-4.46 4.78 -1.75
-18 19.31 0.46
-21.99 23.59 1.69
-7.58 8.13 -1.76
-10 10.73 -1.8
-14.59 15.65 -1.87
-16.99 18.22 -1.31
-18.03 19.34 -0.46
-4.44 4.8 -1.75
-23.51 25.4 3.03
-7.55 8.16 -1.76
-9.97 10.77 -1.8
-14.53 15.7 -1.87
-16.97 18.34 -1.31
-17.98 19.42 -0.46
-4.43 4.82 -1.75
-18.61 20.25 0.48
-22.88 24.89 2.96
-7.53 8.19 -1.76
-23.79 25.88 4.32
-9.92 10.8 -1.8
-25.16 27.37 5.89
-14.48 15.75 -1.87
-16.98 18.47 -1.31
-18.32 19.93 -0.47
-4.41 4.83 -1.75
-18.41 20.17 0.48
-22.57 24.72 1.75
-7.5 8.22 -1.76
-9.88 10.83 -1.8
-14.41 15.79 -1.87
-16.97 18.59 -1.32
-18.4 20.16 -0.48
-4.38 4.84 -1.75
-18.73 20.66 0.49
-23.43 25.85 3.05
-7.47 8.24 -1.76
-9.85 10.87 -1.8
-14.34 15.82 -1.87
-16.98 18.73 -1.32
-18.4 20.3 -0.48
-4.37 4.86 -1.75
-18.61 20.68 0.49
-20.99 23.32 1.64
-7.44 8.27 -1.76
-9.82 10.91 -1.8
-14.28 15.87 -1.87
-16.96 18.84 -1.33
-18.35 20.39 -0.48
-4.36 4.88 -1.75
-18.49 20.69 0.48
-22.66 25.35 1.78
-23.22 25.98 3.05
-7.41 8.29 -1.76
-9.78 10.94 -1.8
-14.22 15.91 -1.87
-16.95 18.96 -1.33
-18.23 20.39 -0.48
-4.35 4.9 -1.75
-22.51 25.36 0.59
-22.17 24.97 1.75
-22.86 25.76 3.01
-7.39 8.32 -1.76
-9.74 10.97 -1.8
-14.17 15.97 -1.87
-16.93 19.08 -1.34
-18.48 20.82 -0.49
-4.32 4.91 -1.75
-22.51 25.54 0.59
-20.89 23.71 1.66
-22.31 25.31 2.95
-7.36 8.35 -1.76
-21.85 24.79 4.06
-9.69 11 -1.8
-14.1 16 -1.87
-16.92 19.2 -1.34
-18.12 20.56 -0.48
-4.3 4.92 -1.75
-25.65 29.31 0.68
-7.33 8.38 -1.76
-9.65 11.03 -1.8
-14.03 16.03 -1.86
-16.91 19.32 -1.35
-18.21 20.8 -0.48
-4.28 4.93 -1.75
-21.06 24.24 0.56
-22.78 26.22 3.04
-7.3 8.4 -1.76
-9.62 11.07 -1.8
-13.97 16.07 -1.86
-16.89 19.44 -1.35
-18.25 21.01 -0.49
-4.27 4.95 -1.75
-21.83 25.3 2.92
-7.27 8.42 -1.76
-9.58 11.1 -1.8
-13.9 16.11 -1.86
-16.9 19.59 -1.36
-22.42 25.98 -0.6
-4.25 4.97 -1.75
-20.45 23.86 1.65
-20.32 23.71 2.73
-7.24 8.45 -1.76
-9.53 11.12 -1.8
-13.83 16.14 -1.86
-16.88 19.71 -1.36
-4.24 4.98 -1.75
-20.72 24.35 0.56
-21.01 24.69 1.7
-20.62 24.23 2.78
-7.22 8.48 -1.76
-21.56 25.33 4.08
-9.49 11.15 -1.8
-13.77 16.18 -1.86
-16.91 19.87 -1.37
-18.21 21.4 -0.49
-4.22 4.99 -1.75
-21.07 24.94 1.71
-7.18 8.5 -1.76
-9.45 11.19 -1.8
-13.71 16.23 -1.86
-16.9 20 -1.37
-22.42 26.53 -0.61
-4.2 5 -1.75
-20.97 24.99 0.57
-23.7 28.24 1.93
-7.15 8.52 -1.76
-21.83 26.01 4.17
-9.42 11.22 -1.8
-13.64 16.25 -1.86
-16.9 20.15 -1.38
-24.7 29.44 -0.67
-4.18 5.02 -1.75
-20.95 25.14 0.57
-22.77 27.32 1.86
-7.12 8.55 -1.76
-9.38 11.25 -1.8
-13.58 16.3 -1.86
-16.9 20.28 -1.38
-4.17 5.04 -1.75
-20.49 24.77 0.56
-20.53 24.82 1.69
-21.35 25.81 2.93
-7.09 8.57 -1.76
-21.01 25.4 4.05
-9.33 11.28 -1.8
-13.52 16.34 -1.86
-16.9 20.43 -1.39
-24.31 29.38 -0.67
-4.15 5.05 -1.75
-24.69 30.05 0.68
-21.4 26.05 2.95
-7.07 8.6 -1.76
-9.29 11.31 -1.8
-13.45 16.37 -1.85
-16.91 20.59 -1.4
-18.72 22.79 -0.51
-4.13 5.06 -1.75
-19.62 24.06 0.54
-19.72 24.18 2.73
-7.03 8.62 -1.76
-22.28 27.31 4.33
-9.25 11.34 -1.8
-23.87 29.27 5.98
-13.37 16.4 -1.85
-16.9 20.73 -1.4
-4.11 5.08 -1.75
-19.63 24.24 0.54
-20.72 25.58 2.88
-7 8.64 -1.76
-9.21 11.37 -1.8
-13.3 16.43 -1.85
-16.92 20.89 -1.41
-4.09 5.09 -1.75
-19.63 24.41 0.55
-19.38 24.1 2.71
-6.97 8.67 -1.76
-9.17 11.4 -1.8
-13.25 16.48 -1.85
-16.91 21.03 -1.41
-22.09 27.48 -0.62
-4.08 5.11 -1.75
-6.94 8.69 -1.76
-20.24 25.36 3.98
-9.12 11.42 -1.79
-23.5 29.44 5.97
-13.17 16.5 -1.85
-16.92 21.2 -1.42
-19.18 24.02 -0.54
-4.06 5.12 -1.75
-19.97 25.18 0.56
-18.87 23.81 1.59
-19.28 24.31 2.71
-6.92 8.73 -1.76
-21.34 26.92 4.22
-9.08 11.46 -1.8
-22.8 28.76 5.81
-13.1 16.52 -1.84
-16.93 21.35 -1.43
-22.57 28.47 -0.63
-4.04 5.13 -1.75
-19.81 25.16 0.56
-18.67 23.72 1.58
-18.94 24.07 2.68
-6.88 8.74 -1.76
-21.68 27.54 4.3
-9.04 11.49 -1.8
-13.03 16.55 -1.84
-16.94 21.51 -1.43
-18.98 24.1 -0.54
-4.02 5.15 -1.75
-21.88 28 0.62
-22.42 28.68 1.91
-5.58 7.14 -1.76
-20.86 26.69 2.96
-6.85 8.77 -1.76
-9.01 11.52 -1.8
-12.97 16.6 -1.84
-19.6 25.08 -0.56
-4.01 5.16 -1.75
-22.34 28.78 0.64
-5.57 7.17 -1.76
-18.56 23.92 2.65
-6.82 8.79 -1.76
-22.2 28.61 4.45
-8.96 11.55 -1.8
-21.97 28.31 5.68
-12.91 16.64 -1.84
-17.57 22.65 -1.5
-22.48 28.98 -0.64
-3.99 5.18 -1.75
-22.56 29.28 0.65
-22.19 28.8 1.91
-5.53 7.17 -1.76
-18.51 24.03 2.65
-6.79 8.82 -1.76
-8.92 11.57 -1.79
-20.92 27.16 5.43
-12.85 16.68 -1.84
-22.52 29.23 -1.93
-3.98 5.2 -1.75
-22.48 29.39 1.94
-5.5 7.19 -1.76
-18.42 24.08 2.65
-6.76 8.84 -1.76
-8.88 11.61 -1.79
-12.79 16.72 -1.84
-18.26 23.87 -1.58
-3.95 5.2 -1.75
-20.02 26.36 0.58
-18.76 24.71 1.63
-5.48 7.21 -1.76
-18.92 24.92 2.74
-6.73 8.86 -1.76
-21.79 28.7 4.43
-8.84 11.64 -1.79
-20.21 26.62 5.29
-12.71 16.74 -1.84
-17.96 23.65 -1.56
-18.95 24.96 -0.55
-3.94 5.22 -1.75
-19.74 26.18 0.57
-18.97 25.17 1.65
-5.46 7.24 -1.76
-23.23 30.81 3.38
-6.69 8.88 -1.76
-19.52 25.89 3.98
-8.8 11.67 -1.79
-22.55 29.91 5.93
-12.63 16.75 -1.84
-17.59 23.33 -1.53
-18.79 24.92 -0.54
-3.92 5.24 -1.75
-20.36 27.21 0.59
-5.43 7.26 -1.76
-18.26 24.41 2.67
-6.66 8.9 -1.76
-21.01 28.07 4.31
-8.76 11.7 -1.79
-12.56 16.78 -1.83
-17.42 23.27 -1.52
-20.16 26.93 -0.59
-3.91 5.26 -1.76
-20.01 26.93 0.59
-20.23 27.22 1.78
-5.4 7.27 -1.76
-6.63 8.93 -1.76
-19.21 25.86 3.96
-8.71 11.72 -1.79
-20.33 27.37 5.4
-12.49 16.81 -1.83
-17.69 23.81 -1.55
-19.9 26.79 -0.58
-19.55 26.51 0.57
-19.79 26.83 1.75
-5.38 7.29 -1.76
-19.43 26.34 2.86
-6.6 8.95 -1.76
-20.01 27.13 4.14
-8.67 11.76 -1.79
-19.86 26.92 5.3
-12.42 16.84 -1.83
-17.68 23.97 -1.56
-19.82 26.88 -0.58
-19.26 26.31 0.57
-19.48 26.6 1.73
-5.35 7.31 -1.76
-6.57 8.97 -1.76
-8.63 11.78 -1.79
-19.95 27.25 5.35
-12.33 16.84 -1.83
-17.61 24.05 -1.56
-21.96 30 -0.65
-19.17 26.37 0.57
-19.41 26.69 1.73
-5.33 7.33 -1.76
-19.37 26.64 2.88
-6.53 8.98 -1.76
-8.59 11.82 -1.79
-19.66 27.04 5.29
-12.26 16.87 -1.82
-17.68 24.32 -1.58
-21.99 30.25 -0.65
-18.97 26.28 0.57
-5.3 7.35 -1.76
-20.08 27.82 3
-6.5 9 -1.76
-19.82 27.46 4.16
-8.55 11.84 -1.79
-19.48 26.99 5.27
-12.19 16.89 -1.82
-17.51 24.26 -1.57
-21.61 29.95 -0.64
-18.31 25.55 0.55
-22.05 30.78 1.98
-5.28 7.37 -1.76
-18.48 25.8 2.78
-6.47 9.03 -1.76
-18.56 25.9 3.91
-8.5 11.87 -1.79
-21.36 29.81 5.81
-12.12 16.92 -1.82
-17.55 24.49 -1.58
-21.81 30.44 -0.65
-18.24 25.64 0.55
-5.24 7.37 -1.76
-18.1 25.45 2.73
-6.44 9.05 -1.76
-8.47 11.9 -1.79
-12.04 16.94 -1.82
-17.54 24.67 -1.59
-18.28 25.9 0.55
-18.69 26.47 1.7
-5.22 7.39 -1.76
-20.02 28.35 3.04
-6.4 9.07 -1.76
-8.42 11.93 -1.79
-11.96 16.94 -1.81
-17.14 24.27 -1.56
-18.76 26.58 -0.57
-19.15 27.33 0.58
-5.19 7.41 -1.76
-6.36 9.08 -1.76
-19.73 28.15 4.22
-8.38 11.96 -1.79
-19.34 27.6 5.34
-11.89 16.96 -1.81
-17.5 24.97 -1.6
-20.86 29.99 0.64
-5.17 7.43 -1.76
-6.33 9.11 -1.76
-8.34 11.99 -1.79
-11.82 17 -1.81
-17.22 24.76 -1.58
-21.76 31.28 -0.67
-21.23 30.76 0.65
-18 26.07 1.66
-5.14 7.45 -1.76
-6.3 9.12 -1.76
-19.69 28.51 4.25
-8.29 12.01 -1.79
-18.99 27.51 5.29
-11.75 17.02 -1.81
-17.46 25.29 -1.61
-20.78 30.33 0.64
-20.33 29.67 1.88
-5.11 7.46 -1.76
-6.27 9.15 -1.76
-8.25 12.03 -1.79
-18.67 27.25 5.23
-11.69 17.06 -1.81
-20.02 29.44 0.62
-17.36 25.53 1.62
-5.09 7.48 -1.76
-6.24 9.17 -1.76
-18.6 27.34 4.06
-8.2 12.06 -1.79
-11.62 17.08 -1.81
-17.41 25.59 -1.62
-19.53 28.93 0.61
-5.06 7.5 -1.76
-6.2 9.18 -1.75
-8.16 12.09 -1.79
-11.56 17.12 -1.81
-17.54 25.99 -1.64
-18.6 27.77 0.58
-17.46 26.07 1.64
-5.04 7.52 -1.76
-6.16 9.2 -1.75
-8.12 12.11 -1.79
-11.5 17.16 -1.81
-17.68 26.39 -1.66
-18.51 27.82 0.58
-5.01 7.54 -1.76
-6.14 9.23 -1.75
-8.07 12.13 -1.79
-11.43 17.18 -1.81
-17.71 26.63 -1.68
-20.34 30.81 0.64
-20.42 30.93 1.94
-4.98 7.54 -1.76
-6.1 9.25 -1.75
-18.49 28.01 4.12
-8.03 12.16 -1.79
-11.36 17.21 -1.8
-17.5 26.51 -1.67
-18.62 28.21 -0.59
-20.17 30.78 0.64
-20.31 31 1.94
-4.95 7.56 -1.76
-6.06 9.26 -1.75
-7.98 12.18 -1.79
-11.28 17.22 -1.8
-17.52 26.75 -1.68
-18.16 27.72 -0.58
-4.93 7.58 -1.76
-6.03 9.27 -1.75
-7.94 12.21 -1.79
-11.21 17.25 -1.8
-17.41 26.78 -1.67
-18.46 28.4 -0.59
-20.19 31.29 0.65
-20.13 31.2 1.95
-4.9 7.6 -1.76
-5.99 9.29 -1.75
-7.89 12.23 -1.79
-11.14 17.27 -1.8
-17.37 26.93 -1.68
-20.04 31.31 0.65
-4.87 7.61 -1.76
-21.84 34.11 3.54
-5.96 9.32 -1.75
-21.8 34.05 4.96
-7.83 12.23 -1.78
-21.78 34.02 6.4
-11.07 17.29 -1.8
-17.22 26.9 -1.67
-19.08 29.8 -0.62
-21.74 34.2 0.71
-21.72 34.17 2.12
-4.85 7.63 -1.76
-5.94 9.34 -1.75
-7.8 12.27 -1.78
-11 17.3 -1.79
-17.21 27.08 -1.68
-4.82 7.65 -1.76
-5.9 9.36 -1.75
-7.75 12.29 -1.78
-10.92 17.31 -1.79
-17.21 27.29 -1.69
-19.34 30.67 -0.63
-4.79 7.66 -1.76
-5.86 9.37 -1.75
-7.7 12.32 -1.78
-10.82 17.3 -1.79
-17.21 27.5 -1.7
-18.55 29.89 0.61
-4.77 7.68 -1.76
-5.83 9.39 -1.75
-7.66 12.34 -1.78
-10.73 17.29 -1.78
-17.16 27.65 -1.71
-19.43 31.3 -0.64
-4.74 7.69 -1.76
-5.8 9.41 -1.75
-7.61 12.35 -1.78
-10.64 17.28 -1.78
-17.07 27.72 -1.71
-20.62 33.74 0.69
-4.71 7.7 -1.75
-5.76 9.43 -1.75
-17.95 29.37 4.23
-7.55 12.36 -1.78
-10.57 17.29 -1.77
-16.98 27.79 -1.71
-17.91 29.54 1.81
-4.68 7.72 -1.75
-17.87 29.48 3.02
-5.72 9.44 -1.75
-17.85 29.44 4.23
-7.51 12.38 -1.78
-10.48 17.29 -1.77
-16.93 27.92 -1.71
-18.01 29.7 -0.61
-17.82 29.62 0.6
-17.8 29.59 1.81
-4.66 7.74 -1.76
-17.84 29.66 3.03
-5.68 9.45 -1.75
-7.47 12.41 -1.78
-10.42 17.31 -1.77
-16.83 27.97 -1.71
-17.82 29.62 -0.6
-17.75 29.71 0.6
-4.63 7.75 -1.76
-5.65 9.46 -1.75
-7.42 12.42 -1.78
-10.35 17.33 -1.77
-16.76 28.06 -1.71
-17.77 29.76 -0.61
-20.01 33.76 0.68
-4.6 7.76 -1.75
-5.62 9.48 -1.74
-7.37 12.43 -1.77
-10.28 17.35 -1.76
-16.7 28.19 -1.72
-17.71 29.88 -0.61
-19.86 33.79 0.68
-4.57 7.77 -1.75
-5.59 9.51 -1.75
-7.32 12.46 -1.77
-10.21 17.37 -1.76
-16.66 28.35 -1.72
-17.75 30.2 -0.61
-19.69 33.77 0.68
-4.54 7.79 -1.75
-5.55 9.53 -1.75
-7.27 12.48 -1.77
-10.14 17.39 -1.76
-16.64 28.54 -1.73
-18.74 32.14 -0.65
-19.53 33.75 0.68
-4.52 7.82 -1.76
-5.52 9.54 -1.75
-7.23 12.5 -1.77
-10.07 17.4 -1.76
-16.61 28.72 -1.74
-19.39 33.79 0.68
-4.5 7.83 -1.76
-5.49 9.57 -1.75
-7.18 12.51 -1.77
-10.01 17.44 -1.76
-16.58 28.88 -1.75
-19.24 33.8 0.68
-4.46 7.84 -1.75
-5.46 9.6 -1.75
-7.12 12.51 -1.77
-9.95 17.47 -1.76
-16.51 29 -1.75
-19.08 33.78 0.68
-4.43 7.85 -1.75
-5.43 9.62 -1.75
-7.07 12.53 -1.77
-9.88 17.5 -1.76
-16.49 29.21 -1.76
-17.47 30.94 -0.62
-18.95 33.82 0.68
-4.41 7.87 -1.75
-5.4 9.64 -1.75
-7.02 12.52 -1.76
-9.82 17.53 -1.76
-16.44 29.34 -1.76
-17.48 31.2 -0.62
-18.78 33.79 0.67
-4.38 7.89 -1.75
-5.36 9.64 -1.75
-6.96 12.52 -1.76
-9.75 17.55 -1.76
-16.33 29.4 -1.76
-17.48 31.46 -0.63
-18.58 33.72 0.67
-4.35 7.9 -1.75
-5.32 9.66 -1.75
-6.89 12.5 -1.75
-9.68 17.58 -1.76
-16.22 29.43 -1.76
-17.53 31.82 -0.63
-18.43 33.74 0.67
-4.32 7.91 -1.75
-5.29 9.69 -1.75
-6.82 12.48 -1.75
-9.61 17.59 -1.75
-16.1 29.47 -1.76
-17.52 32.06 -0.64
-18.34 33.85 0.67
-4.29 7.92 -1.75
-5.26 9.71 -1.75
-6.76 12.47 -1.74
-9.54 17.62 -1.75
-15.97 29.48 -1.76
-17.5 32.31 -0.64
-18.16 33.8 0.67
-4.27 7.94 -1.75
-5.23 9.73 -1.75
-6.69 12.45 -1.73
-9.46 17.6 -1.75
-15.88 29.55 -1.76
-24.04 44.74 -0.89
-4.24 7.95 -1.75
-5.19 9.73 -1.75
-26.34 49.43 6.88
-6.62 12.42 -1.73
-9.38 17.6 -1.74
-15.77 29.6 -1.76
-23.99 45.02 -0.89
-4.21 7.97 -1.75
-5.16 9.76 -1.75
-6.56 12.41 -1.72
-9.3 17.61 -1.74
-15.66 29.63 -1.76
-4.18 7.98 -1.75
-5.12 9.77 -1.75
-6.5 12.41 -1.72
-9.23 17.6 -1.74
-15.54 29.65 -1.75
-25.89 49.39 -0.97
-4.15 7.99 -1.75
-5.09 9.79 -1.75
-6.46 12.43 -1.72
-9.15 17.6 -1.74
-15.42 29.66 -1.75
-4.12 8 -1.75
-25.48 49.43 4.87
-5.06 9.81 -1.75
-6.42 12.45 -1.72
-9.07 17.6 -1.73
-15.31 29.7 -1.75
-4.1 8.02 -1.75
-5.02 9.82 -1.75
-6.38 12.48 -1.72
-9 17.62 -1.73
-15.17 29.69 -1.75
-24.98 49.32 2.9
-4.07 8.04 -1.75
-25.12 49.61 4.87
-4.98 9.84 -1.75
-6.33 12.5 -1.72
-7.99 15.78 -1.55
-15 29.62 -1.74
-24.81 48.99 -0.96
-24.65 49.1 0.96
-4.04 8.04 -1.75
-4.95 9.86 -1.75
-6.29 12.52 -1.72
-7.94 15.82 -1.55
-14.86 29.61 -1.74
-7.27 14.61 0.28
-4.01 8.05 -1.75
-4.92 9.88 -1.75
-6.25 12.55 -1.72
-7.92 15.9 -1.55
-14.75 29.62 -1.73
-7.2 14.59 0.28
-3.98 8.06 -1.75
-4.88 9.89 -1.75
-6.21 12.58 -1.72
-7.88 15.96 -1.56
-14.62 29.62 -1.73
-7.14 14.59 0.28
-3.95 8.08 -1.75
-4.84 9.9 -1.75
-6.17 12.61 -1.72
-7.82 15.98 -1.56
-14.52 29.67 -1.73
-7.09 14.61 0.28
-3.93 8.09 -1.75
-4.81 9.91 -1.75
-6.14 12.65 -1.73
-7.78 16.05 -1.56
-14.37 29.63 -1.73
-7.03 14.63 0.28
-3.9 8.1 -1.75
-4.77 9.93 -1.75
-6.1 12.7 -1.73
-7.73 16.07 -1.56
-6.99 14.55 -0.85
-6.98 14.65 0.28
-3.86 8.11 -1.75
-4.74 9.95 -1.75
-6.08 12.76 -1.73
-7.66 16.07 -1.56
-6.93 14.56 -0.28
-6.92 14.66 0.28
-3.83 8.12 -1.75
-4.71 9.97 -1.75
-6.04 12.8 -1.74
-7.61 16.12 -1.56
-6.88 14.56 -0.28
-6.82 14.56 0.28
-6.81 14.55 0.84
-3.81 8.14 -1.75
-4.67 9.97 -1.74
-6.01 12.84 -1.74
-6.85 14.62 -1.41
-6.82 14.57 -0.28
-6.77 14.6 0.28
-6.78 14.62 0.84
-3.79 8.16 -1.75
-4.64 9.99 -1.74
-5.97 12.88 -1.74
-6.79 14.63 -1.41
-6.76 14.58 -0.84
-6.76 14.58 -0.28
-6.76 14.7 0.28
-6.8 14.79 0.85
-3.75 8.16 -1.75
-4.6 10.01 -1.74
-5.93 12.9 -1.74
-6.75 14.68 -1.41
-6.7 14.58 -0.84
-6.7 14.58 -0.28
-6.7 14.71 0.28
-6.76 14.85 0.86
-3.72 8.17 -1.74
-4.57 10.03 -1.74
-5.89 12.93 -1.74
-7.42 16.31 -1.57
-6.66 14.63 -0.84
-6.63 14.57 -0.28
-6.65 14.74 0.28
-3.69 8.18 -1.74
-4.53 10.04 -1.74
-5.84 12.95 -1.74
-7.31 16.21 -1.56
-6.61 14.65 -0.84
-6.57 14.57 -0.28
-6.59 14.74 0.28
-3.66 8.19 -1.74
-4.49 10.04 -1.74
-5.8 12.98 -1.75
-7.28 16.28 -1.56
-6.56 14.66 -0.84
-6.53 14.61 -0.28
-6.54 14.76 0.28
-3.64 8.21 -1.75
-4.46 10.06 -1.74
-5.76 13 -1.75
-7.2 16.25 -1.55
-6.49 14.78 0.28
-3.6 8.21 -1.74
-4.42 10.08 -1.74
-5.71 13.01 -1.74
-7.12 16.22 -1.55
-12.98 29.59 -1.69
-6.44 14.8 0.28
-3.57 8.22 -1.74
-4.39 10.1 -1.74
-5.67 13.04 -1.75
-7.07 16.26 -1.55
-12.85 29.57 -1.69
-3.54 8.23 -1.74
-4.35 10.12 -1.74
-5.62 13.06 -1.75
-7.02 16.32 -1.55
