# .PCD v0.7 - Point Cloud Data file format
VERSION 0.7
FIELDS x y z
SIZE 4 4 4
TYPE F F F
COUNT 1 1 1
WIDTH 2742
HEIGHT 1
VIEWPOINT 0 0 0 1 0 0 0
POINTS 2742
DATA ascii
-5.49 -10.32 1.44
-4.63 -8.72 -1.21
-5.7 -10.72 1.92
-7.42 -13.96 -1.38
-6.37 -11.97 2.64
-6.06 -11.4 -0.23
-5.43 -10.13 0.2
-5.44 -10.15 0.6
-5.76 -10.74 1.07
-4.49 -8.38 -1.51
-5.5 -10.26 1.43
-5.22 -9.74 -1.36
-5.75 -10.72 1.93
-4.48 -8.36 -0.83
-6.58 -12.27 2.71
-5.03 -9.38 -0.56
-9.58 -17.87 4.68
-5.03 -9.37 -0.19
-5.47 -10.11 0.2
-5.58 -10.31 0.61
-4.53 -8.38 -1.51
-5.55 -10.27 1.43
-4.58 -8.47 -1.18
-5.77 -10.67 1.92
-4.66 -8.62 -0.86
-6.67 -12.33 2.72
-5.25 -9.71 -0.58
-14.93 -27.6 7.24
-5.03 -9.3 -0.18
-5.67 -10.4 0.21
-5.47 -10.03 0.6
-5.79 -10.61 1.06
-4.58 -8.4 -1.52
-5.7 -10.45 1.46
-7.65 -14.02 -1.4
-5.53 -10.15 -0.61
-9.75 -17.88 4.7
-5.03 -9.22 -0.18
-9.91 -18.18 5.55
-7.43 -13.51 0.27
-4.7 -8.54 0.51
-5.84 -10.63 1.06
-4.03 -7.34 -1.33
-5.84 -10.62 1.49
-4.68 -8.5 -1.19
-5.81 -10.57 1.91
-5.83 -10.61 -1.06
-9.58 -17.43 3.87
-7.25 -13.18 -0.79
-10.16 -18.48 4.87
-5.17 -9.32 0.19
-4.73 -8.54 0.51
-5.93 -10.69 1.07
-5.86 -10.57 1.48
-4.71 -8.5 -1.19
-5.79 -10.44 1.89
-4.7 -8.47 -0.85
-7.22 -13.03 2.9
-5.62 -10.14 -0.61
-10.18 -18.36 4.85
-4.71 -8.49 -0.17
-9.92 -17.89 5.48
-3.15 -5.64 -1.73
-4.75 -8.5 0.17
-4.9 -8.77 0.53
-6.02 -10.77 1.08
-5.83 -10.44 1.47
-4.88 -8.72 -1.23
-7.62 -13.64 2.47
-4.89 -8.74 -0.88
-6.66 -11.92 2.66
-6.96 -12.46 -0.75
-10.11 -18.09 4.79
-10.01 -17.9 5.5
-4.74 -8.42 0.17
-4.73 -8.4 0.51
-5.73 -10.17 1.43
-4.93 -8.75 -1.23
-6.88 -12.21 2.22
-5.99 -10.63 -1.07
-6.68 -11.86 2.65
-4.97 -8.81 -0.53
-9.75 -17.3 4.58
-6.95 -12.33 -0.25
-10.17 -18.05 5.55
-3.38 -5.95 -1.83
-4.77 -8.39 0.17
-6.14 -10.81 1.09
-4.57 -8.04 -1.46
-5.17 -9.11 1.29
-4.9 -8.62 -1.22
-6.92 -12.19 2.22
-4.74 -8.34 -0.84
-6.73 -11.85 2.65
-5.01 -8.82 -0.53
-16.45 -28.96 7.69
-4.84 -8.52 -0.17
-10.15 -17.86 5.5
-4.02 -7.03 -2.17
-4.82 -8.41 0.17
-4.66 -8.14 -1.49
-5.09 -8.88 -1.26
-5.02 -8.76 1.6
-6.77 -11.82 2.65
-5.04 -8.8 -0.53
-10.3 -17.99 4.79
-7.02 -12.25 -0.25
-10.42 -18.19 5.62
-4.79 -8.3 0.17
-5.81 -10.07 0.61
-4.65 -8.06 0.81
-5.23 -9.05 1.28
-6.83 -11.84 2.16
-6.46 -11.18 -1.13
-6.83 -11.83 2.66
-9.98 -17.29 4.61
-7.6 -13.17 -0.27
-10.77 -18.66 5.77
-3.45 -5.93 -1.84
-7.04 -12.1 0.24
-4.77 -8.19 0.5
-4.77 -8.19 0.83
-4.75 -8.16 -1.49
-5.32 -9.14 1.3
-5.07 -8.72 -1.24
-5.08 -8.73 1.6
-4.91 -8.44 -0.85
-7.62 -13.09 2.94
-6.41 -11.01 -0.67
-10.9 -18.73 5
-5.9 -10.15 -0.2
-10.83 -18.61 5.77
-3.53 -6.01 -1.87
-4.69 -7.99 0.16
-5.12 -8.72 0.53
-4.72 -8.04 0.82
-5.89 -10.05 -1.84
-5 -8.52 -1.21
-5.25 -8.96 1.64
-7.2 -12.27 -1.24
-7.64 -13.03 2.94
-5.22 -8.89 -0.54
-10.46 -17.83 4.77
-10.41 -17.74 5.51
-3.53 -5.97 -1.86
-7.02 -11.86 0.24
-4.83 -8.17 0.5
-6.06 -10.25 1.04
-4.73 -8 -1.47
-4.83 -8.16 -1.16
-5.21 -8.82 1.62
-7.19 -12.17 -1.24
-10.59 -17.9 4.04
-6.42 -10.85 -0.66
-10.1 -17.08 4.58
-6.24 -10.56 -0.21
-10.52 -17.78 5.54
-3.52 -5.9 -1.84
-4.89 -8.21 0.17
-4.81 -8.06 0.49
-4.79 -8.03 -1.48
-5.02 -8.41 1.2
-5.19 -8.71 1.61
-8.25 -13.84 -1.41
-6.06 -10.17 2.3
-5.15 -8.64 -0.53
-10.73 -17.99 4.84
-6.29 -10.55 -0.21
-10.81 -18.14 5.66
-3.51 -5.84 -1.83
-5.61 -9.33 0.19
-6.13 -10.21 0.62
-8.18 -13.61 1.39
-4.87 -8.11 -1.5
-4.99 -8.3 1.19
-4.73 -7.88 -1.13
-6.32 -10.51 2.38
-6.5 -10.82 -0.66
-16.09 -26.78 7.21
-5.23 -8.7 -0.18
-14.87 -24.75 7.74
-3.48 -5.75 -1.8
-5.03 -8.31 0.17
-4.69 -7.75 0.47
-4.96 -8.18 0.84
-5.02 -8.29 -1.53
-4.93 -8.14 -1.17
-5.21 -8.61 1.59
-7.07 -11.67 -1.19
-6.23 -10.28 2.34
-7.48 -12.36 -0.76
-11.23 -18.55 5.01
-5.32 -8.78 -0.18
-10.88 -17.97 5.63
-3.53 -5.78 -1.81
-4.86 -7.96 0.16
-5.07 -8.3 0.51
-4.91 -8.05 0.82
-4.93 -8.08 -1.5
-5.74 -9.4 1.35
-5.14 -8.42 -1.21
-5.22 -8.55 1.59
-7.3 -11.97 -1.23
-6.29 -10.31 2.35
-5.26 -8.61 -0.53
-10.51 -17.22 4.66
-6.21 -10.17 -0.21
-11.04 -18.09 5.68
-3.71 -6.04 -1.9
-4.89 -7.95 0.16
-5.08 -8.26 0.85
-4.51 -7.33 -1.36
-5.26 -8.56 1.23
-5.28 -8.58 -1.24
-5.36 -8.71 1.62
-7.26 -11.8 -1.21
-8.05 -13.09 -0.81
-10.71 -17.41 4.72
-6.25 -10.16 -0.21
-11.12 -18.08 5.69
-3.6 -5.81 -1.83
-4.81 -7.76 0.48
-3.6 -5.81 -1.33
-5.24 -8.45 0.87
-5.19 -8.37 1.21
-5.42 -8.74 -1.26
-5.49 -8.85 1.65
-5.27 -8.5 -0.87
-6.4 -10.33 2.36
-7.41 -11.95 -0.74
-10.59 -17.08 4.64
-5.91 -9.53 -0.2
-11.12 -17.93 5.65
-3.72 -5.96 -1.88
-5.1 -8.16 0.5
-5.31 -8.5 0.88
-5.56 -8.89 -1.66
-7.36 -11.78 1.71
-5.34 -8.55 -1.24
-7.47 -11.95 2.23
-5.48 -8.76 -0.9
-6.37 -10.19 2.34
-7.46 -11.93 -0.74
-10.8 -17.29 4.71
-9.74 -15.59 -0.32
-15.93 -25.5 8.06
-3.77 -5.99 -1.9
-5.05 -8.01 0.17
-4.83 -7.68 0.79
-5.24 -8.33 -1.56
-5.26 -8.36 1.21
-5.41 -8.6 -1.25
-5.49 -8.71 1.63
-7.48 -11.87 -1.23
-6.4 -10.16 2.33
-5.46 -8.67 -0.54
-8.1 -12.87 -0.27
-11.44 -18.17 5.75
-4.24 -6.68 -2.12
-5.11 -8.05 0.17
-6.68 -10.52 0.65
-5.2 -8.2 0.85
-5.48 -8.64 -1.62
-6.56 -10.34 1.5
-5.34 -8.42 -1.22
-5.51 -8.69 1.63
-7.52 -11.84 -1.23
-6.69 -10.55 2.43
-5.5 -8.66 -0.54
-11.36 -17.9 4.9
-5.07 -7.99 -0.17
-11.69 -18.42 5.85
-3.73 -5.84 -1.86
-5.17 -8.08 0.17
-5.06 -7.91 0.49
-4.93 -7.71 0.8
-5.22 -8.16 -1.53
-5.64 -8.82 1.66
-7.57 -11.83 -1.23
-6.84 -10.7 2.47
-5.5 -8.6 -0.54
-11.91 -18.63 5.11
-5.14 -8.03 -0.17
-17.31 -27.07 8.61
-3.82 -5.94 -1.89
-4.97 -7.71 0.16
-4.93 -7.66 0.48
-5.63 -8.74 1.28
-4.91 -7.63 -1.11
-5.61 -8.71 1.64
-6.17 -9.58 -1
-6.8 -10.55 2.44
-8.32 -12.92 -0.81
-11.25 -17.46 4.79
-17.4 -27.01 8.61
-3.99 -6.15 -1.96
-5.08 -7.82 0.49
-5.67 -8.73 0.91
-4.79 -7.37 -1.39
-6.03 -9.29 1.36
-5.86 -9.03 1.71
-6.23 -9.6 -1
-6.77 -10.43 2.42
-5.4 -8.32 -0.52
-11.85 -18.26 5.03
-5.14 -7.92 -0.16
-17.55 -27.04 8.64
-3.75 -5.72 -1.83
-5.11 -7.81 0.49
-6.74 -10.3 1.08
-5.59 -8.53 1.25
-4.91 -7.5 -1.1
-7.95 -12.14 -1.27
-7.19 -10.99 2.55
-5.34 -8.16 -0.51
-15.71 -24 6.62
-5.51 -8.41 -0.18
-3.73 -5.66 -1.82
-5.22 -7.92 0.17
-7.68 -11.65 1.22
-5.75 -8.71 -1.65
-5.6 -8.5 1.25
-7.76 -11.77 -1.73
-5.24 -7.94 1.51
-6.42 -9.73 -1.02
-6.95 -10.54 2.45
-16.74 -25.38 7.02
-7.75 -11.76 -0.25
-4.19 -6.3 -2.03
-7.03 -10.58 0.22
-5.08 -7.64 0.48
-5.58 -8.4 1.24
-5.27 -7.93 -1.17
-5.44 -8.19 1.56
-5.59 -8.41 -0.88
-5.37 -8.09 1.89
-6.35 -9.55 -0.6
-16.6 -24.99 6.93
-6.7 -10.09 -0.21
-4.01 -5.99 -1.93
-5.44 -8.12 0.17
-5.23 -7.82 0.49
-5.19 -7.75 0.82
-5.8 -8.66 1.28
-5.31 -7.93 -1.17
-5.48 -8.18 1.56
-5.44 -8.13 1.9
-5.42 -8.09 -0.51
-16.66 -24.89 6.91
-17.29 -25.82 8.33
-3.96 -5.87 -1.9
-7.18 -10.65 0.22
-5.43 -8.05 0.51
-5.15 -7.64 -1.46
-5.76 -8.53 1.26
-5.33 -7.9 -1.17
-5.51 -8.17 1.56
-5.57 -8.25 -0.87
-5.43 -8.06 1.89
-5.51 -8.17 -0.52
-7.45 -11.04 3.07
-7.36 -10.91 -0.23
-14.86 -22.02 7.12
-4.92 -7.24 -2.35
-5.32 -7.82 0.17
-5.48 -8.06 0.51
-6.35 -9.35 0.99
-4.27 -6.29 -1.2
-5.66 -8.33 1.24
-5.68 -8.36 -1.24
-5.52 -8.13 1.56
-5.55 -8.17 -0.86
-6.37 -9.37 2.2
-5.61 -8.25 -0.52
-17.21 -25.33 7.07
-5.39 -7.93 -0.17
-15.51 -22.82 7.39
-3.94 -5.75 -1.87
-5.2 -7.6 0.16
-5.29 -7.73 0.49
-5.14 -7.51 0.8
-5.63 -8.22 -1.22
-6.58 -9.61 1.85
-5.56 -8.12 -0.86
-7.26 -10.6 2.5
-6.11 -8.93 -0.57
-7.5 -10.95 3.06
-5.58 -8.15 -0.17
-17.03 -24.87 8.08
-5.28 -7.66 -2.49
-5.39 -7.81 0.17
-5.09 -7.37 0.78
-7.72 -11.19 -2.15
-5.97 -8.65 1.29
-7.42 -10.76 -1.6
-5.61 -8.13 1.56
-5.8 -8.41 -0.89
-7.36 -10.67 2.52
-8.17 -11.85 -0.75
-7.53 -10.92 3.06
-15.06 -21.84 7.11
-4.11 -5.91 -1.93
-5.42 -7.8 0.17
-5.06 -7.28 0.46
-6.03 -8.68 0.93
-5.08 -7.31 -1.41
-5.68 -8.17 1.22
-7.77 -11.18 -1.67
-5.62 -8.08 1.56
-8.48 -12.2 -1.3
-15.32 -22.04 5.22
-5.54 -7.98 -0.51
-7.56 -10.88 3.06
-5.72 -8.22 -0.17
-17.42 -25.07 8.18
-4.12 -5.89 -1.93
-5.19 -7.41 0.16
-5.33 -7.61 0.49
-5.27 -7.52 0.8
-5.2 -7.43 -1.44
-6.1 -8.71 1.31
-5.64 -8.06 1.56
-5.68 -8.11 -0.87
-8.1 -11.57 2.75
-5.66 -8.08 -0.52
-7.47 -10.67 3.01
-6.26 -8.94 -0.19
-7.8 -11.14 3.64
-4.13 -5.85 -1.92
-7.53 -10.68 0.23
-5.23 -7.41 0.48
-5.23 -7.41 0.79
-6.77 -9.6 -1.86
-7.18 -10.18 1.53
-6.04 -8.56 -1.29
-5.72 -8.11 1.57
-5.97 -8.46 -0.91
-8.13 -11.53 2.74
-5.75 -8.15 -0.52
-7.52 -10.66 3.01
-5.47 -7.76 -0.17
-17.34 -24.59 8.06
-4.48 -6.31 -2.07
-5.69 -8.01 0.17
-5.18 -7.29 0.47
-6.12 -8.61 0.92
-6.88 -9.69 -1.88
-6.08 -8.56 1.29
-6.89 -9.69 -1.46
-5.81 -8.17 1.59
-7.82 -11.01 -1.18
-8.17 -11.5 2.74
-6.88 -9.69 -0.62
-6.96 -9.8 -0.21
-7.83 -11.02 3.62
-5.75 -8.03 0.17
-5.59 -7.81 0.5
-5.29 -7.39 0.8
-8.39 -11.72 -2.28
-6.29 -8.79 1.33
-5.73 -8 -1.21
-6.46 -9.02 1.76
-5.83 -8.14 -0.88
-18.01 -25.15 6.01
-5.85 -8.18 -0.53
-7.55 -10.54 2.99
-5.93 -8.28 -0.18
-7.67 -10.72 3.53
-8.19 -11.36 0.24
-5.31 -7.36 0.48
-5.71 -7.91 -1.55
-5.85 -8.11 1.23
-5.81 -8.05 1.57
-5.69 -7.89 -0.85
-8.42 -11.67 2.8
-6.47 -8.98 -0.58
-7.64 -10.6 3.02
-5.99 -8.31 -0.18
-17.06 -23.65 7.81
-8.01 -11.02 0.24
-5.51 -7.58 0.49
-5.68 -7.82 0.85
-7.82 -10.76 -2.11
-8.49 -11.68 1.77
-5.11 -7.03 -1.07
-5.73 -7.89 1.54
-5.66 -7.79 -0.84
-8.41 -11.58 2.78
-6.5 -8.95 -0.58
-7.69 -10.58 3.02
-7.81 -10.75 -0.23
-8.03 -11.05 3.66
-5.96 -8.15 0.53
-7.6 -10.39 1.13
-5.38 -7.35 -1.44
-6.37 -8.71 1.32
-6.05 -8.26 -1.26
-5.72 -7.82 -0.85
-6.79 -9.28 2.24
-7.72 -10.55 -0.68
-7.75 -10.59 3.03
-6.43 -8.78 -0.19
-7.65 -10.45 3.47
-5.45 -7.4 0.16
-6.46 -8.76 0.57
-6.05 -8.2 0.89
-4.43 -6.01 -1.18
-7.17 -9.72 1.48
-6.59 -8.93 -1.36
-5.92 -8.02 1.58
-5.62 -7.62 -0.83
-7.78 -10.55 2.55
-5.99 -8.12 -0.53
-7.8 -10.58 3.04
-7.63 -10.35 -0.22
-17.55 -23.8 7.92
-4.47 -6.02 -2.01
-8.09 -10.89 0.24
-8.15 -10.98 0.72
-6.5 -8.76 -1.73
-5.97 -8.03 1.23
-6.59 -8.88 -1.36
-4.62 -6.22 -0.68
-8.51 -11.45 2.77
-5.96 -8.03 -0.52
-7.85 -10.57 3.04
-5.97 -8.04 -0.17
-17.58 -23.67 7.9
-4.33 -5.79 -1.94
-5.36 -7.16 0.16
-6.26 -8.37 0.55
-5.32 -7.11 0.78
-5.7 -7.62 -1.51
-5.94 -7.94 1.22
-6.45 -8.63 -1.32
-5.97 -7.98 1.58
-9.06 -12.11 -1.32
-7.85 -10.49 2.55
-17.95 -23.99 6.92
-5.54 -7.41 -0.16
-8.11 -10.85 3.63
-4.79 -6.36 -2.13
-5.96 -7.91 0.17
-5.36 -7.12 0.47
-5.35 -7.1 0.78
-5.3 -7.03 -1.39
-5.49 -7.28 1.12
-6.49 -8.61 -1.32
-6.14 -8.15 1.62
-4.62 -6.14 -0.67
-7.9 -10.49 2.55
-5.75 -7.63 -0.5
-7.37 -9.78 2.83
-9.05 -12 -0.26
-8.87 -11.77 3.95
-4.42 -5.82 -1.96
-5.66 -7.45 0.49
-5.98 -7.88 1.22
-10.33 -13.6 -2.1
-6.01 -7.92 1.57
-6.65 -8.76 -0.96
-7.39 -9.74 -0.64
-8.42 -11.1 3.22
-6.02 -7.93 -0.17
-8.06 -10.62 3.57
-4.9 -6.41 -2.16
-5.39 -7.05 0.78
-4.92 -6.43 -1.28
-5.54 -7.24 1.12
-8.6 -11.24 -1.74
-6.02 -7.87 1.57
-4.74 -6.21 -0.68
-8.1 -10.59 2.59
-5.79 -7.58 -0.5
-7.45 -9.75 2.83
-6.18 -8.08 -0.18
-8.11 -10.6 3.58
-4.87 -6.32 -2.14
-6.68 -8.67 0.19
-5.37 -6.97 0.46
-6.24 -8.1 0.89
-5.44 -7.06 -1.41
-6.15 -7.98 1.24
-5.21 -6.76 -1.05
-6.19 -8.04 1.61
-4.8 -6.23 -0.69
-7.73 -10.03 2.92
-6.14 -7.97 -0.18
-4.4 -5.68 -1.93
-6.86 -8.84 0.2
-5.51 -7.1 0.47
-5.67 -7.3 1.13
-5.21 -6.71 -1.04
-5.95 -7.67 1.54
-5.07 -6.53 -0.72
-8.42 -10.85 2.67
-5.92 -7.63 -0.51
-8.67 -11.17 3.27
-19.02 -24.51 8.31
-4.42 -5.65 -1.92
-5.63 -7.21 0.16
-5.4 -6.91 0.46
-5.63 -7.2 0.8
-5.64 -7.22 -1.45
-5.56 -7.11 1.11
-5.28 -6.75 -1.05
-7.36 -9.43 1.89
-8.12 -10.39 2.56
-7.18 -9.19 -0.61
-7.77 -9.95 2.91
-6.11 -7.82 -0.17
-7.94 -10.16 3.46
-4.32 -5.49 -1.87
-5.82 -7.39 0.16
-5.36 -6.81 0.45
-5.44 -6.92 0.77
-5.59 -7.11 -1.43
-5.56 -7.06 1.1
-4.86 -6.17 -0.96
-6.2 -7.88 1.59
-4.74 -6.03 -0.67
-8.66 -11.01 2.72
-5.99 -7.61 -0.51
-6 -7.62 -0.17
-9.06 -11.52 3.93
-4.34 -5.47 -1.87
-5.5 -6.94 0.15
-5.96 -7.52 0.5
-5.5 -6.94 0.77
-5.67 -7.16 -1.45
-5.94 -7.5 1.18
-4.87 -6.14 -0.96
-5.42 -6.84 -0.76
-6.03 -7.61 -0.51
-7.69 -9.7 2.86
-9.13 -11.52 3.94
-5.39 -6.75 0.45
-5.54 -6.94 0.78
-4.85 -6.07 -1.23
-8.95 -11.22 2.27
-5.93 -7.43 -0.83
-8.23 -10.3 2.56
-6.01 -7.53 -0.51
-7.82 -9.8 2.89
-7.13 -8.93 -0.2
-8.25 -10.33 3.54
-4.49 -5.59 -1.92
-5.71 -7.1 0.16
-6.03 -7.5 0.5
-5.56 -6.92 0.78
-5.02 -6.24 -1.27
-5.97 -7.42 1.17
-4.96 -6.17 -0.97
-8.66 -10.77 2.19
-5.29 -6.58 -0.74
-8.25 -10.26 2.56
-5.86 -7.29 -0.49
-7.52 -9.36 2.77
-6.14 -7.64 -0.17
-4.53 -5.59 -1.93
-5.55 -6.85 0.46
-5.8 -7.16 0.81
-8.08 -9.98 -2.03
-6.15 -7.6 1.2
-5.71 -7.05 -1.11
-7.74 -9.55 1.95
-5.6 -6.91 -0.78
-8.1 -10 2.5
-5.93 -7.32 -0.49
-8.29 -10.24 3.04
-8.04 -9.93 -0.22
-9.11 -11.25 3.88
-5.63 -6.9 0.16
-5.84 -7.16 0.48
-5.84 -7.16 0.81
-6.2 -7.61 1.21
-5.53 -6.78 -1.07
-9.42 -11.55 2.36
-5.59 -6.85 -0.77
-8.36 -10.25 2.57
-8.41 -10.31 3.07
-6.71 -8.23 2.84
-5.15 -6.27 -2.17
-8.69 -10.58 0.24
-8.05 -9.8 0.66
-5.6 -6.82 0.77
-5.74 -6.98 -1.43
-6.06 -7.38 1.17
-5.51 -6.71 -1.07
-6.42 -7.82 1.6
-6.06 -7.37 -0.5
-8.45 -10.29 3.07
-5.77 -7.03 -0.16
-7.65 -9.31 3.23
-5.19 -6.27 -2.18
-8.85 -10.69 0.24
-8.7 -10.51 0.71
-5.69 -6.87 0.78
-5.16 -6.23 -1.28
-6.11 -7.38 1.18
-5.49 -6.63 -1.06
-6.44 -7.78 1.6
-5.71 -6.9 -0.78
-8.44 -10.2 2.57
-5.51 -6.66 -0.45
-8.52 -10.3 3.58
-4.87 -5.84 -2.04
-6.08 -7.3 0.17
-5.67 -6.81 0.78
-5.03 -6.04 -1.25
-5.59 -6.7 -1.07
-7.62 -9.14 1.88
-5.78 -6.94 -0.79
-8.48 -10.17 2.57
-5.64 -6.77 -0.46
-8.15 -9.78 2.94
-8.74 -10.49 -0.24
-8.27 -9.92 3.46
-4.71 -5.61 -1.96
-5.78 -6.88 0.16
-5.78 -6.88 0.47
-6.22 -7.41 0.85
-6.26 -7.46 1.2
-6.45 -7.69 1.59
-7.91 -9.43 -1.08
-8.56 -10.21 2.59
-5.8 -6.91 -0.47
-8.46 -10.09 3.04
-5.75 -6.85 -0.16
-6.89 -8.21 2.87
-4.77 -5.64 -1.98
-9.12 -10.8 0.25
-6.22 -7.36 0.84
-5.2 -6.15 -1.27
-6.27 -7.42 1.19
-5.73 -6.78 -1.09
-6.47 -7.66 1.59
-6.69 -7.92 -0.91
-8.61 -10.19 2.59
-5.64 -6.68 -0.46
-5.84 -6.91 -0.16
-8.34 -9.87 3.46
-4.83 -5.67 -1.99
-6.38 -7.49 0.17
-5.98 -7.03 0.48
-6.21 -7.3 0.84
-5.3 -6.23 -1.3
-6.7 -7.87 1.27
-5.14 -6.04 -0.97
-6.78 -7.96 1.66
-8.49 -9.98 2.55
-7.08 -8.32 -0.57
-9 -10.58 3.21
-6.44 -7.57 -0.17
-8.48 -9.96 3.5
-4.84 -5.65 -1.99
-6.26 -7.3 0.17
-5.79 -6.76 0.47
-5.3 -6.19 -1.29
-6.82 -7.96 1.29
-5.49 -6.4 -1.03
-6.8 -7.93 1.65
-5.73 -6.68 -0.77
-8.52 -9.94 2.54
-5.65 -6.59 -0.45
-9.6 -11.2 3.41
-6.97 -8.13 2.87
-6.32 -7.32 0.17
-6.28 -7.27 0.84
-5.59 -6.47 -1.35
-6.42 -7.44 1.21
-5.17 -5.99 -0.97
-6.83 -7.91 1.65
-5.9 -6.83 -0.79
-8.77 -10.16 2.61
-6.04 -6.99 -0.48
-7.58 -8.78 2.68
-7.88 -9.13 3.23
-4.75 -5.46 -1.94
-9.33 -10.73 0.25
-6.28 -7.23 0.5
-6.46 -7.43 0.86
-5.85 -6.73 -1.41
-6.43 -7.39 1.2
-7.11 -8.18 -1.33
-7.91 -9.1 1.91
-5.82 -6.69 -0.78
-8.68 -9.99 2.57
-5.69 -6.55 -0.45
-8.51 -9.79 3
-6.21 -7.14 -0.17
-7.12 -8.19 2.91
-4.81 -5.5 -1.96
-6.09 -6.95 0.16
-5.87 -6.7 0.47
-9.43 -10.77 1.25
-5 -5.71 -1.2
-9.76 -11.15 1.82
-6.3 -7.2 -1.17
-7.98 -9.11 1.92
-5.88 -6.72 -0.78
-8.84 -10.1 2.61
-5.73 -6.55 -0.46
-5.95 -6.79 -0.16
-7.5 -8.56 3.05
-4.84 -5.49 -1.96
-9.44 -10.7 0.25
-6 -6.8 0.48
-6.64 -7.53 0.88
-6.18 -7 -1.48
-7.79 -8.84 1.45
-5.25 -5.95 -0.97
-8.02 -9.1 1.92
-5.91 -6.7 -0.78
-8.07 -9.15 2.37
-7.38 -8.37 -0.58
-10.07 -11.43 3.52
-7.66 -8.69 3.11
-4.88 -5.5 -1.97
-6.05 -6.82 0.16
-5.9 -6.65 0.47
-6.78 -7.64 0.89
-6.15 -6.92 -1.47
-20.16 -22.71 3.73
-5.26 -5.92 -0.97
-5.27 -5.94 -0.69
-8.11 -9.13 2.37
-5.68 -6.4 -0.45
-7.38 -8.32 2.57
-6.06 -6.82 -0.16
-7.57 -8.52 3.05
-5.54 -6.2 -2.23
-7.54 -8.44 0.2
-5.06 -5.66 -1.75
-5.93 -6.63 0.47
-5.56 -6.22 -1.32
-6.83 -7.64 1.26
-8.14 -9.11 1.93
-7.34 -8.21 -0.96
-8.87 -9.92 2.59
-5.82 -6.51 -0.46
-7.64 -8.54 2.64
-6.06 -6.78 -0.16
-8.1 -9.06 3.26
-6.14 -6.82 0.16
-5.28 -5.86 -1.82
-5.82 -6.47 0.46
-7.02 -7.8 1.29
-5.55 -6.16 -1.02
-10.04 -11.15 2.38
-6.03 -6.7 -0.79
-8.16 -9.06 2.37
-5.85 -6.5 -0.46
-7.49 -8.32 2.59
-6.3 -7 -0.16
-7.3 -8.11 2.92
-5.54 -6.11 -2.21
-9.9 -10.92 0.26
-5.49 -6.05 -1.89
-6.67 -7.35 0.87
-5.37 -5.93 -1.27
-6.96 -7.68 1.27
-5.33 -5.88 -0.97
-7.15 -7.88 1.69
-8.47 -9.34 2.45
-6.93 -7.64 -0.54
-8.04 -8.86 2.76
-5.42 -5.93 -2.15
-6.53 -7.15 0.17
-5.83 -6.39 0.45
-6.57 -7.19 0.85
-5.42 -5.93 -1.27
-9.53 -10.43 1.73
-5.43 -5.95 -0.99
-7.34 -8.04 1.72
-6.03 -6.61 -0.78
-8.62 -9.44 2.48
-5.94 -6.5 -0.46
-10.1 -11.06 3.46
-5.92 -6.48 -0.15
-7.26 -7.95 2.89
-5.34 -5.8 -2.11
-6.54 -7.11 0.17
-5.38 -5.85 -1.84
-6.76 -7.35 0.87
-5.46 -5.94 -1.28
-7.08 -7.7 1.28
-5.66 -6.16 -1.03
-7.38 -8.03 1.73
-5.83 -6.34 -0.75
-8.69 -9.46 2.5
-6 -6.52 -0.46
-10.32 -11.22 3.52
-5.98 -6.5 -0.15
-8.61 -9.36 3.41
-5.55 -5.99 -2.19
-6.58 -7.1 0.17
-5.45 -5.89 -1.85
-6.65 -7.19 0.51
-5.97 -6.45 0.77
-5.63 -6.08 -1.31
-7.23 -7.81 1.31
-5.82 -6.28 -1.05
-7.44 -8.04 1.73
-5.87 -6.34 -0.76
-8.09 -8.74 2.32
-5.98 -6.46 -0.46
-7.73 -8.34 2.63
-5.99 -6.46 -0.15
-8.27 -8.93 3.26
-5.52 -5.92 -2.17
-5.38 -5.77 -1.82
-6.7 -7.19 0.52
-5.45 -5.85 -1.27
-6.81 -7.3 1.23
-5.78 -6.2 -1.04
-21.09 -22.62 4.9
-5.78 -6.19 -0.74
-9.22 -9.89 2.63
-6.06 -6.5 -0.47
-8.27 -8.87 2.8
-6.33 -6.79 -0.16
-10.1 -10.83 3.97
-5.7 -6.07 -2.23
-6.74 -7.18 0.17
-5.36 -5.71 -1.81
-6.02 -6.41 0.46
-6.79 -7.22 0.87
-5.71 -6.08 -1.32
-6.93 -7.37 1.24
-5.68 -6.05 -1.02
-9.15 -9.74 2.12
-5.7 -6.07 -0.73
-9.1 -9.68 2.58
-7.54 -8.02 2.54
-5.92 -6.3 -0.15
-8.16 -8.68 3.19
-5.63 -5.96 -2.2
-6.34 -6.71 0.16
-5.1 -5.39 -1.71
-6.27 -6.63 0.48
-6.23 -6.58 0.79
-5.93 -6.27 -1.37
-5.88 -6.21 -1.05
-5.72 -6.05 -0.73
-6.12 -6.47 -0.47
-8.06 -8.53 2.71
-6.02 -6.36 -0.15
-8.31 -8.79 3.24
-5.21 -5.47 -2.02
-5.2 -5.46 -1.74
-6.36 -6.68 0.48
-6.29 -6.6 0.8
-5.91 -6.2 -1.36
-10.99 -11.54 1.96
-5.82 -6.12 -1.04
-9.64 -10.12 2.21
-7.84 -8.24 2.21
-5.78 -6.06 -0.44
-7.76 -8.15 2.6
-6.11 -6.42 -0.15
-8.81 -9.25 3.42
-6.65 -6.94 0.17
-5.22 -5.44 -1.74
-6.16 -6.42 0.47
-6.95 -7.25 0.88
-5.96 -6.22 -1.36
-11.03 -11.5 1.96
-5.78 -6.03 -1.03
-7.31 -7.62 1.67
-5.75 -6 -0.73
-7.29 -7.6 2.05
-5.75 -6 -0.44
-10.03 -10.46 3.34
-11.06 -11.53 -0.28
-7.6 -7.93 2.94
-6.36 -6.59 0.16
-5.31 -5.5 -1.76
-6.31 -6.53 0.48
-6.08 -6.3 -1.39
-7.2 -7.46 1.27
-5.82 -6.03 -1.03
-7.39 -7.65 1.68
-6.34 -6.57 -0.8
-7.33 -7.59 2.05
-5.89 -6.1 -0.44
-8.21 -8.5 2.73
-6.25 -6.48 -0.16
-7.41 -7.67 2.86
-5.45 -5.61 -2.1
-10.18 -10.47 0.25
-5.33 -5.48 -1.76
-5.85 -6.02 -1.33
-7.28 -7.49 1.28
-6 -6.17 -1.06
-7.4 -7.61 1.68
-6.5 -6.69 -0.82
-7.81 -8.03 2.18
-7.8 -8.02 2.58
-6.38 -6.56 -0.16
-7.38 -7.58 2.83
-5.43 -5.54 -2.08
-5.26 -5.37 -1.74
-6.41 -6.55 0.48
-9.98 -10.19 1.25
-6.16 -6.29 -1.39
-7.25 -7.4 1.27
-5.91 -6.03 -1.04
-9.74 -9.95 2.21
-6.81 -6.96 -0.85
-7.71 -7.88 2.14
-7.82 -7.99 2.58
-6.47 -6.6 -0.16
-10.14 -10.35 3.88
-5.55 -5.62 -2.12
-6.39 -6.48 0.16
-5.43 -5.5 -1.78
-6.3 -6.39 0.47
-7.41 -7.51 0.92
-0.7 -0.71 -0.16
-7.48 -7.59 1.31
-8.56 -8.68 1.93
-6.5 -6.59 -0.81
-7.67 -7.78 2.12
-7.83 -7.94 2.57
-6.93 -7.03 -0.17
-10.12 -10.26 3.86
-5.55 -5.59 -2.11
-10.26 -10.33 0.25
-5.43 -5.47 -1.78
-6.44 -6.49 0.48
-7.43 -7.48 0.92
-7.41 -7.47 1.29
-6.16 -6.21 -1.07
-7.66 -7.71 1.72
-7.55 -7.61 -0.94
-7.62 -7.67 2.1
-6.07 -6.11 -0.45
-8.39 -8.45 2.75
-6.42 -6.46 -0.16
-10.2 -10.28 3.88
-5.6 -5.6 -2.12
-3.1 -3.1 -1.01
-6.3 -6.3 0.47
-6.88 -6.88 0.85
-11.19 -11.19 1.94
-6.26 -6.26 -1.09
-7.6 -7.6 1.7
-7.9 -7.9 -0.98
-8.04 -8.04 2.21
-6.12 -6.12 -0.45
-8.65 -8.65 2.82
-7.04 -7.04 -0.17
-10.28 -10.28 3.89
-5.57 -5.53 -2.1
-6.51 -6.47 0.16
-3.11 -3.09 -1.01
-6.35 -6.31 0.47
-6.74 -6.7 0.83
-9.58 -9.51 1.66
-6 -5.96 -1.04
-8 -7.94 1.79
-6.37 -6.33 -0.79
-8.39 -8.34 2.3
-6.06 -6.01 -0.45
-8.7 -8.64 2.83
-6.34 -6.3 -0.16
-8.38 -8.32 3.16
-5.54 -5.46 -2.08
-6.49 -6.4 0.16
-3.12 -3.08 -1.01
-7.17 -7.08 0.53
-7.03 -6.93 0.86
-6.89 -6.8 1.19
-6.33 -6.24 -1.09
-8.11 -7.99 1.8
-5.85 -5.77 -0.72
-6.11 -6.03 -0.45
-8.75 -8.63 2.84
-6.44 -6.35 -0.16
-7.89 -7.78 2.97
-6.68 -6.54 0.16
-3.11 -3.04 -1
-6.72 -6.58 0.49
-7.17 -7.02 0.88
-7.33 -7.17 1.26
-6.23 -6.1 -1.07
-8.06 -7.89 1.79
-6.55 -6.41 -0.8
-11.19 -10.95 3.04
-6.01 -5.88 -0.44
-8.81 -8.62 2.85
-7.95 -7.78 2.98
-3.17 -3.08 -1.18
-6.52 -6.34 0.16
-3.12 -3.03 -1
-6.67 -6.48 0.49
-7.29 -7.09 1.25
-6.06 -5.89 -1.04
-8.12 -7.89 1.79
-6.38 -6.21 -0.78
-8.51 -8.27 2.31
-6.02 -5.85 -0.44
-7.44 -7.24 2.4
-6.26 -6.08 -0.15
-8.77 -8.53 3.28
-3.16 -3.05 -1.18
-7.07 -6.82 0.17
-3.12 -3.01 -1
-6.74 -6.51 0.49
-6.86 -6.62 0.83
-7 -6.76 1.19
-5.72 -5.52 -0.98
-10.02 -9.68 2.21
-6.85 -6.62 -0.83
-10.21 -9.86 2.76
-7.51 -7.25 2.41
-6.32 -6.1 -0.15
-8.17 -7.88 3.04
-3.16 -3.03 -1.17
-6.82 -6.54 0.16
-3.13 -3 -1
-6.69 -6.41 0.49
-6.91 -6.62 0.84
-7.12 -6.82 1.21
-6 -5.75 -1.02
-9.56 -9.16 2.1
-6.15 -5.9 -0.75
-10.88 -10.43 2.93
-9 -8.63 2.88
-6.47 -6.2 -0.16
-9.19 -8.81 3.41
-3.16 -3.01 -1.17
-6.71 -6.39 0.16
-3.13 -2.98 -1
-7.21 -6.86 0.52
-7.01 -6.68 0.85
-7.16 -6.81 1.21
-6.1 -5.81 -1.03
-6.48 -6.17 -0.78
-7.72 -7.36 2.07
-6.19 -5.89 -0.45
-6.41 -6.1 -0.15
-8.42 -8.02 3.12
-3.18 -3.01 -1.17
-6.57 -6.22 0.16
-3.15 -2.98 -1
-7.02 -6.64 0.51
-0.72 -0.68 -0.19
-7.12 -6.73 0.86
-9.86 -9.32 1.67
-5.96 -5.63 -1.01
-10.03 -9.49 2.19
-6.58 -6.22 -0.79
-10.22 -9.67 2.73
-6.29 -5.94 -0.45
-10.15 -9.6 3.22
-8.33 -7.88 3.07
-3.18 -2.99 -1.17
-6.98 -6.55 0.17
-6.69 -6.29 0.48
-6.81 -6.39 0.82
-0.73 -0.69 -0.16
-6.79 -6.38 1.14
-6.16 -5.78 -1.04
-9.86 -9.26 2.14
-9.7 -9.11 2.59
-6.32 -5.94 -0.45
-9.32 -8.76 2.95
-6.58 -6.18 -0.16
-7.69 -7.22 2.83
-3.2 -2.99 -1.17
-6.2 -5.78 -1.96
-7.28 -6.79 0.87
-0.74 -0.69 -0.16
-6.83 -6.37 1.15
-6.5 -6.06 -1.09
-9.92 -9.25 2.15
-6.37 -5.94 -0.76
-9.2 -8.58 -0.66
-8.03 -7.48 2.53
-6.4 -5.96 -0.15
-7.79 -7.26 2.85
-4.88 -4.52 -1.78
-6.7 -6.21 0.16
-6.02 -5.58 -1.89
-7.19 -6.66 0.51
-6.91 -6.39 0.82
-0.75 -0.7 -0.16
-6.93 -6.42 1.16
-6.22 -5.76 -1.04
-8.22 -7.61 1.77
-6.22 -5.76 -0.74
-8.19 -7.59 2.17
-6.39 -5.92 -0.46
-9.42 -8.72 2.96
-9.18 -8.5 3.35
-4.87 -4.48 -1.77
-7.24 -6.65 0.17
-6.78 -6.23 -2.13
-6.29 -5.78 0.45
-0.73 -0.67 -0.19
-7.27 -6.69 0.86
-0.74 -0.68 -0.16
-7.31 -6.72 1.22
-8.26 -7.59 -1.38
-10.07 -9.26 2.17
-6.06 -5.58 -0.72
-7.72 -7.1 2.04
-6.27 -5.76 -0.45
-9.39 -8.63 2.94
-9.21 -8.47 3.35
-4.88 -4.46 -1.77
-7.69 -7.02 0.18
-6.11 -5.58 -1.91
-8.84 -8.07 0.63
-0.74 -0.68 -0.2
-7.22 -6.6 0.86
-0.74 -0.67 -0.16
-6.93 -6.32 1.15
-6.22 -5.68 -1.03
-9.96 -9.1 2.14
-5.95 -5.43 -0.7
-8.88 -8.1 2.34
-9.35 -8.54 2.92
-6.4 -5.84 -0.15
-9.74 -8.89 3.53
-4.88 -4.43 -1.77
-6.11 -5.54 -1.91
-7.2 -6.53 0.51
-0.74 -0.67 -0.19
-7.87 -7.13 0.93
-0.75 -0.68 -0.16
-8.11 -7.35 1.73
-6.67 -6.05 -0.79
-8.91 -8.08 2.34
-6.36 -5.77 -0.45
-9.57 -8.67 2.98
-6.25 -5.67 -0.15
-9.78 -8.87 3.54
-4.87 -4.39 -1.76
-6.87 -6.19 0.16
-6.31 -5.68 -1.96
-6.4 -5.76 0.45
-0.74 -0.66 -0.19
-7.2 -6.48 0.85
-0.76 -0.68 -0.16
-7.09 -6.38 1.17
-6.33 -5.7 -1.05
-10.03 -9.03 2.14
-6.43 -5.79 -0.76
-9.61 -8.65 2.51
-8.27 -7.45 -0.58
-8.66 -7.8 2.69
-6.39 -5.76 -0.15
-8.04 -7.23 2.9
-4.85 -4.34 -1.74
-6.14 -5.48 0.14
-6.87 -6.14 -2.13
-6.88 -6.15 0.48
-0.75 -0.67 -0.2
-0.77 -0.68 -0.16
-7.78 -6.95 1.28
-6.34 -5.67 -1.04
-9.97 -8.91 2.12
-8.16 -7.29 2.13
-6.4 -5.72 -0.45
-8.01 -7.16 2.48
-9.44 -8.43 -0.22
-10.43 -9.32 3.75
-4.77 -4.23 -1.71
-6.81 -6.04 -2.1
-7.08 -6.29 0.5
-0.76 -0.68 -0.2
-7.23 -6.42 0.85
-0.77 -0.68 -0.16
-7.27 -6.45 1.19
-6.74 -5.98 -0.79
-9.44 -8.38 2.45
-6.34 -5.62 -0.44
-8.78 -7.79 2.71
-6.64 -5.9 -0.16
-8.06 -7.15 2.89
-4.75 -4.18 -1.69
-6.89 -6.08 -2.12
-6.33 -5.58 -1.64
-0.77 -0.68 -0.16
-7.42 -6.54 1.21
-6.23 -5.49 -1.02
-9.76 -8.61 2.06
-6.76 -5.96 -0.79
-9.98 -8.8 2.59
-7.91 -6.97 -0.55
-10.13 -8.93 3.12
-8.4 -7.4 3
-4.73 -4.14 -1.68
-6.52 -5.7 0.15
-6.63 -5.8 -2.03
-6.38 -5.58 0.44
-6.46 -5.65 -1.67
-8.01 -7.01 0.93
-0.77 -0.68 -0.16
-9.9 -8.66 1.61
-6.08 -5.32 -0.99
-10.44 -9.14 2.2
-7.45 -6.52 -0.87
-11.58 -10.13 2.99
-6.83 -5.98 -0.48
-6.52 -5.71 -0.15
-4.73 -4.11 -1.68
-7.01 -6.09 0.16
-6.66 -5.79 -2.04
-6.3 -5.48 0.44
-6.56 -5.7 -1.69
-7.41 -6.44 0.86
-0.79 -0.68 -0.17
-10.08 -8.76 1.64
-6.28 -5.46 -1.02
-7.96 -6.92 1.67
-6.82 -5.93 -0.79
-10.27 -8.93 2.65
-8.88 -7.72 2.72
-6.41 -5.57 -0.15
-9.1 -7.91 3.23
-4.66 -4.02 -1.65
-6.42 -5.54 0.44
-6.09 -5.26 -1.56
-7.26 -6.26 0.84
-0.79 -0.68 -0.17
-10.21 -8.81 1.66
-7.59 -6.55 -1.23
-8.01 -6.92 1.68
-9.89 -8.53 -1.14
-10.32 -8.9 2.65
-6.4 -5.52 -0.44
-8.94 -7.71 2.73
-6.66 -5.75 -0.15
-9.98 -8.61 3.53
-4.68 -4.01 -1.65
-6.44 -5.52 0.15
-6.66 -5.71 0.46
-0.78 -0.67 -0.16
-11.11 -9.52 1.8
-6.14 -5.26 -0.99
-10.46 -8.96 2.18
-10.71 -9.18 2.74
-9.23 -7.9 2.8
-7.47 -6.4 -0.17
-10.01 -8.58 3.53
-4.71 -4.01 -1.66
-6.45 -5.49 0.15
-6.24 -5.31 -1.89
-6.45 -5.49 0.44
-6.15 -5.24 -1.57
-0.79 -0.68 -0.17
-7.36 -6.27 1.19
-8.2 -6.97 1.7
-7.41 -6.3 -0.85
-8.86 -7.54 2.26
-7.48 -6.36 -0.51
-8.88 -7.56 2.69
-6.78 -5.77 -0.16
-9.97 -8.48 3.51
-4.68 -3.95 -1.64
-6.51 -5.5 0.15
-6.3 -5.32 -1.9
-6.37 -5.38 0.44
-6.58 -5.56 -1.67
-7.96 -6.73 0.91
-0.81 -0.68 -0.17
-10.15 -8.58 1.63
-7.23 -6.11 -1.16
-8.23 -6.96 1.71
-7.57 -6.39 -0.87
-10.44 -8.82 2.66
-6.42 -5.42 -0.44
-8.87 -7.49 2.68
-6.71 -5.67 -0.15
-7.97 -6.74 2.8
-4.58 -3.84 -1.6
-6.62 -5.56 0.15
-6.63 -5.57 -2
-6.42 -5.39 0.44
-6.36 -5.33 -1.61
-7.22 -6.06 0.83
-0.81 -0.68 -0.17
-7.55 -6.33 1.21
-7.34 -6.16 -1.18
-8.09 -6.79 1.67
-7.41 -6.22 -0.85
-9.07 -7.61 2.3
-9.24 -7.76 2.79
-6.72 -5.64 -0.15
-10.64 -8.93 3.72
-4.57 -3.81 -1.59
-6.71 -5.59 0.15
-6.53 -5.44 -1.96
-6.58 -5.48 0.45
-6.57 -5.47 -1.66
-0.82 -0.68 -0.17
-8.02 -6.68 1.28
-7.64 -6.36 -1.22
-8.07 -6.73 1.66
-7.11 -5.93 -0.81
-9.13 -7.61 2.31
-6.89 -5.74 -0.47
-8.62 -7.19 2.59
-6.8 -5.66 -0.15
-8.7 -7.25 3.04
-4.59 -3.8 -1.6
-6.48 -5.36 0.15
-6.2 -5.13 -1.86
-6.65 -5.5 0.45
-6.35 -5.25 -1.6
-7.64 -6.32 0.87
-0.82 -0.68 -0.17
-7.54 -6.23 1.2
-6.1 -5.04 -0.97
-7.13 -5.9 -0.81
-8.52 -7.04 2.15
-7.05 -5.83 -0.48
-6.65 -5.5 -0.15
-8.51 -7.03 2.96
-4.59 -3.77 -1.59
-6.29 -5.17 -1.88
-7.37 -6.05 0.5
-0.83 -0.68 -0.21
-7.62 -6.26 0.86
-0.83 -0.68 -0.17
-7.55 -6.2 1.2
-5.99 -4.92 -0.95
-9.09 -7.46 1.86
-9.3 -7.63 2.78
-8.15 -6.69 -0.18
-8.65 -7.1 3
-4.59 -3.74 -1.59
-6.73 -5.49 0.15
-6.43 -5.24 -1.92
-7.04 -5.74 0.48
-6.5 -5.3 -1.63
-0.84 -0.68 -0.17
-7.66 -6.24 1.21
-6.85 -5.58 -1.08
-9.2 -7.5 1.88
-6.25 -5.09 -0.71
-8.63 -7.04 2.17
-7.1 -5.79 -0.48
-9.1 -7.42 2.71
-6.88 -5.61 -0.16
-9.39 -7.65 3.25
-4.39 -3.55 -1.51
-7.42 -6.01 0.17
-6.1 -4.94 -1.53
-8.16 -6.61 0.92
-0.85 -0.69 -0.17
-7.45 -6.03 1.18
-7.02 -5.68 -1.11
-6.98 -5.65 -0.79
-9.61 -7.78 2.4
-7.07 -5.73 -0.48
-9 -7.28 2.67
-10.31 -8.35 3.55
-4.37 -3.51 -1.5
-7.26 -5.83 0.16
-6.5 -5.22 -1.92
-7.03 -5.65 0.47
-6.81 -5.47 -1.7
-0.85 -0.68 -0.17
-7.59 -6.1 1.2
-6.19 -4.97 -0.97
-6.79 -5.46 -0.76
-9.63 -7.74 2.4
-7.03 -5.65 -0.47
-10.41 -8.37 3.58
-4.38 -3.49 -1.5
-7.7 -6.14 0.17
-6.49 -5.18 -1.92
-6.89 -5.5 0.46
-8.15 -6.5 -2.03
-7.95 -6.34 0.89
-0.86 -0.68 -0.17
-6.57 -5.25 1.03
-7.84 -6.26 -1.23
-7.49 -5.98 1.52
-6.89 -5.5 -0.77
-9.7 -7.74 2.41
-7.6 -6.07 -0.51
-9.35 -7.46 2.76
-8.46 -6.75 2.9
-4.39 -3.48 -1.5
-6.66 -5.28 -1.96
-6.61 -5.24 0.44
-6.95 -5.51 -1.72
-7.55 -5.98 0.84
-0.86 -0.68 -0.17
-7.51 -5.95 1.18
-11.05 -8.76 -1.73
-7.57 -6 1.53
-6.93 -5.49 -0.77
-7.38 -5.85 -0.49
-8.71 -6.9 2.57
-6.88 -5.45 -0.15
-8.48 -6.72 2.9
-4.41 -3.47 -1.5
-7.27 -5.72 0.48
-0.91 -0.71 -0.22
-6.74 -5.3 0.75
-0.88 -0.69 -0.18
-7.47 -5.88 1.17
-6.39 -5.02 -1
-11.53 -9.07 2.32
-8.75 -6.88 2.16
-7.7 -6.06 -0.51
-8.6 -6.76 2.52
-6.85 -5.39 -0.15
-8.52 -6.7 2.9
-4.39 -3.43 -1.49
-6.89 -5.38 0.15
-6.84 -5.34 -2
-6.93 -5.41 0.46
-0.93 -0.73 -0.23
-0.88 -0.69 -0.18
-7.78 -6.08 1.21
-6.26 -4.89 -0.98
-7.79 -6.09 1.57
-7.33 -5.73 -0.81
-9.72 -7.59 2.4
-7.3 -5.71 -0.49
-8.67 -6.77 2.54
-6.93 -5.41 -0.15
-9.76 -7.63 3.32
-4.38 -3.4 -1.49
-6.7 -5.2 0.15
-7.59 -5.89 -2.22
-0.94 -0.73 -0.23
-7.75 -6.01 0.86
-0.89 -0.69 -0.18
-11.6 -9 1.8
-7.81 -6.06 1.57
-9.74 -7.55 2.4
-7.35 -5.7 -0.49
-8.43 -6.54 2.46
-6.69 -5.19 -0.15
-8.58 -6.65 2.91
-4.36 -3.36 -1.48
-7.57 -5.83 -2.2
-8.62 -6.64 -2.11
-9.14 -7.04 1.01
-0.88 -0.68 -0.18
-11.24 -8.65 1.74
-6.6 -5.08 -1.02
-8.55 -6.59 1.71
-7.48 -5.76 -0.83
-10.29 -7.92 2.52
-6.79 -5.23 -0.15
-9.81 -7.55 3.32
-4.35 -3.32 -1.47
-6.88 -5.26 0.15
-7.49 -5.73 -2.18
-7.26 -5.55 0.48
-0.96 -0.73 -0.23
-6.87 -5.25 0.76
-0.91 -0.69 -0.18
-11.13 -8.51 1.72
-6.61 -5.05 -1.02
-9.49 -7.26 1.89
-10.25 -7.84 2.51
-9.26 -7.08 2.69
-9.76 -7.46 3.29
-4.37 -3.32 -1.47
-7.02 -5.33 0.15
-7.56 -5.74 -2.19
-6.73 -5.11 0.44
-0.95 -0.72 -0.23
-0.92 -0.7 -0.18
-7.87 -5.97 1.21
-11.93 -9.06 -1.84
-10.51 -7.97 2.09
-8.93 -6.78 2.18
-7.36 -5.59 -0.48
-9.33 -7.08 2.7
-8.45 -6.41 2.84
-4.32 -3.25 -1.45
-7.05 -5.31 0.15
-7.62 -5.74 -2.2
-6.8 -5.12 0.45
-0.95 -0.72 -0.23
-6.78 -5.11 0.74
-0.93 -0.7 -0.18
-7.65 -5.76 1.18
-11.5 -8.66 -1.77
-9.32 -7.02 1.85
-10.3 -7.76 2.51
-7.09 -5.34 -0.46
-9.33 -7.03 2.7
-8.03 -6.05 -0.18
-9.88 -7.45 3.31
-4.33 -3.24 -1.45
-7.2 -5.38 0.16
-7.81 -5.84 -2.25
-0.96 -0.72 -0.23
-6.77 -5.06 0.74
-0.93 -0.7 -0.18
-11.12 -8.32 1.71
-7.86 -5.88 1.56
-8.04 -6.02 -0.88
-10.26 -7.67 2.49
-7.14 -5.34 -0.47
-8.85 -6.62 2.55
-9.91 -7.41 3.32
-4.36 -3.24 -1.46
-7.05 -5.24 0.15
-7.8 -5.79 -2.24
-7 -5.2 0.46
-0.98 -0.72 -0.24
-6.78 -5.04 0.74
-0.93 -0.69 -0.18
-11.18 -8.3 1.71
-7.81 -5.8 1.54
-8.19 -6.08 -0.89
-10.21 -7.58 2.47
-7.21 -5.35 -0.47
-7.22 -5.36 -0.16
-8.49 -6.3 2.83
-4.41 -3.25 -1.47
-7.59 -5.59 0.16
-6.87 -5.07 0.45
-0.98 -0.72 -0.24
-0.95 -0.7 -0.19
-7.89 -5.82 1.2
-7.23 -5.33 -1.1
-7.95 -5.86 1.57
-7.79 -5.74 -0.85
-9.39 -6.93 2.27
-7.22 -5.32 -0.47
-9.41 -6.94 2.7
-7.31 -5.39 -0.16
-8.52 -6.28 2.84
-4.44 -3.25 -1.47
-7.23 -5.29 0.16
-8.21 -6.01 0.53
-0.99 -0.72 -0.24
-9.26 -6.78 1
-0.95 -0.69 -0.19
-11.28 -8.25 1.72
-7.39 -5.41 -1.12
-7.85 -5.74 1.54
-8.27 -6.05 -0.9
-9.39 -6.87 2.26
-7.21 -5.28 -0.47
-9.45 -6.91 2.7
-9.21 -6.74 3.06
-4.45 -3.24 -1.47
-9.05 -6.58 0.2
-7.04 -5.11 0.46
-0.98 -0.71 -0.24
-6.93 -5.03 0.75
-0.96 -0.7 -0.19
-10.42 -7.57 1.58
-7.97 -5.79 -1.21
-9.45 -6.87 1.85
-7.75 -5.63 -0.84
-9.39 -6.82 2.26
-7.3 -5.31 -0.47
-8.88 -6.45 2.54
-7.92 -5.75 -0.17
-9.23 -6.71 3.06
-4.47 -3.22 -1.48
-8.18 -5.9 0.53
-0.99 -0.71 -0.24
-6.93 -5 0.75
-0.96 -0.7 -0.19
-11.85 -8.54 1.79
-7.83 -5.65 -1.19
-9.41 -6.79 1.84
-7.64 -5.51 -0.82
-9.41 -6.78 2.25
-7.23 -5.22 -0.47
-9.52 -6.86 2.71
-7.88 -5.68 -0.17
-9.29 -6.7 3.07
-4.49 -3.22 -1.48
-11.49 -8.23 0.25
-6.99 -5 -1.98
-7.2 -5.16 0.46
-1 -0.71 -0.24
-9.81 -7.02 1.06
-0.96 -0.69 -0.19
-11.43 -8.18 1.73
-9.45 -6.76 1.84
-8.22 -5.88 -0.88
-10.54 -7.54 2.52
-7.33 -5.24 -0.47
-9.48 -6.78 2.69
-7.63 -5.46 -0.16
-9.34 -6.69 3.08
-4.52 -3.21 -1.49
-7.98 -5.67 0.17
-7.15 -5.08 0.46
-1 -0.71 -0.24
-8.06 -5.73 0.87
-0.97 -0.69 -0.19
-11.44 -8.12 1.72
-7.92 -5.63 -1.19
-9.45 -6.72 1.84
-8.16 -5.79 -0.88
-11.52 -8.18 2.75
-7.81 -5.55 -0.5
-8.9 -6.33 2.52
-7.49 -5.32 -0.16
-9.49 -6.74 3.12
-4.56 -3.22 -1.5
-11.58 -8.16 0.25
-7.78 -5.48 -2.2
-7.22 -5.09 0.46
-1 -0.7 -0.24
-8.14 -5.74 0.87
-0.98 -0.69 -0.19
-11.43 -8.06 1.72
-1.04 -0.73 -0.16
-10.66 -7.52 2.07
-11.48 -8.09 2.73
-7.63 -5.38 -0.49
-7.83 -5.52 -0.17
-9.52 -6.71 3.12
-4.56 -3.19 -1.49
-11.8 -8.26 0.25
-6.27 -4.39 -1.77
-7.21 -5.05 0.46
-1 -0.7 -0.24
-8.02 -5.62 0.86
-1 -0.7 -0.19
-7.86 -5.5 1.18
-1.04 -0.73 -0.16
-9.5 -6.65 1.84
-7.85 -5.5 -0.84
-8.84 -6.19 2.1
-8.79 -6.16 2.48
-9.51 -6.65 3.11
-4.6 -3.2 -1.5
-6.26 -4.35 -1.76
-8.21 -5.7 0.52
-1.01 -0.7 -0.24
-8 -5.56 0.85
-0.99 -0.69 -0.19
-7.89 -5.48 1.18
-1.05 -0.73 -0.16
-9.49 -6.59 1.83
-8.8 -6.12 -0.94
-11.44 -7.95 2.71
-8.16 -5.67 -0.52
-9.59 -6.67 2.7
-7.84 -5.44 -0.17
-9.31 -6.47 3.04
-4.62 -3.18 -1.5
-6.18 -4.26 -1.73
-8.13 -5.61 0.52
-1.02 -0.7 -0.24
-10.04 -6.92 1.07
-1 -0.69 -0.19
-10.19 -7.03 1.52
-1.06 -0.73 -0.16
-9.75 -6.73 1.88
-11.73 -8.09 -1.25
-11.46 -7.91 2.71
-7.35 -5.07 -0.47
-7.94 -5.48 -0.17
-9.28 -6.4 3.02
-4.66 -3.19 -1.51
-7.88 -5.4 0.17
-6.15 -4.21 -1.72
-8.18 -5.6 0.52
-1.02 -0.7 -0.24
-8.09 -5.54 0.86
-1.02 -0.7 -0.19
-7.96 -5.45 1.18
-1.04 -0.71 -0.16
-9.56 -6.54 1.83
-7.96 -5.45 -0.84
-11.53 -7.89 2.72
-9.02 -6.17 2.52
-9.28 -6.35 3.01
-4.68 -3.18 -1.52
-7.72 -5.25 0.16
-6.16 -4.19 -1.72
-7.73 -5.26 0.49
-1.03 -0.7 -0.24
-11.89 -8.08 1.26
-1.04 -0.71 -0.2
-7.87 -5.35 1.17
-1.05 -0.72 -0.16
-9.38 -6.38 1.8
-7.44 -5.05 -0.79
-11.87 -8.07 2.79
-7.67 -5.21 -0.49
-8.77 -5.96 2.45
-8.39 -5.7 -0.18
-9.34 -6.35 3.03
-4.69 -3.16 -1.52
-7.93 -5.35 0.17
-6.19 -4.17 -1.72
-7.83 -5.28 0.49
-1.03 -0.69 -0.24
-8.13 -5.48 0.86
-1.05 -0.7 -0.2
-7.91 -5.33 1.17
-1.06 -0.72 -0.16
-9.43 -6.35 1.8
-7.46 -5.03 -0.79
-9.26 -6.24 2.17
-7.58 -5.11 -0.48
-9.86 -6.65 2.75
-9.46 -6.38 3.06
-4.71 -3.15 -1.52
-7.89 -5.28 0.17
-6.22 -4.16 -1.73
-1.03 -0.69 -0.24
-8 -5.35 0.84
-1.05 -0.7 -0.2
-8.1 -5.42 1.2
-1.07 -0.72 -0.16
-9.35 -6.26 1.78
-7.62 -5.1 -0.8
-9.34 -6.25 2.18
-7.75 -5.18 -0.49
-9.77 -6.54 2.72
-7.7 -5.15 -0.16
-9.52 -6.37 3.07
-4.76 -3.16 -1.53
-7.85 -5.21 0.16
-6.24 -4.14 -1.73
-8.24 -5.48 0.52
-1.03 -0.68 -0.24
-8.04 -5.34 0.84
-1.05 -0.7 -0.2
-8.18 -5.43 1.21
-1.09 -0.73 -0.16
-9.68 -6.43 1.84
-7.8 -5.18 -0.82
-9.32 -6.19 2.18
-8.13 -5.4 -0.51
-9.98 -6.63 2.77
-7.89 -5.24 -0.17
-4.78 -3.15 -1.53
-8.44 -5.57 0.18
-6.25 -4.12 -1.73
-1.04 -0.69 -0.24
-8.22 -5.42 0.86
-1.06 -0.7 -0.2
-8.14 -5.37 1.2
-1.11 -0.73 -0.16
-9.94 -6.56 1.89
-7.55 -4.98 -0.79
-9.37 -6.18 2.18
-8.15 -5.37 -0.51
-9.23 -6.08 2.55
-7.77 -5.12 -0.16
-11.05 -7.28 3.54
-4.79 -3.14 -1.53
-6.28 -4.11 -1.73
-7.93 -5.19 0.5
-1.05 -0.69 -0.24
-8.23 -5.38 0.86
-1.06 -0.69 -0.2
-7.98 -5.22 1.17
-1.11 -0.73 -0.16
-9.87 -6.46 1.87
-7.78 -5.09 -0.81
-9.18 -6.01 2.13
-7.98 -5.22 -0.5
-9.33 -6.1 2.57
-7.74 -5.06 -0.16
-11.05 -7.23 3.54
-4.86 -3.16 -1.55
-8.53 -5.54 0.18
-6.32 -4.1 -1.74
-7.97 -5.17 0.5
-1.05 -0.68 -0.24
-8.12 -5.27 0.85
-1.08 -0.7 -0.2
-8.15 -5.29 1.19
-1.11 -0.72 -0.16
-9.8 -6.36 1.85
-8.33 -5.41 -0.87
-9.44 -6.13 2.19
-7.8 -5.07 -0.49
-9.27 -6.02 2.55
-10.5 -6.82 -0.22
-11.06 -7.18 3.53
-0.95 -0.61 -0.3
-6.32 -4.07 -1.73
-8.75 -5.64 0.55
-1.07 -0.69 -0.25
-8.12 -5.23 0.85
-1.07 -0.69 -0.2
-7.97 -5.14 1.16
-1.12 -0.72 -0.16
-9.94 -6.4 1.87
-7.78 -5.01 -0.81
-9.07 -5.84 2.1
-7.74 -4.99 -0.48
-9.33 -6.01 2.56
-8.27 -5.33 -0.17
-10.6 -6.83 3.38
-0.95 -0.6 -0.3
-6.3 -4.03 -1.73
-8.46 -5.41 0.53
-1.07 -0.69 -0.25
-8.17 -5.22 0.85
-1.06 -0.68 -0.2
-7.96 -5.09 1.16
-1.13 -0.72 -0.16
-9.97 -6.38 1.88
-7.69 -4.92 -0.8
-9.12 -5.83 2.1
-8.19 -5.24 -0.51
-9.32 -5.96 2.55
-8.44 -5.4 -0.17
-10.93 -6.99 3.48
-0.93 -0.59 -0.3
-6.34 -4.02 -1.73
-8.34 -5.29 0.52
-1.06 -0.68 -0.24
-8.22 -5.21 0.85
-1.06 -0.67 -0.2
-9.27 -5.88 1.35
-1.14 -0.72 -0.17
-10.08 -6.39 1.89
-9.06 -5.75 2.09
-8.1 -5.14 -0.5
-11.48 -7.28 3.14
-9.43 -5.98 2.99
-0.95 -0.6 -0.3
-8.46 -5.32 0.17
-6.33 -3.98 -1.73
-8.25 -5.2 0.51
-1.07 -0.68 -0.25
-10.92 -6.87 1.13
-1.06 -0.67 -0.2
-9.26 -5.83 1.34
-1.13 -0.71 -0.16
-10.04 -6.32 1.88
-7.93 -4.99 -0.82
-9.03 -5.69 2.07
-8.06 -5.08 -0.5
-10.29 -6.48 2.81
-8.26 -5.2 -0.17
-9.47 -5.96 3
-0.95 -0.59 -0.3
-9.47 -5.92 0.19
-8.43 -5.27 -1.93
-12.18 -7.6 1.26
-1.08 -0.67 -0.2
-9.35 -5.84 1.35
-1.13 -0.71 -0.16
-9.93 -6.2 1.85
-9.06 -5.66 2.08
-8.15 -5.09 -0.5
-10.91 -6.82 2.97
-8.38 -5.23 -0.17
-10.74 -6.71 3.39
-0.93 -0.58 -0.29
-8.76 -5.43 0.18
-5.51 -3.42 -1.5
-8.98 -5.57 0.55
-8.43 -5.23 -1.93
-9.4 -5.83 0.97
-1.07 -0.66 -0.2
-9.35 -5.79 1.35
-1.15 -0.71 -0.17
-10.21 -6.33 1.9
-7.85 -4.86 -0.81
-9.18 -5.69 2.1
-8.16 -5.06 -0.5
-10.39 -6.44 2.82
-8.3 -5.15 -0.17
-9.93 -6.15 3.13
-0.94 -0.58 -0.29
-8.64 -5.31 0.18
-8.62 -5.3 0.53
-8.77 -5.4 -2
-9.4 -5.78 0.97
-1.07 -0.66 -0.2
-9.31 -5.72 1.34
-1.16 -0.71 -0.17
-10.1 -6.21 1.88
-9.36 -5.75 -0.96
-9.31 -5.73 2.12
-8.23 -5.06 -0.51
-10.29 -6.33 2.79
-8.82 -5.42 -0.18
-9.4 -5.78 2.96
-0.96 -0.58 -0.3
-9.36 -5.71 0.19
-8.68 -5.3 0.53
-9.4 -5.74 -2.14
-9.43 -5.75 0.97
-1.08 -0.66 -0.2
-9.4 -5.73 1.35
-1.16 -0.71 -0.17
-10.03 -6.12 1.86
-8.48 -5.17 -0.87
-9.16 -5.59 2.09
-8.21 -5.01 -0.5
-10.28 -6.27 2.78
-8.77 -5.35 -0.18
-9.45 -5.77 2.97
-0.95 -0.58 -0.3
-9.06 -5.49 0.18
-1.04 -0.63 -0.28
-8.46 -5.12 0.52
-8.84 -5.35 -2.01
-9.55 -5.78 0.98
-1.12 -0.68 -0.21
-9.57 -5.79 1.37
-1.17 -0.71 -0.17
-9.54 -5.77 1.77
-9.03 -5.47 -0.92
-9.1 -5.51 2.07
-8.23 -4.98 -0.5
-10.3 -6.23 2.78
-8.84 -5.35 -0.18
-9.37 -5.67 2.93
-0.96 -0.58 -0.3
-8.77 -5.27 0.18
-1.01 -0.61 -0.27
-10.62 -6.38 0.65
-9.25 -5.56 -2.1
-9.58 -5.76 0.98
-1.12 -0.68 -0.21
-9.57 -5.75 1.37
-1.17 -0.7 -0.17
-9.87 -5.93 1.82
-8.45 -5.07 -0.86
-9.12 -5.48 2.07
-9.02 -5.42 -0.55
-11.58 -6.96 3.12
-9.08 -5.45 -0.18
-9.38 -5.63 2.93
-0.95 -0.57 -0.3
-1.03 -0.61 -0.28
-10.41 -6.2 0.64
-9.62 -5.73 0.98
-1.12 -0.67 -0.21
-9.57 -5.7 1.37
-1.17 -0.7 -0.17
-9.26 -5.52 1.71
-8.41 -5.01 -0.86
-9.23 -5.5 2.09
-9.03 -5.38 -0.55
-10.64 -6.34 2.86
-9.14 -5.45 -0.19
-9.45 -5.63 2.95
-0.96 -0.57 -0.3
-9.45 -5.59 0.19
-1.01 -0.6 -0.27
-8.57 -5.07 0.52
-9.68 -5.73 -2.19
-9.74 -5.76 0.99
-1.13 -0.67 -0.21
-9.6 -5.68 1.37
-1.2 -0.71 -0.17
-9.28 -5.49 1.71
-8.48 -5.01 -0.86
-9.36 -5.54 2.11
-9.28 -5.48 -0.56
-10.35 -6.12 2.78
-10.17 -6.01 -0.21
-9.59 -5.67 2.99
-0.98 -0.57 -0.3
-8.9 -5.22 0.18
-1 -0.59 -0.27
-8.63 -5.06 0.52
-9.77 -5.73 0.99
-9.73 -5.71 1.39
-1.22 -0.71 -0.17
-9.36 -5.49 1.72
-8.94 -5.25 -0.91
-9.34 -5.48 2.1
-9.8 -5.75 -0.6
-11.07 -6.49 2.96
-10.56 -6.19 -0.21
-9.68 -5.68 3.01
-0.99 -0.57 -0.31
-9.34 -5.43 0.19
-1.01 -0.59 -0.27
-10.21 -5.94 0.62
-9.96 -5.79 1.01
-9.67 -5.63 -1.77
-9.64 -5.61 1.37
-1.23 -0.71 -0.17
-9.6 -5.58 1.76
-9.41 -5.48 2.12
-9.69 -5.64 -0.59
-10.69 -6.22 2.86
-9.07 -5.28 -0.18
-9.59 -5.58 2.97
-1 -0.57 -0.31
-9.59 -5.53 0.19
-1.01 -0.59 -0.27
-10.29 -5.94 0.62
-1.06 -0.61 -0.24
-9.9 -5.71 1
-9.69 -5.59 -1.77
-9.56 -5.52 1.36
-1.25 -0.72 -0.18
-9.59 -5.53 1.75
-9.03 -5.21 -0.91
-9.42 -5.43 2.11
-9.72 -5.61 -0.59
-10.53 -6.08 2.81
-9.28 -5.35 -0.19
-9.63 -5.56 2.98
-0.99 -0.57 -0.31
-9.63 -5.51 0.19
-1.02 -0.58 -0.27
-10.38 -5.94 0.63
-1.04 -0.59 -0.23
-10.08 -5.77 1.02
-9.71 -5.55 -1.77
-9.63 -5.51 1.36
-1.25 -0.72 -0.18
-9.7 -5.55 1.77
-9.43 -5.4 -0.95
-9.53 -5.45 2.13
-10.61 -6.07 2.82
-9.12 -5.22 -0.18
-9.65 -5.52 2.98
-1.01 -0.58 -0.31
-9.62 -5.46 0.19
-1.02 -0.58 -0.27
-10.85 -6.16 0.65
-1.04 -0.59 -0.23
-10.13 -5.75 1.02
-9.83 -5.58 -1.79
-9.6 -5.45 1.36
-1.27 -0.72 -0.18
-9.81 -5.57 1.79
-8.71 -4.95 -0.88
-9.75 -5.54 2.18
-9.25 -5.25 -0.56
-10.4 -5.9 2.76
-9.21 -5.23 -0.18
-10.15 -5.76 3.13
-1.02 -0.58 -0.31
-9.69 -5.46 0.19
-1.01 -0.57 -0.27
-9.01 -5.07 0.54
-1.03 -0.58 -0.23
-10.52 -5.93 1.06
-9.62 -5.42 -1.75
-9.59 -5.4 1.35
-1.27 -0.72 -0.18
-9.82 -5.53 1.78
-9.56 -5.38 -0.96
-9.77 -5.51 2.18
-9.14 -5.15 -0.55
-10.69 -6.02 2.83
-9.26 -5.22 -0.19
-9.82 -5.53 3.02
-1.03 -0.58 -0.32
-9.66 -5.4 0.19
-1.02 -0.57 -0.27
-10.92 -6.1 0.66
-1.04 -0.58 -0.23
-10.3 -5.75 1.03
-9.63 -5.38 -1.75
-9.59 -5.36 1.35
-1.29 -0.72 -0.18
-9.85 -5.5 1.79
-9.56 -5.34 -0.96
-9.82 -5.48 2.19
-9.15 -5.11 -0.55
-10.32 -5.76 -0.21
-9.82 -5.49 3.01
-1.05 -0.58 -0.32
-9.96 -5.52 0.2
-1.04 -0.58 -0.27
-10.83 -6 0.65
-1.04 -0.57 -0.23
-10.35 -5.73 1.04
-9.68 -5.36 -1.75
-9.6 -5.32 1.35
-1.32 -0.73 -0.18
-9.74 -5.4 1.76
-9.74 -5.4 -0.97
-10.78 -5.97 2.4
-9.19 -5.09 -0.55
-10.99 -6.09 2.9
-9.91 -5.49 3.04
-1.04 -0.57 -0.32
-9.86 -5.42 0.2
-1.04 -0.57 -0.27
-10.83 -5.95 0.65
-1.03 -0.57 -0.23
-10.37 -5.7 1.04
-9.89 -5.43 -1.79
-9.6 -5.28 1.35
-1.32 -0.73 -0.19
-9.75 -5.36 1.76
-10.85 -5.96 2.41
-10.57 -5.81 2.79
-10.52 -5.78 -0.21
-9.87 -5.42 3.02
-1.05 -0.57 -0.32
-10.08 -5.49 0.2
-1.05 -0.57 -0.27
-10.79 -5.88 0.64
-1.03 -0.56 -0.23
-10.48 -5.71 1.04
-9.86 -5.37 -1.78
-9.76 -5.32 1.36
-1.32 -0.72 -0.19
-9.93 -5.41 1.79
-9.98 -5.44 -0.99
-10.88 -5.93 2.41
-10.44 -5.69 -0.62
-10.51 -5.73 2.76
-10.54 -5.74 -0.21
-10.02 -5.46 3.06
-1.06 -0.57 -0.32
-10.2 -5.51 0.2
-1.06 -0.57 -0.28
-10.9 -5.89 0.65
-1.04 -0.56 -0.23
-10.17 -5.5 1.01
-9.75 -5.27 1.36
-1.35 -0.73 -0.19
-9.89 -5.35 1.78
-9.91 -5.36 -0.99
-11.13 -6.02 2.46
-10.37 -5.61 -0.62
-10.51 -5.68 2.76
-10.65 -5.75 -0.21
-9.85 -5.32 3
-1.07 -0.58 -0.33
-10.19 -5.46 0.2
-1.06 -0.57 -0.28
-10.72 -5.74 0.64
-1.04 -0.56 -0.23
-10.15 -5.44 1.01
-12.15 -6.51 -2.18
-9.78 -5.24 1.36
-1.36 -0.73 -0.19
-9.84 -5.27 1.77
-9.9 -5.31 -0.98
-10.99 -5.89 2.42
-10.39 -5.57 -0.62
-10.56 -5.66 2.77
-10.93 -5.86 -0.22
-10.16 -5.44 3.09
-1.07 -0.57 -0.33
-10.08 -5.36 0.2
-1.08 -0.57 -0.28
-10.46 -5.56 0.62
-1.03 -0.55 -0.23
-10.2 -5.42 1.01
-12.2 -6.48 -2.19
-9.8 -5.21 1.36
-1.37 -0.73 -0.19
-9.69 -5.15 1.74
-9.89 -5.26 -0.98
-10.98 -5.83 2.42
-10.56 -5.61 -0.63
-10.67 -5.67 2.79
-10.86 -5.77 -0.21
-9.87 -5.24 2.99
-1.06 -0.56 -0.32
-10.12 -5.33 0.2
-1.1 -0.58 -0.29
-10.56 -5.57 0.63
-1.03 -0.54 -0.23
-10.32 -5.44 1.02
-12.07 -6.36 -2.16
-9.8 -5.17 1.36
-1.39 -0.73 -0.19
-9.77 -5.15 1.75
-9.85 -5.19 -0.97
-11.23 -5.92 2.47
-10.53 -5.55 -0.62
-10.8 -5.69 2.82
-10.94 -5.77 -0.22
-9.93 -5.23 3.01
-1.07 -0.56 -0.32
-10.55 -5.52 0.21
-1.12 -0.58 -0.29
-10.79 -5.64 0.64
-1.05 -0.55 -0.23
-10.33 -5.4 1.02
-12.19 -6.37 -2.18
-9.81 -5.13 1.36
-1.4 -0.73 -0.19
-9.73 -5.08 1.74
-9.89 -5.17 -0.98
-11.11 -5.8 2.44
-10.56 -5.52 -0.62
-10.8 -5.64 2.81
-11.22 -5.86 -0.22
-9.94 -5.19 3
-1.08 -0.56 -0.33
-10.7 -5.55 0.21
-1.15 -0.6 -0.3
-10.6 -5.49 0.63
-1.05 -0.55 -0.23
-10.36 -5.37 1.02
-12.24 -6.34 -2.18
-10.52 -5.45 1.45
-1.41 -0.73 -0.19
-9.76 -5.06 1.74
-9.94 -5.15 -0.98
-11.23 -5.82 2.46
-10.57 -5.48 -0.62
-10.78 -5.59 2.8
-11.17 -5.79 -0.22
-10 -5.18 3.02
-1.08 -0.55 -0.32
-10.75 -5.52 0.21
-6.11 -3.14 -1.59
-10.51 -5.4 0.62
-1.04 -0.53 -0.23
-10.6 -5.45 1.04
-12.28 -6.31 -2.19
-11.04 -5.67 1.52
-1.39 -0.72 -0.19
-10.36 -5.32 1.84
-10 -5.14 -0.98
-11.34 -5.83 2.48
-10.58 -5.43 -0.62
-10.75 -5.52 2.79
-11.34 -5.83 -0.22
-9.96 -5.12 3
-1.08 -0.55 -0.33
-10.78 -5.49 0.21
-1.2 -0.61 -0.31
-10.76 -5.48 0.63
-1.04 -0.53 -0.23
-10.55 -5.37 1.04
-12.3 -6.27 -2.19
-11.05 -5.63 1.52
-1.39 -0.71 -0.19
-10.14 -5.16 1.8
-10.13 -5.16 -0.99
-11.4 -5.81 2.49
-10.65 -5.42 -0.63
-10.87 -5.53 2.82
-11.32 -5.76 -0.22
-10.05 -5.12 3.02
-1.08 -0.55 -0.33
-10.85 -5.48 0.21
-1.22 -0.62 -0.32
-10.73 -5.42 0.63
-1.04 -0.52 -0.23
-10.61 -5.36 1.04
-12.22 -6.17 -2.17
-10.62 -5.36 1.46
-1.41 -0.71 -0.19
-10.24 -5.17 1.82
-10.08 -5.09 -0.99
-11.94 -6.03 2.6
-10.59 -5.35 -0.62
-10.8 -5.45 2.79
-11.26 -5.68 -0.22
-10.35 -5.22 3.11
-1.07 -0.53 -0.32
-12.36 -6.19 0.24
-1.23 -0.61 -0.32
-10.72 -5.37 0.63
-1.05 -0.53 -0.23
-12.4 -6.21 -2.2
-11.19 -5.6 1.54
-1.43 -0.72 -0.2
-10.29 -5.15 1.82
-10.24 -5.13 -1
-11.42 -5.72 2.48
-10.62 -5.31 -0.62
-10.89 -5.45 2.81
-11.44 -5.72 -0.22
-10.39 -5.2 3.11
-1.09 -0.54 -0.32
-11 -5.46 0.21
-1.23 -0.61 -0.32
-10.86 -5.39 0.64
-1.06 -0.53 -0.23
-11.61 -5.76 1.13
-12.04 -5.98 -2.13
-11.09 -5.5 1.52
-1.46 -0.73 -0.2
-10.35 -5.13 1.83
-10.22 -5.07 -1
-11.52 -5.71 2.5
-10.68 -5.3 -0.62
-10.85 -5.38 2.8
-11.2 -5.56 -0.22
-10.43 -5.18 3.12
-1.09 -0.53 -0.32
-11.04 -5.43 0.21
-1.23 -0.6 -0.32
-10.79 -5.31 0.63
-1.05 -0.52 -0.23
-11.59 -5.7 1.13
-12.29 -6.04 -2.17
-11.19 -5.51 1.53
-1.45 -0.71 -0.2
-10.23 -5.03 1.8
-10.33 -5.08 -1.01
-11.57 -5.69 2.51
-10.69 -5.26 -0.62
-10.97 -5.4 2.82
-10.85 -5.34 -0.21
-11.46 -5.64 3.42
-1.07 -0.52 -0.32
-11.28 -5.5 0.22
-1.22 -0.6 -0.31
-10.93 -5.33 0.64
-1.05 -0.51 -0.23
-11.61 -5.66 1.13
-12.24 -5.97 -2.16
-11.14 -5.43 1.52
-1.46 -0.71 -0.2
-10.48 -5.11 1.85
-11.2 -5.46 -1.09
-11.6 -5.65 2.51
-10.78 -5.26 -0.63
-11.09 -5.41 2.85
-10.77 -5.25 -0.21
-11.15 -5.44 3.32
-1.07 -0.52 -0.32
-12.03 -5.82 0.23
-1.24 -0.6 -0.32
-11.02 -5.33 0.64
-1.05 -0.51 -0.23
-11.67 -5.64 1.13
-11.05 -5.34 -1.94
-11.24 -5.43 1.53
-1.49 -0.72 -0.2
-10.34 -5 1.82
-11.18 -5.4 -1.09
-11.46 -5.54 2.47
-10.83 -5.23 -0.63
-11.1 -5.36 2.85
-10.89 -5.26 -0.21
-11.18 -5.4 3.33
-1.08 -0.52 -0.32
-11.9 -5.7 0.23
-1.25 -0.6 -0.32
-11.06 -5.3 0.64
-1.05 -0.5 -0.23
-11.49 -5.5 1.11
-11.05 -5.29 -1.94
-11.21 -5.37 1.53
-1.5 -0.72 -0.2
-10.44 -5 1.83
-11.17 -5.35 -1.08
-11.52 -5.52 2.48
-10.87 -5.2 -0.63
-11.19 -5.36 2.86
-10.99 -5.26 -0.21
-11.18 -5.36 3.32
-1.08 -0.51 -0.32
-12.46 -5.91 0.24
-1.26 -0.6 -0.32
-11.19 -5.31 0.65
-6.92 -3.29 -1.49
-11.73 -5.57 1.14
-12.39 -5.88 -2.17
-11.21 -5.32 1.52
-1.49 -0.71 -0.2
-10.45 -4.96 1.83
-11.26 -5.34 -1.09
-11.72 -5.56 2.52
-10.96 -5.2 -0.64
-13.18 -6.25 3.37
-11.06 -5.25 -0.21
-11.69 -5.55 3.47
-1.08 -0.51 -0.32
-12.27 -5.77 0.24
-1.26 -0.59 -0.32
-11.24 -5.29 0.65
-6.96 -3.27 -1.49
-12.07 -5.68 1.17
-12.47 -5.87 -2.18
-11.35 -5.34 1.54
-1.5 -0.7 -0.2
-10.6 -4.99 1.86
-11.28 -5.3 -1.09
-11.9 -5.6 2.56
-10.78 -5.07 -0.62
-12.88 -6.06 3.29
-11.02 -5.18 -0.21
-11.79 -5.54 3.49
-1.07 -0.5 -0.32
-12.26 -5.71 0.24
-1.27 -0.59 -0.32
-11.33 -5.28 0.66
-6.99 -3.26 -1.5
-12.14 -5.66 1.17
-12.51 -5.83 -2.19
-11.29 -5.26 1.53
-1.53 -0.72 -0.21
-10.67 -4.97 1.86
-11.6 -5.41 -1.12
-11.88 -5.54 2.55
-11.6 -5.41 -0.67
-13.31 -6.2 3.39
-11.03 -5.14 -0.21
-13.44 -6.27 3.97
-1.09 -0.5 -0.32
-12 -5.54 0.23
-1.3 -0.6 -0.33
-11.39 -5.26 0.66
-7.01 -3.24 -1.5
-12.29 -5.68 1.18
-12.63 -5.84 -2.2
-11.45 -5.29 1.55
-1.54 -0.71 -0.21
-10.7 -4.94 1.87
-11.27 -5.21 -1.09
-11.91 -5.5 2.55
-10.73 -4.96 -0.62
-13.01 -6.01 3.31
-11.05 -5.11 -0.21
-12.05 -5.57 3.56
-1.07 -0.49 -0.32
-1.31 -0.6 -0.33
-11.52 -5.27 0.66
-1.05 -0.48 -0.22
-13.04 -5.97 -2.27
-11.89 -5.44 1.61
-1.53 -0.7 -0.21
-10.72 -4.91 1.87
-11.49 -5.26 -1.11
-11.89 -5.44 2.54
-10.65 -4.87 -0.61
-12.96 -5.93 3.29
-11.06 -5.06 -0.21
-10.52 -4.81 3.1
-1.08 -0.49 -0.32
-12.18 -5.52 0.23
-1.31 -0.59 -0.33
-11.6 -5.26 0.67
-1.04 -0.47 -0.22
-11.4 -5.17 1.09
-13.05 -5.91 -2.27
-1.52 -0.69 -0.21
-10.74 -4.87 1.87
-13 -5.89 -1.25
-11.87 -5.38 2.53
-10.65 -4.83 -0.61
-13 -5.89 3.3
-11.21 -5.08 -0.21
-10.55 -4.78 3.1
-1.09 -0.49 -0.32
-12.15 -5.45 0.23
-1.32 -0.59 -0.33
-12.79 -5.74 0.73
-1.05 -0.47 -0.22
-11.41 -5.12 1.09
-12.95 -5.82 -2.25
-13.57 -6.09 1.83
-1.56 -0.7 -0.21
-12.88 -5.78 2.24
-12.61 -5.66 -1.21
-10.45 -4.69 2.23
-10.69 -4.8 -0.61
-12.8 -5.75 3.24
-13.21 -5.93 -0.25
-11.19 -5.03 3.29
-1.08 -0.48 -0.32
-12.28 -5.47 0.23
-1.34 -0.6 -0.34
-12.7 -5.65 0.73
-1.04 -0.46 -0.22
-11.75 -5.23 1.13
-12.92 -5.75 -2.24
-13.44 -5.98 1.81
-1.59 -0.71 -0.21
-12.93 -5.75 2.24
-13.14 -5.85 -1.26
-11.91 -5.3 2.53
-11.31 -5.03 -0.65
-13.07 -5.82 3.3
-11.5 -5.12 -0.22
-11.27 -5.02 3.31
-1.07 -0.47 -0.31
-11.87 -5.23 0.23
-1.36 -0.6 -0.34
-11.78 -5.19 0.67
-1.03 -0.45 -0.22
-11.97 -5.28 1.14
-10.39 -4.58 -1.8
-13.27 -5.85 1.78
-1.57 -0.69 -0.21
-13.13 -5.79 2.27
-13.28 -5.86 -1.27
-11.93 -5.26 2.53
-11.32 -4.99 -0.65
-13.14 -5.79 3.31
-12.16 -5.36 -0.23
-11.32 -4.99 3.31
-1.08 -0.47 -0.32
-12.31 -5.38 0.23
-1.37 -0.6 -0.34
-12.83 -5.6 0.73
-1.05 -0.46 -0.22
-11.41 -4.98 1.09
-10.4 -4.54 -1.8
-12.48 -5.45 1.67
-1.56 -0.68 -0.21
-13.05 -5.7 2.26
-12.35 -5.39 -1.18
-12.01 -5.24 2.55
-11.29 -4.93 -0.65
-13.09 -5.72 3.3
-13.02 -5.69 -0.25
-11.37 -4.96 3.32
-1.09 -0.47 -0.32
-12.39 -5.36 0.24
-1.36 -0.59 -0.34
-12.79 -5.53 0.73
-1.05 -0.45 -0.22
-11.39 -4.93 1.09
-10.4 -4.5 -1.79
-12.97 -5.61 1.73
-1.55 -0.67 -0.21
-12.91 -5.58 2.23
-12.36 -5.35 -1.18
-11.98 -5.18 2.54
-11.3 -4.89 -0.65
-13.15 -5.69 3.31
-12.14 -5.25 -0.23
-12.21 -5.28 3.56
-1.08 -0.46 -0.32
-13.3 -5.7 0.25
-1.37 -0.59 -0.34
-12.78 -5.48 0.73
-1.04 -0.45 -0.22
-11.41 -4.89 1.09
-1.74 -0.74 -0.3
-12.88 -5.52 1.72
-1.55 -0.67 -0.21
-13.01 -5.57 2.24
-12.38 -5.3 -1.18
-12.74 -5.46 2.69
-11.27 -4.83 -0.64
-12.25 -5.25 3.08
-12.03 -5.15 -0.23
-13.7 -5.87 3.99
-1.08 -0.46 -0.32
-12.45 -5.28 0.24
-1.38 -0.59 -0.35
-1.04 -0.44 -0.22
-11.37 -4.83 1.08
-10.27 -4.36 -1.77
-12.96 -5.5 1.73
-1.54 -0.65 -0.21
-13.17 -5.59 2.27
-13.32 -5.65 -1.27
-12.79 -5.43 2.7
-11.53 -4.89 -0.66
-13.1 -5.56 3.29
-12.03 -5.1 -0.23
-12.31 -5.22 3.58
-1.06 -0.45 -0.31
-12.38 -5.2 0.23
-1.39 -0.58 -0.35
-11.86 -4.98 0.67
-1.04 -0.44 -0.22
-11.36 -4.77 1.08
-1.77 -0.74 -0.3
-13.19 -5.54 1.76
-1.56 -0.66 -0.21
-12.96 -5.44 2.23
-11.68 -4.91 -1.11
-12.52 -5.26 2.64
-11.85 -4.98 -0.67
-12.52 -5.26 3.14
-12.09 -5.08 -0.23
-12.28 -5.16 3.57
-1.07 -0.44 -0.31
-13.34 -5.55 0.25
-1.38 -0.58 -0.35
-13.26 -5.52 0.75
-1.05 -0.44 -0.22
-1.75 -0.73 -0.3
-13.65 -5.68 1.81
-1.56 -0.65 -0.21
-13.14 -5.47 2.25
-13.29 -5.53 -1.26
-12.5 -5.2 2.63
-11.91 -4.96 -0.68
-12.39 -5.15 3.1
-12.17 -5.07 -0.23
-12.33 -5.13 3.58
-1.08 -0.45 -0.31
-13.15 -5.42 0.25
-1.37 -0.57 -0.34
-13.35 -5.5 0.76
-1.05 -0.43 -0.22
-12.69 -5.23 1.2
-1.73 -0.71 -0.3
-13.77 -5.67 1.83
-1.56 -0.64 -0.21
-13.18 -5.43 2.26
-13.22 -5.44 -1.25
-12.51 -5.16 2.63
-12.24 -5.04 -0.69
-12.41 -5.11 3.1
-13.94 -5.74 -0.26
-12.35 -5.09 3.58
-1.09 -0.44 -0.32
-12.15 -4.96 0.23
-1.38 -0.56 -0.34
-13.62 -5.56 0.77
-1.05 -0.43 -0.22
-12.86 -5.25 1.22
-1.76 -0.72 -0.3
-1.55 -0.63 -0.21
-13.21 -5.39 2.26
-13.32 -5.43 -1.26
-12.76 -5.21 2.68
-11.91 -4.86 -0.67
-12.45 -5.08 3.11
-13.74 -5.61 -0.26
-12.33 -5.03 3.57
-1.08 -0.44 -0.31
-13.83 -5.59 0.26
-1.39 -0.56 -0.35
-13.71 -5.53 0.77
-1.04 -0.42 -0.22
-13.67 -5.52 1.29
-1.78 -0.72 -0.3
-14.66 -5.92 1.94
-1.56 -0.63 -0.21
-13.35 -5.39 2.28
-13.31 -5.38 -1.26
-12.88 -5.2 2.7
-11.91 -4.81 -0.67
-12.46 -5.03 3.1
-13.7 -5.53 -0.26
-12.4 -5.01 3.58
-1.07 -0.43 -0.31
-14.64 -5.85 0.28
