# .PCD v0.7 - Point Cloud Data file format
VERSION 0.7
FIELDS x y z
SIZE 4 4 4
TYPE F F F
COUNT 1 1 1
WIDTH 2795
HEIGHT 1
VIEWPOINT 0 0 0 1 0 0 0
POINTS 2795
DATA ascii
14.31 -6.74 -0.83
29.84 -14.06 7.61
5.57 -2.65 -1.65
35.76 -17 0.69
6.26 -2.98 -1.6
30.1 -14.31 1.75
7.12 -3.38 -1.53
30.19 -14.36 2.92
8.56 -4.07 -1.5
30.16 -14.34 4.1
11.35 -5.4 -1.54
29.82 -14.18 5.23
14.17 -6.74 -1.37
30.09 -14.31 6.48
14.3 -6.8 -0.83
29.61 -14.08 7.57
5.57 -2.67 -1.66
35.77 -17.15 0.69
6.17 -2.96 -1.58
29.85 -14.31 1.73
7.12 -3.41 -1.53
29.63 -14.2 2.88
8.56 -4.1 -1.5
29.59 -14.18 4.03
9.84 -4.72 -1.34
29.62 -14.2 5.2
14.14 -6.78 -1.37
29.54 -14.16 6.37
14.29 -6.85 -0.83
29.5 -14.14 7.55
5.58 -2.7 -1.66
30.06 -14.54 0.58
6.11 -2.96 -1.57
29.58 -14.31 1.72
7.13 -3.45 -1.54
29.48 -14.26 2.87
8.54 -4.13 -1.5
29.37 -14.21 4.01
9.79 -4.74 -1.34
29.37 -14.2 5.17
14.11 -6.82 -1.37
29.29 -14.17 6.33
14.29 -6.91 -0.83
29.23 -14.13 7.49
5.57 -2.72 -1.66
35.81 -17.47 0.7
6.11 -2.98 -1.57
29.35 -14.32 1.71
7.1 -3.46 -1.54
29.23 -14.26 2.85
8.54 -4.16 -1.5
29.13 -14.21 3.98
9.75 -4.76 -1.33
29.1 -14.2 5.13
14.07 -6.86 -1.37
29.04 -14.17 6.28
14.28 -6.97 -0.83
28.98 -14.14 7.45
5.55 -2.73 -1.66
29.3 -14.42 0.57
6.09 -3 -1.57
29.15 -14.35 1.7
7.08 -3.48 -1.53
28.97 -14.26 2.83
8.53 -4.2 -1.51
28.88 -14.22 3.95
9.69 -4.77 -1.33
28.85 -14.2 5.09
14.02 -6.9 -1.37
28.8 -14.18 6.24
14.28 -7.03 -0.83
28.74 -14.15 7.4
5.55 -2.76 -1.66
6.07 -3.01 -1.56
28.95 -14.38 1.69
7.07 -3.51 -1.53
28.72 -14.26 2.81
8.5 -4.22 -1.5
28.64 -14.22 3.93
9.65 -4.79 -1.32
28.61 -14.21 5.06
13.99 -6.95 -1.37
28.55 -14.18 6.2
14.27 -7.08 -0.83
28.5 -14.15 7.35
5.55 -2.78 -1.66
6.03 -3.02 -1.56
28.74 -14.4 1.68
7.05 -3.53 -1.53
28.48 -14.27 2.79
8.47 -4.25 -1.5
28.39 -14.22 3.9
9.6 -4.81 -1.32
27.25 -13.65 4.83
13.96 -6.99 -1.37
28.3 -14.18 6.15
14.25 -7.14 -0.84
28.26 -14.16 7.3
5.55 -2.8 -1.67
5.99 -3.03 -1.55
28.49 -14.4 1.67
7.03 -3.55 -1.53
28.24 -14.27 2.77
8.45 -4.27 -1.5
28.15 -14.22 3.87
9.56 -4.83 -1.31
27.02 -13.65 4.79
13.92 -7.03 -1.36
28.07 -14.18 6.11
14.24 -7.19 -0.84
28.01 -14.16 7.25
5.53 -2.82 -1.66
28.37 -14.46 0.56
5.98 -3.05 -1.55
28.25 -14.4 1.66
7 -3.57 -1.53
28.01 -14.28 2.75
8.43 -4.3 -1.5
27.92 -14.23 3.85
9.48 -4.83 -1.31
27.88 -14.21 4.96
13.88 -7.07 -1.36
27.84 -14.19 6.07
14.24 -7.26 -0.84
27.78 -14.16 7.2
5.5 -2.83 -1.66
5.97 -3.07 -1.55
28.02 -14.41 1.65
6.98 -3.59 -1.53
27.77 -14.28 2.73
8.41 -4.32 -1.5
27.69 -14.24 3.82
9.48 -4.88 -1.31
27.65 -14.22 4.92
13.84 -7.11 -1.36
27.6 -14.19 6.03
14.23 -7.32 -0.84
27.55 -14.17 7.15
5.47 -2.84 -1.65
5.95 -3.09 -1.55
27.8 -14.41 1.64
6.97 -3.61 -1.53
27.53 -14.28 2.71
8.38 -4.35 -1.5
27.38 -14.2 3.79
9.44 -4.9 -1.31
27.43 -14.22 4.89
13.8 -7.16 -1.36
27.37 -14.19 5.99
14.23 -7.38 -0.84
27.33 -14.17 7.11
26.47 -13.73 7.99
5.43 -2.84 -1.64
27.4 -14.32 0.54
5.94 -3.11 -1.55
27.39 -14.32 1.62
6.96 -3.64 -1.53
27.31 -14.28 2.7
8.33 -4.36 -1.49
27.14 -14.19 3.76
9.42 -4.92 -1.3
27.21 -14.22 4.86
13.78 -7.2 -1.36
27.15 -14.2 5.96
14.22 -7.43 -0.84
27.1 -14.17 7.06
26.42 -13.81 7.99
5.38 -2.84 -1.63
27.18 -14.33 0.54
5.92 -3.12 -1.55
27.14 -14.31 1.61
6.93 -3.65 -1.52
27.14 -14.31 2.68
8.31 -4.38 -1.49
26.99 -14.23 3.75
9.38 -4.95 -1.3
26.98 -14.22 4.83
13.75 -7.25 -1.36
26.93 -14.2 5.92
14.22 -7.5 -0.84
26.87 -14.17 7.01
26.31 -13.87 7.97
5.33 -2.83 -1.62
21.12 -11.23 0.42
5.92 -3.15 -1.55
21.1 -11.22 1.25
6.92 -3.68 -1.52
21.08 -11.21 2.09
8.38 -4.45 -1.5
26.79 -14.24 3.73
9.36 -4.98 -1.3
26.75 -14.23 4.8
13.7 -7.28 -1.36
26.71 -14.2 5.88
14.21 -7.55 -0.84
26.68 -14.18 6.98
26.3 -13.98 7.98
5.27 -2.83 -1.6
26.8 -14.37 0.53
5.91 -3.17 -1.55
26.75 -14.34 1.59
6.88 -3.69 -1.52
21.02 -11.27 2.09
8.36 -4.48 -1.5
26.73 -14.33 3.72
9.35 -5.01 -1.3
26.68 -14.31 4.8
13.64 -7.31 -1.35
26.67 -14.3 5.88
14.2 -7.62 -0.84
26.67 -14.3 6.99
26.32 -14.11 8
5.23 -2.83 -1.59
26.78 -14.48 0.53
5.88 -3.18 -1.54
26.75 -14.47 1.59
6.87 -3.72 -1.52
26.76 -14.47 2.66
8.34 -4.51 -1.5
26.69 -14.43 3.73
9.35 -5.06 -1.3
26.66 -14.42 4.8
13.6 -7.35 -1.35
26.61 -14.39 5.88
14.18 -7.67 -0.84
26.55 -14.36 6.97
26.39 -14.27 8.04
5.19 -2.83 -1.58
26.63 -14.52 0.53
5.85 -3.19 -1.54
26.61 -14.51 1.59
6.84 -3.73 -1.51
26.65 -14.53 2.66
8.34 -4.55 -1.5
26.71 -14.56 3.73
9.33 -5.09 -1.3
26.69 -14.55 4.81
13.57 -7.4 -1.35
26.66 -14.54 5.9
14.17 -7.73 -0.85
26.67 -14.54 7.01
26.55 -14.48 8.1
5.15 -2.83 -1.58
26.78 -14.72 0.53
5.82 -3.2 -1.53
26.74 -14.7 1.6
6.79 -3.73 -1.51
26.74 -14.7 2.67
8.32 -4.57 -1.5
26.72 -14.69 3.74
9.3 -5.12 -1.3
26.68 -14.67 4.82
13.53 -7.44 -1.35
26.67 -14.66 5.92
14.17 -7.79 -0.85
26.65 -14.65 7.02
14.25 -7.84 -0.28
26.65 -14.65 8.15
5.14 -2.85 -1.57
26.78 -14.84 0.53
5.81 -3.22 -1.53
26.74 -14.82 1.6
6.77 -3.75 -1.5
26.74 -14.82 2.68
8.31 -4.61 -1.51
26.72 -14.81 3.75
9.28 -5.14 -1.3
26.68 -14.79 4.83
13.52 -7.49 -1.35
26.66 -14.78 5.93
14.17 -7.85 -0.85
26.66 -14.78 7.04
26.69 -14.8 8.18
5.12 -2.86 -1.57
26.77 -14.96 0.54
5.8 -3.24 -1.53
26.74 -14.94 1.61
6.76 -3.78 -1.51
26.73 -14.94 2.68
8.29 -4.63 -1.5
26.72 -14.93 3.76
9.29 -5.19 -1.31
26.69 -14.92 4.84
13.48 -7.54 -1.35
26.66 -14.9 5.94
14.18 -7.92 -0.85
26.65 -14.89 7.05
14.28 -7.98 -0.29
26.73 -14.94 8.2
5.11 -2.88 -1.57
26.75 -15.07 0.54
5.78 -3.26 -1.53
26.74 -15.07 1.61
6.74 -3.8 -1.5
26.74 -15.07 2.69
8.25 -4.65 -1.5
26.73 -15.06 3.77
9.29 -5.24 -1.31
26.69 -15.04 4.85
13.46 -7.58 -1.35
26.65 -15.02 5.95
14.17 -7.98 -0.85
26.66 -15.02 7.06
14.27 -8.04 -0.29
26.72 -15.06 8.22
5.1 -2.9 -1.57
5.76 -3.27 -1.53
26.76 -15.19 1.61
6.73 -3.82 -1.5
26.75 -15.19 2.69
8.19 -4.65 -1.49
26.72 -15.17 3.77
9.37 -5.32 -1.32
26.69 -15.16 4.86
13.43 -7.62 -1.35
26.65 -15.14 5.96
14.15 -8.04 -0.85
26.66 -15.14 7.08
26.73 -15.18 8.24
5.1 -2.92 -1.57
5.75 -3.29 -1.53
26.84 -15.37 1.62
6.68 -3.82 -1.5
26.75 -15.31 2.7
8.11 -4.65 -1.48
26.71 -15.29 3.78
9.38 -5.37 -1.33
26.69 -15.28 4.87
13.4 -7.67 -1.35
26.66 -15.26 5.97
14.14 -8.09 -0.85
26.65 -15.25 7.09
5.07 -2.93 -1.57
5.75 -3.32 -1.53
26.84 -15.49 1.62
6.65 -3.84 -1.49
26.75 -15.44 2.7
8.08 -4.66 -1.48
26.72 -15.42 3.79
9.34 -5.39 -1.32
26.68 -15.4 4.88
13.36 -7.71 -1.35
26.67 -15.39 5.98
14.15 -8.17 -0.86
26.64 -15.38 7.1
22.22 -12.82 -0.45
26.71 -15.41 8.26
5.04 -2.93 -1.56
5.74 -3.34 -1.53
26.85 -15.62 1.63
6.62 -3.85 -1.49
26.74 -15.56 2.71
8.06 -4.69 -1.48
26.72 -15.55 3.8
9.36 -5.44 -1.33
26.68 -15.52 4.89
13.32 -7.75 -1.35
26.66 -15.51 6
14.16 -8.24 -0.86
26.65 -15.5 7.12
22.04 -12.82 -0.45
26.68 -15.52 8.27
5.02 -2.94 -1.56
22.48 -13.18 0.45
5.72 -3.35 -1.53
26.84 -15.74 1.63
6.62 -3.88 -1.49
26.73 -15.68 2.71
8.05 -4.72 -1.48
26.71 -15.67 3.8
9.33 -5.47 -1.33
26.69 -15.65 4.9
13.29 -7.8 -1.35
26.65 -15.63 6
14.12 -8.28 -0.86
26.65 -15.63 7.13
21.87 -12.83 -0.44
5.01 -2.96 -1.56
22.43 -13.26 0.45
5.68 -3.36 -1.52
26.84 -15.87 1.63
6.61 -3.91 -1.49
26.77 -15.83 2.72
8.05 -4.76 -1.48
26.76 -15.82 3.82
9.32 -5.51 -1.33
26.69 -15.78 4.91
13.27 -7.84 -1.35
26.7 -15.78 6.03
14.12 -8.35 -0.86
26.7 -15.78 7.16
21.74 -12.85 -0.44
26.74 -15.81 8.32
5.01 -2.98 -1.56
5.66 -3.37 -1.52
26.84 -15.99 1.64
6.59 -3.93 -1.49
26.84 -15.99 2.73
8.02 -4.78 -1.48
9.29 -5.53 -1.33
26.68 -15.9 4.92
13.23 -7.89 -1.35
14.15 -8.43 -0.86
21.56 -12.85 -0.44
4.99 -3 -1.56
5.65 -3.39 -1.52
26.84 -16.12 1.64
6.58 -3.95 -1.49
26.83 -16.12 2.74
8.04 -4.83 -1.49
9.31 -5.59 -1.33
26.69 -16.03 4.93
13.2 -7.93 -1.35
14.13 -8.49 -0.86
8.32 -4.99 2.24
21.41 -12.86 -0.44
26.79 -16.09 8.37
4.96 -3 -1.55
5.64 -3.41 -1.52
26.84 -16.25 1.64
6.56 -3.97 -1.49
26.82 -16.23 2.74
7.96 -4.82 -1.47
9.3 -5.63 -1.34
26.69 -16.16 4.94
13.15 -7.96 -1.34
14.12 -8.55 -0.87
8.2 -4.96 2.21
21.32 -12.9 -0.43
4.94 -3.02 -1.55
5.62 -3.43 -1.52
26.84 -16.38 1.65
6.55 -3.99 -1.49
26.83 -16.37 2.75
7.93 -4.84 -1.47
9.29 -5.67 -1.34
26.68 -16.28 4.95
13.13 -8.01 -1.35
14.13 -8.62 -0.87
8.15 -4.97 2.2
21.23 -12.95 -0.43
26.68 -16.28 8.37
4.94 -3.04 -1.55
5.6 -3.45 -1.52
26.84 -16.51 1.65
6.52 -4.01 -1.49
26.82 -16.49 2.75
7.9 -4.86 -1.47
9.31 -5.72 -1.34
26.69 -16.41 4.96
13.09 -8.05 -1.34
14.13 -8.69 -0.87
8.11 -4.99 2.2
21.17 -13.02 -0.43
26.66 -16.4 8.39
4.92 -3.05 -1.55
5.59 -3.46 -1.52
26.83 -16.63 1.65
6.5 -4.03 -1.49
26.81 -16.62 2.76
7.88 -4.89 -1.47
9.33 -5.78 -1.35
26.68 -16.54 4.97
13.06 -8.1 -1.34
14.1 -8.74 -0.87
21.11 -13.08 -0.43
26.68 -16.54 8.41
4.91 -3.07 -1.55
5.58 -3.48 -1.52
26.83 -16.75 1.66
6.49 -4.05 -1.49
26.85 -16.77 2.77
7.88 -4.92 -1.47
26.8 -16.73 3.88
9.31 -5.81 -1.35
26.68 -16.66 4.98
13.02 -8.13 -1.34
26.73 -16.69 6.12
14.14 -8.83 -0.87
8.01 -5 2.18
21.12 -13.19 -0.43
7.69 -4.8 2.43
4.88 -3.07 -1.54
23.51 -14.8 0.48
5.57 -3.5 -1.52
23.42 -14.74 1.45
6.48 -4.07 -1.49
23.38 -14.71 2.42
7.87 -4.96 -1.47
26.76 -16.84 3.88
9.25 -5.82 -1.34
26.68 -16.79 4.99
12.98 -8.17 -1.34
26.68 -16.79 6.13
14.12 -8.88 -0.87
8.03 -5.05 2.19
21.11 -13.29 -0.44
7.67 -4.83 2.43
4.86 -3.08 -1.54
23.41 -14.85 0.48
5.55 -3.52 -1.52
23.37 -14.82 1.45
6.45 -4.09 -1.49
23.32 -14.79 2.42
7.85 -4.98 -1.47
9.34 -5.92 -1.36
26.69 -16.92 5
12.94 -8.21 -1.34
14.19 -9 -0.88
21.09 -13.38 -0.44
4.84 -3.09 -1.54
23.45 -14.98 0.49
5.52 -3.53 -1.51
23.38 -14.94 1.45
6.44 -4.11 -1.48
23.35 -14.92 2.42
7.83 -5.01 -1.47
9.33 -5.96 -1.36
26.68 -17.05 5.01
12.91 -8.25 -1.34
14.16 -9.05 -0.88
21.08 -13.47 -0.44
4.83 -3.11 -1.54
5.51 -3.55 -1.51
26.83 -17.28 1.67
6.39 -4.12 -1.48
26.88 -17.31 2.8
7.83 -5.04 -1.48
9.32 -6 -1.36
26.69 -17.19 5.03
12.87 -8.29 -1.34
14.22 -9.16 -0.89
21.08 -13.58 -0.44
4.83 -3.14 -1.54
5.51 -3.57 -1.52
26.83 -17.41 1.68
6.35 -4.12 -1.47
26.82 -17.4 2.8
7.79 -5.05 -1.47
9.36 -6.07 -1.37
26.68 -17.31 5.04
12.82 -8.32 -1.34
14.43 -9.36 -0.9
21.09 -13.68 -0.44
4.8 -3.14 -1.54
5.48 -3.59 -1.51
26.83 -17.55 1.68
6.34 -4.14 -1.47
7.76 -5.07 -1.47
9.35 -6.11 -1.37
26.67 -17.44 5.05
12.78 -8.35 -1.34
17.01 -11.12 -1.07
21.08 -13.78 -0.44
7.46 -4.88 2.39
4.79 -3.16 -1.54
5.46 -3.6 -1.51
26.83 -17.68 1.68
6.33 -4.17 -1.47
26.84 -17.68 2.81
7.74 -5.1 -1.47
26.83 -17.68 3.95
9.32 -6.14 -1.37
26.68 -17.58 5.06
12.74 -8.39 -1.33
26.76 -17.63 6.23
16.98 -11.19 -1.07
26.76 -17.63 7.4
21.07 -13.89 -0.44
7.48 -4.93 2.4
4.76 -3.16 -1.53
5.43 -3.6 -1.5
26.83 -17.82 1.69
6.3 -4.18 -1.47
26.82 -17.81 2.82
7.73 -5.13 -1.47
26.78 -17.78 3.95
9.3 -6.17 -1.37
26.69 -17.72 5.07
12.7 -8.43 -1.33
26.73 -17.74 6.24
16.94 -11.24 -1.07
26.72 -17.74 7.41
21.09 -14 -0.44
7.41 -4.92 2.38
4.75 -3.18 -1.53
5.42 -3.63 -1.51
26.83 -17.95 1.69
6.28 -4.2 -1.47
7.72 -5.16 -1.47
9.31 -6.23 -1.37
26.68 -17.84 5.08
12.67 -8.48 -1.33
16.88 -11.29 -1.06
26.7 -17.86 7.42
21.15 -14.15 -0.44
7.4 -4.95 2.39
4.75 -3.2 -1.53
5.4 -3.64 -1.5
26.82 -18.08 1.7
6.25 -4.21 -1.47
26.84 -18.09 2.83
7.71 -5.19 -1.47
9.36 -6.31 -1.39
26.68 -17.98 5.1
12.63 -8.51 -1.33
16.8 -11.32 -1.06
26.69 -17.99 7.43
4.73 -3.21 -1.53
5.38 -3.66 -1.5
26.83 -18.22 1.7
6.24 -4.24 -1.47
26.81 -18.21 2.84
7.68 -5.21 -1.47
9.38 -6.37 -1.39
26.67 -18.11 5.11
12.59 -8.55 -1.33
16.73 -11.36 -1.06
26.71 -18.14 7.45
7.34 -4.98 2.38
4.72 -3.23 -1.53
5.36 -3.67 -1.5
26.84 -18.36 1.7
6.22 -4.26 -1.47
26.82 -18.34 2.84
7.62 -5.21 -1.46
9.4 -6.43 -1.4
26.68 -18.25 5.12
12.56 -8.59 -1.33
16.68 -11.41 -1.06
7.71 -5.28 2.16
7.33 -5.01 2.38
4.71 -3.24 -1.53
5.33 -3.67 -1.49
26.84 -18.49 1.71
6.21 -4.28 -1.47
26.82 -18.48 2.85
7.59 -5.23 -1.46
9.4 -6.47 -1.4
26.68 -18.39 5.13
12.52 -8.63 -1.33
16.6 -11.44 -1.06
26.73 -18.42 7.49
7.32 -5.04 2.38
4.7 -3.26 -1.53
5.32 -3.69 -1.49
26.83 -18.62 1.71
6.17 -4.28 -1.46
26.86 -18.65 2.86
7.61 -5.29 -1.47
26.8 -18.61 4.01
9.38 -6.52 -1.4
26.68 -18.52 5.14
12.49 -8.67 -1.33
26.7 -18.54 6.32
16.54 -11.48 -1.06
26.71 -18.54 7.51
7.3 -5.07 2.38
4.67 -3.27 -1.53
5.3 -3.7 -1.49
26.83 -18.77 1.72
6.15 -4.3 -1.46
26.77 -18.73 2.86
7.57 -5.29 -1.46
26.76 -18.71 4.01
9.41 -6.58 -1.41
26.67 -18.66 5.16
12.46 -8.72 -1.33
26.69 -18.67 6.33
16.49 -11.54 -1.05
26.67 -18.65 7.51
7.3 -5.11 2.39
4.64 -3.27 -1.52
5.29 -3.73 -1.49
26.81 -18.89 1.72
6.13 -4.32 -1.46
26.74 -18.84 2.86
7.53 -5.31 -1.46
26.72 -18.83 4.01
9.39 -6.62 -1.41
26.68 -18.8 5.17
12.43 -8.76 -1.33
26.65 -18.78 6.34
16.44 -11.59 -1.05
26.64 -18.77 7.52
8.02 -5.65 2.63
4.63 -3.28 -1.52
5.25 -3.73 -1.49
26.73 -18.97 1.72
6.13 -4.35 -1.46
26.74 -18.98 2.87
7.48 -5.31 -1.45
26.71 -18.96 4.02
9.37 -6.65 -1.41
26.67 -18.93 5.18
12.42 -8.82 -1.33
26.63 -18.9 6.35
16.39 -11.63 -1.05
26.65 -18.92 7.54
24.56 -17.43 -0.53
8.07 -5.73 2.65
4.61 -3.3 -1.52
5.24 -3.74 -1.49
26.73 -19.12 1.72
6.13 -4.38 -1.47
26.74 -19.12 2.88
7.46 -5.34 -1.45
26.71 -19.1 4.03
9.33 -6.67 -1.41
26.67 -19.08 5.19
12.39 -8.86 -1.33
26.64 -19.05 6.37
16.31 -11.67 -1.05
8.23 -5.88 2.33
24.54 -17.55 -0.53
8.03 -5.75 2.65
4.6 -3.31 -1.52
5.22 -3.76 -1.49
26.72 -19.25 1.73
6.1 -4.4 -1.46
26.75 -19.27 2.88
7.43 -5.35 -1.45
26.7 -19.24 4.04
9.26 -6.67 -1.4
26.67 -19.21 5.21
12.37 -8.91 -1.33
26.64 -19.19 6.38
16.27 -11.72 -1.05
26.63 -19.19 7.58
8.01 -5.77 2.64
4.59 -3.33 -1.52
5.21 -3.78 -1.49
26.73 -19.39 1.73
6.08 -4.41 -1.46
26.74 -19.4 2.89
7.41 -5.38 -1.45
26.71 -19.38 4.05
9.22 -6.69 -1.4
26.67 -19.35 5.22
12.33 -8.94 -1.33
26.64 -19.33 6.4
16.21 -11.76 -1.05
26.64 -19.33 7.6
21.93 -15.91 -0.47
7.42 -5.38 2.45
4.58 -3.35 -1.52
5.21 -3.81 -1.49
26.74 -19.54 1.74
6.06 -4.43 -1.46
26.73 -19.54 2.9
7.39 -5.4 -1.45
26.71 -19.52 4.06
9.19 -6.71 -1.4
26.67 -19.49 5.23
12.26 -8.96 -1.33
26.64 -19.47 6.41
16.16 -11.81 -1.05
26.64 -19.47 7.62
7.39 -5.4 2.45
4.56 -3.36 -1.52
5.2 -3.83 -1.49
26.83 -19.76 1.75
6.03 -4.44 -1.46
26.7 -19.66 2.9
7.34 -5.41 -1.44
26.71 -19.67 4.07
9.16 -6.74 -1.4
26.67 -19.64 5.25
12.15 -8.95 -1.32
26.64 -19.62 6.43
16.1 -11.85 -1.05
26.64 -19.62 7.64
4.54 -3.37 -1.51
5.16 -3.83 -1.48
26.82 -19.9 1.75
6.03 -4.47 -1.46
26.63 -19.75 2.9
7.32 -5.43 -1.44
26.7 -19.81 4.08
9.13 -6.77 -1.4
26.68 -19.79 5.26
12.11 -8.99 -1.32
26.64 -19.76 6.45
16.01 -11.88 -1.04
26.64 -19.76 7.66
21.48 -15.94 -0.47
4.54 -3.39 -1.52
5.13 -3.83 -1.48
26.83 -20.03 1.75
6 -4.48 -1.46
26.65 -19.9 2.91
7.29 -5.44 -1.44
26.71 -19.94 4.09
9.11 -6.8 -1.4
26.68 -19.92 5.27
12.07 -9.02 -1.32
26.64 -19.89 6.46
15.96 -11.92 -1.04
26.65 -19.9 7.68
21.49 -16.05 -0.47
7.35 -5.49 2.46
4.53 -3.41 -1.52
5.11 -3.84 -1.48
26.82 -20.18 1.76
5.98 -4.5 -1.46
26.65 -20.04 2.92
7.23 -5.44 -1.43
26.71 -20.09 4.1
9.09 -6.84 -1.4
26.67 -20.06 5.29
12.02 -9.04 -1.32
26.66 -20.05 6.48
15.91 -11.96 -1.04
26.64 -20.04 7.7
7.29 -5.48 2.44
4.51 -3.42 -1.52
21.01 -15.92 0.46
5.1 -3.86 -1.48
26.83 -20.33 1.76
5.96 -4.52 -1.45
26.7 -20.24 2.93
7.21 -5.46 -1.43
26.71 -20.24 4.11
9.06 -6.86 -1.4
26.67 -20.21 5.3
11.95 -9.06 -1.31
26.64 -20.19 6.5
15.85 -12.01 -1.04
26.64 -20.19 7.72
26.85 -20.35 -0.59
7.27 -5.51 2.44
4.49 -3.43 -1.51
20.94 -15.99 0.46
5.07 -3.87 -1.47
26.82 -20.48 1.77
5.94 -4.53 -1.45
26.64 -20.33 2.93
7.15 -5.46 -1.42
26.7 -20.39 4.13
9.02 -6.89 -1.39
26.67 -20.36 5.31
11.9 -9.09 -1.31
26.64 -20.34 6.51
15.79 -12.06 -1.04
7.8 -5.96 2.27
7.27 -5.55 2.45
4.5 -3.46 -1.52
20.95 -16.11 0.46
5.06 -3.89 -1.47
26.83 -20.63 1.77
5.91 -4.55 -1.45
26.65 -20.48 2.94
7.1 -5.46 -1.42
26.71 -20.53 4.14
8.99 -6.91 -1.39
26.68 -20.51 5.33
11.85 -9.11 -1.31
26.65 -20.49 6.53
15.73 -12.09 -1.04
26.65 -20.49 7.76
4.49 -3.47 -1.52
20.92 -16.2 0.46
5.05 -3.91 -1.47
26.82 -20.77 1.78
5.89 -4.56 -1.45
26.65 -20.63 2.95
7.08 -5.48 -1.42
26.73 -20.7 4.15
8.95 -6.93 -1.39
26.69 -20.66 5.35
11.79 -9.13 -1.3
26.67 -20.65 6.56
15.67 -12.13 -1.04
26.64 -20.62 7.78
6.96 -5.39 2.36
4.47 -3.49 -1.52
20.93 -16.32 0.46
5.05 -3.93 -1.48
26.83 -20.91 1.78
5.87 -4.58 -1.45
26.64 -20.77 2.96
7.07 -5.51 -1.42
8.91 -6.95 -1.39
26.68 -20.8 5.36
11.74 -9.15 -1.3
26.71 -20.83 6.58
15.59 -12.16 -1.04
26.64 -20.77 7.8
4.45 -3.49 -1.52
20.96 -16.47 0.47
5.03 -3.95 -1.48
26.83 -21.08 1.79
5.84 -4.58 -1.44
26.63 -20.92 2.96
7.04 -5.53 -1.42
8.87 -6.97 -1.38
26.68 -20.96 5.37
11.69 -9.18 -1.3
26.71 -20.98 6.6
15.52 -12.19 -1.03
26.64 -20.93 7.82
26.5 -20.81 -0.59
7.61 -5.98 2.59
4.44 -3.51 -1.52
20.9 -16.54 0.47
5 -3.96 -1.47
26.82 -21.23 1.79
5.81 -4.6 -1.44
26.64 -21.09 2.97
7 -5.54 -1.41
6.78 -5.37 -1.06
26.68 -21.11 5.39
11.64 -9.22 -1.3
26.7 -21.13 6.62
6.7 -5.31 -0.45
26.63 -21.08 7.84
4.42 -3.52 -1.51
4.99 -3.98 -1.47
26.82 -21.38 1.8
5.78 -4.61 -1.44
26.63 -21.24 2.98
6.97 -5.56 -1.41
26.78 -21.36 4.21
6.72 -5.36 -1.06
26.67 -21.27 5.4
6.69 -5.34 -0.75
26.68 -21.27 6.63
6.67 -5.32 -0.45
26.64 -21.24 7.87
7.94 -6.33 2.72
4.41 -3.54 -1.51
20.88 -16.76 0.47
4.99 -4.01 -1.48
23.64 -18.97 1.59
5.76 -4.63 -1.44
23.66 -18.99 2.65
6.75 -5.42 -1.37
27.23 -21.85 4.29
6.68 -5.36 -1.05
26.68 -21.41 5.42
6.68 -5.36 -0.75
26.7 -21.43 6.66
6.68 -5.36 -0.45
26.63 -21.37 7.88
21.94 -17.61 -0.49
7.6 -6.1 2.61
4.39 -3.55 -1.51
20.96 -16.95 0.47
4.97 -4.02 -1.48
23.53 -19.03 1.59
5.75 -4.65 -1.44
23.56 -19.05 2.65
6.7 -5.42 -1.36
27.25 -22.03 4.3
6.64 -5.37 -1.05
26.67 -21.56 5.43
6.67 -5.39 -0.75
26.71 -21.6 6.68
6.67 -5.4 -0.45
26.62 -21.53 7.9
7.58 -6.13 2.61
4.37 -3.56 -1.51
4.94 -4.02 -1.47
23.52 -19.14 1.59
5.74 -4.67 -1.44
26.68 -21.72 3.01
6.65 -5.41 -1.36
27.24 -22.17 4.31
6.6 -5.37 -1.04
26.68 -21.71 5.45
6.67 -5.43 -0.75
26.69 -21.73 6.69
6.67 -5.43 -0.45
26.61 -21.66 7.92
21.55 -17.54 -0.48
6.92 -5.63 2.39
4.36 -3.57 -1.51
4.93 -4.04 -1.47
26.82 -21.99 1.82
5.71 -4.68 -1.43
26.64 -21.84 3.01
6.61 -5.42 -1.35
26.95 -22.1 4.28
6.57 -5.39 -1.04
26.67 -21.87 5.46
11.4 -9.34 -1.29
26.71 -21.9 6.71
6.67 -5.47 -0.45
26.54 -21.76 7.92
21.54 -17.66 -0.49
7.58 -6.22 2.63
4.35 -3.59 -1.51
4.92 -4.06 -1.47
26.8 -22.13 1.82
5.66 -4.68 -1.43
26.66 -22.01 3.02
6.58 -5.43 -1.35
26.81 -22.13 4.27
6.55 -5.4 -1.04
26.68 -22.03 5.48
6.72 -5.55 -0.76
26.7 -22.04 6.73
6.67 -5.5 -0.45
7.94 -6.56 2.38
7.61 -6.28 2.64
4.34 -3.61 -1.51
20.95 -17.42 0.48
4.89 -4.07 -1.47
26.79 -22.28 1.83
5.66 -4.71 -1.43
26.66 -22.18 3.03
6.56 -5.45 -1.35
6.51 -5.42 -1.04
26.68 -22.19 5.5
6.69 -5.56 -0.76
26.71 -22.21 6.75
6.68 -5.56 -0.46
26.38 -21.94 7.92
7.5 -6.23 2.61
4.31 -3.61 -1.51
4.88 -4.08 -1.47
26.79 -22.43 1.83
5.63 -4.72 -1.43
26.66 -22.33 3.04
6.53 -5.47 -1.35
6.5 -5.44 -1.04
26.67 -22.33 5.51
6.68 -5.59 -0.76
26.7 -22.36 6.77
6.69 -5.6 -0.46
7.83 -6.55 2.36
6.98 -5.85 2.44
4.29 -3.62 -1.5
4.88 -4.11 -1.47
26.78 -22.59 1.84
5.62 -4.74 -1.43
26.71 -22.54 3.06
6.52 -5.5 -1.35
26.84 -22.64 4.31
6.48 -5.47 -1.04
26.67 -22.49 5.53
6.68 -5.64 -0.76
26.71 -22.53 6.79
6.7 -5.65 -0.46
26.38 -22.25 7.97
6.89 -5.81 2.41
4.27 -3.63 -1.5
4.85 -4.12 -1.47
26.79 -22.74 1.84
5.61 -4.76 -1.43
26.7 -22.67 3.06
6.49 -5.51 -1.35
26.77 -22.72 4.31
6.47 -5.49 -1.04
26.68 -22.65 5.54
6.69 -5.68 -0.77
26.69 -22.66 6.81
6.7 -5.69 -0.46
26.39 -22.41 7.99
6.93 -5.88 2.44
4.27 -3.65 -1.5
26.98 -23.08 0.62
4.8 -4.11 -1.46
26.77 -22.9 1.85
5.59 -4.78 -1.43
26.64 -22.78 3.07
6.48 -5.54 -1.35
26.71 -22.84 4.32
6.46 -5.52 -1.04
26.67 -22.81 5.56
11.07 -9.47 -1.27
26.63 -22.77 6.81
6.7 -5.73 -0.46
26.39 -22.57 8.02
7.32 -6.26 2.58
4.26 -3.67 -1.51
26.84 -23.11 0.62
4.8 -4.13 -1.46
26.75 -23.03 1.85
5.57 -4.79 -1.43
4.56 -3.93 0.53
6.47 -5.57 -1.35
26.71 -23 4.33
6.44 -5.55 -1.04
26.68 -22.97 5.58
11.04 -9.51 -1.28
26.64 -22.94 6.83
6.7 -5.77 -0.46
7.96 -6.85 2.42
7 -6.03 2.48
4.25 -3.69 -1.51
26.81 -23.26 0.62
4.76 -4.13 -1.45
26.74 -23.2 1.86
5.53 -4.8 -1.42
6.47 -5.61 -1.36
26.71 -23.17 4.34
6.44 -5.58 -1.05
26.66 -23.13 5.59
10.98 -9.52 -1.27
26.64 -23.11 6.86
6.7 -5.82 -0.47
7.9 -6.85 2.41
6.92 -6 2.45
4.23 -3.7 -1.51
26.76 -23.37 0.62
4.78 -4.18 -1.47
4.55 -3.97 0.32
5.51 -4.81 -1.42
6.46 -5.65 -1.36
26.71 -23.33 4.35
6.44 -5.62 -1.05
26.67 -23.29 5.61
10.91 -9.53 -1.27
26.65 -23.27 6.88
14.79 -12.91 -1.03
26.38 -23.03 8.08
6.88 -6.01 2.45
4.21 -3.71 -1.5
26.76 -23.54 0.62
4.76 -4.19 -1.46
4.55 -4 0.32
5.49 -4.83 -1.42
6.47 -5.7 -1.37
26.71 -23.5 4.37
6.44 -5.67 -1.05
4.54 -3.99 0.96
10.86 -9.55 -1.26
26.63 -23.43 6.9
14.73 -12.96 -1.03
6.95 -6.11 2.48
4.2 -3.72 -1.5
26.73 -23.68 0.62
4.74 -4.2 -1.46
4.54 -4.02 0.32
5.47 -4.84 -1.42
6.5 -5.75 -1.37
26.7 -23.65 4.38
6.46 -5.73 -1.06
4.53 -4.01 0.96
10.81 -9.57 -1.26
4.5 -3.99 1.17
14.67 -12.99 -1.03
6.89 -6.1 2.47
4.19 -3.74 -1.51
26.47 -23.62 0.62
4.71 -4.2 -1.46
4.52 -4.04 0.32
5.45 -4.86 -1.42
4.54 -4.05 0.53
6.47 -5.77 -1.37
26.7 -23.82 4.39
8.2 -7.31 -1.35
10.76 -9.6 -1.26
4.5 -4.02 1.17
14.62 -13.04 -1.03
7.84 -7 2.43
6.87 -6.13 2.47
4.18 -3.76 -1.51
26.3 -23.62 0.62
4.69 -4.22 -1.46
4.53 -4.07 0.32
5.42 -4.86 -1.42
4.54 -4.08 0.53
6.46 -5.81 -1.38
26.71 -23.99 4.41
8.15 -7.32 -1.35
10.71 -9.62 -1.26
14.57 -13.09 -1.03
6.88 -6.18 2.48
4.15 -3.76 -1.5
26.29 -23.78 0.62
4.67 -4.23 -1.45
4.54 -4.11 0.32
5.39 -4.87 -1.41
4.55 -4.12 0.54
6.43 -5.81 -1.37
26.7 -24.16 4.42
8.13 -7.35 -1.35
10.67 -9.66 -1.26
14.53 -13.15 -1.03
4.61 -4.17 1.44
4.15 -3.78 -1.5
4.61 -4.2 0.11
4.65 -4.23 -1.45
4.56 -4.16 0.32
4.65 -4.23 -1.22
4.55 -4.14 0.54
4.64 -4.22 -0.99
4.59 -4.18 0.76
4.66 -4.24 -0.77
4.53 -4.12 0.97
4.64 -4.22 -0.55
4.51 -4.11 1.19
4.63 -4.22 -0.33
4.59 -4.18 1.43
4.63 -4.21 -0.11
4.15 -3.8 -1.51
4.6 -4.22 0.11
4.62 -4.24 -1.45
4.57 -4.19 0.33
4.63 -4.25 -1.22
4.55 -4.18 0.54
4.63 -4.25 -1
4.56 -4.19 0.76
4.63 -4.25 -0.77
4.53 -4.16 0.97
4.62 -4.23 -0.55
4.52 -4.14 1.19
4.6 -4.22 -0.33
4.57 -4.19 1.43
4.6 -4.22 -0.11
4.14 -3.82 -1.51
4.59 -4.23 0.11
4.59 -4.24 -1.44
4.56 -4.21 0.33
4.62 -4.27 -1.22
4.56 -4.21 0.54
4.62 -4.26 -1
4.55 -4.2 0.76
4.63 -4.28 -0.77
4.54 -4.19 0.98
4.61 -4.26 -0.55
4.51 -4.17 1.19
4.6 -4.25 -0.33
4.57 -4.22 1.44
4.6 -4.25 -0.11
4.1 -3.82 -1.5
4.59 -4.27 -1.45
4.55 -4.23 0.33
4.59 -4.27 -1.22
4.56 -4.24 0.54
4.61 -4.29 -1
4.53 -4.22 0.76
7.97 -7.41 -1.34
4.52 -4.21 0.98
10.46 -9.73 -1.25
4.52 -4.2 1.2
14.31 -13.31 -1.02
4.56 -4.24 1.44
4.08 -3.82 -1.5
4.58 -4.29 -1.45
4.54 -4.25 0.33
5.28 -4.94 -1.41
4.55 -4.26 0.55
6.3 -5.9 -1.37
4.53 -4.25 0.76
7.94 -7.44 -1.34
4.53 -4.24 0.98
10.4 -9.74 -1.25
4.53 -4.24 1.21
14.27 -13.36 -1.02
4.59 -4.3 1.45
6.6 -6.18 2.42
4.06 -3.83 -1.5
4.57 -4.31 -1.45
4.55 -4.29 0.33
5.26 -4.96 -1.4
4.56 -4.3 0.55
6.28 -5.92 -1.37
4.52 -4.26 0.76
7.92 -7.47 -1.34
4.53 -4.27 0.99
10.35 -9.76 -1.24
4.52 -4.27 1.21
14.21 -13.4 -1.02
4.59 -4.33 1.46
6.56 -6.18 2.41
4.06 -3.86 -1.5
26.9 -25.53 0.65
4.54 -4.31 -1.45
4.56 -4.32 0.33
5.25 -4.98 -1.41
4.56 -4.33 0.55
6.24 -5.92 -1.36
26.9 -25.53 4.55
7.89 -7.49 -1.34
4.55 -4.32 0.99
10.3 -9.78 -1.24
4.53 -4.3 1.21
14.16 -13.44 -1.02
4.59 -4.35 1.46
4.05 -3.87 -1.5
4.53 -4.33 -1.45
4.55 -4.35 0.33
5.23 -5 -1.41
4.57 -4.36 0.55
6.2 -5.93 -1.36
26.9 -25.72 4.57
7.84 -7.5 -1.33
4.56 -4.36 1
10.25 -9.8 -1.24
4.53 -4.33 1.22
14.11 -13.49 -1.02
4.58 -4.38 1.46
6.54 -6.25 2.42
4.04 -3.89 -1.5
4.52 -4.36 -1.45
4.55 -4.38 0.33
5.2 -5.01 -1.4
4.56 -4.39 0.55
6.18 -5.95 -1.36
26.9 -25.9 4.58
7.8 -7.51 -1.33
4.55 -4.39 1
10.2 -9.82 -1.24
4.53 -4.36 1.22
14.05 -13.53 -1.02
4.57 -4.41 1.47
6.53 -6.29 2.43
4.03 -3.9 -1.5
4.51 -4.37 -1.45
4.55 -4.41 0.33
5.18 -5.02 -1.4
4.55 -4.41 0.55
6.13 -5.94 -1.35
26.89 -26.08 4.6
7.77 -7.53 -1.33
4.56 -4.42 1.01
10.15 -9.84 -1.24
4.5 -4.36 1.22
14 -13.57 -1.02
4.59 -4.46 1.48
3.99 -3.9 -1.49
4.49 -4.39 -1.45
4.56 -4.45 0.33
5.17 -5.04 -1.4
4.56 -4.45 0.56
6.12 -5.98 -1.36
26.89 -26.26 4.61
7.73 -7.55 -1.33
4.56 -4.45 1.01
10.11 -9.87 -1.24
4.47 -4.37 1.22
13.95 -13.62 -1.02
4.59 -4.48 1.48
22.67 -22.14 -0.55
3.98 -3.91 -1.49
26.94 -26.5 0.66
4.47 -4.39 -1.45
4.56 -4.48 0.34
5.16 -5.07 -1.41
4.56 -4.49 0.56
6.1 -6 -1.36
26.9 -26.45 4.63
7.68 -7.55 -1.32
4.55 -4.47 1.01
10.06 -9.9 -1.23
26.82 -26.37 7.31
13.88 -13.65 -1.02
4.59 -4.52 1.49
22.6 -22.22 -0.55
3.98 -3.94 -1.5
26.9 -26.63 0.66
4.46 -4.42 -1.45
4.55 -4.51 0.34
5.11 -5.06 -1.4
4.57 -4.53 0.56
6.09 -6.03 -1.36
26.9 -26.64 4.65
7.64 -7.57 -1.32
4.52 -4.48 1.01
10.02 -9.92 -1.23
26.82 -26.56 7.34
13.83 -13.7 -1.02
4.59 -4.54 1.49
3.98 -3.96 -1.5
12.08 -12.05 0.3
4.46 -4.45 -1.45
12.07 -12.04 0.89
5.11 -5.1 -1.4
6.06 -6.04 -1.36
26.9 -26.82 4.66
7.59 -7.57 -1.32
4.51 -4.5 1.01
9.97 -9.95 -1.23
26.83 -26.75 7.36
12.1 -12.07 -0.9
12.1 -12.06 -0.3
3.94 -3.95 -1.49
4.43 -4.45 -1.45
26.74 -26.86 1.99
5.09 -5.11 -1.4
6.02 -6.05 -1.35
26.91 -27.02 4.68
7.55 -7.58 -1.31
26.84 -26.95 6.02
9.93 -9.97 -1.23
26.82 -26.93 7.39
13.73 -13.79 -1.02
31.44 -31.57 10.29
22.13 -22.22 -0.55
3.93 -3.97 -1.5
4.42 -4.47 -1.45
26.75 -27.05 1.99
5.07 -5.12 -1.4
26.98 -27.28 3.36
5.97 -6.04 -1.35
26.91 -27.21 4.7
7.53 -7.61 -1.31
26.85 -27.15 6.05
9.88 -9.99 -1.23
26.83 -27.13 7.42
13.67 -13.83 -1.02
22 -22.25 -0.55
3.92 -3.99 -1.5
26.92 -27.4 0.67
4.42 -4.49 -1.45
26.75 -27.22 2
5.07 -5.16 -1.41
5.92 -6.02 -1.34
26.91 -27.38 4.71
7.49 -7.63 -1.31
26.86 -27.33 6.07
9.85 -10.02 -1.23
26.83 -27.3 7.44
12.22 -12.44 -0.91
21.86 -22.25 -0.54
3.91 -4 -1.5
4.41 -4.52 -1.46
26.75 -27.41 2.01
5.04 -5.16 -1.4
5.9 -6.05 -1.34
26.91 -27.57 4.73
7.45 -7.64 -1.31
26.86 -27.52 6.09
9.81 -10.05 -1.23
26.82 -27.49 7.47
12.4 -12.7 -0.93
21.77 -22.3 -0.54
3.89 -4.01 -1.5
4.41 -4.56 -1.46
26.76 -27.62 2.02
5.01 -5.17 -1.4
5.88 -6.07 -1.34
26.9 -27.77 4.75
7.42 -7.66 -1.31
26.84 -27.71 6.11
9.75 -10.06 -1.23
26.82 -27.69 7.49
12.27 -12.67 -0.92
21.69 -22.39 -0.54
3.87 -4.02 -1.5
27.21 -28.28 0.69
4.4 -4.57 -1.46
26.74 -27.8 2.02
4.99 -5.19 -1.4
5.86 -6.09 -1.34
26.9 -27.96 4.76
7.38 -7.67 -1.31
26.84 -27.9 6.13
9.7 -10.08 -1.22
26.82 -27.88 7.52
12.14 -12.62 -0.92
21.56 -22.41 -0.54
3.85 -4.03 -1.49
26.93 -28.19 0.68
4.38 -4.59 -1.46
26.75 -28 2.03
4.97 -5.2 -1.4
26.96 -28.22 3.41
5.81 -6.08 -1.33
26.9 -28.16 4.78
7.36 -7.7 -1.31
26.85 -28.1 6.16
9.65 -10.1 -1.22
26.81 -28.06 7.54
12.05 -12.61 -0.91
21.43 -22.43 -0.54
3.84 -4.05 -1.49
26.85 -28.3 0.68
4.36 -4.59 -1.46
26.74 -28.19 2.04
4.94 -5.21 -1.4
26.8 -28.26 3.41
5.79 -6.1 -1.33
26.78 -28.23 4.78
7.31 -7.71 -1.3
26.76 -28.21 6.16
9.6 -10.12 -1.22
26.73 -28.17 7.55
11.93 -12.57 -0.91
21.37 -22.53 -0.54
3.83 -4.07 -1.5
26.8 -28.44 0.68
4.35 -4.61 -1.46
26.76 -28.4 2.05
4.91 -5.21 -1.39
26.76 -28.39 3.41
5.76 -6.12 -1.33
26.73 -28.36 4.79
7.28 -7.72 -1.3
26.69 -28.33 6.16
9.56 -10.15 -1.22
26.66 -28.29 7.55
11.8 -12.53 -0.9
21.29 -22.59 -0.54
3.81 -4.07 -1.49
26.79 -28.63 0.68
4.33 -4.62 -1.46
26.75 -28.59 2.05
4.87 -5.21 -1.39
26.77 -28.6 3.43
5.75 -6.15 -1.33
26.73 -28.57 4.8
7.25 -7.74 -1.3
26.69 -28.52 6.19
9.52 -10.17 -1.22
26.65 -28.48 7.58
11.63 -12.43 -0.89
21.21 -22.66 -0.54
3.79 -4.08 -1.49
4.31 -4.64 -1.46
26.76 -28.79 2.06
4.85 -5.22 -1.38
26.75 -28.79 3.44
5.71 -6.15 -1.33
26.73 -28.77 4.82
7.21 -7.76 -1.3
26.69 -28.72 6.21
9.46 -10.18 -1.22
26.65 -28.68 7.61
11.56 -12.44 -0.89
33.93 -36.52 11.51
21.1 -22.7 -0.54
3.78 -4.1 -1.49
4.29 -4.65 -1.46
26.75 -28.99 2.07
4.82 -5.23 -1.38
26.75 -28.99 3.45
5.69 -6.17 -1.33
26.73 -28.96 4.84
7.19 -7.79 -1.3
26.69 -28.93 6.23
9.41 -10.2 -1.21
26.65 -28.88 7.64
11.48 -12.44 -0.89
21.02 -22.78 -0.54
3.77 -4.11 -1.49
4.27 -4.66 -1.46
26.76 -29.2 2.08
4.82 -5.26 -1.39
26.76 -29.2 3.46
5.67 -6.19 -1.33
26.72 -29.16 4.86
7.16 -7.82 -1.3
26.69 -29.13 6.26
9.37 -10.23 -1.21
26.65 -29.08 7.67
11.39 -12.43 -0.88
20.93 -22.84 -0.54
3.74 -4.11 -1.49
4.25 -4.67 -1.46
26.75 -29.4 2.08
4.79 -5.27 -1.38
26.76 -29.4 3.48
5.64 -6.2 -1.33
26.71 -29.36 4.87
7.1 -7.81 -1.3
26.68 -29.32 6.28
9.32 -10.24 -1.21
26.65 -29.29 7.7
11.33 -12.46 -0.88
20.9 -22.97 -0.54
3.73 -4.13 -1.49
4.24 -4.69 -1.46
26.74 -29.6 2.09
4.77 -5.28 -1.38
26.76 -29.61 3.49
5.62 -6.22 -1.33
27.08 -29.97 4.96
7.07 -7.82 -1.29
26.67 -29.52 6.3
9.27 -10.26 -1.21
26.67 -29.52 7.73
11.28 -12.49 -0.88
20.81 -23.03 -0.54
3.71 -4.13 -1.49
4.23 -4.71 -1.46
26.76 -29.82 2.1
4.75 -5.3 -1.38
26.75 -29.81 3.5
5.6 -6.24 -1.33
26.96 -30.04 4.96
7.04 -7.85 -1.29
26.68 -29.74 6.33
9.21 -10.27 -1.21
26.65 -29.71 7.76
11.2 -12.48 -0.88
20.73 -23.11 -0.54
3.7 -4.15 -1.49
4.21 -4.73 -1.46
26.77 -30.03 2.11
4.73 -5.31 -1.38
26.75 -30.02 3.52
5.57 -6.25 -1.33
26.92 -30.2 4.97
7.03 -7.88 -1.3
26.67 -29.93 6.35
9.18 -10.3 -1.21
26.66 -29.91 7.79
11.13 -12.49 -0.88
20.72 -23.24 -0.54
3.68 -4.16 -1.49
10.82 -12.23 0.28
4.17 -4.71 -1.45
10.81 -12.22 0.86
4.7 -5.31 -1.38
26.76 -30.24 3.53
5.56 -6.28 -1.33
26.9 -30.4 4.98
7 -7.9 -1.3
26.65 -30.11 6.37
9.13 -10.31 -1.21
26.66 -30.12 7.82
10.85 -12.26 -0.86
10.86 -12.27 -0.29
3.67 -4.18 -1.49
10.83 -12.32 0.29
4.15 -4.73 -1.45
10.81 -12.3 0.86
4.68 -5.33 -1.38
26.76 -30.45 3.55
5.54 -6.3 -1.33
26.91 -30.62 5
6.92 -7.88 -1.29
26.83 -30.53 6.44
9.09 -10.35 -1.21
26.65 -30.32 7.85
10.97 -12.48 -0.87
10.8 -12.29 -0.29
3.66 -4.2 -1.49
10.68 -12.24 0.28
4.14 -4.74 -1.45
10.66 -12.21 0.85
4.66 -5.34 -1.38
26.76 -30.66 3.56
5.53 -6.33 -1.33
26.92 -30.84 5.03
6.95 -7.96 -1.3
26.89 -30.81 6.48
9.04 -10.36 -1.2
26.66 -30.55 7.88
10.75 -12.32 -0.86
10.7 -12.26 -0.28
3.64 -4.2 -1.49
10.62 -12.25 0.28
4.13 -4.76 -1.45
10.6 -12.23 0.85
4.65 -5.36 -1.38
26.75 -30.87 3.57
5.48 -6.32 -1.32
26.91 -31.06 5.05
6.93 -7.99 -1.3
26.88 -31.02 6.5
8.99 -10.38 -1.2
26.66 -30.76 7.91
10.69 -12.33 -0.86
10.63 -12.27 -0.28
3.63 -4.21 -1.49
10.53 -12.24 0.28
4.11 -4.78 -1.45
10.53 -12.24 0.85
4.62 -5.37 -1.38
26.75 -31.09 3.59
5.44 -6.32 -1.32
26.91 -31.28 5.07
6.89 -8.01 -1.3
26.89 -31.25 6.53
8.94 -10.39 -1.2
26.66 -30.98 7.94
10.63 -12.35 -0.85
10.59 -12.31 -0.28
3.62 -4.23 -1.49
10.47 -12.25 0.28
4.08 -4.78 -1.45
10.45 -12.23 0.84
4.6 -5.39 -1.38
26.76 -31.33 3.6
5.41 -6.33 -1.32
26.85 -31.43 5.08
6.87 -8.04 -1.3
26.84 -31.41 6.54
8.9 -10.42 -1.2
26.65 -31.19 7.98
10.57 -12.37 -0.85
10.56 -12.36 -0.28
3.61 -4.25 -1.49
10.4 -12.26 0.28
4.06 -4.79 -1.45
10.38 -12.24 0.84
4.58 -5.39 -1.37
26.75 -31.53 3.62
5.39 -6.35 -1.32
26.72 -31.5 5.07
6.83 -8.05 -1.3
26.69 -31.46 6.53
8.85 -10.44 -1.2
26.66 -31.42 8.01
10.48 -12.35 -0.85
10.43 -12.3 -0.28
3.6 -4.28 -1.5
10.34 -12.27 0.28
4.05 -4.81 -1.45
10.32 -12.25 0.84
4.55 -5.4 -1.37
26.77 -31.77 3.63
5.36 -6.36 -1.32
26.73 -31.73 5.09
6.78 -8.05 -1.29
26.68 -31.67 6.56
8.81 -10.46 -1.2
26.67 -31.65 8.04
10.4 -12.34 -0.85
10.36 -12.3 -0.28
6.52 -7.74 2.71
3.58 -4.28 -1.49
10.27 -12.28 0.28
4.03 -4.82 -1.45
10.25 -12.25 0.84
4.54 -5.43 -1.38
26.76 -31.98 3.65
5.34 -6.38 -1.32
26.74 -31.96 5.12
6.76 -8.08 -1.29
26.69 -31.9 6.59
8.76 -10.47 -1.19
26.65 -31.85 8.07
10.35 -12.37 -0.85
10.33 -12.34 -0.28
3.58 -4.3 -1.5
10.19 -12.27 0.28
4.01 -4.83 -1.45
10.19 -12.26 0.84
4.53 -5.45 -1.38
26.76 -32.21 3.66
5.29 -6.37 -1.31
26.73 -32.17 5.14
6.73 -8.1 -1.29
26.69 -32.12 6.61
8.71 -10.48 -1.19
26.64 -32.06 8.1
10.3 -12.4 -0.84
10.27 -12.36 -0.28
3.55 -4.3 -1.49
10.12 -12.27 0.28
3.99 -4.84 -1.45
10.11 -12.25 0.83
4.5 -5.46 -1.38
26.76 -32.44 3.68
5.26 -6.37 -1.31
26.73 -32.4 5.16
6.7 -8.12 -1.29
26.69 -32.36 6.64
8.66 -10.5 -1.19
26.53 -32.16 8.1
10.26 -12.44 -0.85
10.17 -12.32 -0.28
6.43 -7.8 2.71
3.52 -4.3 -1.49
10.06 -12.28 0.28
3.97 -4.85 -1.45
10.04 -12.26 0.83
4.48 -5.47 -1.37
26.76 -32.67 3.7
5.23 -6.39 -1.31
26.73 -32.64 5.18
6.66 -8.13 -1.29
26.87 -32.81 6.72
8.62 -10.52 -1.19
26.4 -32.23 8.1
10.19 -12.44 -0.84
10.11 -12.34 -0.28
3.51 -4.31 -1.49
10 -12.29 0.28
3.97 -4.88 -1.45
9.99 -12.28 0.83
4.45 -5.47 -1.37
26.76 -32.9 3.71
5.2 -6.39 -1.31
26.73 -32.87 5.2
6.63 -8.15 -1.29
26.86 -33.03 6.74
8.57 -10.54 -1.19
26.38 -32.44 8.13
10.06 -12.37 -0.84
10.08 -12.39 -0.28
6.38 -7.84 2.71
3.49 -4.32 -1.49
9.93 -12.29 0.28
3.95 -4.89 -1.45
9.93 -12.29 0.83
4.43 -5.49 -1.37
26.76 -33.13 3.73
5.16 -6.38 -1.3
26.74 -33.1 5.22
6.59 -8.16 -1.29
26.87 -33.27 6.77
8.52 -10.55 -1.19
26.38 -32.66 8.16
10 -12.38 -0.83
9.99 -12.36 -0.28
6.35 -7.86 2.71
3.47 -4.33 -1.49
9.86 -12.29 0.28
3.93 -4.9 -1.45
9.86 -12.29 0.83
4.41 -5.5 -1.37
26.75 -33.35 3.74
5.09 -6.35 -1.29
26.73 -33.33 5.25
6.56 -8.18 -1.29
26.87 -33.5 6.8
8.47 -10.56 -1.18
26.37 -32.88 8.19
9.93 -12.38 -0.83
9.91 -12.35 -0.28
3.46 -4.34 -1.49
9.8 -12.3 0.27
3.91 -4.91 -1.45
9.79 -12.29 0.82
4.4 -5.52 -1.37
26.72 -33.56 3.75
5.04 -6.32 -1.28
26.74 -33.58 5.27
6.53 -8.2 -1.29
26.88 -33.76 6.83
8.43 -10.58 -1.18
26.37 -33.11 8.23
9.89 -12.42 -0.83
9.87 -12.39 -0.28
3.45 -4.36 -1.49
9.73 -12.31 0.27
3.88 -4.9 -1.44
9.71 -12.29 0.82
4.38 -5.54 -1.37
26.72 -33.8 3.77
5.03 -6.36 -1.28
26.74 -33.82 5.29
6.49 -8.21 -1.28
26.88 -34 6.86
8.39 -10.61 -1.18
26.37 -33.35 8.26
9.86 -12.48 -0.83
9.83 -12.43 -0.28
4.9 -6.2 2.12
3.42 -4.36 -1.49
9.67 -12.32 0.27
3.85 -4.91 -1.44
9.65 -12.3 0.82
4.34 -5.52 -1.37
26.76 -34.09 3.79
5 -6.37 -1.28
26.74 -34.07 5.32
6.44 -8.21 -1.28
26.86 -34.22 6.89
8.34 -10.62 -1.18
9.94 -12.66 -0.84
9.88 -12.59 -0.28
4.87 -6.21 2.11
3.41 -4.37 -1.48
9.6 -12.32 0.27
3.84 -4.93 -1.44
9.59 -12.31 0.82
4.33 -5.55 -1.37
26.91 -34.53 3.83
4.98 -6.39 -1.28
26.73 -34.3 5.34
6.41 -8.23 -1.28
26.87 -34.48 6.92
8.29 -10.64 -1.18
9.66 -12.39 -0.82
9.85 -12.64 -0.28
4.83 -6.19 2.1
3.39 -4.38 -1.48
9.53 -12.32 0.27
3.79 -4.9 -1.43
9.53 -12.31 0.82
4.31 -5.57 -1.37
26.81 -34.64 3.83
4.94 -6.39 -1.28
4.94 -6.38 0.99
6.39 -8.26 -1.28
4.91 -6.35 1.27
8.25 -10.66 -1.18
4.92 -6.35 1.56
9.6 -12.4 -0.82
4.86 -6.27 1.83
9.96 -12.87 -0.28
4.8 -6.2 2.1
3.38 -4.39 -1.49
4.95 -6.45 0.14
3.8 -4.94 -1.44
4.95 -6.43 0.43
4.29 -5.58 -1.37
4.93 -6.41 0.71
4.92 -6.4 -1.28
4.89 -6.36 0.99
4.98 -6.48 -1
4.88 -6.34 1.27
4.98 -6.48 -0.71
4.95 -6.45 -0.43
4.81 -6.26 1.82
4.99 -6.49 -0.14
4.79 -6.24 2.11
3.36 -4.4 -1.48
4.91 -6.43 0.14
3.77 -4.94 -1.44
4.89 -6.41 0.42
4.27 -5.59 -1.37
4.89 -6.41 0.71
4.9 -6.41 -1.28
4.86 -6.37 0.98
4.93 -6.47 -1
4.86 -6.37 1.27
4.94 -6.47 -0.71
4.83 -6.33 1.55
4.91 -6.43 -0.42
4.79 -6.28 1.82
4.91 -6.43 -0.14
4.78 -6.26 2.11
3.35 -4.42 -1.49
4.87 -6.42 0.14
3.77 -4.97 -1.44
4.86 -6.42 0.42
4.24 -5.59 -1.36
4.86 -6.41 0.7
4.88 -6.44 -1.28
4.84 -6.38 0.98
4.9 -6.46 -1
4.82 -6.36 1.26
4.89 -6.45 -0.71
4.8 -6.33 1.54
4.88 -6.45 -0.42
4.77 -6.29 1.82
4.87 -6.43 -0.14
4.76 -6.28 2.11
3.32 -4.42 -1.48
4.84 -6.44 0.14
3.74 -4.97 -1.44
4.83 -6.43 0.42
4.22 -5.61 -1.36
4.83 -6.42 0.7
4.84 -6.44 -1.28
4.81 -6.4 0.98
4.87 -6.48 -1
4.8 -6.38 1.26
4.85 -6.46 -0.71
4.78 -6.36 1.55
4.85 -6.46 -0.42
4.75 -6.32 1.83
4.84 -6.44 -0.14
4.74 -6.3 2.11
3.31 -4.43 -1.48
4.81 -6.44 0.14
3.74 -5.01 -1.44
4.81 -6.45 0.42
4.21 -5.64 -1.37
4.8 -6.44 0.7
4.8 -6.44 -1.27
4.8 -6.43 0.98
4.85 -6.49 -0.99
4.78 -6.41 1.27
4.83 -6.47 -0.71
4.75 -6.36 1.54
4.82 -6.46 -0.42
4.74 -6.35 1.83
4.82 -6.46 -0.14
5.68 -7.61 2.55
3.3 -4.45 -1.48
4.78 -6.46 0.14
3.72 -5.02 -1.44
4.79 -6.46 0.42
4.2 -5.66 -1.37
4.79 -6.47 0.7
4.77 -6.44 -1.27
4.78 -6.45 0.98
4.83 -6.51 -1
4.77 -6.43 1.27
4.81 -6.49 -0.71
4.73 -6.39 1.54
4.8 -6.47 -0.42
4.75 -6.41 1.84
4.81 -6.49 -0.14
5.6 -7.55 2.52
3.28 -4.46 -1.48
4.77 -6.48 0.14
3.7 -5.03 -1.44
4.77 -6.48 0.42
4.17 -5.66 -1.37
4.79 -6.51 0.71
4.75 -6.46 -1.27
4.77 -6.48 0.99
4.8 -6.53 -1
4.79 -6.51 -0.71
4.72 -6.42 1.55
4.78 -6.5 -0.42
4.79 -6.51 -0.14
3.26 -4.46 -1.48
4.77 -6.53 0.14
3.69 -5.05 -1.44
4.77 -6.53 0.42
4.13 -5.65 -1.36
4.73 -6.47 -1.27
26.74 -36.6 5.57
4.79 -6.55 -1
26.83 -36.73 7.2
4.78 -6.54 -0.71
4.78 -6.54 -0.42
5.71 -7.81 2.23
4.77 -6.53 -0.14
3.24 -4.47 -1.48
3.66 -5.04 -1.44
4.12 -5.67 -1.36
4.71 -6.49 -1.27
26.75 -36.88 5.59
4.78 -6.58 -1
4.77 -6.57 -0.71
4.79 -6.6 -0.43
5.66 -7.8 2.23
4.78 -6.59 -0.14
3.23 -4.49 -1.48
9.92 -13.78 0.3
3.66 -5.08 -1.44
9.92 -13.78 0.89
4.09 -5.68 -1.36
4.68 -6.5 -1.27
26.75 -37.16 5.62
4.78 -6.64 -1
27.11 -37.66 7.35
4.77 -6.63 -0.71
8.96 -12.44 -0.8
9.06 -12.58 -0.27
3.22 -4.5 -1.48
8.85 -12.38 0.27
3.63 -5.08 -1.44
8.85 -12.38 0.8
4.08 -5.7 -1.36
26.98 -37.75 4.06
4.65 -6.51 -1.27
26.74 -37.41 5.65
6.01 -8.41 -1.27
26.94 -37.7 7.34
7.74 -10.83 -1.16
8.88 -12.43 -0.8
8.97 -12.55 -0.27
5.52 -7.73 2.55
3.2 -4.51 -1.48
8.8 -12.4 0.27
3.61 -5.08 -1.44
8.79 -12.4 0.8
4.05 -5.71 -1.36
4.65 -6.55 -1.27
26.73 -37.69 5.67
5.97 -8.41 -1.27
7.7 -10.85 -1.16
8.87 -12.5 -0.8
8.98 -12.66 -0.27
5.58 -7.86 2.58
3.18 -4.52 -1.48
11.78 -16.73 0.36
3.57 -5.07 -1.43
8.74 -12.41 0.8
4.03 -5.72 -1.36
4.63 -6.58 -1.27
26.69 -37.9 5.69
5.93 -8.43 -1.27
7.66 -10.88 -1.16
8.8 -12.49 -0.8
8.86 -12.59 -0.27
6.42 -9.12 2.99
3.16 -4.52 -1.48
8.74 -12.5 0.27
3.55 -5.08 -1.43
8.69 -12.42 0.79
4.02 -5.75 -1.36
27.03 -38.65 4.13
4.6 -6.58 -1.27
26.8 -38.33 5.74
5.9 -8.44 -1.26
26.96 -38.56 7.45
7.6 -10.87 -1.16
8.71 -12.46 -0.8
8.67 -12.4 -0.26
6.24 -8.93 2.92
3.15 -4.54 -1.48
8.68 -12.51 0.27
3.55 -5.12 -1.44
8.63 -12.43 0.79
4.02 -5.79 -1.37
26.89 -38.74 4.13
4.58 -6.6 -1.27
26.84 -38.67 5.78
5.87 -8.46 -1.26
26.84 -38.66 7.45
7.56 -10.9 -1.16
8.65 -12.46 -0.8
8.62 -12.42 -0.26
5.94 -8.56 2.79
3.14 -4.55 -1.48
8.63 -12.52 0.27
3.53 -5.12 -1.44
8.56 -12.43 0.79
4 -5.8 -1.37
26.77 -38.86 4.13
4.56 -6.62 -1.27
26.74 -38.82 5.79
5.83 -8.47 -1.26
26.7 -38.76 7.46
7.52 -10.91 -1.16
8.6 -12.49 -0.79
8.59 -12.47 -0.26
3.12 -4.56 -1.48
8.56 -12.52 0.26
3.52 -5.15 -1.44
8.5 -12.43 0.79
3.98 -5.81 -1.37
26.77 -39.15 4.15
4.54 -6.64 -1.27
26.75 -39.12 5.82
5.79 -8.47 -1.26
26.7 -39.05 7.49
7.47 -10.93 -1.16
8.57 -12.54 -0.8
8.53 -12.48 -0.26
3.1 -4.57 -1.48
8.5 -12.53 0.26
3.5 -5.15 -1.44
8.63 -12.72 0.81
3.95 -5.82 -1.37
26.76 -39.45 4.17
4.52 -6.66 -1.28
26.75 -39.43 5.85
5.76 -8.49 -1.26
26.68 -39.34 7.53
7.43 -10.95 -1.16
8.49 -12.52 -0.79
8.43 -12.43 -0.26
3.09 -4.58 -1.48
8.44 -12.53 0.26
3.48 -5.16 -1.44
8.41 -12.49 0.79
3.93 -5.84 -1.37
26.76 -39.75 4.19
4.51 -6.69 -1.28
26.75 -39.72 5.88
5.73 -8.5 -1.26
26.7 -39.64 7.57
7.38 -10.95 -1.16
8.4 -12.48 -0.79
8.39 -12.46 -0.26
3.08 -4.6 -1.48
8.41 -12.58 0.26
3.45 -5.16 -1.43
8.53 -12.76 0.8
3.91 -5.85 -1.37
26.68 -39.92 4.2
4.49 -6.72 -1.28
26.67 -39.89 5.89
5.7 -8.52 -1.26
26.6 -39.8 7.58
7.33 -10.97 -1.15
8.34 -12.48 -0.79
8.34 -12.48 -0.26
3.06 -4.62 -1.49
8.35 -12.59 0.26
3.43 -5.17 -1.43
8.41 -12.67 0.8
3.9 -5.87 -1.37
4.48 -6.75 -1.28
5.66 -8.54 -1.26
7.29 -10.99 -1.15
8.29 -12.5 -0.79
8.28 -12.48 -0.26
6.34 -9.56 3.07
3.06 -4.64 -1.49
8.26 -12.55 0.26
3.41 -5.17 -1.43
8.34 -12.66 0.79
3.87 -5.88 -1.37
34.49 -52.39 5.49
4.46 -6.77 -1.28
5.63 -8.54 -1.26
7.25 -11.01 -1.15
8.25 -12.53 -0.79
8.2 -12.45 -0.26
6.31 -9.58 3.07
3.04 -4.65 -1.49
8.2 -12.55 0.26
3.39 -5.19 -1.43
8.18 -12.52 0.78
3.85 -5.9 -1.37
34.05 -52.11 5.45
4.45 -6.81 -1.29
34.08 -52.15 7.65
5.59 -8.55 -1.25
34.06 -52.11 9.86
7.2 -11.02 -1.15
8.21 -12.56 -0.79
5.24 -8.02 2.21
8.14 -12.46 -0.26
3.02 -4.65 -1.49
8.14 -12.56 0.26
3.38 -5.22 -1.44
8.38 -12.92 0.81
3.84 -5.91 -1.37
33.74 -52.01 5.42
4.46 -6.87 -1.3
33.72 -51.98 7.61
5.56 -8.57 -1.25
33.87 -52.21 9.86
7.15 -11.02 -1.15
33.84 -52.16 12.09
8.11 -12.5 -0.78
5.2 -8.01 2.21
8.11 -12.5 -0.26
3 -4.67 -1.49
8.09 -12.56 0.26
3.37 -5.23 -1.44
8.18 -12.71 0.79
3.82 -5.93 -1.37
33.54 -52.11 5.42
4.44 -6.9 -1.3
33.56 -52.13 7.61
5.53 -8.59 -1.25
33.6 -52.2 9.83
7.1 -11.03 -1.15
8.05 -12.51 -0.78
5.18 -8.05 2.21
8.05 -12.51 -0.26
2.99 -4.68 -1.49
8.04 -12.58 0.26
3.35 -5.24 -1.44
8.06 -12.62 0.78
3.79 -5.93 -1.37
33.28 -52.09 5.41
4.42 -6.92 -1.3
33.31 -52.14 7.6
5.5 -8.61 -1.25
33.42 -52.31 9.83
7.05 -11.04 -1.15
8 -12.52 -0.78
5.15 -8.06 2.21
7.98 -12.49 -0.26
5.39 -8.44 2.68
2.97 -4.69 -1.49
8 -12.62 0.26
3.33 -5.25 -1.43
7.95 -12.55 0.78
3.77 -5.95 -1.37
33.13 -52.26 5.41
4.39 -6.93 -1.3
5.46 -8.61 -1.25
33.16 -52.31 9.81
7.01 -11.06 -1.15
33.18 -52.35 12.05
7.93 -12.51 -0.78
5.11 -8.07 2.2
7.91 -12.48 -0.26
5.41 -8.54 2.71
2.95 -4.69 -1.49
7.84 -12.47 0.26
3.3 -5.25 -1.43
7.83 -12.45 0.77
3.76 -5.98 -1.37
32.95 -52.38 5.41
4.39 -6.97 -1.3
5.43 -8.63 -1.25
32.98 -52.43 9.81
6.97 -11.08 -1.14
33 -52.47 12.05
7.88 -12.53 -0.78
5.09 -8.09 2.21
7.86 -12.5 -0.26
2.93 -4.69 -1.48
7.87 -12.6 0.26
3.29 -5.27 -1.43
7.84 -12.56 0.78
3.75 -6 -1.38
32.91 -52.73 5.44
4.37 -7 -1.31
5.39 -8.64 -1.25
32.79 -52.53 9.81
6.92 -11.08 -1.14
32.82 -52.58 12.05
7.95 -12.74 -0.79
7.86 -12.6 -0.26
5.61 -8.99 2.84
2.91 -4.7 -1.48
7.81 -12.62 0.26
3.28 -5.29 -1.44
7.8 -12.59 0.78
3.73 -6.02 -1.38
32.69 -52.78 5.43
4.35 -7.02 -1.31
32.55 -52.56 7.59
5.36 -8.66 -1.25
32.71 -52.82 9.84
6.87 -11.1 -1.14
7.97 -12.86 -0.79
32.85 -53.04 14.4
7.89 -12.74 -0.26
2.9 -4.73 -1.49
7.82 -12.73 0.26
3.26 -5.3 -1.44
7.8 -12.69 0.78
3.71 -6.03 -1.38
32.52 -52.93 5.44
4.32 -7.04 -1.31
32.33 -52.61 7.58
5.33 -8.67 -1.25
6.83 -11.11 -1.14
7.94 -12.93 -0.8
32.84 -53.45 14.48
7.87 -12.81 -0.26
2.89 -4.74 -1.49
7.84 -12.85 0.26
3.25 -5.32 -1.44
7.81 -12.8 0.79
3.68 -6.03 -1.37
32.42 -53.17 5.45
4.3 -7.06 -1.31
32.26 -52.92 7.61
5.29 -8.68 -1.25
6.79 -11.13 -1.14
8 -13.12 -0.81
32.68 -53.61 14.5
7.91 -12.97 -0.27
2.87 -4.75 -1.49
7.84 -12.97 0.26
3.22 -5.33 -1.44
7.81 -12.91 0.79
3.67 -6.06 -1.38
32.23 -53.29 5.45
4.29 -7.09 -1.31
32.08 -53.03 7.61
5.26 -8.7 -1.25
32.19 -53.22 9.85
6.74 -11.15 -1.14
7.97 -13.17 -0.81
7.88 -13.03 -0.27
2.85 -4.74 -1.48
7.86 -13.08 0.27
3.2 -5.34 -1.44
7.83 -13.04 0.8
3.66 -6.09 -1.38
32.28 -53.75 5.49
4.27 -7.11 -1.31
31.98 -53.24 7.63
5.23 -8.71 -1.25
6.7 -11.16 -1.14
7.95 -13.23 -0.81
7.93 -13.2 -0.27
2.85 -4.77 -1.49
7.96 -13.36 0.27
3.18 -5.34 -1.43
7.95 -13.34 0.81
3.64 -6.11 -1.38
4.24 -7.11 -1.31
32.58 -54.68 7.82
5.2 -8.73 -1.25
6.66 -11.17 -1.14
8.01 -13.45 -0.82
7.91 -13.28 -0.27
2.83 -4.79 -1.49
7.9 -13.37 0.27
3.16 -5.34 -1.43
7.97 -13.48 0.82
3.61 -6.1 -1.38
4.22 -7.13 -1.31
5.17 -8.75 -1.25
6.61 -11.19 -1.14
7.97 -13.48 -0.82
7.94 -13.44 -0.27
2.81 -4.79 -1.49
7.91 -13.48 0.27
3.14 -5.36 -1.43
8.04 -13.71 0.83
3.6 -6.13 -1.38
4.2 -7.16 -1.31
5.13 -8.76 -1.25
6.57 -11.21 -1.14
7.95 -13.55 -0.82
7.93 -13.52 -0.27
5.43 -9.26 2.88
2.8 -4.82 -1.49
7.96 -13.68 0.28
3.14 -5.39 -1.44
7.98 -13.72 0.83
3.57 -6.14 -1.38
4.17 -7.17 -1.31
5.1 -8.77 -1.25
6.53 -11.22 -1.14
7.95 -13.66 -0.83
7.95 -13.67 -0.28
5.41 -9.3 2.88
2.78 -4.82 -1.49
21.08 -36.52 0.74
3.13 -5.42 -1.44
7.93 -13.74 0.83
3.55 -6.15 -1.38
4.15 -7.2 -1.32
5.07 -8.79 -1.25
29.85 -51.73 9.46
6.48 -11.22 -1.13
7.98 -13.83 -0.84
7.94 -13.76 -0.28
2.77 -4.84 -1.49
7.94 -13.88 0.28
3.12 -5.44 -1.45
7.94 -13.86 0.84
3.53 -6.17 -1.38
4.12 -7.2 -1.31
5.04 -8.81 -1.25
6.43 -11.23 -1.13
7.98 -13.94 -0.84
7.97 -13.92 -0.28
2.75 -4.84 -1.49
7.91 -13.92 0.28
3.1 -5.45 -1.45
7.9 -13.92 0.84
3.51 -6.19 -1.38
4.09 -7.2 -1.31
5.01 -8.83 -1.25
6.39 -11.25 -1.13
9.54 -16.8 -1.01
7.94 -13.98 -0.28
5.39 -9.49 2.93
2.73 -4.85 -1.49
3.08 -5.46 -1.45
3.49 -6.2 -1.38
4.08 -7.24 -1.32
4.97 -8.83 -1.24
6.35 -11.27 -1.13
9.48 -16.84 -1.01
16.63 -29.53 -0.59
5.37 -9.53 2.93
2.71 -4.86 -1.49
3.05 -5.47 -1.45
3.47 -6.2 -1.38
4.07 -7.28 -1.32
4.95 -8.85 -1.25
28.74 -51.45 9.33
6.3 -11.28 -1.13
9.44 -16.9 -1.01
16.56 -29.65 -0.59
5.33 -9.54 2.93
2.69 -4.85 -1.49
3.04 -5.49 -1.45
3.44 -6.22 -1.38
4.04 -7.28 -1.32
4.92 -8.88 -1.25
28.51 -51.46 9.32
6.25 -11.28 -1.13
9.4 -16.97 -1.02
5.29 -9.55 2.93
2.67 -4.87 -1.49
25.78 -46.91 0.93
3.01 -5.48 -1.44
3.41 -6.2 -1.38
4 -7.28 -1.32
4.89 -8.9 -1.25
6.21 -11.3 -1.13
9.37 -17.06 -1.02
4.82 -8.77 2.31
16.36 -29.77 -0.59
5.31 -9.66 2.95
2.66 -4.88 -1.49
25.65 -47.04 0.94
2.99 -5.48 -1.44
3.4 -6.23 -1.38
3.98 -7.3 -1.32
4.86 -8.91 -1.25
6.17 -11.32 -1.13
9.34 -17.13 -1.02
16.22 -29.76 -0.59
2.65 -4.89 -1.49
25.44 -47.05 0.93
2.96 -5.48 -1.44
3.38 -6.26 -1.38
3.96 -7.32 -1.32
4.82 -8.91 -1.24
6.13 -11.34 -1.13
9.3 -17.21 -1.03
2.63 -4.91 -1.49
25.25 -47.09 0.93
2.95 -5.51 -1.44
3.37 -6.28 -1.39
3.95 -7.36 -1.32
4.79 -8.94 -1.25
6.09 -11.36 -1.13
9.26 -17.27 -1.03
2.61 -4.92 -1.49
2.94 -5.54 -1.45
3.35 -6.29 -1.39
3.93 -7.38 -1.32
4.76 -8.95 -1.25
6.04 -11.36 -1.13
9.22 -17.34 -1.03
28.94 -54.43 14.23
2.6 -4.93 -1.49
26.37 -50.02 0.99
2.92 -5.55 -1.45
3.32 -6.29 -1.38
3.89 -7.38 -1.32
4.73 -8.97 -1.25
6 -11.37 -1.12
9.17 -17.4 -1.03
15.76 -29.89 -0.59
2.58 -4.94 -1.49
24.58 -47.02 0.93
2.9 -5.54 -1.44
3.31 -6.34 -1.39
3.86 -7.39 -1.32
4.7 -8.99 -1.25
5.95 -11.39 -1.12
9.11 -17.43 -1.03
2.57 -4.95 -1.49
24.36 -46.99 0.92
2.88 -5.55 -1.44
3.28 -6.33 -1.39
3.83 -7.39 -1.32
4.67 -9 -1.24
5.91 -11.41 -1.12
9.05 -17.47 -1.03
15.56 -30.03 -0.59
2.54 -4.94 -1.49
24.18 -47.06 0.92
2.86 -5.56 -1.44
3.27 -6.36 -1.39
3.81 -7.41 -1.32
4.64 -9.02 -1.25
5.87 -11.42 -1.12
9.01 -17.53 -1.03
15.52 -30.19 -0.59
2.52 -4.95 -1.49
23.95 -47 0.92
2.84 -5.57 -1.44
3.25 -6.39 -1.39
3.78 -7.42 -1.32
4.6 -9.04 -1.25
5.82 -11.43 -1.12
8.98 -17.63 -1.04
15.45 -30.33 -0.59
2.51 -4.97 -1.49
23.74 -47.01 0.92
2.84 -5.62 -1.45
3.23 -6.4 -1.39
3.75 -7.42 -1.32
4.58 -9.07 -1.25
5.78 -11.45 -1.12
8.93 -17.68 -1.04
15.32 -30.32 -0.59
2.49 -4.98 -1.49
23.52 -46.96 0.92
2.82 -5.62 -1.45
3.19 -6.37 -1.38
3.73 -7.44 -1.32
4.55 -9.08 -1.25
5.74 -11.47 -1.12
8.89 -17.74 -1.04
15.27 -30.48 -0.6
2.48 -4.99 -1.49
23.36 -47.05 0.92
2.8 -5.63 -1.45
3.16 -6.36 -1.38
31.13 -62.68 6.12
3.7 -7.46 -1.32
4.51 -9.08 -1.24
5.71 -11.49 -1.12
8.85 -17.81 -1.04
15.19 -30.59 -0.6
2.46 -4.99 -1.49
2.77 -5.64 -1.45
3.14 -6.38 -1.38
3.68 -7.47 -1.32
31 -62.98 8.62
4.48 -9.1 -1.25
31.5 -63.99 11.3
5.66 -11.5 -1.12
8.82 -17.91 -1.05
15.1 -30.68 -0.6
2.44 -5 -1.49
22.98 -47.1 0.91
2.75 -5.64 -1.45
3.12 -6.4 -1.38
3.66 -7.5 -1.32
4.45 -9.12 -1.25
31.17 -63.87 11.26
5.62 -11.51 -1.12
8.77 -17.97 -1.05
15.03 -30.8 -0.6
2.43 -5.02 -1.49
22.74 -47.02 0.91
2.72 -5.63 -1.44
3.1 -6.41 -1.38
29.95 -61.93 6.02
3.63 -7.51 -1.32
4.42 -9.14 -1.25
30.83 -63.75 11.22
5.57 -11.53 -1.12
8.7 -17.98 -1.05
14.95 -30.92 -0.6
2.41 -5.03 -1.49
22.53 -46.99 0.91
2.71 -5.65 -1.45
3.08 -6.44 -1.39
3.61 -7.52 -1.32
30.14 -62.88 8.56
4.39 -9.16 -1.25
30.87 -64.4 11.31
5.53 -11.54 -1.12
6.15 -12.82 2.76
8.64 -18.02 -1.05
14.86 -31 -0.6
2.39 -5.04 -1.49
22.34 -47.02 0.91
2.69 -5.66 -1.45
3.07 -6.47 -1.39
30.9 -65.05 6.3
3.58 -7.53 -1.32
29.95 -63.05 8.57
4.36 -9.17 -1.25
6.08 -12.79 2.24
5.49 -11.56 -1.12
6.1 -12.84 2.76
8.57 -18.04 -1.05
14.78 -31.12 -0.6
2.38 -5.05 -1.49
22.16 -47.07 0.91
2.67 -5.67 -1.45
3.05 -6.48 -1.39
30.77 -65.36 6.32
3.55 -7.54 -1.32
6.01 -12.76 1.73
4.33 -9.19 -1.25
6.02 -12.79 2.24
5.45 -11.57 -1.12
6.02 -12.79 2.75
8.5 -18.05 -1.05
14.72 -31.26 -0.6
2.36 -5.06 -1.5
22.02 -47.2 0.91
2.65 -5.68 -1.45
5.93 -12.71 0.73
3.03 -6.49 -1.39
5.94 -12.73 1.23
3.53 -7.56 -1.32
5.94 -12.74 1.73
4.3 -9.21 -1.25
5.94 -12.74 2.23
5.4 -11.58 -1.12
5.96 -12.78 2.74
8.43 -18.08 -1.05
14.64 -31.37 -0.6
2.33 -5.05 -1.49
5.87 -12.69 0.24
2.64 -5.7 -1.45
5.87 -12.71 0.73
3 -6.49 -1.39
5.87 -12.7 1.22
3.49 -7.55 -1.32
5.88 -12.72 1.72
4.27 -9.23 -1.25
5.89 -12.74 2.22
5.36 -11.59 -1.12
5.88 -12.73 2.73
8.38 -18.12 -1.05
14.53 -31.44 -0.6
2.32 -5.06 -1.49
5.8 -12.67 0.24
2.62 -5.72 -1.45
5.8 -12.67 0.73
2.97 -6.49 -1.39
5.81 -12.69 1.22
3.46 -7.56 -1.32
5.8 -12.67 1.71
4.24 -9.25 -1.25
5.83 -12.73 2.22
5.32 -11.61 -1.12
5.82 -12.72 2.72
8.32 -18.16 -1.05
14.45 -31.54 -0.61
2.3 -5.07 -1.49
5.75 -12.67 0.24
2.61 -5.74 -1.46
5.73 -12.63 0.73
2.95 -6.51 -1.39
5.74 -12.65 1.22
3.43 -7.55 -1.31
5.75 -12.66 1.71
4.2 -9.26 -1.25
5.76 -12.69 2.21
5.28 -11.63 -1.12
5.76 -12.7 2.71
8.26 -18.2 -1.05
14.35 -31.62 -0.61
2.28 -5.07 -1.49
5.7 -12.66 0.24
2.59 -5.77 -1.46
5.68 -12.63 0.73
2.94 -6.53 -1.39
5.68 -12.62 1.21
3.42 -7.59 -1.32
5.69 -12.65 1.7
4.17 -9.27 -1.25
5.7 -12.66 2.2
5.23 -11.63 -1.12
5.71 -12.69 2.71
8.19 -18.21 -1.05
14.26 -31.71 -0.61
2.26 -5.07 -1.49
5.65 -12.67 0.24
2.58 -5.78 -1.46
5.63 -12.64 0.73
2.93 -6.57 -1.4
5.62 -12.62 1.21
3.39 -7.61 -1.32
5.62 -12.62 1.7
4.14 -9.29 -1.25
5.64 -12.66 2.19
5.18 -11.63 -1.11
5.65 -12.68 2.7
8.11 -18.19 -1.04
2.25 -5.09 -1.49
5.59 -12.67 0.24
2.56 -5.8 -1.46
5.59 -12.65 0.72
2.91 -6.6 -1.4
5.58 -12.63 1.21
3.36 -7.61 -1.32
5.58 -12.63 1.7
4.11 -9.3 -1.25
5.58 -12.65 2.19
5.14 -11.65 -1.11
5.59 -12.66 2.69
8.04 -18.2 -1.04
14.09 -31.92 -0.61
2.24 -5.12 -1.5
5.55 -12.69 0.24
2.54 -5.8 -1.46
5.53 -12.66 0.72
2.9 -6.63 -1.41
5.53 -12.64 1.21
3.33 -7.62 -1.32
5.52 -12.62 1.69
4.07 -9.31 -1.25
5.53 -12.64 2.18
5.1 -11.67 -1.11
5.53 -12.65 2.68
7.96 -18.21 -1.04
13.9 -31.78 -0.61
2.22 -5.13 -1.5
5.51 -12.72 0.24
2.51 -5.8 -1.46
5.48 -12.66 0.72
2.86 -6.61 -1.4
5.47 -12.64 1.2
3.31 -7.63 -1.32
5.46 -12.61 1.69
4.04 -9.32 -1.25
5.48 -12.64 2.18
5.07 -11.7 -1.12
5.47 -12.64 2.68
7.9 -18.23 -1.04
13.74 -31.72 -0.6
2.2 -5.13 -1.5
5.47 -12.76 0.24
2.49 -5.81 -1.46
5.45 -12.7 0.72
2.84 -6.61 -1.4
5.43 -12.66 1.21
3.29 -7.66 -1.32
5.42 -12.62 1.69
4.01 -9.34 -1.25
5.42 -12.63 2.18
5.03 -11.71 -1.11
5.42 -12.63 2.67
7.83 -18.25 -1.04
13.54 -31.55 -0.6
2.18 -5.12 -1.49
5.44 -12.79 0.24
2.48 -5.82 -1.46
5.42 -12.75 0.73
2.82 -6.63 -1.4
5.4 -12.7 1.21
3.26 -7.66 -1.32
5.38 -12.65 1.69
3.98 -9.36 -1.25
5.36 -12.61 2.17
4.98 -11.71 -1.11
5.36 -12.6 2.66
7.78 -18.31 -1.04
13.39 -31.49 -0.6
2.16 -5.12 -1.49
